# .PCD v0.7 - Point Cloud Data file format
VERSION 0.7
FIELDS x y z rgb
SIZE 4 4 4 4
TYPE F F F U
COUNT 1 1 1 1
WIDTH 1065
HEIGHT 1
VIEWPOINT 0 0 0 1 0 0 0
POINTS 1065
DATA ascii
0.46140575 0.024221793 0.46681121 4279375898
0.46205384 0.02420032 0.46671644 4280296731
0.46271691 0.024265349 0.46657228 4280822555
0.46336278 0.024244592 0.46647748 4281151263
0.46402314 0.024310455 0.4663333 4281413402
0.46468204 0.02437681 0.46618915 4282202148
0.46535444 0.024530083 0.46599555 4282531113
0.46601009 0.024597451 0.46585137 4282465320
0.46666428 0.024665266 0.46570715 4282925869
0.46731699 0.024733543 0.46556294 4282926639
0.46796823 0.024802312 0.4654187 4282663467
0.46863171 0.024958402 0.4652251 4282531881
0.46926621 0.024941206 0.46513021 4282663721
0.46992627 0.025098398 0.46493655 4282795305
0.47057131 0.025169104 0.46479231 4282729512
0.47122765 0.025327429 0.46459863 4282532135
0.47188199 0.025486425 0.46440494 4283321397
0.47252211 0.02555865 0.46426067 4283387190
0.47317275 0.025718808 0.46406695 4283321397
0.47382143 0.025879547 0.46387324 4283255088
0.47445658 0.025953367 0.4637289 4283451952
0.47511286 0.026202947 0.46348575 4283189032
0.47574455 0.02627784 0.46334141 4283451690
0.47638556 0.026441008 0.46314764 4283583276
0.47702459 0.026604801 0.46295387 4283122473
0.47764105 0.026593283 0.46285889 4283123239
0.47827661 0.026758179 0.46266508 4283057194
0.4789004 0.026835546 0.46252066 4283057194
0.47951317 0.026825204 0.46242565 4282925608
0.48012492 0.026815161 0.46233064 4282794535
0.48072663 0.026717097 0.46228504 4282136605
0.48132783 0.026619166 0.46223944 4282398750
0.48191142 0.026344374 0.46229267 4282727199
0.48249549 0.026069432 0.4623459 4282858785
0.48308003 0.025794327 0.46239913 4282990117
0.48365727 0.025430322 0.46250179 4283056430
0.4842279 0.024977222 0.46265388 4284437833
0.49005792 0.0099184364 0.46986485 4279177480
0.49068326 0.0096305311 0.46991831 4279374859
0.49130908 0.0093424618 0.46997181 4280296729
0.4919354 0.0090541989 0.47002533 4281089075
0.49255836 0.0086758137 0.4701283 4281286971
0.38195324 0.0031970292 0.49215579 4283190324
0.38273454 0.0030422956 0.49211109 4283059510
0.38359475 0.0030449033 0.49196756 4283125053
0.3845323 0.0032053292 0.49172509 4283059517
0.38546741 0.0033665299 0.49148262 4282927931
0.38640001 0.0035284758 0.49124014 4282599736
0.38740754 0.0038490295 0.49089873 4282928701
0.38837317 0.00409168 0.49060673 4283060285
0.38937402 0.0044143349 0.49026531 4282862390
0.39040932 0.0048171729 0.48987439 4283059510
0.39144069 0.0052213073 0.48948345 4282993717
0.39246812 0.0056266785 0.48909247 4282664500
0.39341718 0.0058745146 0.48880041 4282664505
0.39436328 0.0061233193 0.48850828 4282599218
0.39526969 0.0062935352 0.48826563 4282664750
0.39617366 0.0064645112 0.48802298 4282729775
0.39703891 0.0065566003 0.48782974 4282663982
0.39783028 0.0064897984 0.48773545 4282532914
0.39879924 0.0068224669 0.4873938 4282467121
0.39965832 0.0069164932 0.48720053 4281810220
0.40281415 0.0085647702 0.48577961 4279047442
0.40407494 0.0096252859 0.48499256 4278785044
0.40546477 0.01100947 0.48400754 4278785044
0.40640283 0.011351883 0.4836657 4278784790
0.40733743 0.011695355 0.48332384 4278850837
0.40826857 0.012039915 0.48298195 4278785044
0.40916303 0.012304977 0.4826895 4278719251
0.41002151 0.012490258 0.48244655 4278719249
0.41097575 0.012918606 0.48205513 4278785042
0.41189358 0.013267368 0.48171315 4278785042
0.4126789 0.013293564 0.48156911 4278785042
0.4134627 0.013320178 0.48142505 4278850065
0.41424504 0.013347283 0.48128098 4278915858
0.41502592 0.01337485 0.48113692 4278850065
0.41580528 0.013402879 0.48099285 4278850065
0.41658318 0.013431385 0.48084879 4278718481
0.41729805 0.013297588 0.48080367 4278850067
0.41801241 0.013163924 0.48075855 4278718481
0.41878685 0.013193518 0.48061442 4278719251
0.41946968 0.012978718 0.48061883 4278850065
0.42018232 0.012845591 0.48057371 4278850316
0.42086491 0.01263085 0.48057812 4278850063
0.4215768 0.012497991 0.48053297 4278915856
0.42225915 0.01228334 0.48053735 4278915856
0.42294151 0.012068689 0.48054177 4278850314
0.42362386 0.011854038 0.48054615 4278587144
0.42433453 0.011721537 0.48050103 4278521098
0.42504466 0.011589184 0.48045591 4278389512
0.42580998 0.011621669 0.48031172 4278455045
0.42654622 0.011572197 0.48021704 4278455045
0.42728147 0.011523038 0.48012239 4278455045
0.42801571 0.011474177 0.48002774 4278454792
0.42880264 0.011590913 0.47983399 4278520585
0.42966732 0.011956394 0.47949168 4278520585
0.43050221 0.012240186 0.47919887 4278586378
0.43141237 0.012773499 0.47875744 4278586378
0.43226641 0.013142318 0.47841507 4278520585
0.4331426 0.013595253 0.47802311 4278324491
0.4340148 0.014049441 0.47763115 4278324491
0.43488306 0.014504865 0.47723913 4278324491
0.43574739 0.014961511 0.47684714 4278389514
0.43660772 0.015419438 0.47645509 4278455305
0.43741542 0.015711769 0.47616214 4278455558
0.43819606 0.015921563 0.47591865 4278520836
0.4389742 0.016132116 0.47567517 4278520836
0.4397735 0.0164271 0.47538209 4278652424
0.44047639 0.016388103 0.47528726 4278915856
0.44122452 0.016517043 0.47509325 4278785303
0.45282719 0.024159774 0.46900547 4278586891
0.45350942 0.024218366 0.46886075 4278652688
0.45422852 0.024447516 0.46861687 4278718477
0.4549073 0.024507195 0.46847215 4278718477
0.45558462 0.024567321 0.46832743 4278718477
0.45624202 0.02454266 0.46823227 4278652171
0.45693478 0.024689019 0.4680379 4278652684
0.45758972 0.024665117 0.46794274 4278652937
0.45826134 0.024727046 0.46779796 4278587144
0.45893148 0.024789453 0.46765319 4278718469
0.45958295 0.024766654 0.46755797 4278784262
0.46023345 0.024744168 0.46746278 4278652422
0.46086624 0.024636164 0.46741715 4278783757
0.46151501 0.024614215 0.46732193 4279046929
0.46216279 0.024592578 0.46722668 4280034329
0.46282551 0.024657309 0.46708184 4280822555
0.46347106 0.024636373 0.46698663 4281085470
0.46413106 0.024701953 0.46684176 4281347870
0.46478957 0.02476801 0.46669692 4281808162
0.46544662 0.024834514 0.46655205 4282071334
0.46611691 0.024987951 0.46635759 4282399529
0.46677071 0.025055483 0.46621269 4282662699
0.46742308 0.025123462 0.46606779 4282795055
0.46807393 0.025191948 0.46592289 4282532135
0.46872333 0.025260866 0.46577796 4282532135
0.4693712 0.02533026 0.46563303 4282466340
0.47001764 0.025400117 0.46548811 4282795305
0.47067556 0.025557443 0.46529356 4282663719
0.47133148 0.025715366 0.46509898 4282466853
0.47197297 0.025786787 0.46495402 4283256117
0.4726252 0.025945872 0.46475941 4283256117
0.47327545 0.026105613 0.4645648 4283387190
0.47392371 0.026265934 0.46437019 4283321651
0.47455853 0.026339471 0.46422517 4283650098
0.47521433 0.0265885 0.46398091 4283715376
0.47584569 0.02666311 0.4638359 4283714862
0.4764863 0.02682586 0.46364123 4283714862
0.47712493 0.026989236 0.46344656 4283188266
0.47775134 0.027065396 0.46330148 4283123239
0.47837627 0.027142033 0.4631564 4283188516
0.47899967 0.027219102 0.46301132 4283123241
0.47962162 0.027296677 0.46286622 4282991655
0.48023283 0.027286559 0.46277076 4282794535
0.48083401 0.027188495 0.46272492 4282399777
0.48143467 0.027090594 0.46267909 4282267678
0.48202634 0.026904464 0.4626829 4282529820
0.48260969 0.026629895 0.46273637 4282792992
0.48320159 0.02644369 0.46274015 4282662174
0.4837935 0.026257485 0.46274397 4283056942
0.48437786 0.025982603 0.4627974 4284043589
0.49015772 0.010321647 0.47038853 4279045640
0.49078286 0.01003392 0.47044224 4279243019
0.49140847 0.0097460598 0.47049597 4279769358
0.49203461 0.0094580352 0.47054967 4279968544
0.49266121 0.009169817 0.47060341 4281614652
0.49328113 0.0087015927 0.47075647 4281614652
0.38136396 0.0038776398 0.49277616 4282796613
0.382065 0.0035661757 0.49283057 4283190326
0.38296595 0.0036464781 0.49263668 4283125303
0.38374603 0.0034920424 0.49259177 4283125308
0.38468313 0.0036519021 0.49234819 4283125308
0.38561779 0.0038125664 0.49210459 4283125308
0.38658887 0.0040526986 0.49181131 4282862136
0.38751835 0.0042149723 0.49156767 4283059515
0.38852215 0.0045357496 0.49122471 4283125308
0.38956064 0.0049365461 0.49083197 4282730550
0.39055729 0.0052595735 0.49048895 4283059512
0.39155045 0.0055836886 0.49014586 4283059512
0.39254016 0.0059088916 0.48980278 4282664502
0.39352638 0.0062351823 0.48945969 4282664509
0.39443535 0.006403923 0.48921591 4282598966
0.39534184 0.0065734535 0.48897213 4282664754
0.3963187 0.0069026947 0.48862895 4282729775
0.39707503 0.0067556947 0.48858392 4282663982
0.39797458 0.006927371 0.48834008 4282598709
0.39894307 0.0072592944 0.48799688 4282533171
0.3998726 0.0075124502 0.48770332 4281678634
0.40563872 0.011518434 0.48454538 4278785042
0.40640625 0.011458829 0.48445049 4278784792
0.40730765 0.011720896 0.48415676 4278785044
0.40827298 0.012144715 0.48376358 4278785044
0.40923437 0.01256974 0.48337042 4278719251
0.4101918 0.012996063 0.48297718 4278785042
0.41107982 0.013262287 0.48268336 4278719251
0.41199738 0.013610184 0.4823398 4278785042
0.41278261 0.013636008 0.48219508 4278785042
0.41356629 0.013662264 0.48205036 4278850065
0.41438025 0.013769954 0.48185593 4278850065
0.41516078 0.013797224 0.48171115 4278718479
0.41593978 0.013824984 0.48156643 4278850065
0.41668633 0.013771981 0.48147136 4278718481
0.41743189 0.01371932 0.48137635 4278850067
0.41817647 0.013666958 0.48128128 4278652688
0.41888979 0.013533503 0.48123592 4278719251
0.41960263 0.013400182 0.48119062 4278719249
0.42028522 0.013185456 0.48119497 4278850063
0.42096782 0.012970716 0.48119938 4278915856
0.42165044 0.01275599 0.48120376 4278981649
0.42236203 0.012623087 0.48115841 4278785040
0.42304438 0.01240842 0.48116279 4278719500
0.42372674 0.012193769 0.4811672 4278521351
0.42443737 0.012061149 0.48112184 4278455558
0.42514747 0.011928678 0.48107648 4278389765
0.42591268 0.01196079 0.48093164 4278455045
0.42664886 0.011911079 0.48083651 4278323459
0.42738402 0.011861667 0.48074138 4278455045
0.42817226 0.011977434 0.48054677 4278520838
0.42893177 0.012011319 0.4804019 4278520838
0.4297694 0.012293428 0.48010778 4278520585
0.43065661 0.012741819 0.4797141 4278586378
0.43156597 0.013274163 0.47927064 4278586378
0.43247086 0.013807938 0.47882718 4278520585
0.43334574 0.014260173 0.47843343 4278455305
0.43424195 0.014796659 0.47798991 4278455305
0.43508363 0.015168428 0.47764587 4278324489
0.43592185 0.01554133 0.47730178 4278389512
0.43675661 0.015915275 0.47695771 4278455305
0.4375636 0.016206995 0.47666335 4278455558
0.43831944 0.016332969 0.47646853 4278520836
0.43907335 0.016459554 0.47627372 4278520836
0.43977815 0.016419709 0.47617841 4278586629
0.4405286 0.016547382 0.47598353 4278718477
0.44127706 0.016675651 0.47578865 4278785044
0.45436054 0.02492708 0.46908343 4278718477
0.45501986 0.024901524 0.46898782 4278652684
0.45571545 0.025046453 0.46879262 4278718730
0.45637229 0.025021702 0.46869701 4278652171
0.45704627 0.025082484 0.46855158 4278717964
0.45770088 0.025058419 0.46845594 4278652937
0.45837215 0.025120065 0.46831051 4278652937
0.45902455 0.025096714 0.46821484 4278718469
0.45967594 0.025073662 0.4681192 4278784262
0.46032634 0.025050923 0.46802354 4278652676
0.46097577 0.025028497 0.46792787 4278784010
0.46162421 0.025006369 0.46783221 4278981389
0.46227163 0.024984583 0.46773651 4279968534
0.4629181 0.024963096 0.46764082 4280691739
0.46357924 0.025027916 0.46749532 4281019934
0.46423888 0.025093198 0.46734977 4281151261
0.46489704 0.025158972 0.46720424 4281873185
0.46555373 0.025225177 0.46705872 4282136357
0.4662236 0.025378212 0.46686333 4282464807
0.46687707 0.025445446 0.46671778 4282596906
0.46752906 0.025513142 0.4665722 4282729262
0.46817958 0.0255813 0.46642661 4282532135
0.46882859 0.02564995 0.466281 4282532135
0.46946269 0.025632337 0.46618524 4282532135
0.47012219 0.02578862 0.4659898 4282991914
0.47077972 0.025945514 0.46579435 4282662949
0.47142255 0.026016086 0.46564871 4282466853
0.47207636 0.026174173 0.46545324 4283190324
0.47272819 0.02633284 0.46525773 4283256117
0.47337806 0.026492164 0.46506223 4283452983
0.47401422 0.026564822 0.46491656 4283519282
0.4746604 0.026725322 0.46472102 4283716661
0.47531578 0.026973814 0.46447563 4283913268
0.47594675 0.027048126 0.46432993 4283649583
0.476587 0.027210474 0.46413434 4283583790
0.47722521 0.027373418 0.46393877 4283057194
0.47785127 0.027449295 0.46379304 4283254309
0.47848579 0.027613431 0.46359742 4283254563
0.47910863 0.027690306 0.46345165 4283123237
0.47972047 0.027679697 0.46335575 4283123237
0.48033136 0.0276694 0.46325985 4282926373
0.48094124 0.027659401 0.46316391 4282465824
0.48154137 0.027561545 0.46311787 4282530590
0.48214102 0.027463853 0.46307179 4282529820
0.48273194 0.027277961 0.46307558 4282661406
0.48332286 0.027092069 0.46307939 4282530588
0.48391375 0.026906177 0.46308321 4282925610
0.48451218 0.026808873 0.46303713 4283385659
0.48508832 0.026445746 0.46314067 4284372554
0.49025744 0.010724619 0.47091174 4279242242
0.49087784 0.010347575 0.4710156 4279242762
0.49150351 0.010059834 0.47106954 4279571981
0.49213371 0.0098615736 0.4710736 4279638549
0.49275631 0.009483844 0.47117746 4281679415
0.49337634 0.0090159923 0.47133118 4281745208
0.38073456 0.0044798255 0.49344593 4282275149
0.38151607 0.0043247938 0.49340081 4282209356
0.38233715 0.0042480677 0.49330583 4282863160
0.38315728 0.0041716844 0.49321079 4282994746
0.38397643 0.0040955842 0.49311578 4283257148
0.38487327 0.0041766763 0.49292096 4283125562
0.38580725 0.0043368638 0.49267623 4283125562
0.38677761 0.0045764148 0.49238157 4282928183
0.3877064 0.0047382414 0.49213684 4282928183
0.3886711 0.0049795806 0.49184215 4283059769
0.38967091 0.005300656 0.49149758 4282862390
0.39066726 0.0056228191 0.49115294 4282993465
0.39166018 0.00594607 0.49080831 4283059258
0.39264962 0.0062704086 0.49046364 4282664502
0.3935985 0.0065167248 0.49016887 4282730302
0.39454436 0.0067639649 0.48987406 4282664509
0.39545068 0.0069328845 0.48962915 4282598714
0.39631811 0.0070231706 0.48943418 4282664248
0.39725584 0.0072729886 0.48913932 4282598455
0.39815474 0.0074442327 0.48889434 4282532664
0.39912242 0.007775411 0.48854959 4282532662
0.40012208 0.0081873536 0.4881548 4281350702
0.40231892 0.0094938874 0.48706573 4278981651
0.40571004 0.011786729 0.48523211 4278785042
0.40654558 0.011887088 0.48503691 4278719510
0.40748018 0.012228683 0.48469186 4278719764
0.40854499 0.012892514 0.4841471 4278785303
0.40943849 0.01315625 0.48385197 4278719510
0.41032904 0.01342091 0.48355684 4278784790
0.41124928 0.013767019 0.48321176 4278718997
0.41210121 0.013953 0.48296648 4278785044
0.41288629 0.013978466 0.48282108 4278785044
0.41373378 0.014165848 0.4825758 4278587663
0.41451538 0.014192373 0.4824304 4278719249
0.41526407 0.01413843 0.48233491 4278850063
0.41604298 0.014165834 0.48218948 4278850063
0.41678947 0.014112592 0.48209399 4278718227
0.41753495 0.014059678 0.4819985 4278850067
0.41827944 0.014007062 0.48190299 4278850067
0.41899276 0.013873503 0.48185742 4278719249
0.41970557 0.013740048 0.48181188 4278719249
0.42038816 0.013525322 0.48181626 4278719249
0.42107075 0.013310581 0.48182064 4278719247
0.42175335 0.013095856 0.48182505 4278785040
0.42243594 0.012881115 0.4818294 4278785040
0.42314726 0.012748167 0.48178384 4278587914
0.42382962 0.012533516 0.48178822 4278455558
0.42454022 0.012400761 0.48174268 4278455558
0.42527828 0.012350172 0.4816471 4278389765
0.42604309 0.012381971 0.48150158 4278455045
0.42675146 0.012249961 0.48145598 4278455045
0.42754105 0.012364745 0.48126048 4278520838
0.42827466 0.012315571 0.4811649 4278586631
0.42906079 0.012431473 0.48096937 4278586631
0.42989796 0.012712926 0.48067388 4278586631
0.43078464 0.013160393 0.48027843 4278586631
0.43171939 0.01377435 0.47978294 4278586128
0.43267497 0.014472559 0.4792375 4278586380
0.43359959 0.015089691 0.47874197 4278455307
0.43444347 0.015459821 0.47839636 4278521098
0.4352839 0.015831038 0.47805077 4278455305
0.43614563 0.016286373 0.47765511 4278389512
0.43692985 0.016493678 0.47740942 4278455558
0.4377116 0.016701758 0.47716373 4278455558
0.43846682 0.016827375 0.47696799 4278520838
0.43917251 0.016786978 0.47687227 4278455045
0.4399243 0.016913697 0.47667649 4278520838
0.44062752 0.016874075 0.47658074 4278652171
0.44130671 0.0167512 0.47653496 4278652684
0.45305452 0.02495046 0.47004133 4278652424
0.45373604 0.02500847 0.46989524 4278586891
0.45443517 0.02515173 0.46969917 4278652937
0.4551135 0.025210738 0.46955311 4278652937
0.45579034 0.025270239 0.46940702 4278718730
0.45646569 0.025330186 0.46926093 4278718217
0.45713955 0.025390595 0.46911481 4278652175
0.4577941 0.025366277 0.46901873 4278783757
0.45846528 0.025427565 0.46887261 4278717964
0.45911759 0.025403962 0.46877649 4278849285
0.45976889 0.025380671 0.46868038 4278849285
0.46041924 0.025357693 0.4685843 4278718469
0.46106857 0.025335014 0.46848816 4278784008
0.46173331 0.025398299 0.46834201 4278915594
0.46238044 0.025376335 0.46824586 4279836948
0.46302658 0.025354683 0.46814972 4280757280
0.46368736 0.025419191 0.46800354 4280888864
0.46434665 0.025484204 0.46785736 4281151263
0.46500444 0.02554968 0.46771112 4281741597
0.46566075 0.025615603 0.46756491 4282070562
0.46631563 0.025682017 0.46741867 4282662438
0.46698335 0.025835142 0.46722239 4282597158
0.46763498 0.025902569 0.46707615 4282663721
0.46828514 0.025970444 0.46692988 4282597410
0.46892014 0.025952294 0.46683368 4282597410
0.46956757 0.026021019 0.46668741 4282662949
0.47021353 0.02609022 0.46654111 4283057707
0.47087091 0.026246622 0.46634477 4282860328
0.47152629 0.026403651 0.46614838 4282794537
0.47217971 0.026561305 0.46595201 4282991664
0.47281897 0.026632592 0.46580568 4283320629
0.47346869 0.026791424 0.46560925 4283649333
0.47411641 0.026950851 0.46541286 4283913007
0.47476217 0.027110904 0.4652164 4284110386
0.47540596 0.027271584 0.46501997 4284044343
0.47604775 0.027432904 0.46482351 4283913268
0.47668758 0.02759482 0.46462703 4283386924
0.47731498 0.027669847 0.46448064 4283123239
0.47795111 0.027832955 0.46428412 4283320356
0.47858524 0.027996659 0.46408764 4283123489
0.47920769 0.028073251 0.46394119 4283255590
0.47981924 0.028062478 0.46384484 4283255590
0.48043901 0.028139904 0.46369839 4282992164
0.48103935 0.028041855 0.4636521 4282729764
0.48164791 0.02803202 0.46355572 4282662438
0.48225549 0.028022483 0.46345931 4282398500
0.48284566 0.027836829 0.46346313 4282201121
0.48345178 0.02782774 0.46336675 4282596129
0.48404145 0.02764225 0.46337053 4282661922
0.48463857 0.027545199 0.46332422 4283055926
0.48523524 0.027448311 0.46327791 4284307022
0.48581743 0.027174354 0.46333179 4284307022
0.4903571 0.011127338 0.47143453 4279703047
0.49098182 0.010839999 0.47148871 4279241992
0.49160278 0.010463059 0.47159302 4279308812
0.49223274 0.010264888 0.47159705 4279637779
0.49285516 0.0098875016 0.47170132 4280756003
0.49347508 0.0094200671 0.47185576 4282137656
0.49412915 0.0098499209 0.47150895 4282008117
0.38010514 0.0050820112 0.49411577 4285962398
0.38084629 0.0048488528 0.49412054 4283130975
0.38166809 0.0047716647 0.49402505 4281815115
0.38244879 0.0046167225 0.49397972 4282732092
0.38326883 0.0045400858 0.49388427 4282863160
0.38408792 0.004463762 0.49378878 4283059515
0.38502392 0.0046226382 0.49354294 4283190844
0.38595748 0.0047823042 0.49329707 4283256637
0.38692737 0.0050211698 0.4930011 4282927929
0.38785571 0.0051824749 0.4927552 4282993976
0.38881993 0.0054231435 0.49245918 4283059769
0.38981923 0.0057434291 0.49211299 4282927926
0.39077726 0.0059860647 0.49181694 4282927926
0.39176992 0.0063084513 0.49147072 4282993719
0.39275908 0.0066319257 0.49112451 4282664502
0.39370775 0.0068775117 0.49082837 4282730302
0.39461657 0.0070449263 0.49058235 4282861634
0.39552292 0.0072131306 0.49033633 4282598714
0.3964268 0.0073821098 0.49009031 4282598457
0.39736432 0.0076311827 0.48979408 4282598457
0.39840645 0.0081193596 0.48934746 4282598457
0.39930168 0.0082910508 0.48910135 4282532662
0.40037125 0.0088612586 0.48860452 4281218862
0.40263504 0.010325089 0.48741019 4278981653
0.4058497 0.012215152 0.48581895 4278785042
0.40671873 0.012395099 0.4855727 4278653717
0.40765256 0.012735993 0.48522609 4278719764
0.40957612 0.013581514 0.48443255 4278653717
0.41046619 0.013845533 0.48413604 4278719510
0.41128799 0.013949648 0.48393983 4278653971
0.41217262 0.014215365 0.48364329 4278785044
0.41299 0.01432091 0.48344707 4278785044
0.41380537 0.014427066 0.4832508 4278719249
0.41461879 0.014533833 0.48305458 4278719249
0.41539884 0.014560461 0.48290849 4278719247
0.41614622 0.014506683 0.48281252 4278850065
0.41692352 0.014534146 0.48266643 4278718227
0.4176687 0.014481053 0.48257047 4278850067
0.41838244 0.014347181 0.48252469 4278850067
0.41909572 0.014213488 0.48247892 4278719247
0.41980848 0.014079913 0.48243314 4278587663
0.42049107 0.013865173 0.48243752 4278719251
0.42117369 0.013650447 0.4824419 4278719247
0.42185628 0.013435706 0.48244631 4278785040
0.42253888 0.013220981 0.48245069 4278785293
0.42325014 0.013087913 0.48240489 4278652937
0.42393249 0.012873247 0.48240927 4278455558
0.42467123 0.012822166 0.48231328 4278389765
0.42540899 0.012771413 0.48221728 4278389765
0.42614573 0.012720972 0.48212129 4278520838
0.42693645 0.012834907 0.48192489 4278520838
0.42767072 0.012785256 0.48182887 4278520838
0.42840403 0.012735918 0.48173285 4278586631
0.42921647 0.012933657 0.4814862 4278586631
0.43005291 0.013214529 0.48118934 4278652424
0.43096504 0.013743594 0.48074186 4278586378
0.4318727 0.014274046 0.48029435 4278586128
0.43287879 0.015136182 0.47964603 4278521100
0.43382755 0.015835062 0.47909802 4278455307
0.43466991 0.016204715 0.47875088 4278521098
0.43550885 0.016575471 0.47840366 4278455305
0.43634433 0.016947329 0.47805643 4278389512
0.43712735 0.017154321 0.47780961 4278455305
0.43788368 0.017279059 0.47761297 4278455305
0.43861404 0.017321303 0.47746658 4278520585
0.43931916 0.017280817 0.47737035 4278454792
0.4400233 0.017240629 0.47727412 4278520585
0.44072646 0.017200783 0.47717792 4278520585
0.44140562 0.017077774 0.47713193 4278586891
0.45314854 0.025260925 0.47060883 4278652424
0.45382994 0.025318548 0.47046208 4278717968
0.45449084 0.025291979 0.47036561 4278717966
0.45520714 0.025519967 0.47011834 4278717966
0.45588386 0.025579095 0.4699716 4278783759
0.45655912 0.02563867 0.46982482 4278848780
0.45723289 0.025698707 0.46967804 4278717966
0.45788732 0.025674149 0.46958151 4278783759
0.45855838 0.025735065 0.46943471 4278717966
0.45921063 0.025711223 0.46933818 4278849285
0.45986187 0.02568768 0.46924162 4278849283
0.46052897 0.025749832 0.46909478 4278718469
0.46117797 0.025726989 0.46899822 4278784008
0.46182603 0.025704443 0.46890163 4278915594
0.46247306 0.025682241 0.46880507 4279704340
0.46313497 0.025746003 0.46865821 4280428317
0.46379539 0.025810257 0.46851134 4280691487
0.46445432 0.025874972 0.46836445 4281151011
0.46511176 0.025940135 0.46821758 4281610529
0.46576774 0.02600579 0.46807069 4281873701
0.4664368 0.02615796 0.46787348 4282662697
0.46708956 0.026224613 0.46772659 4282729260
0.46774083 0.026291743 0.46757966 4282795307
0.46839061 0.026359335 0.46743271 4282794789
0.46901169 0.026254624 0.46738634 4282794789
0.46965903 0.026322976 0.46723938 4282465824
0.47031796 0.02647835 0.46704215 4282794535
0.47096208 0.026547715 0.46689516 4282926121
0.47161731 0.026704252 0.4666979 4282859565
0.47227058 0.026861414 0.46650064 4283056178
0.47292188 0.027019203 0.46630332 4283187764
0.47357118 0.027177602 0.466106 4283846196
0.47421852 0.027336627 0.46590868 4284240688
0.4748525 0.027409181 0.46576166 4284241458
0.47550726 0.02765654 0.465514 4284306999
0.47614866 0.027817428 0.46531665 4284044339
0.4767881 0.027978942 0.46511927 4283649581
0.47741514 0.028053671 0.4649722 4283320870
0.47805089 0.028216362 0.46477479 4283188516
0.47867471 0.028292105 0.46462768 4283057698
0.47930673 0.028455958 0.46443027 4283386924
0.47991794 0.028445005 0.46433347 4283255338
0.48053733 0.028522149 0.46418634 4283123500
0.48114631 0.028511912 0.46408951 4283188266
0.4817543 0.028501987 0.46399266 4282991153
0.48235291 0.02840434 0.46394616 4282201383
0.48296735 0.028483033 0.463799 4282332957
0.48356447 0.028385863 0.46375245 4282398750
0.48416108 0.028288856 0.46370593 4282858272
0.48474976 0.028103665 0.46370971 4282792486
0.48534563 0.028006881 0.46366316 4284043587
0.48594102 0.027910247 0.46361664 4284110411
0.48653591 0.027813777 0.46357009 4284241997
0.4904567 0.011529788 0.47195691 4280819984
0.49108121 0.011242673 0.47201127 4279898368
0.49169776 0.010776713 0.47216636 4279243273
0.49233168 0.010667965 0.47212005 4279308814
0.49295023 0.010201395 0.47227514 4279769114
0.49357373 0.0098239183 0.47237989 4279966493
0.49421757 0.0099840164 0.47218257 4281876531
0.38099855 0.005295679 0.49474478 4285565580
0.38182002 0.0052183121 0.49464887 4282341723
0.38260049 0.0050633401 0.49460328 4282666558
0.38345996 0.0050645322 0.49445701 4282666297
0.38427845 0.004988119 0.4943611 4282993724
0.38521379 0.0051465482 0.49411413 4283125053
0.38618568 0.0053839982 0.49381679 4283190846
0.38707703 0.0054657161 0.49362016 4283190846
0.38893041 0.0057879835 0.49312609 4282993717
0.38992947 0.0061074197 0.49277836 4282993717
0.39088726 0.0063493103 0.49248093 4282927926
0.39187968 0.0066708326 0.49213314 4282927926
0.3928313 0.0069146603 0.49183571 4282730547
0.39377993 0.007159397 0.49153823 4282730298
0.39468884 0.0073261559 0.49129111 4282861888
0.39563182 0.0075726956 0.49099356 4282598712
0.39653552 0.0077410489 0.49074644 4282532662
0.3974728 0.0079893917 0.49044889 4282532662
0.39851457 0.008476451 0.49000019 4282532916
0.39951634 0.0088855773 0.48960188 4282138413
0.40178859 0.010343492 0.48840219 4279178778
0.40288103 0.010995686 0.48785266 4278850583
0.40396798 0.011649594 0.48730308 4278850583
0.40501517 0.012225464 0.48680389 4278982421
0.40605745 0.012802914 0.48630464 4278785044
0.40689173 0.012902603 0.48610759 4278653971
0.4077912 0.013162822 0.4858098 4278719764
0.40968055 0.013926432 0.48506302 4278653717
0.41057041 0.014189705 0.48476517 4278653717
0.4114247 0.014373615 0.48451769 4278784790
0.41227648 0.0145583 0.48427022 4278850583
0.41312581 0.014743775 0.48402268 4278718997
0.41394079 0.014849514 0.48382553 4278719251
0.4147222 0.014875293 0.48367876 4278719251
0.41550213 0.014901549 0.48353201 4278719249
0.41628057 0.014928252 0.48338521 4278718479
0.41702664 0.014874622 0.48328882 4278718481
0.41774109 0.014740393 0.48324281 4278718477
0.41848543 0.014687285 0.48314643 4278850063
0.41919866 0.014553472 0.48310041 4278850316
0.41988152 0.014338657 0.48310477 4278587661
0.42059398 0.014205039 0.48305878 4278718997
0.4212766 0.013990313 0.48306316 4278719247
0.42195919 0.013775572 0.48306757 4278719247
0.42264178 0.013560846 0.48307195 4278521868
0.42335305 0.013427645 0.48302591 4278521098
0.4240922 0.013376161 0.48292947 4278389512
0.42480221 0.013243347 0.48288345 4278257926
0.42556754 0.013274163 0.48273659 4278389512
0.42627609 0.013141826 0.48269054 4278455558
0.42709377 0.01333724 0.48244283 4278521351
0.42782748 0.0132875 0.48234636 4278520838
0.42864099 0.013484225 0.48209861 4278586631
0.42942533 0.013599619 0.48190126 4278652424
0.43028697 0.013962284 0.48155266 4278652424
0.43114519 0.014326036 0.48120397 4278586378
0.43212956 0.015102714 0.48060316 4278586380
0.43489599 0.016948402 0.47910309 4278586378
0.43573344 0.017318681 0.47875428 4278520585
0.43656743 0.017690048 0.47840548 4278454792
0.43730012 0.01773113 0.47825843 4278521098
0.43805557 0.017855614 0.4780609 4278454792
0.43880904 0.01798071 0.47786334 4278520585
0.43946567 0.01777415 0.47786754 4278454792
0.4401927 0.01781702 0.47772047 4278651401
0.44089502 0.01777716 0.47762379 4278520585
0.45181549 0.025205523 0.47162253 4278717966
0.45253998 0.025430262 0.47137421 4278717964
0.45324254 0.025571376 0.47117633 4278718217
0.4539046 0.025544181 0.47107941 4278652173
0.45460367 0.025686383 0.47088152 4278783759
0.45528203 0.025744572 0.47073406 4278783759
0.45595887 0.025803238 0.47058666 4278783759
0.45663425 0.025862381 0.4704392 4278848782
0.45730814 0.025921971 0.47029173 4278717966
0.45798057 0.025982022 0.47014427 4278783759
0.45865148 0.026042566 0.46999681 4278717966
0.45930368 0.026018471 0.46989983 4278849285
0.45995483 0.025994688 0.4698028 4278783490
0.46062183 0.026056468 0.46965531 4278718469
0.46127075 0.026033372 0.4695583 4278718215
0.46191874 0.026010588 0.46946126 4278784008
0.46258175 0.02607362 0.46931374 4279769114
0.46324331 0.026137114 0.46916622 4280427293
0.46390337 0.026201054 0.46901867 4280756512
0.46456191 0.026265487 0.46887112 4281084966
0.46521902 0.026330352 0.46872357 4281545251
0.46587461 0.026395723 0.46857598 4281808423
0.46652874 0.026461527 0.4684284 4282596906
0.46719569 0.026613846 0.46823031 4282662699
0.46783254 0.026594579 0.46813321 4282860076
0.46848223 0.026661783 0.4679856 4282794789
0.46911684 0.026643202 0.46788847 4282794789
0.46976379 0.02671127 0.46774086 4282531363
0.47040927 0.026779816 0.46759322 4282794537
0.47105327 0.026848823 0.46744558 4282860330
0.47170836 0.027004868 0.46724743 4282794285
0.47236148 0.027161539 0.46704924 4282990385
0.47301263 0.02731882 0.46685103 4283187764
0.47366178 0.027476728 0.46665281 4283977014
0.47430897 0.027635261 0.4664546 4283714092
0.47495419 0.027794421 0.46625638 4284240434
0.4756085 0.028041229 0.46600759 4284241206
0.47624952 0.028201714 0.46580935 4283978800
0.47688854 0.028362811 0.46561107 4283649835
0.47751525 0.028437257 0.46546331 4283320870
0.47815055 0.028599516 0.46526501 4283057698
0.47877404 0.028674975 0.46511722 4283057444
0.47940567 0.028838411 0.46491891 4283386926
0.48001656 0.02882728 0.46482164 4283255340
0.48063558 0.028904155 0.46467385 4283320368
0.48124427 0.028893739 0.46457654 4283384623
0.48186058 0.028971434 0.46442872 4283056692
0.482467 0.028961733 0.46433145 4282201896
0.48305619 0.028776392 0.46433523 4282201887
0.48366904 0.028855205 0.46418738 4282201887
0.48426512 0.028758213 0.46414062 4282792479
0.48486072 0.028661385 0.46409386 4282726945
0.48545581 0.028564706 0.46404707 4283188528
0.48605731 0.028556541 0.46394977 4284110665
0.48663783 0.028283373 0.4640041 4284242251
0.49056089 0.01202108 0.4724282 4282002972
0.49117607 0.011555955 0.47258395 4280489984
0.49179691 0.011179581 0.47268915 4279308809
0.4924227 0.010892197 0.47274375 4279308561
0.49304527 0.010515302 0.47284895 4279637526
0.49366885 0.010138065 0.47295415 4280098077
0.49430937 0.01020816 0.47280648 4281942326
0.38111028 0.005664587 0.49541911 4285566609
0.38193166 0.0055869669 0.49532276 4282605924
0.38279203 0.0055875033 0.49517584 4282469961
0.3836112 0.0055106133 0.49507946 4282666297
0.38442937 0.0054340363 0.49498308 4282862138
0.38536426 0.0055918992 0.494735 4283125310
0.38633567 0.0058286786 0.49443632 4283125310
0.38726538 0.0059882104 0.49418819 4283190849
0.38815412 0.0060701966 0.49399063 4283059260
0.38907915 0.0062311888 0.49374247 4282927926
0.39007771 0.0065498501 0.49339312 4283059515
0.39107278 0.0068695992 0.49304378 4282927672
0.39198941 0.007033214 0.49279559 4282993465
0.39294082 0.0072763115 0.49249679 4282993719
0.39388925 0.0075203031 0.49219796 4282796086
0.39479795 0.0076864362 0.49194968 4282730298
0.39570418 0.0078533441 0.49170142 4282664248
0.39668047 0.0081789792 0.49135196 4282532916
0.39768934 0.0085847676 0.4909519 4282467123
0.39873004 0.0090709478 0.49050122 4282400812
0.39976633 0.0095585436 0.49005049 4281809702
0.40196562 0.010855392 0.48894656 4279047192
0.40309191 0.011585832 0.48834395 4278785303
0.4042123 0.012318164 0.48774129 4278785303
0.40522385 0.012813523 0.48729044 4278850837
0.40619689 0.013230577 0.48689014 4278785044
0.40703076 0.013329849 0.48669219 4278719764
0.40799689 0.013749108 0.48629186 4278719764
0.40988418 0.014511317 0.4855417 4278785044
0.41080588 0.014854148 0.48519188 4278785044
0.4116264 0.014957622 0.48499388 4278784790
0.41247728 0.015141919 0.48474526 4278784790
0.41326153 0.015166402 0.4845978 4278718997
0.41407615 0.015271723 0.4843998 4278718997
0.41488877 0.015377671 0.48420173 4278718997
0.41560543 0.015242636 0.48415551 4278587665
0.41638374 0.015268981 0.48400804 4278718997
0.41712973 0.015215099 0.48391122 4278587663
0.41784418 0.01508075 0.48386499 4278652935
0.41858843 0.015027389 0.48376814 4278652935
0.41927153 0.014812514 0.48377252 4278718728
0.41998446 0.014678642 0.48372626 4278718730
0.42066732 0.014463827 0.48373067 4278587665
0.42135018 0.014249027 0.48373505 4278718477
0.4220621 0.014115438 0.48368883 4278652684
0.42274469 0.013900712 0.48369321 4278390282
0.42345592 0.013767391 0.48364696 4278258696
0.42419499 0.013715655 0.48355007 4278257928
0.42496121 0.013745815 0.48340255 4278257926
0.42569807 0.013694823 0.48330563 4278389512
0.42646158 0.013725802 0.48315808 4278521098
0.42725098 0.013839081 0.48295987 4278586891
0.42803836 0.013952956 0.48276165 4278587144
0.42885071 0.014149398 0.48251277 4278521351
0.42966056 0.014346614 0.48226389 4278587144
0.43054709 0.014790908 0.48186302 4278587144
0.43435851 0.017569333 0.47965145 4278520587
0.43512172 0.017690837 0.47945306 4278586378
0.43598256 0.018143192 0.47905201 4278520585
0.43674082 0.018266261 0.47885361 4278520585
0.43749708 0.018389925 0.47865522 4278520585
0.43822721 0.018431425 0.47850746 4278454792
0.43895584 0.018473417 0.47835964 4278520838
0.43968302 0.01851584 0.47821188 4278455045
0.44033843 0.018309668 0.47821611 4278520838
0.44106337 0.018352777 0.47806829 4278454792
0.44178683 0.018396407 0.47792047 4278454794
0.45190981 0.025517076 0.47219205 4278717964
0.45261446 0.025657028 0.47199327 4278717966
0.45333657 0.025881827 0.47174382 4278717964
0.45399854 0.025854379 0.47164646 4278652171
0.45467851 0.025911644 0.47149837 4278717966
0.4553757 0.02605392 0.47129956 4278783759
0.4560155 0.025943041 0.47125286 4278717964
0.45672771 0.026170984 0.47100332 4278717964
0.45738351 0.026145488 0.4709059 4278717964
0.45805606 0.026205093 0.47075778 4278783759
0.45872712 0.026265174 0.47060964 4278717966
0.45939672 0.026325732 0.47046149 4278784008
0.46004781 0.026301697 0.47036403 4278652674
0.46071467 0.026363105 0.47021586 4278718467
0.46136355 0.026339769 0.4701184 4278784262
0.46201146 0.026316747 0.47002089 4278718469
0.46269035 0.026464775 0.46982199 4279703321
0.46335155 0.026527941 0.46967378 4280427295
0.46401122 0.026591614 0.46952558 4280756258
0.46466947 0.026655734 0.46937734 4281216036
0.46532619 0.02672033 0.4692291 4281479204
0.46598142 0.026785403 0.46908084 4281873962
0.4666352 0.026850924 0.46893257 4282268713
0.46728748 0.026916906 0.46878433 4282663471
0.46793827 0.026983365 0.46863604 4282860076
0.46857381 0.026964247 0.46853849 4282859815
0.46920836 0.026945412 0.46844092 4282728229
0.46985519 0.027013108 0.46829262 4282728483
0.47050056 0.027081296 0.4681443 4282662949
0.47115722 0.027236298 0.46794525 4282729260
0.47179937 0.027305484 0.46779692 4282662699
0.47245234 0.027461648 0.46759784 4283056430
0.47310334 0.027618453 0.46739876 4283122223
0.47375235 0.027775869 0.46719962 4283319600
0.47439939 0.02793391 0.46700051 4283450670
0.47505578 0.028179407 0.46675062 4284371509
0.47569862 0.028338775 0.46655148 4284175411
0.47633946 0.028498754 0.46635231 4283847214
0.47697836 0.028659359 0.46615314 4283584042
0.47760493 0.028733432 0.46600473 4283386661
0.4782401 0.028895199 0.46580553 4283123489
0.47887331 0.029057592 0.4656063 4283189284
0.47949493 0.029133245 0.46545786 4283517483
0.48011509 0.029209331 0.46530938 4283451690
0.48073375 0.029285908 0.46516091 4283582254
0.48135096 0.029362932 0.4650124 4283450418
0.48195806 0.029352739 0.46491468 4283122485
0.48256418 0.02934286 0.46481693 4282334506
0.48316932 0.029333293 0.46471918 4282071330
0.48377347 0.029324025 0.46462142 4282005537
0.48436904 0.029227078 0.46457443 4282464805
0.4849788 0.029306442 0.46442589 4282464805
0.48556575 0.029121801 0.46442968 4282859303
0.48615271 0.028937146 0.46443343 4284241733
0.48674628 0.028840825 0.46438643 4284439112
0.487333 0.028656259 0.46439022 4284504905
0.49127972 0.012047276 0.47305506 4281740568
0.49190015 0.011671305 0.47316068 4279701762
0.49252549 0.011384189 0.47321552 4279242770
0.49314764 0.011007667 0.47332117 4279440147
0.49377418 0.010720178 0.47337604 4279637526
0.49441385 0.010790139 0.47322768 4280033557
0.38044038 0.006189093 0.49613947 4285173648
0.38122201 0.0060334802 0.49609345 4285042062
0.3820433 0.0059556216 0.49599665 4283857788
0.38290358 0.0059557855 0.49584904 4282273096
0.38368294 0.0058008581 0.49580303 4282403125
0.38458019 0.0058796704 0.4956046 4282862136
0.38551465 0.0060369968 0.4953554 4283059515
0.38644665 0.006195128 0.49510616 4283125308
0.38741487 0.006432116 0.49480611 4283190849
0.38830322 0.0065136999 0.49460763 4283059260
0.38926601 0.0067523718 0.49430758 4282862136
0.39022583 0.0069920272 0.49400747 4282928447
0.39118272 0.0072325915 0.49370736 4282927929
0.39209914 0.0073955953 0.493458 4282927929
0.39305031 0.0076379478 0.49315786 4282993465
0.39399853 0.0078812093 0.49285769 4282993467
0.39490706 0.0080467314 0.49260831 4282730298
0.39584959 0.0082917958 0.49230808 4282664759
0.39682537 0.0086166561 0.49195707 4282532916
0.39786971 0.0091004819 0.49150437 4282532916
0.39890957 0.0095857084 0.49105164 4282335789
0.39998049 0.010151446 0.49054807 4281678886
0.40104645 0.010718718 0.49004447 4279903772
0.4022125 0.011525318 0.48938838 4279047192
0.40333736 0.012254581 0.48878306 4278850583
0.40435278 0.012747511 0.48833022 4278784790
0.40529522 0.013082862 0.48797894 4278785044
0.40626821 0.013498887 0.48757684 4278784790
0.40723723 0.01391612 0.48717472 4278653971
0.40922999 0.014913946 0.4862687 4278785042
0.41005456 0.015015617 0.48606983 4278785042
0.41097552 0.015357733 0.48571846 4278784790
0.41186047 0.015620917 0.48541787 4278784792
0.41267788 0.015724823 0.48521894 4278784790
0.41339719 0.01558879 0.48517251 4278718997
0.41421139 0.015693709 0.48497358 4278718999
0.41499209 0.015718892 0.48482546 4278587413
0.41574001 0.015664145 0.48472816 4278587411
0.41648692 0.015609711 0.48463088 4278587411
0.41723284 0.015555575 0.48453361 4278587661
0.41794723 0.015421107 0.48448718 4278652935
0.41863081 0.015206054 0.48449156 4278652935
0.41937453 0.015152618 0.48439425 4278652935
0.42005759 0.014937729 0.48439863 4278718730
0.42077029 0.014803827 0.48435217 4278718481
0.42145312 0.014589012 0.48435655 4278652937
0.42213595 0.014374197 0.48436093 4278587144
0.42284763 0.014240578 0.4843145 4278455558
0.4235588 0.014107123 0.48426801 4278389512
0.42432612 0.014136508 0.4841198 4278257928
0.42509198 0.01416637 0.4839716 4278257926
0.42585635 0.014196709 0.48382336 4278389512
0.42664683 0.014309064 0.48362428 4278521098
0.4274627 0.014503747 0.4833743 4278586893
0.42827606 0.014699176 0.48312429 4278587144
0.42908695 0.014895394 0.48287427 4278521351
0.42986879 0.015010491 0.48267514 4278652171
0.43168753 0.016063049 0.48176801 4278652424
0.43458524 0.018310636 0.48000008 4278520585
0.43537217 0.018514395 0.47974992 4278586378
0.43620634 0.018883809 0.47939795 4278586378
0.43693858 0.018924251 0.47924954 4278520585
0.43766934 0.01896514 0.47910109 4278520585
0.43839863 0.019006521 0.47895265 4278520585
0.43912643 0.019048348 0.47880417 4278520838
0.43985274 0.019090638 0.47865573 4278455045
0.4405542 0.019050509 0.47855812 4278520838
0.44123149 0.018927708 0.47851145 4278454794
0.44190833 0.018805042 0.47846475 4278454794
0.45198426 0.025744662 0.47281247 4278717964
0.45270866 0.02596809 0.4725619 4278783759
0.4533917 0.026023984 0.47241318 4278717966
0.45405412 0.025996134 0.47231537 4278652173
0.4547534 0.026137203 0.47211567 4278717966
0.455432 0.026194498 0.47196692 4278783759
0.45609069 0.026167825 0.47186905 4278718217
0.45678478 0.026310518 0.47166932 4278718217
0.45745894 0.026369214 0.47152054 4278718217
0.45813164 0.026428387 0.47137171 4278717964
0.45880282 0.026488036 0.47122288 4278717964
0.45947254 0.026548132 0.47107407 4278784008
0.46014076 0.026608706 0.47092521 4278652674
0.46080753 0.026669756 0.47077638 4278718469
0.46147281 0.026731238 0.47062755 4278718469
0.46212035 0.026708052 0.47052962 4278718469
0.46278292 0.026770428 0.47038072 4279637528
0.46344399 0.026833236 0.47023183 4280624164
0.46410358 0.026896536 0.47008294 4280756258
0.46476167 0.026960284 0.46993405 4281084448
0.46543327 0.027110055 0.46973419 4281413665
0.46608818 0.02717483 0.46958524 4281940009
0.46674156 0.027240053 0.46943632 4282400299
0.46739349 0.027305767 0.4692874 4282729264
0.46802995 0.027286068 0.46918938 4282729260
0.46867916 0.027352646 0.46904039 4282859815
0.46929985 0.027247623 0.46899337 4282728229
0.46994659 0.027314961 0.46884438 4282728483
0.47060487 0.027468935 0.46864444 4282728229
0.47124839 0.027537286 0.46849543 4282662951
0.47190294 0.027692422 0.46829545 4282662186
0.47255552 0.027848169 0.46809548 4282991149
0.4732061 0.028004557 0.46789551 4282991149
0.47385472 0.028161541 0.46769547 4283188782
0.47450137 0.028319195 0.46749544 4283648049
0.47515729 0.02856414 0.46724445 4284305718
0.47579974 0.028723106 0.46704441 4284240436
0.47644022 0.028882667 0.46684432 4283846960
0.47707868 0.02904284 0.46664426 4283517995
0.47770491 0.029116645 0.46649516 4283451940
0.4783397 0.029277995 0.46629506 4283254561
0.47897249 0.029439986 0.46609494 4283189282
0.47958422 0.029428065 0.46599677 4283517481
0.48021358 0.029591128 0.46579665 4283451688
0.48083189 0.029667407 0.46564749 4283450922
0.48144871 0.029744133 0.46549833 4283582256
0.48205549 0.029733777 0.46540013 4283188532
0.48266959 0.029811382 0.46525094 4282466092
0.48327416 0.029801711 0.46515274 4282202916
0.48387775 0.029792354 0.46505454 4282071330
0.48447275 0.029695436 0.46500731 4282201633
0.48507461 0.029686645 0.46490911 4282399012
0.48566133 0.029502079 0.46491289 4282661924
0.48625487 0.029405624 0.46486565 4284175427
0.48684791 0.029309317 0.46481842 4284504392
0.48743412 0.029124901 0.46482217 4284570185
0.49201149 0.012340486 0.47352928 4279768579
0.4926281 0.011875689 0.4736864 4279308304
0.49325347 0.011588708 0.47374147 4279308563
0.49388269 0.011390775 0.4737455 4279440149
0.38133371 0.0064023882 0.49676782 4284976269
0.38215494 0.0063242763 0.49667054 4284515718
0.38297516 0.0062465072 0.4965733 4281683789
0.38387376 0.0063243359 0.49637401 4282403127
0.38473094 0.0063250661 0.49622571 4282927929
0.38562581 0.0064040571 0.49602637 4283125051
0.38659653 0.0066394508 0.49572498 4283190844
0.38752562 0.0067978203 0.49547461 4282993467
0.38845223 0.0069569498 0.49522424 4282993465
0.3893764 0.0071168542 0.49497384 4282730550
0.39033598 0.0073557645 0.49467236 4282533691
0.39129263 0.0075955838 0.49437088 4282862908
0.39224631 0.0078363121 0.49406943 4282928701
0.393197 0.0080780089 0.49376792 4282928699
0.39410782 0.0082421154 0.4935174 4282599734
0.39505285 0.0084856004 0.49321586 4282796088
0.39595845 0.008651346 0.49296534 4282598707
0.396934 0.0089753419 0.49261272 4282598707
0.39797798 0.009458065 0.492158 4282598707
0.39908892 0.010099977 0.49160117 4282269999
0.4012593 0.011309877 0.49053848 4279245842
0.40235418 0.011956841 0.48998156 4278916376
0.40347838 0.012684748 0.48937356 4278850583
0.40449318 0.01317665 0.48891863 4278850583
0.40543512 0.013511211 0.4885658 4278981651
0.40640756 0.013926297 0.48816192 4278785044
0.40737605 0.014342666 0.48775798 4278653969
0.40837407 0.014839828 0.48730296 4278719762
0.40926796 0.015099406 0.48700106 4278850065
0.41019183 0.015439674 0.48664814 4278915858
0.41111225 0.015781 0.48629516 4278785042
0.41199672 0.016043499 0.48599327 4278915860
0.41281375 0.016146988 0.48579341 4278784790
0.41359681 0.016171038 0.48564464 4278718997
0.4142831 0.015955135 0.48564905 4278784790
0.41509542 0.016060114 0.48544919 4278718997
0.41581202 0.015924826 0.48540252 4278522133
0.4165591 0.015870064 0.4853048 4278522133
0.41730517 0.015815601 0.48520708 4278521870
0.41801977 0.015680939 0.48516038 4278522121
0.41873389 0.015546411 0.48511371 4278456328
0.41944748 0.015412048 0.48506701 4278587144
0.42013085 0.015197083 0.48507142 4278718477
0.42084369 0.015062943 0.48502475 4278718481
0.42155609 0.014928997 0.48497802 4278587144
0.42223892 0.014714181 0.48498243 4278521351
0.42297935 0.014661521 0.48488465 4278389763
0.42371875 0.014609143 0.48478687 4278257926
0.42445719 0.014557093 0.48468909 4278257928
0.42525074 0.014667988 0.48448908 4278257926
0.42604232 0.014779478 0.48428911 4278389512
0.42680433 0.01481013 0.48414022 4278586893
0.42764682 0.015085876 0.48383799 4278718479
0.42845923 0.015280917 0.48358688 4278718477
0.42932284 0.01564014 0.48323354 4278586891
0.43018296 0.01600045 0.48288018 4278652171
0.43199709 0.01705204 0.481969 4278652171
0.43282005 0.017333925 0.48166668 4278717964
0.43481159 0.019050717 0.48034647 4278521100
0.43559709 0.019254267 0.48009515 4278521100
0.43638012 0.019458562 0.47984385 4278521100
0.43713611 0.019581258 0.47964361 4278455307
0.43784142 0.019539639 0.47954559 4278586380
0.43856984 0.019580856 0.47939649 4278520587
0.43927294 0.019539922 0.47929847 4278520585
0.44002223 0.019664735 0.4790982 4278520587
0.44069952 0.019541785 0.47905129 4278586380
0.4413994 0.019501865 0.47895324 4278520589
0.44207546 0.019379318 0.47890633 4278454796
0.45282248 0.026363105 0.47307941 4278849033
0.45350519 0.026418731 0.47292998 4278717966
0.45414811 0.026306584 0.47288287 4278717968
0.45482835 0.02636297 0.47273344 4278717966
0.4555071 0.026419848 0.47258398 4278717966
0.45618436 0.026477173 0.47243452 4278718217
0.45686015 0.02653496 0.47228506 4278718217
0.45753446 0.026593223 0.47213557 4278652937
0.45820728 0.026651949 0.47198611 4278718217
0.45889604 0.026795775 0.47178546 4278718217
0.45956564 0.026855513 0.47163594 4278718215
0.46023375 0.026915714 0.47148645 4278652676
0.4609004 0.026976392 0.4713369 4278718215
0.46156555 0.027037501 0.47118738 4278718469
0.46221304 0.027014077 0.47108901 4278718469
0.46287549 0.02707608 0.47093946 4279309584
0.46353644 0.027138516 0.47078991 4280427295
0.46421134 0.027286723 0.47058916 4280690719
0.46486908 0.027350172 0.47043958 4281084698
0.46552536 0.027414113 0.47029001 4281348122
0.46618015 0.027478516 0.4701404 4281808673
0.46683341 0.027543381 0.46999079 4282598191
0.46748525 0.027608722 0.46984118 4282598191
0.46812162 0.02758877 0.46974272 4282729260
0.46877071 0.027654976 0.46959305 4282991655
0.46940485 0.027635723 0.46949461 4282991655
0.470038 0.027616799 0.46939614 4283056932
0.47069612 0.027770296 0.46919531 4282991139
0.47133952 0.02783826 0.46904564 4282662436
0.47199392 0.027992904 0.46884477 4282727977
0.47264636 0.028148159 0.46864387 4283122735
0.47329679 0.02830407 0.46844298 4282991149
0.47394526 0.028460562 0.46824208 4283122989
0.47459176 0.02861771 0.46804112 4283648819
0.4752475 0.028862044 0.46778899 4284305464
0.4759008 0.029107168 0.46753687 4283977012
0.47654086 0.029266328 0.46733591 4283780403
0.47716844 0.029339269 0.46718612 4283648817
0.47780481 0.029499605 0.46698514 4283649067
0.4784292 0.02957356 0.46683535 4283320354
0.47906184 0.029735059 0.46663433 4283649319
0.47968301 0.029810026 0.46648452 4283450918
0.48030269 0.029885456 0.4663347 4283385125
0.48092091 0.029961377 0.46618485 4283582506
0.48153761 0.030037731 0.46603501 4283648047
0.48214433 0.030027136 0.46593636 4283385909
0.48275834 0.030104369 0.46578652 4282925869
0.48337084 0.030182064 0.46563664 4282465572
0.4839741 0.030172527 0.465538 4282136607
0.48457637 0.030163333 0.46543932 4282267166
0.48517764 0.030154422 0.46534064 4282332705
0.48577091 0.030057937 0.46529317 4282726693
0.48635685 0.029873595 0.46529695 4283123248
0.48694283 0.029689267 0.46530071 4284044350
0.48753509 0.02959308 0.46525326 4284176969
0.48812082 0.029408827 0.46525702 4284438345
0.49336624 0.012347013 0.47405791 4279242768
0.49399087 0.012060389 0.47411317 4279308561
0.38148579 0.0068485737 0.49739093 4284845455
0.38226658 0.0066929311 0.49734446 4284582283
0.38312662 0.0066923648 0.49719548 4282210137
0.38398516 0.0066922605 0.49704653 4282337595
0.38488162 0.0067702383 0.49684632 4282862138
0.3857761 0.0068488121 0.49664608 4283190074
0.38674635 0.0070835203 0.49634337 4283255867
