# .PCD v0.7 - Point Cloud Data file format
VERSION 0.7
FIELDS x y z rgb
SIZE 4 4 4 4
TYPE F F F U
COUNT 1 1 1 1
WIDTH 1047
HEIGHT 1
VIEWPOINT 0 0 0 1 0 0 0
POINTS 1047
DATA ascii
0.40458471 -0.046750098 0.48825836 4278916109
0.40411755 -0.046254367 0.48820746 4278916109
0.4036507 -0.045759067 0.48815656 4278916109
0.40324786 -0.045210496 0.48816165 4278850063
0.40278149 -0.044715822 0.48811072 4278981389
0.40231541 -0.04422158 0.48805982 4278916628
0.40191287 -0.043673426 0.48806491 4278850835
0.40151033 -0.043125287 0.48807001 4278916378
0.40110779 -0.042577133 0.48807514 4278718999
0.40070525 -0.042028993 0.48808023 4279112726
0.40030271 -0.041480839 0.48808533 4279507482
0.39990017 -0.0409327 0.48809046 4282204995
0.39955992 -0.040328979 0.48815161 4282072372
0.39915723 -0.039780617 0.48815671 4282399275
0.39875454 -0.039232269 0.4881618 4282335019
0.39835185 -0.038683906 0.48816693 4282138156
0.39794916 -0.038135558 0.48817202 4282203949
0.39754644 -0.037587196 0.48817712 4280887067
0.39708239 -0.037095666 0.48812619 4280294680
0.39667982 -0.036547512 0.48813128 4279572503
0.39621621 -0.036056593 0.48808032 4279703315
0.39581382 -0.035508662 0.48808545 4282203449
0.39535064 -0.035018384 0.48803449 4283385405
0.39494842 -0.034470648 0.48803958 4283647795
0.39448574 -0.033980981 0.48798862 4283844145
0.39408365 -0.033433452 0.48799372 4283843891
0.39362139 -0.032944441 0.48794276 4283909684
0.39321947 -0.032397121 0.48794782 4284040759
0.39281756 -0.031849802 0.48795295 4284040759
0.39235592 -0.03136161 0.48790196 4284041272
0.39195415 -0.030814499 0.48790705 4284107065
0.39149299 -0.030326918 0.48785609 4283975477
0.39103213 -0.029839754 0.48780507 4284106804
0.39063066 -0.029293075 0.48781016 4284172597
0.39017028 -0.028806537 0.48775917 4284502327
0.38971016 -0.028320432 0.48770818 4284370741
0.3892504 -0.027834728 0.48765719 4284042546
0.38879091 -0.027349472 0.48760617 4285093183
0.38833171 -0.026864588 0.48755515 4285685574
0.3878147 -0.026441365 0.48744804 4285752131
0.38729829 -0.026018932 0.48734093 4285357623
0.38684034 -0.025535733 0.48728991 4285094451
0.3863827 -0.02505298 0.48723888 4284765999
0.38592535 -0.024570614 0.48718783 4284700976
0.38541096 -0.024150923 0.48708069 4285293113
0.38495436 -0.02366963 0.48702964 4284898870
0.38444102 -0.02325137 0.4869225 4284635698
0.38398522 -0.022771105 0.48687142 4284437554
0.38352972 -0.022291243 0.4868204 4284436280
0.38307452 -0.021811828 0.48676932 4284502075
0.38261968 -0.021332815 0.48671824 4284502073
0.38216507 -0.02085422 0.48666719 4284436280
0.38171083 -0.020376042 0.4866161 4284567353
0.38131291 -0.019834161 0.48662114 4284566839
0.38085908 -0.019356608 0.48657006 4284764472
0.3804056 -0.018879473 0.48651898 4284896570
0.3799524 -0.01840274 0.48646793 4284633398
0.3794995 -0.017926455 0.48641682 4284173612
0.37910217 -0.017385408 0.48642185 4283977003
0.37870485 -0.016844362 0.48642689 4284041772
0.3782526 -0.016368896 0.48637581 4284107056
0.37780061 -0.015893847 0.4863247 4284238642
0.37734896 -0.015419215 0.48627359 4284172597
0.37695208 -0.014878795 0.48627865 4284831558
0.3765009 -0.014404804 0.48622751 4285817683
0.37610418 -0.013864592 0.48623252 4285949521
0.37565345 -0.013391212 0.48618144 4286146900
0.37520301 -0.012918264 0.4861303 4286607201
0.37475288 -0.012445718 0.48607919 4286279006
0.37430307 -0.011973575 0.48602808 4285756001
0.37390697 -0.011434197 0.48603308 4288060823
0.37345761 -0.01096271 0.48598194 4288126616
0.37306166 -0.010423541 0.48598695 4288521125
0.37255982 -0.010020971 0.48587966 4288848550
0.44202745 -0.08051452 0.49561417 4286745743
0.44138095 -0.080054715 0.49545121 4287072386
0.4409588 -0.079479843 0.49545658 4287395938
0.44038796 -0.078982934 0.49534971 4286409809
0.43981779 -0.07848686 0.4952428 4286344016
0.4392482 -0.077991627 0.4951359 4285621576
0.4386054 -0.077536836 0.49497288 4285226818
0.43796352 -0.077083282 0.49480987 4285357634
0.43732253 -0.07663101 0.49464682 4285292613
0.43675587 -0.076139748 0.49453989 4285161027
0.43611658 -0.075689748 0.49437684 4285095234
0.43555129 -0.075200357 0.49426988 4284897601
0.43505958 -0.074670941 0.49421906 4284700222
0.43449539 -0.074183017 0.49411213 4284766530
0.43393177 -0.073695928 0.49400514 4284635714
0.4333688 -0.073209658 0.49389815 4284701507
0.43280643 -0.072724238 0.49379119 4285096265
0.43224466 -0.07223966 0.49368417 4285556296
0.43161154 -0.071798027 0.49352103 4285621826
0.43105114 -0.071315303 0.49341404 4285293115
0.43041968 -0.070875973 0.49325091 4284700978
0.42993224 -0.070352405 0.4932 4284897587
0.42937368 -0.069872208 0.49309298 4284634163
0.42888704 -0.069349676 0.49304211 4284240175
0.42825848 -0.068914294 0.49287891 4284239921
0.42777273 -0.068393029 0.49282801 4284174128
0.42721647 -0.067915961 0.49272093 4283780403
0.42666087 -0.067439735 0.49261385 4284240184
0.42610589 -0.066964313 0.4925068 4284503095
0.42562181 -0.066445343 0.4924559 4284436532
0.42506787 -0.065971412 0.49234879 4284304946
0.42451453 -0.065498315 0.49224168 4284107569
0.42389199 -0.065071091 0.49207842 4283779383
0.42340976 -0.064554594 0.49202749 4283647799
0.4228583 -0.064084008 0.49192035 4283319084
0.42223799 -0.063659921 0.49175704 4282726947
0.4216879 -0.063191213 0.49164993 4279441938
0.42106932 -0.062769398 0.49148658 4279178519
0.4205206 -0.062302567 0.49137944 4279112726
0.41997248 -0.061836571 0.49127227 4279112726
0.41949365 -0.061324686 0.49122131 4279046933
0.41894662 -0.060860157 0.49111411 4278850333
0.41833186 -0.060443565 0.49095076 4278784790
0.41785437 -0.059933573 0.49089974 4278785040
0.41730919 -0.059471548 0.49079251 4278915858
0.41676462 -0.059010357 0.49068531 4278981140
0.41622066 -0.058549955 0.49057811 4278915347
0.41567731 -0.058090433 0.49047089 4278850837
0.41513455 -0.057631746 0.49036366 4278850837
0.41459244 -0.057173893 0.49025643 4279177745
0.41405094 -0.056716859 0.49014917 4279177998
0.41357702 -0.056211665 0.49009812 4279177998
0.41310334 -0.055706888 0.49004707 4279046933
0.41263002 -0.055202529 0.48999602 4279046679
0.41209051 -0.054748222 0.48988876 4279046931
0.41155159 -0.054294765 0.4897815 4278916376
0.41107947 -0.053792074 0.48973042 4278850583
0.4106077 -0.053289786 0.48967934 4278916376
0.41007033 -0.052838415 0.48957205 4279047444
0.4095993 -0.05233717 0.48952097 4279308561
0.40912858 -0.051836371 0.48946986 4279046681
0.40865815 -0.051335976 0.4894188 4278980888
0.40805751 -0.050938621 0.48925519 4279047194
0.40758801 -0.050439462 0.48920411 4278915606
0.4071838 -0.049889028 0.48920923 4278850067
0.40671477 -0.04939051 0.48915815 4278915860
0.40624604 -0.048892424 0.48910701 4278915860
0.4057776 -0.04839474 0.48905593 4278915606
0.40524516 -0.047950044 0.48894855 4278981399
0.40471327 -0.047506183 0.48884118 4278850067
0.40424609 -0.047010168 0.48879007 4278850067
0.4038431 -0.046461388 0.48879516 4278850067
0.40337637 -0.045965999 0.48874402 4278915858
0.40290993 -0.045471042 0.48869288 4278850065
0.40250725 -0.04492268 0.48869801 4278915860
0.40204126 -0.044428363 0.48864686 4279047194
0.40163875 -0.043880209 0.48865196 4279047194
0.40123618 -0.04333207 0.48865706 4279047194
0.40083367 -0.042783916 0.48866218 4278915860
0.4004311 -0.042235762 0.48866728 4279177745
0.40009105 -0.041632548 0.48872864 4279441687
0.39968836 -0.0410842 0.48873377 4279573273
0.39928567 -0.040535837 0.48873886 4280164375
0.39888299 -0.039987475 0.48874396 4281216534
0.3984803 -0.039439127 0.48874909 4282269744
0.39813936 -0.038834661 0.48881048 4280426015
0.39767492 -0.038342416 0.48875928 4280623394
0.39727223 -0.037794054 0.48876441 4280163094
0.39686951 -0.037245706 0.48876953 4280096788
0.3964057 -0.03675431 0.48871833 4281544990
0.39600316 -0.036206156 0.48872346 4282859563
0.39553979 -0.035715371 0.48867226 4283122735
0.39513743 -0.035167426 0.48867738 4283910967
0.39467448 -0.034677267 0.48862618 4283846198
0.39427227 -0.034129545 0.48863128 4283845428
0.39387003 -0.033581823 0.48863637 4283779635
0.39346778 -0.033034086 0.4886415 4283713842
0.39300567 -0.032544971 0.4885903 4283844915
0.39254385 -0.032056272 0.4885391 4283909938
0.39208233 -0.031567991 0.4884879 4284041270
0.39162111 -0.031080127 0.4884367 4284107063
0.3912195 -0.030533224 0.4884418 4283975477
0.39075872 -0.030045986 0.48839056 4283975731
0.39029828 -0.029559165 0.48833936 4284041524
0.38983813 -0.029072776 0.4882881 4284436534
0.38937831 -0.028586775 0.4882369 4284370741
0.38891876 -0.028101236 0.48818564 4284436534
0.38845956 -0.027616069 0.48813444 4285554500
0.38800061 -0.027131349 0.48808318 4285752131
0.38748395 -0.026708126 0.48797566 4285883969
0.3870258 -0.026224464 0.4879244 4285751869
0.38656798 -0.02574119 0.48787314 4285554490
0.38611042 -0.025258332 0.48782188 4285488695
0.38559574 -0.024837866 0.48771429 4285292343
0.38513899 -0.024356052 0.48766306 4284898868
0.38468254 -0.02387467 0.48761177 4284372272
0.3841694 -0.023456261 0.48750418 4284372272
0.38365686 -0.0230387 0.48739654 4284437300
0.38320163 -0.022559002 0.48734528 4284436798
0.3827467 -0.022079691 0.48729399 4284633407
0.38229209 -0.021600813 0.4872427 4284502845
0.38189399 -0.021058723 0.48724774 4284634431
0.38143983 -0.020580471 0.48719645 4284567868
0.38098598 -0.020102635 0.48714513 4284567353
0.38053244 -0.019625202 0.48709384 4284567353
0.38007921 -0.019148186 0.48704255 4284633400
0.37968171 -0.018606916 0.48704758 4284567607
0.37922892 -0.018130556 0.48699626 4284173612
0.3788316 -0.017589509 0.4870013 4284042026
0.37837929 -0.017113745 0.48694998 4284042026
0.37798211 -0.016572922 0.48695505 4284107054
0.37753025 -0.016097799 0.48690367 4284238640
0.37713322 -0.01555717 0.48690873 4285028419
0.37673619 -0.015016541 0.48691374 4285687128
0.37623072 -0.014608592 0.48680604 4285884248
0.37583402 -0.01406838 0.4868111 4285884246
0.37538338 -0.013594925 0.48675975 4286081625
0.37498683 -0.013054922 0.48676479 4286476133
0.37448305 -0.012649268 0.48665705 4285952617
0.3740868 -0.012109682 0.48666209 4288127897
0.37369055 -0.011570096 0.4866671 4287996577
0.37324113 -0.011098295 0.48661578 4288128163
0.44131699 -0.080156118 0.49623588 4286811016
0.44074565 -0.079658017 0.49612856 4287265897
0.44010067 -0.079199649 0.49596491 4286541395
0.43953073 -0.078703403 0.4958576 4286475602
0.43896133 -0.078208014 0.49575025 4285753164
0.43831885 -0.077752993 0.49558654 4285161027
0.43767726 -0.077299207 0.49542284 4285357636
0.43711007 -0.076806739 0.49531549 4285292613
0.43647015 -0.076355278 0.49515176 4285292613
0.43583116 -0.075905032 0.49498802 4285161027
0.43526611 -0.075415492 0.49488062 4284897603
0.43477446 -0.074885994 0.4948296 4284766017
0.43421048 -0.074397907 0.49472219 4284701507
0.4336471 -0.073910668 0.49461478 4284504642
0.43308431 -0.073424235 0.49450737 4284570435
0.43252215 -0.072938666 0.49439991 4285359437
0.43196061 -0.072453924 0.4942925 4285818955
0.43132776 -0.072012052 0.49412867 4286146627
0.4307676 -0.07152918 0.49402121 4285752129
0.43013644 -0.07108961 0.49385738 4285159992
0.42964911 -0.070565969 0.4938063 4284897333
0.4290908 -0.070085607 0.49369881 4284634163
0.42860425 -0.069563001 0.49364769 4284305966
0.42797601 -0.069127381 0.49348384 4284174641
0.42749035 -0.068606034 0.4934327 4284108848
0.4269343 -0.068128809 0.4933252 4283780403
0.42637891 -0.067652427 0.49321768 4284305718
0.4258945 -0.067132741 0.49316657 4284568116
0.42534018 -0.066657797 0.49305904 4284502323
0.42485651 -0.066139154 0.4930079 4284173358
0.42430323 -0.065665692 0.49290034 4284107567
0.42368081 -0.065238029 0.4927364 4283910454
0.42312896 -0.064766422 0.49262884 4283778870
0.42264712 -0.064250298 0.49257767 4283713075
0.42202702 -0.063825756 0.4924137 4283318317
0.42147696 -0.063356683 0.49230611 4281807910
0.42092752 -0.062888436 0.49219853 4279374097
0.4203099 -0.062467225 0.49203452 4279440149
0.41976184 -0.062000863 0.49192691 4279112726
0.41928291 -0.061488703 0.49187571 4279112726
0.41873592 -0.061023802 0.49176806 4278850587
0.41812134 -0.060606763 0.49160403 4278850585
0.41757578 -0.060143739 0.49149638 4278785042
0.4170987 -0.059634075 0.49144518 4278915858
0.41655418 -0.059172526 0.49133754 4278915606
0.41601029 -0.058711797 0.49122986 4278981399
0.41546696 -0.058251888 0.49112219 4278850837
0.41492429 -0.057792827 0.49101451 4278850835
0.41438222 -0.057334617 0.49090683 4278981389
0.41384077 -0.056877226 0.49079913 4279047182
0.41329995 -0.056420654 0.49069145 4279047695
0.41282642 -0.055915803 0.49064016 4278850835
0.41235316 -0.055411354 0.4905889 4278915860
0.41181386 -0.054956898 0.49048117 4278981653
0.41127515 -0.054503277 0.49037343 4278981401
0.41080314 -0.054000512 0.49032214 4278981401
0.41033149 -0.053498149 0.49027085 4279047192
0.40979433 -0.053046614 0.49016309 4279047444
0.40932339 -0.052545294 0.49011183 4279047695
0.40885276 -0.052044421 0.49006048 4278980888
0.40838248 -0.051543936 0.49000919 4278980888
0.40778214 -0.051146358 0.48984492 4279046683
0.40731275 -0.05064711 0.48979363 4278849813
0.40684366 -0.050148308 0.48974228 4278915608
0.40637487 -0.049649939 0.48969096 4278849813
0.40590641 -0.049151972 0.48963964 4278849813
0.40537387 -0.048706695 0.48953182 4279046933
0.40490615 -0.048209786 0.48948047 4278981653
0.40437466 -0.047765955 0.48937267 4278850067
0.40397167 -0.04721719 0.4893778 4278915860
0.40350485 -0.046721518 0.48932642 4278915860
0.40310204 -0.046172947 0.48933154 4278915860
0.40263569 -0.0456779 0.48928016 4278915860
0.402233 -0.045129538 0.48928526 4278915610
0.40176713 -0.044635147 0.48923391 4278981403
0.40136459 -0.044086993 0.48923901 4278981403
0.40096205 -0.043538839 0.4892441 4278981399
0.40055951 -0.042990699 0.48924923 4278850063
0.40021953 -0.042387769 0.4893108 4279112205
0.39981684 -0.041839406 0.48931593 4279112973
0.39947641 -0.041235864 0.4893775 4279376145
0.39907354 -0.040687308 0.48938262 4279639317
0.39867067 -0.040138736 0.48938775 4279639571
0.39826787 -0.03959018 0.48939285 4279769884
0.397865 -0.039041609 0.48939794 4279834657
0.39746213 -0.038493037 0.48940307 4279966243
0.39699799 -0.038000926 0.48935169 4280163615
0.3965953 -0.037452564 0.48935679 4282793006
0.39619258 -0.036904216 0.48936188 4283318569
0.39572901 -0.036412939 0.4893105 4283713327
0.3953265 -0.035864785 0.4893156 4283844913
0.39486337 -0.035374135 0.48926419 4283845428
0.39446098 -0.034826189 0.48926932 4283910967
0.39405859 -0.034278259 0.48927438 4284042294
0.39359611 -0.033788443 0.489223 4283844915
0.39319387 -0.033240706 0.48922807 4283975731
0.39273185 -0.032751516 0.48917666 4284041011
0.39227012 -0.032262743 0.48912525 4284041011
0.39180869 -0.031774387 0.48907381 4284106804
0.39134762 -0.031286433 0.4890224 4284041011
0.39088678 -0.030798912 0.48897094 4284107317
0.39042628 -0.030311793 0.48891953 4283976501
0.3899661 -0.029825121 0.48886806 4283844915
0.38950622 -0.029338837 0.48881662 4284437304
0.38904664 -0.028852999 0.48876518 4284634683
0.38858736 -0.028367549 0.48871374 4284634683
0.3881284 -0.027882546 0.48866224 4284305716
0.38761163 -0.027458742 0.48855424 4284437300
0.38721141 -0.026913732 0.48855934 4285751867
0.38675335 -0.026429981 0.48850787 4285751865
0.38623798 -0.026008099 0.48839983 4285620279
0.38578069 -0.025525361 0.48834836 4285225523
0.3853237 -0.02504307 0.48829687 4285093939
0.38486707 -0.024561182 0.4882454 4284830767
0.38441068 -0.024079725 0.4881939 4284502316
0.38389778 -0.023661152 0.48808587 4284436523
0.38344216 -0.023180738 0.48803437 4284502327
0.38293031 -0.022763655 0.48792627 4284633409
0.3824755 -0.022284269 0.48787478 4284633411
0.38207728 -0.021741971 0.48787981 4284830788
0.38162288 -0.021263212 0.48782831 4284764995
0.38116884 -0.020784885 0.48777679 4284436800
0.38071507 -0.020306975 0.48772526 4284502845
0.38031727 -0.019765303 0.48773029 4284173878
0.37986401 -0.019288003 0.48767877 4284305464
0.37941101 -0.018811107 0.48762727 4284173878
0.37901354 -0.018269852 0.48763227 4284304948
0.37856102 -0.017793611 0.48758075 4284107567
0.3781637 -0.017252564 0.48758578 4284107052
0.37771162 -0.016776934 0.48753425 4285619007
0.37731445 -0.016236097 0.48753929 4285882179
0.37686285 -0.015761122 0.48748773 4286344018
0.37641156 -0.015286535 0.48743618 4286344279
0.37601468 -0.014746115 0.48744121 4286213211
0.44102919 -0.08037322 0.49685222 4286483848
0.44053233 -0.079836339 0.49680102 4287202684
0.43988749 -0.079377532 0.49663669 4286673492
0.43931758 -0.078880914 0.49652892 4286278734
0.43867445 -0.078424409 0.49636459 4285884750
0.43803227 -0.077969149 0.4962002 4285292361
0.43746451 -0.077475466 0.49609241 4285029450
0.43675065 -0.077062383 0.49587142 4285161038
0.43618441 -0.076570801 0.4957636 4285161038
0.43554574 -0.076120324 0.49559921 4285029452
0.4349809 -0.07563062 0.49549139 4285161036
0.43441665 -0.075141758 0.49538353 4284964425
0.433853 -0.07465373 0.49527568 4284965191
0.43336242 -0.074125409 0.49522442 4284833859
0.43279985 -0.073638819 0.49511653 4284768066
0.4321658 -0.073194623 0.49495208 4286015564
0.43167657 -0.072668195 0.49490076 4286344268
0.43104404 -0.072226085 0.49473628 4286343236
0.43048406 -0.071743056 0.49462837 4286145857
0.42985323 -0.071303241 0.49446389 4285619513
0.42929465 -0.070822105 0.49435598 4284897335
0.42880788 -0.070299007 0.49430466 4284634679
0.42832142 -0.069776319 0.49425331 4284174895
0.42769352 -0.069340467 0.49408877 4284109618
0.42720795 -0.068819039 0.49403742 4283978032
0.42665213 -0.068341658 0.49392945 4283780657
0.42609695 -0.067865118 0.4938215 4284239925
0.42561263 -0.067345351 0.49377015 4284042544
0.42512864 -0.066825986 0.4937188 4284239923
0.42457497 -0.066351533 0.4936108 4284174130
0.4240219 -0.065877914 0.4935028 4284042292
0.4235391 -0.065360248 0.49345142 4284304696
0.42291763 -0.064933173 0.49328682 4284172860
0.42243576 -0.064416736 0.49323544 4284041020
0.42188501 -0.063946247 0.49312741 4284041020
0.42126581 -0.063522317 0.49296275 4283778618
0.42071646 -0.063053712 0.49285471 4283122237
0.42016768 -0.062585905 0.49274668 4281478192
0.41961956 -0.06211897 0.49263865 4279178517
0.41907203 -0.061652862 0.49253058 4279244310
0.4185251 -0.061187595 0.49242252 4279047962
0.41797876 -0.060723156 0.49231443 4278916376
0.41743308 -0.060259551 0.49220634 4278915858
0.416888 -0.05979678 0.49209824 4278915606
0.41641122 -0.05928725 0.4920468 4278981399
0.41586721 -0.058825955 0.49193871 4278981399
0.41525644 -0.058413476 0.49177393 4278850837
0.41471383 -0.057954058 0.49166581 4278850837
0.41417181 -0.057495475 0.49155769 4278915856
0.41363043 -0.057037726 0.49144953 4278850833
0.41308963 -0.056580797 0.49134141 4278850833
0.41261607 -0.056075647 0.49128991 4278850835
0.41207632 -0.055620193 0.49118176 4278915858
0.41153723 -0.055165574 0.49107358 4278981651
0.41106486 -0.054662108 0.49102208 4278981399
0.41052681 -0.054208949 0.4909139 4279047192
0.41005528 -0.053706497 0.49086237 4279047192
0.40958399 -0.053204492 0.49081087 4279047444
0.40911299 -0.052702904 0.49075931 4279047442
0.40857697 -0.052252457 0.4906511 4279046679
0.40810674 -0.051751912 0.49059957 4278980886
0.40757179 -0.051302925 0.49049136 4278980890
0.40703744 -0.050854772 0.49038315 4278849813
0.4065685 -0.050355881 0.49033159 4278849813
0.4060998 -0.049857438 0.49028003 4278719251
0.40556699 -0.049411371 0.49017179 4278719251
0.40509909 -0.048913956 0.4901202 4278981140
0.40456736 -0.04846935 0.49001193 4278915860
0.40410024 -0.047972977 0.48996037 4278850067
0.40363336 -0.047477022 0.48990881 4278981653
0.40323055 -0.04692845 0.48991391 4278981653
0.40282768 -0.046379894 0.48991901 4278785044
0.40236145 -0.045884758 0.48986745 4278718997
0.40195876 -0.04533641 0.48987255 4278784794
0.40155607 -0.044788048 0.48987764 4278981403
0.40115339 -0.0442397 0.48988277 4278915610
0.4007507 -0.043691337 0.48988786 4278981399
0.40034801 -0.043142989 0.48989296 4278850063
0.40000772 -0.042539939 0.48995477 4278916109
0.39960492 -0.041991368 0.4899599 4279047693
0.39926422 -0.041387692 0.49002174 4279179279
0.3988612 -0.040838927 0.49002683 4279442453
0.39845818 -0.040290147 0.49003196 4279508498
0.3980552 -0.039741382 0.49003708 4279573788
0.39765221 -0.039192602 0.49004218 4280032031
0.39718783 -0.038699985 0.48999056 4280689961
0.39678496 -0.038151413 0.48999566 4281281064
0.39638209 -0.037602857 0.49000078 4282792236
0.39591837 -0.037111074 0.48994917 4283450157
0.39551565 -0.036562711 0.48995426 4283779122
0.39505234 -0.036071569 0.48990265 4283976501
0.3946498 -0.03552343 0.48990774 4284042294
0.39418697 -0.035032898 0.48985612 4283910967
0.39378458 -0.034484953 0.48986122 4284042294
0.39332217 -0.033995062 0.48980957 4283844915
0.39291996 -0.03344734 0.4898147 4284172083
0.39245802 -0.032958061 0.48976302 4284172083
0.39193687 -0.032527864 0.48965466 4284369462
0.39147574 -0.032039642 0.48960301 4284237876
0.39101487 -0.031551823 0.48955134 4284237876
0.39055431 -0.031064421 0.48949969 4284238390
0.39009407 -0.030577451 0.48944801 4284172856
0.38963413 -0.030090883 0.48939633 4284107317
0.38917452 -0.029604763 0.48934466 4284437050
0.38871521 -0.02911903 0.48929301 4284437304
0.38825616 -0.028633744 0.4892413 4284503097
0.38779747 -0.028148845 0.48918962 4284305718
0.38733909 -0.027664348 0.48913795 4284239923
0.38688099 -0.027180314 0.48908627 4284764720
0.3864232 -0.026696667 0.48903456 4285685304
0.3859657 -0.026213467 0.48898286 4285619511
0.38550854 -0.025730655 0.48893115 4285093939
0.38505167 -0.025248289 0.48887944 4285027894
0.38459513 -0.024766311 0.48882776 4284962099
0.38413888 -0.02428478 0.48877603 4284567857
0.38362616 -0.023866042 0.48866755 4284436271
0.38317066 -0.023385555 0.48861581 4284502327
0.38271546 -0.022905454 0.48856407 4284830275
0.38226059 -0.022425801 0.48851234 4284632898
0.38180605 -0.021946549 0.4884606 4284764995
0.38135177 -0.021467716 0.48840886 4284764995
0.38089782 -0.020989299 0.48835713 4284633407
0.3804999 -0.020447418 0.48836216 4284502845
0.38004637 -0.019969642 0.4883104 4284304694
0.37959322 -0.019492269 0.48825866 4284502075
0.37919557 -0.01895079 0.4882637 4284173110
0.37874287 -0.018474042 0.48821196 4284304696
0.37834537 -0.017932773 0.488217 4284107569
0.37789309 -0.017456666 0.4881652 4285553468
0.37744117 -0.016980961 0.48811346 4286013767
0.37698948 -0.016505688 0.48806167 4286474318
0.37659246 -0.015965074 0.4880667 4286540883
0.44031873 -0.080014825 0.49747393 4286483326
0.43967411 -0.079555564 0.49730894 4286872158
0.43903041 -0.079097539 0.49714392 4286280021
0.43838757 -0.078640804 0.49697891 4285884746
0.43767217 -0.078224689 0.49675709 4285555783
0.43710476 -0.077731043 0.49664885 4285095495
0.43646473 -0.077278063 0.49648374 4285095241
0.43582562 -0.076826327 0.4963187 4285029448
0.43526036 -0.076335616 0.49621043 4285029448
0.43469569 -0.075845756 0.49610215 4285292872
0.43405902 -0.075397357 0.49593705 4285621578
0.43356824 -0.074868545 0.49588555 4285687371
0.43307772 -0.07434015 0.49583405 4285621574
0.4324432 -0.07389465 0.49566892 4285753160
0.43188164 -0.073408976 0.49556059 4286344527
0.43132067 -0.072924122 0.49545226 4286410320
0.43076029 -0.072440118 0.49534392 4286344527
0.43020055 -0.071956925 0.49523556 4285949762
0.42957002 -0.071516879 0.4950704 4285357625
0.42901164 -0.071035579 0.49496204 4285159478
0.42852497 -0.070512407 0.49491048 4285093435
0.42789674 -0.070075482 0.49474525 4284830779
0.42741102 -0.069553547 0.4946937 4284306229
0.42685497 -0.069075383 0.49458534 4284372022
0.42636997 -0.068554506 0.49453372 4283846448
0.42581499 -0.068077803 0.4944253 4284569403
0.42533076 -0.067557961 0.49437374 4284174645
0.42484689 -0.067038521 0.49432218 4284241208
0.4242934 -0.066563904 0.49421373 4284043829
0.42381024 -0.066045538 0.49416214 4283846196
0.42325789 -0.065572381 0.49405369 4284239673
0.4227061 -0.065100066 0.49394524 4284173880
0.42215496 -0.064628556 0.49383679 4283976249
0.42167348 -0.064112484 0.49378517 4284042042
0.42112342 -0.063642465 0.49367669 4283976762
0.42050517 -0.063219123 0.49351138 4283450936
0.41995645 -0.062750988 0.49340287 4283319098
0.41947687 -0.062237389 0.49335125 4282728510
0.41886085 -0.061817199 0.49318588 4282202166
0.41831401 -0.06135156 0.49307734 4279704342
0.41783577 -0.060839862 0.49302572 4279441940
0.41729 -0.06037569 0.49291718 4279178515
0.41674483 -0.059912339 0.49280864 4278980888
0.41620025 -0.059449837 0.4927001 4279244060
0.4156563 -0.058988169 0.49259156 4279046681
0.41511297 -0.058527336 0.49248299 4278785303
0.41457024 -0.058067307 0.49237442 4278785305
0.41396117 -0.057656512 0.49220899 4278850835
0.41341984 -0.05719839 0.49210042 4278850835
0.41287911 -0.056741104 0.49199182 4278850835
0.41240546 -0.056235656 0.49194008 4278785042
0.41193217 -0.055730641 0.4918884 4278784792
0.41139296 -0.05527544 0.49177977 4278915858
0.41085437 -0.054821089 0.49167114 4278981399
0.41031641 -0.054367572 0.49156252 4279047192
0.40984476 -0.053864852 0.49151078 4279047444
0.40937343 -0.053362533 0.49145904 4279047446
0.40890241 -0.052860647 0.49140731 4279113237
0.40843168 -0.052359194 0.49135554 4279046933
0.40783107 -0.051959872 0.49118999 4279046933
0.4072963 -0.051510736 0.4910813 4278981399
0.40676218 -0.05106242 0.49097264 4278850065
0.40629333 -0.050563455 0.49092084 4278915858
0.40582472 -0.050064921 0.49086908 4278785044
0.40535647 -0.04956679 0.49081731 4278785044
0.40482432 -0.049121201 0.49070859 4279111954
0.40429279 -0.048676446 0.49059987 4279046929
0.40382576 -0.048179999 0.4905481 4278981389
0.40342277 -0.047631219 0.4905532 4278981138
0.40295619 -0.047135398 0.4905014 4279046931
0.40255332 -0.046586826 0.49050653 4278915860
0.40215048 -0.04603827 0.49051163 4278981653
0.40174764 -0.045489699 0.49051672 4278915608
0.40134478 -0.044941127 0.49052185 4278981401
0.40094194 -0.044392571 0.49052697 4278915608
0.4005391 -0.043844 0.49053207 4278981653
0.40019876 -0.043241039 0.49059409 4278981136
0.39979577 -0.042692259 0.49059922 4278915856
0.39945495 -0.042088673 0.49066126 4279047444
0.39905179 -0.041539684 0.49066636 4279113237
0.39864862 -0.04099071 0.49067149 4279770135
0.39824548 -0.040441722 0.49067658 4279573006
0.39784232 -0.039892733 0.49068171 4280953630
0.39743918 -0.039343759 0.49068683 4282794287
0.39697474 -0.038850844 0.49063501 4282991666
0.3965106 -0.038358361 0.49058318 4282727981
0.39610779 -0.037809804 0.49058828 4283122225
0.39570493 -0.037261233 0.49059337 4283844663
0.39524141 -0.036769584 0.49054155 4283910456
0.39483872 -0.036221221 0.49054664 4284173878
0.39437568 -0.035730213 0.49049479 4283976499
0.39391294 -0.035239592 0.49044293 4283910706
0.39351055 -0.034691662 0.49044806 4284042292
0.39304826 -0.034201697 0.4903962 4283910706
0.39258629 -0.033712119 0.49034432 4283975731
0.3921842 -0.033164605 0.49034941 4284435767
0.39166325 -0.03273426 0.49024057 4284436021
0.39120221 -0.032245949 0.49018872 4284303919
0.39074147 -0.031758055 0.4901368 4284501298
0.39028102 -0.031270579 0.49008495 4284698679
0.38982087 -0.030783534 0.49003303 4284567103
0.38930237 -0.030356526 0.48992416 4284304442
0.388843 -0.02987051 0.48987228 4284370489
0.38838392 -0.029384926 0.48982036 4285159490
0.38792521 -0.028899744 0.48976848 4285422662
0.38746676 -0.028414965 0.48971656 4285028154
0.38700861 -0.027930632 0.48966464 4284369710
0.38655078 -0.027446702 0.48961273 4284567089
0.38609326 -0.026963204 0.48956081 4284699443
0.38563603 -0.026480123 0.48950887 4284962615
0.3851791 -0.02599746 0.48945695 4284831288
0.38477963 -0.025453493 0.48946202 4284831288
0.38432318 -0.02497144 0.4894101 4284897083
0.38381019 -0.024551958 0.48930115 4284502327
0.38335454 -0.024070933 0.48924923 4284568120
0.38289914 -0.023590356 0.48919725 4284633659
0.38244405 -0.023110196 0.48914531 4284698687
0.3819893 -0.022630453 0.48909336 4284632898
0.3815909 -0.022087947 0.4890984 4284764995
0.3811366 -0.021608815 0.48904645 4284764995
0.38068259 -0.02113013 0.48899448 4284633659
0.38022888 -0.020651832 0.4889425 4284567866
0.37983096 -0.020109951 0.48894757 4284502073
0.37937769 -0.01963231 0.4888956 4284501310
0.37892479 -0.019155055 0.48884359 4284830275
0.37852716 -0.018613592 0.48884863 4286210646
0.37807471 -0.018136963 0.48879665 4286144842
0.37762251 -0.017660767 0.48874468 4286474822
0.37722519 -0.017119735 0.48874968 4286146375
0.37677351 -0.01664415 0.48869771 4286212168
0.43938661 -0.079772428 0.49792463 4287202153
0.4387432 -0.079314172 0.49775892 4286215258
0.43802714 -0.078896284 0.49753621 4286016332
0.43738571 -0.078440771 0.49737051 4285753162
0.43674523 -0.077986479 0.49720478 4285358665
0.43610567 -0.077533454 0.49703908 4284964679
0.435467 -0.077081703 0.49687332 4285029448
0.43490213 -0.07659103 0.4967646 4285029448
0.43433782 -0.076101229 0.49665588 4285490505
0.43377414 -0.075612254 0.49654713 4285753160
0.43328345 -0.075083368 0.4964954 4285883976
0.43264863 -0.074636802 0.49632961 4286015303
0.43208677 -0.074150339 0.49622083 4286212682
0.43159747 -0.073623314 0.49616909 4286345549
0.43096495 -0.073179916 0.49600327 4286279504
0.43040496 -0.072695941 0.49589449 4286278734
0.42984557 -0.0722128 0.49578571 4286147400
0.42928681 -0.071730509 0.4956769 4285818435
0.42872864 -0.07124906 0.4955681 4285094453
0.4281711 -0.070768446 0.49545926 4285028156
0.42761415 -0.070288643 0.49535042 4284830779
0.42705786 -0.069809698 0.49524158 4284633913
0.42657268 -0.069288313 0.49518982 4284633913
0.42601743 -0.068810821 0.49508095 4284174130
0.42546278 -0.068334177 0.49497211 4284503097
0.42497885 -0.067814447 0.49492028 4284305718
0.42449522 -0.067295164 0.49486846 4284372024
0.42401189 -0.066776283 0.49481666 4284108852
0.42352882 -0.066257834 0.49476483 4283977784
0.42297664 -0.065784529 0.49465594 4284305979
0.42242509 -0.06531205 0.49454704 4284174393
0.42194328 -0.064795263 0.49449521 4283976760
0.4213928 -0.06432423 0.49438632 4284239932
0.42091176 -0.063808486 0.49433446 4284043325
0.42029363 -0.063384712 0.49416846 4283451704
0.419745 -0.062916204 0.4940595 4283582776
0.41919696 -0.062448509 0.49395061 4283319098
0.41864955 -0.061981671 0.49384165 4283055926
0.41810274 -0.061515667 0.49373269 4282203433
0.41762444 -0.0610037 0.49368078 4280360975
0.4170787 -0.060539156 0.49357182 4279769108
0.41653359 -0.060075417 0.49346286 4279243290
0.4159891 -0.059612557 0.49335387 4279506462
0.41544518 -0.059150517 0.49324489 4279112472
0.41496906 -0.058641464 0.49319294 4278916376
0.41435924 -0.058228955 0.49302685 4278785305
0.41381717 -0.057769418 0.49291784 4278850835
0.41327572 -0.05731073 0.49280882 4278850833
0.4127349 -0.056852862 0.49269977 4278850833
0.41219467 -0.056395844 0.49259073 4278785044
0.41172132 -0.05589053 0.49253878 4278784792
0.41124827 -0.055385634 0.49248683 4278915858
0.41070956 -0.054930702 0.49237779 4278915860
0.41017151 -0.054476604 0.49226871 4278981653
0.40969968 -0.053973407 0.49221677 4278981651
0.40922815 -0.053470597 0.49216479 4279112726
0.40869159 -0.05301857 0.49205571 4279112726
0.40822083 -0.052516818 0.49200374 4279177747
0.40775037 -0.052015498 0.49195173 4279111954
0.40715051 -0.051616549 0.49178553 4278850837
0.4066163 -0.051167682 0.49167639 4278850065
0.40608266 -0.050719619 0.49156725 4278785042
0.40561408 -0.050220788 0.49151528 4278784790
0.40514573 -0.049722388 0.49146324 4278784790
0.40467775 -0.049224392 0.49141127 4279177747
0.40421003 -0.048726827 0.49135923 4279112722
0.40374267 -0.048229665 0.4913072 4278981387
0.40321195 -0.04778558 0.49119806 4278981136
0.40274531 -0.047289461 0.49114603 4279046929
0.40234232 -0.046740696 0.49115115 4278850067
0.40193933 -0.046191916 0.49115628 4278981653
0.40153632 -0.045643151 0.49116138 4278915608
0.40113333 -0.045094371 0.49116647 4278981401
0.40073031 -0.044545606 0.4911716 4278915608
0.40032732 -0.043996826 0.49117672 4279046933
0.39998668 -0.043393731 0.49123895 4279242768
0.39964578 -0.042790219 0.49130124 4279046929
0.39924246 -0.042241022 0.49130636 4279244058
0.3989011 -0.041636869 0.49136865 4279244058
0.39849764 -0.041087463 0.49137375 4280623384
0.39809418 -0.040538073 0.49137887 4282072617
0.39769071 -0.039988667 0.49138397 4283059508
0.39728728 -0.039439261 0.4913891 4282927922
0.39676148 -0.039001867 0.49127987 4282926893
0.39629731 -0.038509101 0.49122784 4283255086
0.39583343 -0.038016737 0.49117577 4283320627
0.39543056 -0.03746818 0.4911809 4283845174
0.3949672 -0.036976442 0.4911288 4283845174
0.39456448 -0.036428079 0.49113393 4284173878
0.39410156 -0.035936996 0.49108183 4283976499
0.39369899 -0.035388842 0.49108696 4283910706
0.39323652 -0.034898371 0.49103487 4283976499
0.39277434 -0.034408316 0.49098277 4283976499
0.39231247 -0.033918679 0.49093068 4283975729
0.3919104 -0.03337115 0.4909358 4284370487
0.39138964 -0.032940656 0.49082649 4284370739
0.39092872 -0.032452255 0.49077442 4284370224
0.39040905 -0.032023206 0.49066511 4284698939
0.38994884 -0.031535864 0.49061298 4284698939
0.389489 -0.031048939 0.49056089 4284501312
0.38902938 -0.030562446 0.49050874 4284172856
0.38857013 -0.030076355 0.49045664 4284370489
0.38805294 -0.029650643 0.49034733 4285159490
0.38753632 -0.029225767 0.49023795 4285488455
0.38713622 -0.028680965 0.49024305 4285290812
0.38667837 -0.028196752 0.49019092 4284763952
0.38622075 -0.027712971 0.49013877 4284567343
0.3857635 -0.027229577 0.49008662 4284568370
0.38530654 -0.026746631 0.49003446 4284897335
0.38490707 -0.026202664 0.49003953 4284766265
0.38445055 -0.025720328 0.48998737 4284766265
0.38399434 -0.025238425 0.48993522 4284700474
0.38353848 -0.024756923 0.48988307 4284503095
0.3830829 -0.024275824 0.48983091 4284634681
0.38268405 -0.023732692 0.48983595 4284503095
0.38222891 -0.023252249 0.48978376 4284765247
0.3817741 -0.022772208 0.48973161 4284633407
0.38137555 -0.022229493 0.48973665 4284764993
0.38092119 -0.021750093 0.48968446 4284764993
0.38046712 -0.021271095 0.48963228 4284502075
0.38001338 -0.020792544 0.48958009 4284567607
0.37955993 -0.020314381 0.48952788 4284633400
0.37910682 -0.019836649 0.48947567 4286145619
0.37870902 -0.019294977 0.48948073 4285948240
0.37825638 -0.018817857 0.48942852 4286276437
0.37780398 -0.018341139 0.48937634 4286276941
0.37740654 -0.017799884 0.48938137 4286343234
0.37695462 -0.017323837 0.48932916 4286081096
0.43830875 -0.079608403 0.49825945 4286349685
0.4375934 -0.079190612 0.49803585 4285951836
0.43695259 -0.078735255 0.49786949 4285885779
0.43638593 -0.078241743 0.49776033 4285556814
0.43574679 -0.077788703 0.49759391 4285096265
0.43510863 -0.077336892 0.49742752 4284964425
0.4346168 -0.076806247 0.49737561 4284964425
0.43398017 -0.076356553 0.49720913 4285292611
0.43341684 -0.075867631 0.49709994 4285424449
0.43292642 -0.075338855 0.49704802 4286344527
0.43236417 -0.074851386 0.49693879 4286475340
0.43180251 -0.074364766 0.49682957 4286475340
0.43124151 -0.073878974 0.49672037 4286541385
0.43068111 -0.073394023 0.49661112 4286476106
0.43004984 -0.072951607 0.49644464 4286278473
0.42956215 -0.072426595 0.49639267 4286212680
0.4289324 -0.071986303 0.49622613 4286015301
0.42837459 -0.071504891 0.49611688 4285159992
0.42781743 -0.071024314 0.49600762 4284897085
0.42726088 -0.070544571 0.49589831 4284634429
0.42670488 -0.07006567 0.49578905 4284437304
0.42621997 -0.069544435 0.49573702 4284305718
0.42566508 -0.069066994 0.4956277 4284633911
0.42518094 -0.068546787 0.49557567 4284568118
0.4246971 -0.068026975 0.49552366 4284304948
0.42421356 -0.067507617 0.4954716 4284305466
0.42373031 -0.066988662 0.49541956 4284239673
0.4232474 -0.066470131 0.49536753 4284437052
0.4226954 -0.065996662 0.49525821 4284305979
0.42221326 -0.065479167 0.49520615 4284239671
0.42166236 -0.065007165 0.4950968 4283977014
0.42118096 -0.064490698 0.49504474 4284240186
0.42063117 -0.064020149 0.49493539 4284109370
0.42015052 -0.063504755 0.4948833 4283846198
0.41953334 -0.06308157 0.49471661 4283714612
0.41898537 -0.062613532 0.49460721 4283845174
0.41850615 -0.062099993 0.49455515 4283647795
0.41789123 -0.061679944 0.4943884 4283384623
0.41741294 -0.061167672 0.49433634 4282990117
0.41686723 -0.060702771 0.49422693 4282924072
0.41632217 -0.060238689 0.4941175 4282004519
0.41584507 -0.059728071 0.49406537 4281215003
0.41530108 -0.059265465 0.49395594 4280163096
0.41475767 -0.058803692 0.49384651 4279440151
0.41421491 -0.058342755 0.49373704 4279047192
0.41360605 -0.057930827 0.49357027 4279112722
0.41313124 -0.057423368 0.49351811 4278981651
0.41265675 -0.056916311 0.49346596 4278981651
0.41204998 -0.056507334 0.49329913 4278981653
0.41157642 -0.056001544 0.49324697 4278915860
0.41110313 -0.055496171 0.49319482 4279111952
0.41056436 -0.055040628 0.49308532 4279177745
0.41009188 -0.054536298 0.49303311 4279177745
0.40955415 -0.05408226 0.49292362 4279046933
0.40908244 -0.053578958 0.49287143 4279046933
0.40854579 -0.05312638 0.49276191 4279177749
0.4080748 -0.052624136 0.4927097 4279046679
0.40753928 -0.052172989 0.49260017 4278980886
0.40700433 -0.05172269 0.49249062 4278784790
0.40653458 -0.051222131 0.49243838 4278785042
0.40593627 -0.050824627 0.49227148 4278850063
0.40546745 -0.050325304 0.49221924 4278916626
0.40499893 -0.049826384 0.49216703 4278916626
0.40453073 -0.04932788 0.49211478 4279177745
0.403999 -0.048881978 0.4920052 4279178515
0.40353155 -0.048384547 0.49195296 4279111952
0.40312794 -0.047834948 0.49195808 4278849813
0.40266097 -0.047338113 0.49190584 4278915606
0.4022575 -0.046788722 0.49191096 4278915860
0.40172791 -0.046345741 0.49180132 4279046933
0.40132475 -0.045796752 0.49180645 4279046933
0.40092161 -0.045247778 0.49181157 4279112726
0.40051845 -0.04469879 0.49181667 4279112726
0.40024018 -0.044041723 0.49193656 4279244312
0.39983675 -0.043492317 0.49194166 4279703315
0.39943328 -0.042942926 0.49194679 4280820763
0.39902982 -0.04239352 0.49195188 4282069285
0.39862636 -0.041844115 0.49195701 4282332457
0.39834625 -0.041184545 0.49207693 4283253030
0.39781943 -0.040745318 0.49196726 4283450920
0.39741597 -0.040195927 0.49197239 4283649071
0.39701253 -0.039646521 0.49197748 4283583278
0.39660907 -0.039097115 0.49198261 4283583278
0.39608377 -0.03865999 0.49187294 4283583790
0.39561987 -0.038167343 0.49182066 4283649585
0.39515623 -0.037675112 0.49176836 4283649071
0.3947534 -0.037126541 0.49177349 4283649071
0.39429024 -0.036634937 0.49172118 4283846450
0.39382741 -0.03614378 0.49166888 4283714864
0.39342487 -0.035595626 0.49167401 4283845678
0.39296249 -0.035105065 0.49162167 4284174130
0.3925004 -0.03461495 0.49156937 4283910958
0.39203864 -0.034125224 0.49151707 4284107569
0.39151782 -0.033694148 0.49140733 4284239925
0.39105684 -0.033205464 0.49135503 4284502843
0.39059612 -0.032717198 0.49130267 4284897601
0.39007682 -0.032288209 0.49119294 4284437052
0.38961691 -0.031800985 0.4911406 4284305466
0.38915727 -0.031314209 0.49108827 4284172856
0.38869795 -0.03082782 0.49103594 4284173362
0.38823894 -0.030341879 0.49098355 4284897085
0.3877221 -0.029916197 0.49087378 4285225796
0.38726386 -0.029431283 0.49082142 4285357382
0.38680595 -0.028946787 0.49076909 4284896318
0.38634831 -0.028462723 0.4907167 4284633146
0.38589099 -0.027979046 0.49066433 4284436280
0.38543397 -0.027495816 0.49061197 4284633911
0.3850345 -0.026951849 0.49061704 4284765497
0.38457793 -0.026469216 0.49056467 4285028921
0.38412169 -0.025987029 0.49051225 4284963128
0.38372254 -0.025443479 0.49051732 4284765495
0.38326675 -0.024961889 0.49046496 4284634681
0.38286772 -0.024418548 0.49047002 4284700474
0.38241243 -0.023937583 0.49041763 4284503093
0.38201356 -0.023394451 0.49042267 4284831292
0.38155869 -0.022914141 0.49037027 4284633661
0.38110411 -0.02243422 0.49031788 4284502075
0.38070557 -0.021891505 0.49032295 4284567868
0.38025147 -0.021412238 0.49027053 4284502073
0.3797977 -0.020933375 0.4902181 4285357632
0.37934417 -0.020454943 0.49016571 4285883976
0.37889099 -0.019976914 0.49011326 4286277971
0.37849307 -0.019435033 0.49011832 4286212178
0.37804034 -0.018957645 0.49006587 4286211666
0.37758794 -0.018480659 0.49001348 4286080846
0.43659312 -0.078990325 0.49842501 4285951572
0.43595374 -0.078536205 0.49825794 4285819216
0.43531525 -0.078083351 0.49809083 4285292872
0.43475047 -0.077591948 0.49798125 4285161288
0.43411362 -0.077141389 0.49781412 4285095495
0.43355024 -0.076651894 0.49770451 4285161025
0.43305975 -0.076122835 0.49765235 4285555265
0.43249741 -0.075634785 0.49754268 4286278988
0.43193567 -0.075147584 0.49743301 4286541133
0.43137455 -0.074661225 0.49732336 4286475340
0.43088576 -0.074134462 0.49727118 4286212420
0.43025419 -0.073690996 0.49710402 4286475338
0.4297663 -0.073165484 0.49705178 4286409545
0.42913625 -0.072724096 0.49688464 4286212166
0.4285782 -0.072241917 0.49677491 4286146373
0.42802078 -0.071760565 0.49666521 4285291580
0.42746395 -0.071280032 0.49655548 4284766267
0.42690775 -0.070800349 0.49644575 4284700989
0.42642263 -0.0702786 0.49639353 4284634681
0.4258675 -0.069800377 0.49628377 4284371509
0.42538312 -0.069279686 0.49623153 4284765497
0.42482907 -0.068802901 0.49612176 4284568118
0.42434549 -0.068283252 0.49606952 4284304694
0.4239319 -0.06772007 0.49607477 4284501821
0.42344877 -0.067201033 0.49602252 4284370235
0.42296594 -0.066682428 0.49597025 4284633661
0.42248344 -0.066164225 0.49591798 4284305464
0.42193213 -0.065691233 0.49580818 4284305718
0.42145038 -0.065174088 0.49575588 4284173878
0.42090017 -0.064702526 0.49564609 4284173878
0.42035055 -0.06423182 0.49553627 4284174391
0.41987002 -0.063716345 0.49548399 4283977012
0.41932148 -0.063247107 0.49537414 4283977012
0.41877353 -0.062778704 0.49526432 4283845428
0.41822624 -0.062311105 0.4951545 4283713842
0.41774741 -0.061797932 0.49510217 4283713329
0.41720116 -0.061331823 0.49499232 4283779120
0.41665554 -0.06086655 0.49488243 4283582254
0.41617793 -0.060355037 0.49483013 4282859303
0.41563338 -0.059891224 0.49472025 4282661924
0.41508943 -0.05942823 0.49461037 4281543453
0.4145461 -0.058966085 0.49450046 4280096020
0.41407019 -0.058456868 0.49444813 4279505944
0.41352794 -0.057996184 0.49433821 4279309582
0.41298631 -0.057536349 0.4942283 4279243789
0.41244528 -0.057077318 0.49411839 4279112722
0.41197103 -0.056570396 0.494066 4279113239
0.41149712 -0.056063905 0.49401361 4278915860
0.41089177 -0.055656135 0.49384612 4279047182
0.41041875 -0.055150896 0.49379373 4279177745
0.40994602 -0.054646045 0.49374133 4279177745
0.40947366 -0.054141626 0.49368894 4279046933
0.40893629 -0.053687632 0.49357897 4279112724
0.40839958 -0.053234473 0.493469 4279112724
0.40786344 -0.052782148 0.49335903 4278915606
0.40739274 -0.052280039 0.49330658 4278981399
0.4068577 -0.051829144 0.49319661 4278784790
0.40638775 -0.051328078 0.49314415 4278785044
0.40591812 -0.050827429 0.49309176 4278981136
0.4053846 -0.05037865 0.49298173 4279047442
0.4048517 -0.049930707 0.4928717 4279047442
0.4043833 -0.049431726 0.49281925 4279046929
0.4039152 -0.048933148 0.4927668 4279178515
0.40338385 -0.048487291 0.49265677 4279177747
0.40291649 -0.047989756 0.49260429 4278981399
0.40251273 -0.047439948 0.49260941 4278915606
0.40204585 -0.046943054 0.49255693 4278915860
0.40164223 -0.046393454 0.49256206 4279046931
0.40123862 -0.04584384 0.49256718 4279309331
0.40083498 -0.04529424 0.49257231 4279506710
0.40043139 -0.044744626 0.49257743 4279835675
0.40002775 -0.044195011 0.49258253 4282005287
0.39962417 -0.043645412 0.49258766 4282596904
0.39922053 -0.043095797 0.49259278 4282991151
0.39881694 -0.042546183 0.49259788 4282925360
0.3984133 -0.041996583 0.492603 4283320118
0.39800969 -0.041446969 0.49260813 4283647797
0.39760607 -0.040897369 0.49261326 4283779633
0.39720246 -0.040347755 0.49261838 4283779635
0.39679885 -0.039798155 0.49262351 4283779635
0.39633429 -0.039304376 0.492571 4283779635
0.3958092 -0.038867086 0.49246088 4284042294
0.39534542 -0.038374364 0.49240839 4284239673
0.3948819 -0.03788206 0.49235588 4283844915
0.39447904 -0.037333488 0.49236098 4283976501
0.39401603 -0.03684181 0.49230844 4283976501
0.39355329 -0.036350563 0.49225593 4283977266
0.39309084 -0.035859704 0.49220341 4284108848
0.39262873 -0.035369292 0.49215087 4284108850
0.39216691 -0.034879282 0.49209833 4283911471
0.39170539 -0.034389704 0.49204582 4284700472
0.3912442 -0.033900529 0.49199325 4286148683
0.39072418 -0.033470124 0.49188307 4285358915
0.39026374 -0.032981977 0.49183053 4284436028
0.38980362 -0.032494277 0.49177796 4284172345
0.3893438 -0.032006979 0.49172541 4284238138
0.38888431 -0.031520128 0.49167284 4284501821
0.3883667 -0.031093061 0.4915626 4284503097
0.38784978 -0.030666813 0.4914524 4284766780
0.38739148 -0.030181617 0.49139982 4284832573
0.38693351 -0.029696822 0.49134725 4284832573
0.38647583 -0.029212475 0.49129465 4284437563
0.38601846 -0.028728515 0.49124205 4284831040
0.38556141 -0.028245002 0.49118948 4284830786
0.38516191 -0.02770102 0.49119455 4284896320
0.38470533 -0.027218103 0.49114195 4284896320
0.38430601 -0.026674345 0.49114701 4284962363
0.38384986 -0.026192069 0.49109441 4284962361
0.38345069 -0.025648534 0.49109948 4284831290
0.38299501 -0.025166869 0.49104685 4284897083
0.38265234 -0.02456142 0.49110958 4284765497
0.38214079 -0.024142474 0.49099931 4284502325
0.38179797 -0.023536831 0.49106205 4284567605
0.38128716 -0.023118943 0.49095175 4284633400
0.38094419 -0.022513062 0.49101448 4285291841
0.38043416 -0.022096246 0.49090415 4285489220
0.37998015 -0.021616891 0.49085152 4286016584
0.37952647 -0.021137953 0.49079889 4286214224
0.37912822 -0.020595655 0.49080396 4286213713
0.37867498 -0.020117342 0.4907513 4286146898
0.37822205 -0.019639447 0.49069864 4285883726
0.37782413 -0.019097567 0.4907037 4285555533
0.43608761 -0.079323336 0.49886471 4285885529
0.43544897 -0.078869626 0.49869692 4286278736
0.43495691 -0.078338176 0.49864459 4285554498
0.43431979 -0.077886537 0.49847683 4285357632
0.43375617 -0.077396259 0.49836677 4285291839
0.43326545 -0.076866716 0.49831435 4285423679
0.43270284 -0.076377898 0.49820426 4285949510
0.43214089 -0.075889885 0.49809417 4286476365
0.43157953 -0.075402737 0.49798405 4286475852
0.4310905 -0.074875489 0.49793166 4286081094
0.43053019 -0.074389808 0.49782151 4285488195
0.42997056 -0.073904946 0.49771142 4285226566
0.42941147 -0.073420912 0.49760127 4285687371
0.42885303 -0.072937734 0.49749112 4285818185
0.4282952 -0.072455391 0.49738097 4285883978
0.42773798 -0.071973883 0.49727082 4285488705
0.4271107 -0.071535587 0.49710295 4285028921
0.42662537 -0.071013361 0.49705046 4284832310
0.42606997 -0.070534356 0.49694028 4284832310
0.42558542 -0.070013151 0.49688783 4284898103
0.42510116 -0.069492377 0.49683535 4284831542
0.42454731 -0.069015436 0.49672514 4284568116
0.42406383 -0.068495706 0.49667266 4284436534
0.42358065 -0.067976385 0.49662018 4284502075
0.42316723 -0.067413412 0.49662542 4284436282
0.42268449 -0.066894725 0.49657291 4284436280
0.42220211 -0.066376448 0.49652043 4284436534
0.42165101 -0.065903291 0.49641019 4284370741
0.42116934 -0.065386072 0.49635768 4284370741
0.42061934 -0.064914346 0.49624747 4284436534
0.42013845 -0.06439817 0.49619496 4284239925
0.41958952 -0.063927934 0.49608469 4284239925
0.41904116 -0.06345854 0.49597439 4284173878
0.41849345 -0.062989973 0.49586412 4283976753
0.41801429 -0.062476084 0.49581158 4283845167
0.41746762 -0.062008962 0.49570128 4284041776
0.41692159 -0.061542705 0.49559098 4284041776
0.41637617 -0.061077267 0.49548066 4283975983
0.41589868 -0.06056568 0.49542814 4283515948
0.41542146 -0.060054511 0.49537554 4283976499
0.41487759 -0.059591129 0.49526525 4283451440
0.41433433 -0.059128627 0.49515492 4283450418
0.41385835 -0.058619142 0.49510232 4282989356
0.41331616 -0.058158085 0.49499196 4282529303
0.41284096 -0.057649627 0.49493939 4282726682
0.41236603 -0.057141587 0.49488679 4280558091
0.41182542 -0.056682602 0.49477643 4279638799
0.41128534 -0.05622448 0.49466604 4279902489
0.41081166 -0.055718124 0.49461344 4279244813
0.41027269 -0.055261463 0.49450305 4279244813
0.40973431 -0.054805636 0.49439263 4279506445
0.40926188 -0.054300919 0.49434003 4279440398
0.40878975 -0.053796619 0.49428743 4279375377
0.40825292 -0.053342894 0.49417698 4279309331
0.40778154 -0.052839652 0.49412435 4279112726
0.40718108 -0.052437931 0.49395615 4279046933
0.40671062 -0.051935941 0.49390349 4278981653
0.40617612 -0.051485315 0.49379307 4278981399
0.40570644 -0.050984383 0.49374038 4279112724
0.40523708 -0.050483853 0.49368775 4279113488
