# .PCD v0.7 - Point Cloud Data file format
VERSION 0.7
FIELDS x y z rgb
SIZE 4 4 4 4
TYPE F F F U
COUNT 1 1 1 1
WIDTH 1067
HEIGHT 1
VIEWPOINT 0 0 0 1 0 0 0
POINTS 1067
DATA ascii
0.4690389 0.044345841 0.4932659 4282923032
0.4696064 0.044638261 0.49327287 4282988825
0.47023013 0.044843912 0.49327883 4282792475
0.47079694 0.045136064 0.4932858 4282924578
0.47142041 0.045341641 0.49329174 4283318051
0.47198644 0.045633569 0.49329871 4283318053
0.47260967 0.045839041 0.49330464 4283515432
0.47317499 0.046130717 0.49331158 4283383331
0.47379798 0.046336129 0.49331751 4283054366
0.47436255 0.046627551 0.49332449 4283120674
0.4749853 0.04683286 0.49333042 4282988836
0.4755491 0.047124088 0.49333736 4283120422
0.47611243 0.047415093 0.49334431 4283055399
0.4767347 0.047620252 0.49335021 4283187244
0.47729728 0.047911063 0.49335715 4283251241
0.47791928 0.048116148 0.49336308 4283447338
0.47848114 0.048406661 0.49337 4283381545
0.47910291 0.048611671 0.49337593 4283512352
0.47966403 0.04890199 0.49338284 4283578395
0.48028553 0.049106896 0.49338877 4283447329
0.48090705 0.049311817 0.49339467 4283513122
0.48146719 0.049601793 0.49340159 4283578915
0.48215008 0.049721658 0.4934065 4283447338
0.48277158 0.049926564 0.49341244 4283381815
0.48345521 0.050046638 0.49341735 4283184946
0.48413929 0.05016692 0.4934223 4283251243
0.48488653 0.050202683 0.49342623 4283448622
0.48569757 0.050154209 0.49342921 4283646001
0.4865101 0.050106198 0.49343222 4283843380
0.48732406 0.050058678 0.49343523 4284105270
0.48826671 0.049842998 0.49343631 4284500528
0.48914796 0.04971236 0.49343836 4284434735
0.48996714 0.049666554 0.49344143 4284434735
0.49098074 0.049368963 0.49344158 4284696626
0.49193275 0.049156368 0.49344274 4286408014
0.49269274 0.049196348 0.49344683 4286210635
0.49351877 0.049152821 0.49344996 4286867541
0.37959325 0.0028521419 0.49292091 4283322682
0.38018441 0.0033629239 0.4929305 4283257141
0.38081518 0.0036762059 0.49293783 4282665002
0.38140389 0.0041861534 0.4929474 4282269728
0.38199115 0.0046956837 0.49295694 4282138142
0.38257691 0.0052047074 0.49296647 4282400801
0.38320422 0.0055168271 0.49297377 4282401312
0.38378751 0.0060250163 0.49298328 4282402341
0.38439137 0.0064347088 0.49299169 4282337066
0.38499421 0.0068440735 0.49300006 4282337066
0.38561857 0.0071552098 0.49300733 4282140205
0.38621968 0.0075640082 0.49301568 4281942826
0.38684279 0.0078747571 0.49302295 4282139687
0.38746545 0.0081853271 0.49303019 4282007847
0.38808757 0.0084957778 0.49303743 4282007847
0.38870925 0.00880602 0.49304467 4281942054
0.38935438 0.0090187192 0.49305081 4282007849
0.38995105 0.0094260275 0.49305913 4282007079
0.39057124 0.0097357929 0.49306637 4282007077
0.39121562 0.0099482536 0.49307251 4282072870
0.39183506 0.01025781 0.49307972 4282073640
0.39245403 0.010567158 0.49308693 4282073642
0.39307246 0.010876387 0.49309415 4281942058
0.39369044 0.011185408 0.49310133 4281678632
0.39430791 0.011494309 0.49310854 4281678632
0.39495105 0.011706352 0.49311465 4281809191
0.39556777 0.012014985 0.49312186 4281874214
0.39618403 0.012323469 0.49312904 4281874214
0.39682668 0.012535363 0.49313515 4281874214
0.39746937 0.012747258 0.49314126 4281874214
0.39805722 0.013151646 0.49314952 4282005539
0.3986994 0.013363361 0.49315563 4281874203
0.39931366 0.013671219 0.49316278 4281939996
0.39992744 0.013978869 0.49316996 4281808923
0.40056911 0.014190435 0.49317607 4281808923
0.40118217 0.014497861 0.49318323 4281808671
0.4017947 0.014805108 0.49319038 4281939494
0.40240675 0.015112221 0.49319753 4281610529
0.40301833 0.01541914 0.49320465 4281413665
0.40362939 0.015725926 0.49321181 4281413665
0.40421009 0.016127959 0.49321997 4281216032
0.40481994 0.016434342 0.49322709 4280427290
0.40539891 0.016835824 0.49323526 4278914824
0.40597692 0.017236993 0.4932434 4278520838
0.40652308 0.017732948 0.49325255 4278520838
0.40709886 0.018133372 0.49326068 4278520836
0.40761095 0.018723413 0.49327084 4278520838
0.40818426 0.019123033 0.49327895 4278651401
0.40875661 0.019522294 0.49328703 4278520585
0.40932795 0.019921273 0.4932951 4278586378
0.40993068 0.020225316 0.49330217 4278521098
0.41050029 0.020623714 0.49331024 4278521102
0.41110179 0.020927295 0.49331728 4278455305
0.41163662 0.021419525 0.49332634 4278455558
0.41220328 0.021816954 0.49333438 4278455558
0.41280255 0.02211985 0.49334139 4278521351
0.41343513 0.022328421 0.49334741 4278586631
0.41403365 0.022631034 0.49335444 4278586378
0.41463169 0.022933528 0.49336144 4278586631
0.41522923 0.023235813 0.49336845 4278586631
0.41582626 0.023537979 0.49337548 4278455045
0.41645786 0.023746222 0.49338147 4278586629
0.41712475 0.023860782 0.49338651 4278586631
0.41772106 0.02416271 0.49339351 4278520836
0.41838846 0.024277434 0.49339855 4278520836
0.4190203 0.024485752 0.49340454 4278455045
0.41965213 0.02469407 0.49341056 4278520838
0.42028397 0.024902403 0.49341658 4278520836
0.42102611 0.024831221 0.49341968 4278520838
0.42173272 0.024853587 0.49342376 4278520838
0.42240307 0.02496928 0.49342883 4278586382
0.42307389 0.025085181 0.49343389 4278586380
0.42378294 0.025108352 0.49343801 4278521098
0.42453098 0.025039122 0.49344116 4278521098
0.42524227 0.025063038 0.49344528 4278521098
0.42599303 0.024994686 0.49344847 4278455307
0.42674524 0.024926797 0.49345165 4278389514
0.42753795 0.024766937 0.49345392 4278454024
0.42833257 0.024607778 0.49345621 4278454024
0.42905027 0.02463381 0.49346039 4278454024
0.42980865 0.024567947 0.49346367 4278454275
0.43052852 0.024594724 0.49346787 4278454273
0.43120921 0.024713844 0.49347302 4278585610
0.43189037 0.024833128 0.49347818 4278651403
0.43257201 0.024952576 0.49348336 4278651401
0.43325415 0.025072187 0.49348852 4278717445
0.43381321 0.025467098 0.49349648 4278651652
0.43445414 0.025678426 0.49350259 4278651652
0.43505341 0.025981292 0.49350962 4278520836
0.4356522 0.026284024 0.49351662 4278520836
0.43629265 0.026495188 0.49352273 4278520836
0.43689066 0.026797652 0.49352974 4278520836
0.43753088 0.027008727 0.49353585 4278455043
0.43812817 0.027310953 0.49354285 4278520838
0.43868181 0.02770409 0.49355075 4278521090
0.43923447 0.028096884 0.49355868 4278455297
0.43987346 0.028307572 0.49356475 4278454528
0.44042462 0.02869989 0.49357262 4278454528
0.44097483 0.02909188 0.49358052 4278455297
0.44152403 0.029483557 0.49358839 4278455297
0.44198298 0.030056059 0.49359804 4278323457
0.44257462 0.030356422 0.49360499 4278520838
0.44303036 0.030927882 0.49361461 4278651401
0.44348413 0.031498685 0.49362421 4278651401
0.44398159 0.031978577 0.49363291 4278521351
0.44443166 0.032548159 0.49364248 4278521349
0.44483367 0.033207163 0.49365291 4278455810
0.44527957 0.033775389 0.49366245 4278586883
0.44567692 0.034432858 0.49367285 4278586883
0.44611862 0.034999683 0.49368232 4278782720
0.4466055 0.035476089 0.49369091 4278717697
0.44709086 0.035952017 0.49369949 4278717445
0.44762236 0.036337852 0.49370721 4278782987
0.44810504 0.036812887 0.49371576 4278783238
0.44863433 0.037197962 0.49372345 4278717445
0.44911426 0.037672117 0.49373198 4278914308
0.44968992 0.037967205 0.49373877 4278848263
0.45021623 0.038351327 0.49374643 4278782989
0.45079064 0.038646027 0.49375322 4278586893
0.45131528 0.039029554 0.49376085 4278586893
0.45188844 0.039323851 0.49376762 4278586380
0.45246112 0.039617956 0.49377441 4278586631
0.45298326 0.040000692 0.49378201 4278717445
0.45360503 0.040205687 0.49378794 4278783240
0.45417625 0.040499344 0.49379471 4278783240
0.45474696 0.040792808 0.49380144 4278717447
0.4553172 0.041086122 0.49380821 4278783238
0.45598948 0.041202471 0.49381328 4278717445
0.45661077 0.041407317 0.49381918 4278783240
0.45728379 0.041523919 0.49382427 4278849033
0.45795733 0.041640669 0.49382937 4278652171
0.45863134 0.041757628 0.49383447 4278652424
0.45930588 0.041874692 0.49383956 4278652676
0.46003366 0.041904047 0.49384385 4278783492
0.46070939 0.042021573 0.49384895 4278849285
0.46138561 0.042139232 0.49385408 4279374348
0.46206236 0.042257056 0.4938592 4280491028
0.46273956 0.042375058 0.49386433 4282134295
0.46336329 0.042580694 0.49387026 4282530336
0.46404123 0.04269892 0.49387538 4282332957
0.46466523 0.042904645 0.49388134 4282333211
0.46523446 0.043197632 0.49388808 4282725914
0.46585816 0.043403283 0.49389401 4282659610
0.4664267 0.043696016 0.49390075 4282922782
0.46705016 0.043901578 0.49390668 4282725403
0.46767366 0.044107139 0.49391261 4282922782
0.46824116 0.044399559 0.49391934 4282922264
0.4688082 0.044691801 0.49392605 4283119897
0.46937475 0.044983864 0.49393278 4282923291
0.4699975 0.045189187 0.49393868 4282725912
0.47056326 0.045481056 0.49394539 4283054881
0.47118577 0.045686305 0.49395132 4283318053
0.47180825 0.045891538 0.49395725 4283251493
0.47237307 0.046183035 0.49396396 4282988321
0.47299534 0.046388194 0.49396989 4283186465
0.47355938 0.046679497 0.49397656 4283055129
0.47418141 0.046884567 0.49398249 4283186204
0.47474474 0.047175586 0.49398917 4282790942
0.4753665 0.047380581 0.4939951 4283054114
0.47592908 0.047671393 0.49400178 4283252526
0.47649121 0.04796201 0.49400845 4283187244
0.47711247 0.048166841 0.49401435 4283251495
0.47767383 0.048457235 0.49402103 4283512870
0.47823474 0.04874745 0.49402767 4283577891
0.47885549 0.048952118 0.49403358 4283643684
0.47947627 0.0491568 0.49403951 4283381532
0.48003617 0.049446672 0.49404615 4283447327
0.48065668 0.049651265 0.49405205 4283512868
0.48127723 0.049855858 0.49405795 4283447075
0.48195937 0.049975485 0.49406314 4283447590
0.48258013 0.050180167 0.49406904 4283184684
0.48326302 0.050300017 0.49407423 4283184686
0.48400873 0.050335288 0.49407867 4283842094
0.48481804 0.050286204 0.49408242 4283907887
0.48562884 0.050237671 0.49408618 4284106038
0.48637801 0.050274074 0.49409068 4284171829
0.48725483 0.05014199 0.49409372 4283974704
0.48813364 0.050010547 0.49409682 4284499243
0.48901439 0.04987976 0.49409992 4284499243
0.48996121 0.049665451 0.49410233 4285091886
0.49097481 0.049367845 0.49410403 4286407746
0.49186224 0.049239248 0.49410722 4286802768
0.49268678 0.049195215 0.49411109 4286868561
0.49370801 0.048900142 0.49411288 4286408010
0.38015801 0.0034604073 0.49361715 4283585854
0.38074747 0.0039705932 0.49362594 4283520313
0.38137698 0.004283458 0.49363297 4282729773
0.381964 0.0047928989 0.49364176 4282335015
0.38254952 0.0053018332 0.49365053 4282138660
0.38313356 0.0058102906 0.49365926 4282269474
0.38373789 0.0062201321 0.49366713 4282270244
0.38429725 0.0068257153 0.49367672 4282467623
0.3849436 0.0070388317 0.49368286 4282467623
0.38552248 0.0075455904 0.49369156 4282467882
0.38614535 0.0078562796 0.49369857 4282139433
0.38674477 0.008264482 0.49370638 4282271273
0.38736641 0.0085747242 0.49371335 4282073894
0.38798758 0.0088848174 0.49372032 4282008101
0.38860828 0.0091947615 0.4937273 4282138917
0.38922843 0.0095045269 0.49373427 4282204456
0.38984811 0.0098141432 0.49374124 4282204199
0.39049178 0.010026366 0.49374735 4282072613
0.39111072 0.010335714 0.49375433 4282138406
0.39172918 0.010644943 0.49376127 4282138663
0.39234716 0.010953963 0.49376822 4282072872
0.3929646 0.011262894 0.49377516 4282204203
0.39355591 0.011668384 0.49378291 4282204201
0.39419809 0.01188013 0.49378902 4282006822
0.39481407 0.012188524 0.49379593 4281743648
0.39542958 0.01249674 0.49380288 4281809443
0.39607126 0.012708306 0.49380898 4281809443
0.39671296 0.012919873 0.49381506 4281874466
0.39732748 0.013227791 0.49382198 4281940259
0.3979415 0.013535529 0.49382889 4282006050
0.3985827 0.013746947 0.493835 4281808412
0.39919597 0.014054447 0.49384189 4281939996
0.39983693 0.014265776 0.493848 4281940509
0.40044948 0.014573038 0.49385488 4281874716
0.40106153 0.014880136 0.49386179 4281743132
0.40167311 0.015187055 0.49386868 4281874718
0.40228418 0.015493825 0.49387553 4281743132
0.40286538 0.015896052 0.49388319 4281545499
0.40347522 0.01620242 0.49389008 4281479706
0.40408456 0.016508609 0.49389693 4281216538
0.40469342 0.016814664 0.49390379 4280361493
0.40530181 0.01712054 0.49391064 4279309836
0.40587905 0.017521456 0.49391827 4278652937
0.40642446 0.018017158 0.49392664 4278455558
0.40696841 0.018512413 0.49393502 4278586631
0.40754223 0.018912196 0.49394259 4278520838
0.40808347 0.019406527 0.49395093 4278520838
0.40865508 0.019805595 0.4939585 4278651654
0.4092578 0.020109579 0.4939653 4278651654
0.40982768 0.020508066 0.49397284 4278455305
0.410364 0.021000773 0.49398112 4278455307
0.41093165 0.021398529 0.49398866 4278455305
0.41153142 0.021701604 0.49399543 4278455558
0.41213068 0.022004455 0.49400219 4278455558
0.41272944 0.022307187 0.49400896 4278455558
0.41332772 0.022609726 0.49401572 4278586629
0.41392553 0.022912145 0.49402246 4278521349
0.41452283 0.02321434 0.49402922 4278521349
0.41511962 0.023516402 0.49403596 4278520838
0.41571593 0.023818314 0.49404269 4278455045
0.41634679 0.024026319 0.49404871 4278586629
0.41697764 0.02423431 0.4940547 4278586629
0.41757298 0.024535879 0.49406144 4278520836
0.41820359 0.024743795 0.49406743 4278520836
0.41879818 0.025045156 0.49407417 4278520836
0.41946483 0.025159642 0.49407944 4278520838
0.42016846 0.02518104 0.49408403 4278520836
0.42079958 0.02538912 0.49409002 4278586631
0.42146769 0.025504112 0.49409533 4278586631
0.42202452 0.025898293 0.49410275 4278586382
0.42269289 0.026013359 0.49410805 4278520587
0.42336175 0.02612859 0.49411336 4278520585
0.42414507 0.025965676 0.49411657 4278455558
0.42489213 0.025896102 0.49412051 4278455558
0.42560217 0.025919616 0.49412513 4278455305
0.42631319 0.025943443 0.49412978 4278455307
0.42714214 0.025690287 0.49413234 4278585610
0.4278951 0.025622651 0.49413633 4278585610
0.428689 0.025463223 0.49413964 4278585861
0.42944518 0.025396615 0.49414366 4278585089
0.43020278 0.025330544 0.49414769 4278585344
0.43096191 0.025264949 0.49415171 4278716426
0.43168205 0.025291786 0.49415645 4278716426
0.43236247 0.025410816 0.49416187 4278585861
0.43308431 0.025438234 0.49416661 4278585859
0.43372476 0.025649399 0.49417272 4278651652
0.43436521 0.025860563 0.4941788 4278651652
0.434964 0.026163265 0.49418557 4278585859
0.43556228 0.026465818 0.49419233 4278586113
0.43616006 0.026768208 0.4941991 4278651906
0.43679976 0.026979133 0.49420518 4278520836
0.43739682 0.027281269 0.49421191 4278455043
0.43799338 0.027583271 0.49421865 4278454792
0.43863261 0.027794018 0.49422476 4278520836
0.43922842 0.028095752 0.49423149 4278455043
0.43978012 0.028488234 0.49423885 4278454273
0.4404186 0.028698757 0.49424493 4278585859
0.44092464 0.029181466 0.49425295 4278585859
0.4414736 0.029573068 0.49426028 4278520836
0.44197696 0.030054942 0.49426827 4278520838
0.44247884 0.030536294 0.49427623 4278520838
0.44297922 0.03101714 0.49428418 4278651401
0.44338739 0.03167823 0.49429336 4278717194
0.44383872 0.032248199 0.49430192 4278586378
0.44415051 0.033088058 0.49431232 4278521351
0.44459715 0.033656508 0.49432081 4278455556
0.44504184 0.034224316 0.4943293 4278586883
0.44539133 0.034971327 0.49433899 4278717697
0.4459253 0.035357967 0.4943462 4278651904
0.44631696 0.036013588 0.49435523 4278717445
0.44684821 0.03639935 0.49436241 4278783240
0.44737852 0.036784738 0.4943696 4278782987
0.44785994 0.0372594 0.49437737 4278783238
0.44838801 0.037644088 0.49438453 4278717445
0.4489634 0.037939101 0.49439105 4278914308
0.44948974 0.038323224 0.49439818 4278848263
0.45006391 0.038617805 0.4944047 4278848014
0.45058852 0.039001361 0.49441183 4278782987
0.45116144 0.039295584 0.49441835 4278782987
0.45168436 0.039678574 0.49442545 4278717194
0.45225605 0.039972365 0.49443194 4278783240
0.45282727 0.040266007 0.49443844 4278717447
0.45339799 0.040559471 0.49444494 4278783238
0.45396823 0.040852755 0.49445143 4278783238
0.45458877 0.041057333 0.49445733 4278783238
0.45515823 0.041350424 0.49446383 4278848261
0.45577851 0.041554928 0.49446973 4278717445
0.45645034 0.041671112 0.49447507 4278783240
0.45707086 0.041875705 0.49448097 4278783240
0.45774341 0.041992173 0.4944863 4278652424
0.4584164 0.042108774 0.49449167 4278586631
0.45908996 0.04222554 0.494497 4278652674
0.45981672 0.042254552 0.4945018 4278783238
0.46049148 0.04237175 0.49450716 4278849031
0.46116674 0.042489067 0.49451253 4279571727
0.46184248 0.042606592 0.49451789 4280819993
0.46251872 0.042724222 0.49452329 4282528283
0.46314147 0.042929545 0.49452922 4282529566
0.46376419 0.043134868 0.49453512 4282529566
0.46438694 0.043340191 0.49454105 4282332439
0.46500969 0.043545514 0.49454698 4282659606
0.46563244 0.043750837 0.49455291 4282791194
0.46619993 0.044043273 0.49455938 4282791194
0.46682245 0.044248506 0.49456531 4282659608
0.46744493 0.044453755 0.49457124 4282922782
0.46801147 0.044745818 0.49457768 4283053852
0.4685775 0.045037761 0.49458414 4283317276
0.46919951 0.045242846 0.49459004 4282988573
0.46976483 0.045534506 0.49459651 4282791194
0.47038659 0.045739502 0.49460241 4282988575
0.47100836 0.045944497 0.49460834 4283055397
0.47157267 0.046235874 0.49461478 4283120422
0.47219419 0.046440795 0.49462068 4283186465
0.47281569 0.046645701 0.49462661 4283120672
0.47337902 0.046936736 0.49463302 4283120922
0.47394186 0.047227621 0.49463946 4283252249
0.47456288 0.047432363 0.49464536 4283184668
0.47512501 0.047722995 0.49465176 4283120170
0.47568664 0.048013434 0.49465817 4283383342
0.47624776 0.048303753 0.49466458 4283318317
0.47680837 0.048593879 0.49467099 4283514151
0.47742844 0.048798308 0.49467689 4283512098
0.4779883 0.049088225 0.49468327 4283577891
0.4786081 0.049292564 0.49468917 4283643684
0.4792279 0.049496919 0.49469507 4283512348
0.47984767 0.049701273 0.49470097 4283578143
0.48046747 0.049905613 0.49470687 4283513383
0.48108724 0.050109968 0.49471277 4283381797
0.48176867 0.050229311 0.49471819 4283447590
0.48245054 0.050348863 0.49472362 4283184936
0.48313296 0.050468534 0.49472907 4283447086
0.48387817 0.050503671 0.49473405 4284039214
0.48468697 0.050454423 0.49473855 4284039214
0.48549727 0.050405711 0.49474308 4284302899
0.48624593 0.050441951 0.49474809 4284368690
0.48712227 0.050309703 0.49475217 4284106542
0.48806414 0.05009377 0.49475583 4284302636
0.48894465 0.049962893 0.49475998 4284434222
0.48989123 0.049748495 0.49476367 4286276930
0.49090457 0.049450815 0.49476695 4287000651
0.49185628 0.049238116 0.49477071 4286934867
0.49274567 0.049110159 0.49477491 4286671695
0.38074133 0.0039694607 0.49431065 4283585852
0.38132933 0.0044791996 0.49431866 4283125303
0.38191584 0.0049884915 0.49432665 4282533166
0.38250089 0.0054972768 0.49433464 4282138660
0.38306293 0.006103754 0.49434319 4282072867
0.38366655 0.0065133274 0.49435055 4282204453
0.38426915 0.0069226027 0.49435788 4282270244
0.38487077 0.0073315799 0.49436522 4282336037
0.38544893 0.0078381002 0.49437314 4282467880
0.38604832 0.0082463026 0.49438044 4282270503
0.38666975 0.0085564852 0.49438718 4282402087
0.38726741 0.0089641511 0.49439445 4282204708
0.3878876 0.0092739165 0.49440116 4282138915
0.38850731 0.0095835328 0.49440786 4282204451
0.38912648 0.0098929703 0.49441457 4282336039
0.38974521 0.010202289 0.49442127 4282204453
0.3903634 0.010511369 0.49442795 4282138660
0.39098114 0.010820329 0.49443462 4282204453
0.39159834 0.011129141 0.4944413 4282138917
0.39221507 0.011437774 0.49444798 4281941286
0.39283133 0.011746258 0.49445465 4282072363
0.3934471 0.012054563 0.49446133 4282138408
0.39408827 0.01226598 0.49446741 4282006822
0.3947033 0.012574047 0.49447408 4281809441
0.39534426 0.012785375 0.49448019 4281809441
0.39598519 0.012996703 0.49448627 4281809441
0.39659923 0.013304442 0.49449292 4281809443
0.39721274 0.013612032 0.49449956 4281809443
0.3978532 0.013823181 0.49450567 4281940257
0.39846599 0.014130533 0.49451229 4281742617
0.3991062 0.014341593 0.4945184 4281874457
0.39971828 0.014648691 0.49452502 4281940763
0.40030146 0.015051559 0.4945322 4281874970
0.40091228 0.015358254 0.49453881 4281743132
0.40155149 0.015569016 0.49454489 4281874718
0.4021616 0.015875459 0.49455151 4281808923
0.4027712 0.016181752 0.4945581 4281545753
0.4033803 0.016487867 0.49456471 4281479960
0.40398893 0.016793832 0.4945713 4281348120
0.40459704 0.017099619 0.49457788 4281085722
0.40517431 0.01750055 0.49458501 4280428567
0.40572 0.017996341 0.49459261 4278850063
0.40629506 0.018396527 0.49459967 4278586891
0.40686911 0.018796399 0.49460673 4278520585
0.40741086 0.019290879 0.4946143 4278520838
0.40798271 0.019690022 0.49462137 4278651654
0.40855357 0.020088837 0.4946284 4278651654
0.40912348 0.020487338 0.49463543 4278717447
0.40969235 0.020885497 0.49464247 4278455558
0.41026026 0.021283343 0.49464947 4278520848
0.41082722 0.021680862 0.49465647 4278455305
0.41142625 0.021983638 0.49466297 4278389765
0.41202477 0.022286296 0.49466947 4278521349
0.41262281 0.022588745 0.49467596 4278455556
0.41322035 0.022891045 0.49468246 4278521349
0.41381741 0.023193195 0.49468896 4278521349
0.41441396 0.023495182 0.49469543 4278455556
0.41497546 0.023890913 0.49470237 4278520838
0.4155708 0.024192512 0.49470884 4278520838
0.4162007 0.02440019 0.49471486 4278586629
0.41683054 0.024607867 0.49472085 4278520838
0.41742492 0.024909094 0.49472731 4278586629
0.41801876 0.025210217 0.49473375 4278520838
0.41861212 0.025511116 0.49474022 4278520838
0.41920498 0.025811881 0.49474666 4278520838
0.41994342 0.025739461 0.49475127 4278586631
0.42053628 0.026040256 0.49475771 4278586631
0.42109168 0.02643393 0.49476463 4278586378
0.42175782 0.026548266 0.49477017 4278520585
0.42238694 0.026755705 0.49477613 4278520585
0.42309156 0.026777431 0.49478126 4278586378
0.42375919 0.026892275 0.4947868 4278455558
0.4244273 0.027007237 0.49479234 4278455558
0.42509592 0.027122393 0.49479792 4278455305
0.42591992 0.026867598 0.49480176 4278455305
0.42666844 0.026798487 0.49480647 4278520585
0.42749688 0.026545167 0.49481034 4278520838
0.42816991 0.026661783 0.49481595 4278520838
0.42900229 0.026409715 0.49481985 4278585859
0.42979717 0.026250631 0.4948242 4278586113
0.43051362 0.026276246 0.49482942 4278585608
0.43127149 0.026210219 0.49483421 4278585608
0.43207154 0.026052833 0.49483863 4278585608
0.4328326 0.025987864 0.49484345 4278585859
0.43355396 0.026015103 0.49484873 4278651652
0.43415201 0.026317596 0.49485523 4278651652
0.43474954 0.026619896 0.49486172 4278585859
0.43538854 0.026830569 0.4948678 4278586113
0.43598533 0.027132645 0.49487427 4278651904
0.43662405 0.027343243 0.49488035 4278586112
0.4372628 0.027553827 0.49488643 4278455043
0.43790153 0.027764425 0.49489251 4278455043
0.43849713 0.028066084 0.494899 4278455043
0.43909219 0.028367579 0.49490547 4278455043
0.4397741 0.028487101 0.49491116 4278651652
0.44028088 0.028970063 0.49491838 4278651654
0.44087449 0.029271096 0.49492484 4278651654
0.44142321 0.029662609 0.49493167 4278521100
0.44197094 0.030053809 0.49493849 4278455558
0.44242796 0.030625641 0.49494603 4278520836
0.44283786 0.031287298 0.49495396 4278717447
0.44333604 0.031767428 0.49496111 4278717447
0.4436959 0.03251785 0.49496937 4278717447
0.44405282 0.033267289 0.49497756 4278586629
0.44445288 0.033925697 0.4949854 4278455556
0.44485044 0.034583241 0.49499318 4278521349
0.44524562 0.035240009 0.49500096 4278586883
0.44568515 0.035806105 0.49500838 4278586883
0.44612271 0.036371529 0.49501574 4278652422
0.44665298 0.036756977 0.49502239 4278717445
0.44713467 0.037231684 0.49502939 4278979847
0.44766271 0.037616387 0.49503604 4278783492
0.4481898 0.038000733 0.49504265 4278783492
0.4487642 0.038295448 0.49504891 4278717699
0.44928956 0.038679242 0.49505553 4278717194
0.44986278 0.03897351 0.49506178 4278782989
0.4503864 0.039356753 0.49506837 4278782987
0.45095834 0.039650634 0.49507463 4278848780
0.45148027 0.040033281 0.49508119 4278783240
0.45205098 0.040326774 0.49508741 4278717447
0.45262122 0.040620059 0.49509367 4278717447
0.45319095 0.040913224 0.49509987 4278783238
0.45376021 0.041206181 0.4951061 4278783238
0.45437974 0.041410446 0.495112 4278914308
0.45499927 0.041614711 0.4951179 4278914308
0.45561883 0.041818976 0.4951238 4278914054
0.45623839 0.042023242 0.4951297 4278717445
0.45690966 0.042139307 0.49513528 4278783238
0.45752946 0.042343646 0.49514118 4278782987
0.45820153 0.042459905 0.49514678 4278717447
0.45892656 0.042488366 0.49515209 4278783488
0.45959985 0.042605072 0.49515769 4279045383
0.46027362 0.042721942 0.49516329 4279111176
0.46094787 0.042838946 0.49516892 4280886558
0.46162263 0.042956129 0.49517453 4281740570
0.46229789 0.043073446 0.49518016 4282528283
0.46291965 0.043278441 0.49518606 4282857248
0.46354139 0.043483436 0.49519199 4282988834
0.46416315 0.043688431 0.49519792 4282725401
0.46478492 0.043893427 0.49520382 4283053850
0.46540666 0.044098422 0.49520975 4282922778
0.46602842 0.044303417 0.49521565 4282857498
0.46659473 0.04459545 0.49522185 4282725912
0.46721622 0.044800371 0.49522778 4282725401
0.46778178 0.045092121 0.49523395 4283119645
0.46840304 0.045296952 0.49523988 4283447838
0.46896785 0.045588478 0.49524605 4283119645
0.46958888 0.045793235 0.49525198 4283053852
0.4702099 0.045997992 0.49525788 4283119907
0.47077376 0.046289176 0.49526405 4283185700
0.47139451 0.046493858 0.49526995 4283251495
0.47201529 0.046698526 0.49527586 4283055651
0.47257814 0.046989381 0.49528202 4282924065
0.47319865 0.047193974 0.49528793 4282858268
0.47376078 0.047484621 0.49529409 4283251997
0.47432241 0.04777506 0.49530023 4283249946
0.47488353 0.048065394 0.49530637 4283185188
0.47544417 0.048355505 0.49531251 4283514153
0.47606373 0.04855977 0.49531841 4283449387
0.47662359 0.048849702 0.49532455 4283383333
0.47724289 0.049053878 0.49533045 4283381282
0.47780207 0.049343511 0.49533656 4283577893
0.47836071 0.049633026 0.4953427 4283577893
0.47897953 0.049837053 0.49534857 4283446555
0.4796592 0.04995583 0.49535426 4283447325
0.48027825 0.050159931 0.49536014 4283382049
0.48089731 0.050364032 0.49536604 4283251233
0.48157799 0.050483182 0.49537173 4283382819
0.48225912 0.050602436 0.49537739 4283579944
0.48294076 0.050721914 0.49538308 4283514417
0.4837476 0.05067201 0.49538836 4284106542
0.48455593 0.050622657 0.49539363 4284238128
0.48542857 0.050489157 0.49539873 4284236841
0.48617697 0.050525323 0.49540424 4284630829
0.48698971 0.05047743 0.49540958 4284368940
0.48793107 0.050261319 0.49541453 4284698675
0.48887491 0.050046027 0.4954195 4285619777
0.48982126 0.049831539 0.49542451 4286805078
0.49089861 0.049449697 0.49542913 4287001684
0.49197948 0.049068987 0.49543381 4286606676
0.38130242 0.0045765042 0.49500296 4283585602
0.38188869 0.0050856769 0.49501017 4283322430
0.3824735 0.0055943727 0.49501738 4282533168
0.38303533 0.0062007904 0.49502489 4282006820
0.38361692 0.0067084432 0.49503207 4282007074
0.38421905 0.0071175694 0.4950389 4282138658
0.3847757 0.0077222884 0.49504635 4282270244
0.38539785 0.0080326796 0.49505281 4282336291
0.38597405 0.008538574 0.49505994 4282336291
0.38659471 0.0088484883 0.4950664 4282598693
0.38716847 0.0093535781 0.4950735 4282401060
0.38778764 0.0096629858 0.49507993 4282466853
0.38838264 0.010069758 0.49508667 4282598441
0.38900059 0.010378808 0.49509311 4282467371
0.3896181 0.010687679 0.49509951 4282336039
0.3902595 0.010899156 0.49510562 4282204453
0.39087626 0.011207789 0.49511203 4282270246
0.39149249 0.011516273 0.49511847 4282073124
0.39210826 0.011824578 0.49512488 4281743907
0.3927235 0.012132764 0.49513125 4281874986
0.39336398 0.012343913 0.49513736 4281677857
0.39397851 0.012651801 0.49514374 4281809443
0.39459252 0.01295954 0.49515015 4281875488
0.3952325 0.01317054 0.49515623 4281875234
0.39587247 0.013381541 0.49516234 4281875238
0.39648551 0.013688982 0.49516872 4282072617
0.39709806 0.013996243 0.49517509 4282006824
0.39771011 0.014303327 0.49518144 4281940259
0.39832169 0.014610261 0.49518782 4281874205
0.39896068 0.014820948 0.4951939 4281808412
0.39957151 0.015127644 0.49520025 4281939998
0.40018183 0.015434161 0.49520662 4281939998
0.40082031 0.01564467 0.49521267 4281873951
0.40142995 0.015950963 0.49521902 4281939744
0.40203905 0.016257092 0.49522537 4281939998
0.40264767 0.016563028 0.49523172 4281742365
0.40325579 0.016868845 0.49523804 4281742365
0.40386343 0.017174467 0.49524438 4281479195
0.40447056 0.017479956 0.4952507 4281085722
0.40504685 0.017880559 0.49525726 4280625946
0.40562215 0.018280834 0.49526384 4279046929
0.40619648 0.018680751 0.4952704 4278717964
0.4067387 0.01917544 0.4952772 4278520585
0.40734217 0.019479677 0.49528348 4278520838
0.40788195 0.019973561 0.49529025 4278520838
0.40842023 0.020466924 0.49529698 4278586378
0.40902123 0.020770341 0.49530327 4278520838
0.40958941 0.021168262 0.49530977 4278520838
0.41015658 0.021565869 0.49531624 4278521102
0.41072279 0.021963134 0.49532273 4278455305
0.41132107 0.022265688 0.49532896 4278455558
0.41191885 0.022568077 0.49533519 4278455556
0.41248259 0.022964567 0.49534166 4278455556
0.41307917 0.023266524 0.49534786 4278521349
0.41367525 0.023568377 0.49535409 4278521349
0.41427082 0.023870006 0.49536031 4278455558
0.41483134 0.024265423 0.49536672 4278520838
0.41542572 0.024566665 0.49537292 4278520838
0.41601956 0.024867773 0.49537912 4278520836
0.41661292 0.025168687 0.49538532 4278520838
0.41720578 0.025469467 0.49539152 4278586631
0.41786972 0.025583073 0.49539727 4278520838
0.4184621 0.025883675 0.49540347 4278520838
0.41905397 0.026184127 0.49540964 4278520838
0.41964537 0.026484415 0.49541581 4278586631
0.42027304 0.026691347 0.4954218 4278586631
0.42086369 0.026991382 0.49542797 4278520585
0.42152837 0.027105242 0.49543375 4278586378
0.42215604 0.027312189 0.49543971 4278520585
0.42282143 0.027426273 0.49544552 4278586378
0.42344934 0.027633294 0.49545148 4278389765
0.42411548 0.027747631 0.49545729 4278455558
0.4247821 0.027862132 0.49546307 4278455558
0.42544925 0.027976796 0.49546888 4278455558
0.42623377 0.027814269 0.49547419 4278651401
0.42694184 0.027837127 0.49547982 4278520838
0.42769036 0.027768046 0.49548534 4278520838
0.42851979 0.027515039 0.49549052 4278455043
0.43849108 0.028064936 0.49557129 4278455045
0.43908617 0.028366446 0.49557748 4278520836
0.43959346 0.028849587 0.49558395 4278520836
0.44018707 0.02915059 0.49559015 4278717447
0.44078019 0.02945146 0.49559635 4278717447
0.44137281 0.029752135 0.49560252 4278521102
0.4418757 0.03023383 0.49560896 4278520836
0.44224244 0.030986503 0.49561569 4278586629
0.44274163 0.031467006 0.49562207 4278717447
0.44346187 0.032968 0.49563545 4278717447
0.44400099 0.033356354 0.49564168 4278586883
0.44421637 0.034375027 0.49564862 4278520836
0.44461277 0.035032183 0.49565512 4278586629
0.44505328 0.035598621 0.4956615 4278586883
0.44549185 0.036164373 0.49566785 4278586883
0.44592842 0.036729515 0.49567416 4278586883
0.44636303 0.037294 0.49568048 4278717445
0.44689086 0.037678614 0.49568659 4278914054
0.44746554 0.037973359 0.49569261 4278783492
0.44799161 0.038357407 0.49569869 4278783492
0.44851673 0.038741142 0.4957048 4278717699
0.44908941 0.039035276 0.49571079 4278783240
0.44966164 0.039329216 0.49571678 4278782987
0.45018429 0.039712131 0.49572283 4278783240
0.45075527 0.040005669 0.49572882 4278783240
0.45132574 0.040299073 0.49573478 4278783240
0.45189571 0.040592283 0.49574077 4278717447
0.45246524 0.040885359 0.49574673 4278717196
0.45303422 0.041178241 0.49575269 4278783238
0.45360273 0.041471004 0.49575865 4278783492
0.45417076 0.041763559 0.49576458 4278783492
0.45478934 0.041967496 0.49577048 4278914308
0.45540789 0.042171448 0.49577636 4278979847
0.45607793 0.042287096 0.4957822 4278717445
0.45669675 0.042491108 0.4957881 4278783238
0.45736757 0.04260698 0.49579394 4278783240
0.45803887 0.04272303 0.49579978 4278717447
0.4587107 0.042839214 0.49580562 4278980097
0.45938298 0.042955592 0.49581149 4279176453
0.46005577 0.043072104 0.49581736 4279439625
0.46067581 0.043276519 0.49582326 4281674787
0.46134931 0.043393314 0.49582914 4282266142
0.46202335 0.043510228 0.49583501 4282528283
0.46269786 0.043627337 0.49584088 4282923295
0.46331862 0.043832004 0.49584678 4283054881
0.4639394 0.044036686 0.49585268 4282922780
0.46456015 0.044241354 0.49585861 4282922266
0.46518093 0.044446021 0.49586451 4282922780
0.46580172 0.044650704 0.49587041 4282857500
0.46636704 0.044942364 0.49587634 4282857500
0.46698755 0.045146957 0.49588224 4282660121
0.46755213 0.045438409 0.49588817 4283053852
0.4681724 0.045642927 0.49589407 4283447840
0.46879268 0.045847431 0.49589998 4283185440
0.46935627 0.046138525 0.49590588 4283053854
0.46997631 0.046342954 0.49591178 4283119909
0.47059634 0.046547383 0.49591768 4283185702
0.47121638 0.046751812 0.49592361 4283251495
0.47177875 0.047042549 0.49592948 4282988834
0.47239852 0.047246903 0.49593538 4283054627
0.47296014 0.047537342 0.49594128 4282858272
0.47352129 0.047827661 0.49594715 4283120672
0.47408193 0.048117787 0.49595305 4283249946
0.47470099 0.048321888 0.49595895 4283316256
0.47526085 0.04861182 0.49596483 4283513635
0.4758203 0.048901528 0.4959707 4283383592
0.47637922 0.049191102 0.49597654 4283318053
0.47699752 0.049394965 0.49598244 4283315489
0.47755569 0.049684301 0.49598828 4283381030
0.47817373 0.049888074 0.49599418 4283446823
0.47879183 0.050091863 0.49600005 4283447327
0.47947076 0.050210401 0.49600598 4283447327
0.48008907 0.050414264 0.49601185 4283316256
0.48070738 0.050618127 0.49601775 4283382819
0.48138732 0.050737008 0.49602368 4283580198
0.48212957 0.050771147 0.49602965 4283711784
0.48287284 0.050805598 0.49603564 4283777071
0.48361707 0.050840393 0.49604163 4284172083
0.48442486 0.050790861 0.49604771 4284303669
0.48529699 0.050657213 0.49605381 4284171048
0.48604491 0.050693214 0.49605986 4284565290
0.48692048 0.050560743 0.496066 4284237095
0.4878616 0.050344542 0.49607226 4285290812
0.4888052 0.050129175 0.49607852 4286014535
0.48981532 0.049830437 0.49608487 4286870360
0.38186157 0.0051828921 0.49569318 4283585084
0.38242489 0.0057898164 0.49569967 4283453498
0.38298622 0.0063960552 0.49570617 4282993717
0.38356733 0.0069035292 0.49571255 4282533418
0.38414699 0.0074105561 0.49571893 4282269474
0.38472515 0.0079170465 0.49572527 4282203681
0.38530183 0.00842309 0.49573162 4282335521
0.38592249 0.0087330341 0.49573782 4282401314
0.38649675 0.0092382431 0.49574414 4282401314
0.38709271 0.009645313 0.49575037 4282335267
0.38768771 0.010052085 0.49575663 4282466855
0.38830543 0.010361046 0.49576277 4282598441
0.3888987 0.010767251 0.49576899 4282730027
0.38951519 0.011075795 0.49577513 4282599211
0.39015564 0.011286974 0.49578124 4282204451
0.39074671 0.011692405 0.49578744 4282204451
0.39136171 0.012000501 0.49579358 4282138658
0.39197624 0.012308389 0.49579972 4281809441
0.39261574 0.01251924 0.4958058 4282006570
0.39322951 0.01282692 0.49581194 4281677857
0.39386874 0.013037652 0.49581802 4281677857
0.39448178 0.013345093 0.49582413 4281875488
0.39512077 0.013555765 0.49583021 4282007074
0.39573306 0.013862938 0.49583632 4282138406
0.39637181 0.014073521 0.4958424 4282138406
0.39698339 0.014380455 0.49584851 4282072613
0.39759445 0.01468724 0.49585462 4281875234
0.3982327 0.014897674 0.4958607 4282006050
0.39884305 0.015204191 0.49586678 4282006304
0.39945289 0.015510544 0.49587288 4281940259
0.40006226 0.015816778 0.49587896 4282006052
0.40069976 0.016026959 0.49588504 4281808160
0.40130839 0.016332895 0.49589112 4282004769
0.4019165 0.016638726 0.49589717 4282004767
0.40249476 0.01703997 0.49590325 4281873181
0.40313128 0.017249838 0.4959093 4281938974
0.40373793 0.017555133 0.49591538 4281610781
0.40431398 0.017955661 0.49592143 4281347609
0.40491942 0.018260539 0.49592748 4280822301
0.40549374 0.018660501 0.4959335 4279639066
0.40609792 0.018965021 0.49593955 4279112722
0.40667051 0.019364402 0.49594557 4278586631
0.40717947 0.019953355 0.49595156 4278520838
0.40778118 0.020257071 0.49595755 4278651654
0.40835059 0.020655394 0.49596354 4278520838
0.40891901 0.021053404 0.49596953 4278520838
0.40948644 0.021451086 0.49597549 4278520838
0.4100529 0.02184841 0.49598145 4278521098
0.41061836 0.022245437 0.49598742 4278455305
0.4112159 0.022547767 0.49599341 4278455305
0.41177964 0.022944227 0.49599934 4278455558
0.41237599 0.023246109 0.4960053 4278455558
0.412938 0.023642004 0.4960112 4278521349
0.41353309 0.023943499 0.49601716 4278521349
0.41409338 0.024338827 0.49602306 4278521351
0.41468725 0.024639934 0.49602899 4278520838
0.41528061 0.024940848 0.49603492 4278586631
0.41587347 0.025241628 0.49604085 4278455556
0.41646588 0.025542229 0.49604678 4278520836
0.41705775 0.025842667 0.49605271 4278586629
0.41768494 0.02604945 0.49605867 4278586629
0.41827607 0.026349664 0.49606457 4278520836
0.41886675 0.026649699 0.4960705 4278520836
0.4194569 0.026949584 0.49607641 4278586631
0.42008334 0.027156115 0.49608237 4278586631
0.42067277 0.027455747 0.49608827 4278520585
0.42129895 0.027662203 0.49609423 4278586378
0.42192513 0.027868658 0.49610019 4278520585
0.42255133 0.028075114 0.49610615 4278520585
0.42321548 0.02818881 0.49611217 4278520838
0.42380369 0.028488025 0.49611807 4278520838
0.42446834 0.028601885 0.49612409 4278520838
0.42513353 0.028715894 0.49613014 4278586631
0.42583814 0.028737605 0.49613628 4278717194
0.42650452 0.028852031 0.49614236 4278586631
0.42717138 0.028966621 0.49614841 4278520838
0.44365719 0.035455033 0.49630818 4278717447
0.4443751 0.03548114 0.49631447 4278717447
0.44481438 0.036047161 0.49631977 4278586883
0.44529858 0.036522686 0.49632525 4278652676
0.44568712 0.037177235 0.49633035 4278521090
0.44621515 0.037561938 0.49633595 4278717699
0.44669467 0.038035944 0.49634138 4278979844
0.44726837 0.038330376 0.49634713 4278914306
0.44779345 0.038714096 0.4963527 4278848513
0.44831759 0.039097503 0.49635825 4278717697
0.44888932 0.039391279 0.49636397 4278717445
0.44941172 0.039774105 0.49636951 4278783238
0.4499822 0.040067524 0.49637523 4278979847
0.4505522 0.040360719 0.49638095 4278652173
0.45112169 0.04065381 0.49638665 4278652173
0.4516907 0.040946692 0.49639234 4278652171
0.45225921 0.041239426 0.49639806 4278782737
0.45282722 0.04153201 0.49640375 4278782987
0.45344532 0.041735783 0.49640962 4278784010
0.45401257 0.042028114 0.49641532 4278784010
0.4546304 0.042231813 0.49642119 4278652171
0.45524824 0.042435512 0.49642706 4278848780
0.45591754 0.042550907 0.49643317 4278783240
0.45653564 0.04275468 0.49643904 4278783240
0.45715368 0.042958468 0.49644491 4278783240
0.45782402 0.043074161 0.49645102 4278783238
0.45849484 0.043190047 0.49645713 4279111680
0.45916614 0.043306112 0.49646324 4279570178
0.45983794 0.043422282 0.49646935 4280096522
0.46051022 0.043538675 0.49647546 4282068252
0.46118301 0.043655172 0.49648157 4282527518
0.46180254 0.043859437 0.49648747 4282725916
0.4624221 0.044063717 0.49649337 4282725914
0.46309584 0.044180572 0.49649951 4282725914
0.46371564 0.044384927 0.49650541 4282923293
0.46439016 0.04450199 0.49651152 4282660123
0.46495521 0.044793621 0.49651721 4282988575
0.46557501 0.044997975 0.49652308 4282792225
0.46619481 0.045202315 0.49652898 4282594846
0.46681458 0.045406669 0.49653488 4282857502
0.46737844 0.045697838 0.49654055 4282989086
0.46799797 0.045902103 0.49654645 4283185950
0.46861753 0.046106368 0.49655235 4283054114
0.46918035 0.046397269 0.49655798 4282922528
0.46979967 0.046601444 0.49656388 4282988582
0.47041896 0.046805635 0.49656978 4283251493
0.47098082 0.047096163 0.49657542 4283185700
0.47159988 0.047300279 0.49658132 4282922782
0.472161 0.047590598 0.49658692 4283120161
0.47272164 0.047880724 0.49659255 4282792477
0.47334021 0.048084661 0.49659845 4282792479
0.47390014 0.048374549 0.49660406 4282922268
0.47445953 0.048664302 0.49660966 4283119645
0.47501844 0.048953861 0.49661526 4283317024
0.47557688 0.049243301 0.49662086 4282989858
0.47619444 0.049446926 0.49662673 4282924065
0.47675216 0.049736068 0.49663234 4283316772
0.47730932 0.050025091 0.49663794 4283316774
0.47798681 0.050143138 0.49664411 4283250981
0.47860414 0.050346673 0.49664998 4283710501
0.47922146 0.050550207 0.49665585 4283578913
0.47989988 0.050668627 0.49666202 4283120161
0.48057884 0.050787151 0.49666819 4283580712
0.48131987 0.050820887 0.49667469 4283712298
0.48206186 0.050854966 0.49668118 4284040747
0.48274279 0.050974146 0.49668738 4284040497
0.48348653 0.051008776 0.49669388 4284302899
0.48429382 0.05095908 0.4967007 4284302899
0.48516548 0.050825283 0.49670789 4284236591
0.48597595 0.050776631 0.49671474 4284434483
0.48678797 0.05072844 0.49672163 4285553214
0.48772857 0.050512105 0.49672914 4286474570
0.48873547 0.050212324 0.49673703 4286935121
0.38295862 0.0064931214 0.49638656 4283191094
0.38351774 0.007098645 0.49639198 4283256369
0.38407493 0.0077035427 0.49639741 4282401060
0.38467458 0.0081118345 0.49640316 4282335267
0.38525081 0.0086176991 0.49640873 4282269728
0.38582551 0.0091230571 0.49641427 4282335521
0.38644472 0.0094325244 0.4964202 4282401314
0.38701701 0.0099370778 0.49642572 4282269474
0.38761127 0.010343611 0.49643141 4282401062
0.38818082 0.01084727 0.49643692 4282466855
0.38879681 0.011155695 0.49644282 4282664234
0.38938811 0.011561245 0.49644849 4282730025
0.39002734 0.011771977 0.49645457 4282204451
0.39064187 0.012079895 0.49646044 4282204451
0.39125592 0.012387633 0.49646631 4282138658
0.39189464 0.012598246 0.49647239 4281875234
0.39250794 0.012905747 0.49647826 4282006824
0.39314643 0.013116241 0.49648434 4281809443
0.39375898 0.013423532 0.49649021 4281677855
0.39439723 0.013633937 0.49649629 4281875234
0.39503548 0.013844371 0.49650234 4282072867
0.39564705 0.014151305 0.49650821 4282138660
0.39625815 0.01445806 0.49651405 4282072867
0.39689589 0.014668331 0.4965201 4282007074
0.39750624 0.014974877 0.49652594 4282007074
0.39811608 0.01528123 0.49653178 4281875488
0.39872545 0.015587464 0.4965376 4282137890
0.39936244 0.015797481 0.49654368 4281940259
0.3999427 0.01619938 0.49654925 4281939746
0.40055057 0.016505092 0.49655506 4281808160
0.40115798 0.016810656 0.49656087 4281808160
0.40179399 0.01702036 0.49656692 4281938974
0.40240064 0.01732567 0.49657273 4281873181
0.40300682 0.017630801 0.49657851 4282070560
0.40361246 0.017935812 0.4965843 4281742365
0.40421766 0.018240616 0.49659008 4281347609
0.40479198 0.018640563 0.49659562 4280953884
0.40539593 0.018945009 0.49660137 4280100122
0.4059377 0.019439504 0.49660662 4278915594
0.40654016 0.019743413 0.49661237 4278586629
0.40707946 0.020237133 0.49661759 4278586629
0.40768045 0.020540565 0.49662334 4278651654
0.40824914 0.02093865 0.49662879 4278520585
0.40881681 0.021336406 0.49663424 4278520838
0.40938351 0.02173385 0.4966397 4278520838
0.40994924 0.022130981 0.49664515 4278586631
0.41051397 0.022527769 0.49665058 4278520838
0.41104466 0.023018599 0.4966557 4278455305
0.41164047 0.023320332 0.49666139 4278521351
0.4122358 0.023621932 0.49666709 4278455558
0.41279685 0.024017498 0.49667248 4278521351
0.41339096 0.024318665 0.49667814 4278521349
0.4139846 0.024619684 0.49668384 4278521349
0.41454315 0.02501443 0.4966892 4278520838
0.41513553 0.025315046 0.49669486 4278520838
0.41572744 0.025615484 0.49670053 4278520836
0.41631883 0.025915772 0.49670619 4278455043
0.41690975 0.026215896 0.49671182 4278520836
0.41750017 0.026515856 0.49671748 4278521090
0.41812611 0.026722237 0.49672344 4278521090
0.41871578 0.027021945 0.49672908 4278520836
0.41930497 0.027321503 0.49673471 4278521351
0.4199304 0.02752772 0.49674067 4278455558
0.42051888 0.027827024 0.4967463 4278586378
0.42114407 0.028033152 0.49675223 4278586378
0.42173177 0.028332204 0.49675786 4278520587
0.42235672 0.028538257 0.49676383 4278520838
0.42298168 0.028744295 0.49676976 4278520836
0.42360663 0.028950348 0.49677572 4278586631
0.42423159 0.029156402 0.49678165 4278520838
0.42477912 0.029547527 0.49678692 4278586378
0.4254815 0.029568508 0.49679357 4278586378
0.42614567 0.029682219 0.49679986 4278520585
0.42681032 0.029796064 0.49680614 4278520585
0.42743576 0.030002281 0.49681211 4278454792
0.44372028 0.036740199 0.49696746 4278586378
0.44452894 0.036585644 0.49697506 4278586629
0.4449648 0.037150517 0.4969793 4278652422
0.44544578 0.037625 0.49698398 4278521088
0.4459253 0.038098976 0.49698859 4278586883
0.44645089 0.038482875 0.49699366 4278979844
0.44702333 0.038776889 0.49699914 4278914308
0.44754726 0.039160207 0.49700418 4278783490
0.44811845 0.039453864 0.49700963 4278717697
0.44868919 0.039747313 0.49701509 4278717699
0.44921064 0.040129825 0.4970201 4278783492
0.44982919 0.040333763 0.497026 4278849031
0.45039845 0.040626734 0.49703145 4278848780
0.45096719 0.040919572 0.49703687 4278782987
0.45153546 0.041212216 0.49704233 4278782987
0.45210326 0.041504741 0.49704775 4278782991
0.45267054 0.041797042 0.49705318 4278782989
0.45323735 0.042089239 0.4970586 4278784010
0.45385441 0.042292699 0.49706447 4278915596
0.45442048 0.042584598 0.4970699 4278717966
0.4550373 0.042787969 0.49707577 4278848782
0.45570564 0.042903066 0.49708208 4278849033
0.45632273 0.043106511 0.49708796 4278849033
0.45693982 0.043309972 0.49709383 4278783240
0.45766142 0.043337286 0.49710065 4278783238
0.45827898 0.04354091 0.49710652 4279111426
0.45894933 0.043656603 0.4971129 4279898882
0.45962012 0.043772489 0.49711925 4280754191
0.46029145 0.043888509 0.49712563 4282068250
0.46096322 0.044004723 0.49713197 4282528031
0.46158177 0.044208661 0.49713787 4282659871
0.46225432 0.044325128 0.49714425 4282659869
0.4628731 0.04452914 0.49715015 4282659869
0.4635464 0.044645816 0.49715653 4282857248
0.46416545 0.044849917 0.49716243 4282659871
0.4647845 0.045054018 0.4971683 4283054368
0.46540356 0.045258135 0.4971742 4282923811
0.46602258 0.045462236 0.4971801 4282792225
0.46664163 0.045666337 0.49718598 4282989088
0.46726069 0.045870438 0.49719188 4283120672
0.46787974 0.046074539 0.49719778 4283251743
0.46844235 0.04636535 0.49720314 4283054368
0.46906114 0.046569377 0.49720904 4282922782
0.46962303 0.046859905 0.49721441 4282923043
0.47024161 0.047063857 0.49722031 4282923041
0.47080272 0.047354147 0.49722567 4283054114
0.47136337 0.047644302 0.49723104 4282922780
0.47192353 0.047934279 0.4972364 4283120159
0.47254133 0.048137978 0.49724227 4282792477
0.47310075 0.048427731 0.49724764 4282857766
0.47365969 0.04871729 0.49725297 4282857766
0.47415921 0.049092576 0.49725777 4282988321
0.4747169 0.049381763 0.4972631 4282790942
0.47527409 0.049670756 0.49726844 4282857250
0.47589043 0.049873963 0.49727431 4283054375
0.47650677 0.05007717 0.49728018 4283250727
0.47712314 0.050280392 0.49728605 4283316004
0.47773945 0.050483599 0.49729192 4283250211
0.47841644 0.050601527 0.49729833 4283249696
0.47903302 0.050804824 0.4973042 4283578913
0.47977182 0.050837815 0.49731117 4283842094
0.48051164 0.050871149 0.49731818 4283908141
0.48125243 0.050904781 0.49732518 4283973934
0.48193234 0.051023647 0.49733162 4284368944
0.48267484 0.05105789 0.49733865 4284368431
0.48348066 0.051007673 0.49734622 4284499765
0.48422539 0.051042616 0.49735329 4284433972
0.48509675 0.050908759 0.49736145 4284565556
0.48584393 0.050944522 0.49736851 4286013769
0.48671874 0.050811768 0.49737674 4285883213
0.48759553 0.050679654 0.497385 4286475854
0.48853812 0.05046396 0.49739385 4286541647
0.38402486 0.0078984797 0.49707478 4283059760
0.38462403 0.0083066225 0.49708 4282730795
0.38519976 0.0088123381 0.4970848 4282269474
0.38577402 0.0093175471 0.49708956 4282203681
0.38636976 0.0097245574 0.49709475 4282269728
0.3869645 0.01013124 0.49709994 4282204705
0.38753483 0.010635138 0.49710467 4282204705
0.38810363 0.011138588 0.49710938 4282270498
0.38869494 0.011544138 0.49711457 4282336291
0.3893095 0.011852026 0.49712017 4282664486
0.38992351 0.012159795 0.49712577 4282401060
0.39056176 0.012370229 0.49713185 4282138658
0.39117506 0.012677729 0.49713746 4282138658
0.39181307 0.012888074 0.49714354 4282072865
0.39242563 0.013195306 0.49714914 4282072870
0.39306337 0.013405591 0.49715522 4281678884
0.39367518 0.013712615 0.49716079 4281547298
0.39431268 0.013922811 0.49716687 4281613091
0.39495021 0.014133006 0.49717292 4281678882
0.39553437 0.014536187 0.49717802 4281941538
0.39614448 0.014842629 0.49718359 4282138658
0.39678124 0.015052587 0.49718967 4282072865
0.3973906 0.015358791 0.49719524 4282072865
0.39799947 0.015664831 0.49720079 4281875486
0.39863575 0.015874609 0.49720684 4282006304
