# .PCD v0.7 - Point Cloud Data file format
VERSION 0.7
FIELDS x y z rgb
SIZE 4 4 4 4
TYPE F F F U
COUNT 1 1 1 1
WIDTH 1047
HEIGHT 1
VIEWPOINT 0 0 0 1 0 0 0
POINTS 1047
DATA ascii
0.47148886 -0.050982893 0.53025669 4278717194
0.47068354 -0.051104337 0.53042781 4278717194
0.46980798 -0.051394448 0.53068352 4278520585
0.4689354 -0.051685482 0.53093916 4278717966
0.46806577 -0.051977485 0.53119481 4278717968
0.46716374 -0.052354723 0.53149271 4278587663
0.46626514 -0.052733064 0.53179061 4278456077
0.4653351 -0.053196952 0.53213078 4278587663
0.46444365 -0.053577632 0.53242862 4278521870
0.46355566 -0.053959399 0.53272647 4278390286
0.46273938 -0.054172993 0.53293985 4278390286
0.4618578 -0.054556876 0.5332377 4278520589
0.46101329 -0.054857045 0.53349322 4278454794
0.46017176 -0.055158198 0.53374881 4278454794
0.4594326 -0.05520536 0.53387761 4278520585
0.45866203 -0.055338085 0.53404862 4278783757
0.45789346 -0.055471435 0.53421968 4278719247
0.44457394 -0.063591868 0.5397414 4279839275
0.44399768 -0.063308999 0.53970104 4279971115
0.44336402 -0.063198939 0.53974521 4280036908
0.44270265 -0.063175648 0.53983158 4280102701
0.44207019 -0.063065991 0.53987575 4280234285
0.44141054 -0.063043252 0.53996211 4280300078
0.44075185 -0.06302081 0.54004848 4280233515
0.44009417 -0.062998682 0.54013485 4280365101
0.43943745 -0.062976897 0.54022121 4280562482
0.43875501 -0.063042492 0.54034984 4279244312
0.43807402 -0.063108534 0.54047847 4279177495
0.4373945 -0.063175082 0.54060704 4279899671
0.43671647 -0.063242108 0.54073566 4281281324
0.43606567 -0.063222229 0.54082197 4283649860
0.43539035 -0.063290134 0.5409506 4283781952
0.43471652 -0.06335853 0.54107916 4284044604
0.43401915 -0.063515007 0.54124999 4284307515
0.43332374 -0.063672125 0.54142076 4284307511
0.43265483 -0.063742101 0.54154932 4284175925
0.43196312 -0.063900426 0.54172009 4284110134
0.43129742 -0.063971445 0.54184866 4284373308
0.43060941 -0.064130962 0.54201943 4284373306
0.42992336 -0.06429112 0.54219019 4284373306
0.42923927 -0.064451903 0.54236096 4284439099
0.42855719 -0.064613357 0.54253173 4284373056
0.42785427 -0.064863771 0.5427447 4284109884
0.42719889 -0.064938158 0.5428732 4284109882
0.42650041 -0.065190002 0.54308617 4284044089
0.42582643 -0.065354079 0.54325694 4283977784
0.42513263 -0.065607458 0.54346985 4284109370
0.42446285 -0.065772906 0.54364061 4284175163
0.42379504 -0.065938979 0.54381132 4284239932
0.4231292 -0.066105694 0.54398203 4284305727
0.42246532 -0.066273078 0.54415268 4284437311
0.4218446 -0.066262946 0.54423892 4284306749
0.42118418 -0.066431433 0.54440963 4284240956
0.42056593 -0.066422135 0.54449588 4284175163
0.41994864 -0.066413134 0.54458213 4284438333
0.41935194 -0.0663151 0.54462618 4284570171
0.41877508 -0.066127762 0.54462802 4284570683
0.41819823 -0.065940425 0.54462981 4284504890
0.41764024 -0.065663457 0.5445894 4284373558
0.41708174 -0.065386355 0.54454905 4284768062
0.4165411 -0.06501931 0.54446644 4284504894
0.41598141 -0.06474179 0.54442602 4284308292
0.41545692 -0.06428425 0.54430121 4284768843
0.4148781 -0.064096272 0.54430306 4285229657
0.4143514 -0.063638017 0.54417825 4285229657
0.4119181 -0.049157113 0.53815818 4279965202
0.41131848 -0.04886663 0.53811789 4279898390
0.41070342 -0.048666894 0.53811985 4279571209
0.41008836 -0.048467159 0.53812176 4279506710
0.40948775 -0.048176363 0.53808153 4280230433
0.40887246 -0.047976539 0.53808343 4281415992
0.40825716 -0.047776729 0.5380854 4281482555
0.4076829 -0.047303006 0.53796077 4281351220
0.52211952 -0.041272119 0.5194208 4285820765
0.52119255 -0.041354597 0.51959145 4285820763
0.52031755 -0.041358039 0.51971996 4285820763
0.51944399 -0.041361973 0.51984853 4285820761
0.51842356 -0.041605815 0.52010328 4285689427
0.51740605 -0.041850641 0.52035809 4285426509
0.51634258 -0.042176381 0.52065492 4285491789
0.51537997 -0.042343155 0.52086759 4285425996
0.51432288 -0.042670965 0.52116442 4285097027
0.51336575 -0.042839512 0.52137709 4285359939
0.51236302 -0.043089107 0.52163178 4285228353
0.51136327 -0.0433397 0.52188647 4285096777
0.510414 -0.043510765 0.52209914 4284964939
0.50946712 -0.043682635 0.52231175 4285096525
0.50856978 -0.043774724 0.52248228 4285161804
0.50762761 -0.043948114 0.52269489 4285161804
0.50668794 -0.044122308 0.5229075 4285096265
0.50570446 -0.044378176 0.52316213 4285030724
0.50476992 -0.044554055 0.52337468 4284964931
0.50383788 -0.044730753 0.52358729 4284964929
0.50286281 -0.044989318 0.52384192 4284767552
0.50161904 -0.045735911 0.52434897 4284504388
0.50047129 -0.046321899 0.52477187 4284176708
0.49932843 -0.046909481 0.5251947 4281281827
0.498146 -0.047580108 0.52565968 4279968546
0.49710181 -0.04800801 0.52599835 4279968546
0.49606156 -0.048437163 0.52633703 4279837482
0.49515662 -0.048622668 0.52654958 4280100652
0.49425414 -0.048808947 0.52676201 4280166443
0.49326754 -0.049159661 0.5270586 4279969064
0.49232745 -0.049429625 0.52731317 4279904038
0.49139029 -0.049700499 0.52756763 4279904038
0.49041355 -0.050054416 0.52786422 4280101163
0.48944026 -0.050409451 0.52816075 4279904300
0.48847041 -0.050765634 0.52845734 4279970091
0.48767126 -0.050793722 0.52858561 4279970091
0.4868736 -0.050822288 0.52871394 4279970091
0.48611873 -0.050768897 0.52880013 4280101677
0.48536485 -0.050715819 0.52888638 4280431925
0.48457116 -0.050745666 0.52901465 4280564285
0.48386008 -0.050610632 0.52905881 4280630591
0.48306882 -0.050641283 0.52918708 4280762177
0.48227906 -0.050672412 0.52931535 4280235831
0.48149073 -0.050704032 0.52944362 4278917675
0.48074353 -0.050653145 0.52952987 4278916893
0.47999728 -0.050602511 0.52961606 4278850585
0.47921294 -0.050635427 0.52974427 4278719249
0.47846889 -0.050585553 0.52983052 4278785042
0.47768727 -0.050619319 0.52995872 4278849815
0.4769071 -0.050653577 0.53008699 4278718481
0.4761284 -0.050688341 0.5302152 4278586893
0.47538906 -0.050639987 0.53030139 4278389516
0.47465074 -0.050591916 0.53038758 4278389516
0.473876 -0.050627962 0.53051579 4278257926
0.47310272 -0.050664455 0.530644 4278454792
0.47229403 -0.050785333 0.53081429 4278454792
0.47148734 -0.050906852 0.53098452 4278651403
0.47068262 -0.051028997 0.53115475 4278651403
0.46987987 -0.051151782 0.53132498 4278520587
0.46900725 -0.051443666 0.53157932 4278652173
0.46813762 -0.051736504 0.53183365 4278652175
0.46723557 -0.052114666 0.53212994 4278652686
0.46637207 -0.052409485 0.53238428 4278586893
0.46551156 -0.052705288 0.53263855 4278652686
0.46465403 -0.053002045 0.53289276 4278586893
0.463765 -0.053384438 0.53318906 4278390284
0.4629136 -0.053683177 0.53344333 4278390286
0.46203125 -0.054067731 0.53373957 4278520589
0.46121967 -0.054283574 0.53395176 4278454794
0.46041059 -0.054500192 0.53416395 4278454794
0.45960397 -0.0547176 0.53437614 4278586378
0.45883274 -0.054850638 0.53454626 4278915343
0.45809621 -0.054899052 0.53467441 4278785040
0.44412586 -0.062921673 0.54021084 4279905322
0.44349194 -0.062811658 0.54025477 4279905322
0.4428302 -0.062788501 0.54034072 4280036136
0.44216946 -0.062765673 0.54042667 4280233515
0.4415375 -0.062656313 0.5404706 4280233515
0.44085097 -0.062720999 0.54059851 4280365101
0.44019318 -0.062699109 0.54068446 4280365101
0.43953639 -0.062677562 0.54077041 4280496173
0.4388538 -0.062743515 0.54089832 4279244312
0.43817273 -0.062809944 0.54102623 4279177497
0.43751937 -0.062789515 0.54111218 4280294431
0.43684098 -0.062856823 0.5412401 4281347119
0.43618986 -0.062837139 0.54132599 4283650114
0.43548861 -0.062992886 0.54149592 4283912766
0.43483996 -0.062973976 0.54158181 4284109884
0.43414217 -0.06313087 0.54175168 4284438587
0.43347117 -0.063200578 0.54187959 4284373304
0.43277708 -0.063358665 0.54204953 4284110132
0.43208498 -0.063517392 0.5422194 4284307511
0.4314189 -0.063588709 0.54234725 4284307515
0.4307543 -0.063660517 0.54247516 4284373306
0.43004403 -0.063909203 0.542687 4284438585
0.42935953 -0.064070404 0.54285687 4284504378
0.42867702 -0.06423226 0.54302675 4284504126
0.42799649 -0.064394742 0.54319656 4284175161
0.42731792 -0.06455788 0.54336643 4284241208
0.42664132 -0.064721644 0.54353631 4283978296
0.4259446 -0.064974755 0.54374814 4284043577
0.4252722 -0.06513989 0.54391795 4284109370
0.42460176 -0.06530565 0.54408777 4284175163
0.4239333 -0.065472066 0.54425758 4284109370
0.4232668 -0.065639108 0.54442739 4284174909
0.4226023 -0.065806806 0.54459715 4284437565
0.42198098 -0.065796793 0.54468298 4284437565
0.42134029 -0.065876335 0.54481077 4284305979
0.42070109 -0.065956369 0.54493856 4284109370
0.42006332 -0.06603688 0.54506636 4284569921
0.41948599 -0.065849394 0.5450682 4284701759
0.41890863 -0.065661892 0.54507005 4284701757
0.4183313 -0.065474391 0.54507184 4284570171
0.41775393 -0.06528689 0.54507363 4284570171
0.41721389 -0.064919755 0.54499149 4284636476
0.41665447 -0.064642191 0.54495132 4284570685
0.41611269 -0.064274505 0.54486918 4284570948
0.41555202 -0.063996553 0.54482901 4285163085
0.41500852 -0.063628286 0.54474688 4285229911
0.41448146 -0.063169509 0.54462278 4285295704
0.41266531 -0.048869655 0.53863287 4282006050
0.41206545 -0.048578963 0.53859282 4279899409
0.41143471 -0.048470005 0.53863674 4279570708
0.41083437 -0.048179165 0.53859669 4279374602
0.41021883 -0.047979265 0.53859866 4279376660
0.4096033 -0.047779351 0.53860056 4280824106
0.40898776 -0.047579452 0.53860253 4281350967
0.40841413 -0.047105551 0.53847855 4281482553
0.40781155 -0.04681398 0.5384385 4281350967
0.52233982 -0.040751949 0.51999927 4285754205
0.52141219 -0.04083474 0.52016896 4285623132
0.52053654 -0.040838391 0.52029687 4285491546
0.51966238 -0.040842563 0.52042472 4285426007
0.51864123 -0.041086972 0.52067816 4285491287
0.51767218 -0.04125236 0.5208897 4285491285
0.5166077 -0.04157871 0.52118498 4285557076
0.51554668 -0.041906208 0.52148026 4285228111
0.51458609 -0.042074293 0.5216918 4285163083
0.51353145 -0.042403862 0.52198702 4284964929
0.51252824 -0.042654127 0.5222404 4285228867
0.51148021 -0.042985857 0.52253562 4284833857
0.51053071 -0.043157548 0.5227471 4284833859
0.50958371 -0.043330029 0.52295864 4284899652
0.50868618 -0.043422595 0.52312827 4285161540
0.50774384 -0.04359661 0.52333975 4285292872
0.50680393 -0.043771416 0.52355123 4285358665
0.50582016 -0.044028014 0.52380455 4285096263
0.50483942 -0.044285566 0.52405781 4285162056
0.50395322 -0.044381812 0.52422744 4284964677
0.50297785 -0.044641122 0.5244807 4284767552
0.50186956 -0.045145288 0.52485955 4284767298
0.50067562 -0.04581365 0.52532202 4284570433
0.49953187 -0.04640232 0.52574265 4283189822
0.49830392 -0.047155648 0.52624691 4280296226
0.49730349 -0.047502816 0.52654201 4280230433
0.49626243 -0.047932789 0.52687889 4279837480
0.49540061 -0.048036963 0.52704841 4279969066
0.49454075 -0.048141763 0.52721798 4279969066
0.49355289 -0.048493013 0.52751297 4279969064
0.49243921 -0.049091458 0.52793354 4279969314
0.48942417 -0.050320521 0.52890217 4280101163
0.48858106 -0.050430775 0.52907163 4279970091
0.48782367 -0.050376803 0.5291574 4279970091
0.48698404 -0.050488174 0.52932686 4279970091
0.48622912 -0.050435022 0.52941263 4280101677
0.48547512 -0.050382197 0.52949846 4280234033
0.48464042 -0.050495163 0.52966785 4280299828
0.48388892 -0.050443128 0.52975363 4280694586
0.48309806 -0.050474316 0.52988124 4280892478
0.48230866 -0.050505966 0.53000885 4280826685
0.48156062 -0.050455064 0.53009462 4279378474
0.48077393 -0.050487593 0.53022218 4279573540
0.48002809 -0.050437406 0.53030795 4278982171
0.47928327 -0.050387546 0.53039372 4278784790
0.47846162 -0.050504744 0.53056312 4278850583
0.47771925 -0.050455675 0.53064883 4278719001
0.47697783 -0.050406933 0.5307346 4278587413
0.47616112 -0.05052574 0.53090394 4278456079
0.4754222 -0.050477758 0.53098971 4278390286
0.4746466 -0.050513938 0.53111726 4278324493
0.47387248 -0.05055055 0.53124475 4278257928
0.47313699 -0.050503716 0.53133053 4278389516
0.47232866 -0.050625265 0.53149986 4278454796
0.47148561 -0.050831512 0.53171104 4278454796
0.47071788 -0.05087021 0.53183854 4278454796
0.46991545 -0.050993681 0.53200787 4278454796
0.46907905 -0.051202089 0.53221905 4278586380
0.46824512 -0.051411346 0.53243017 4278586382
0.4673782 -0.051705852 0.53268313 4278652171
0.46651423 -0.052001327 0.5329361 4278520585
0.46565324 -0.052297786 0.533189 4278652171
0.46482989 -0.05251044 0.53340012 4278521098
0.46394008 -0.052893549 0.5336948 4278521098
0.46308798 -0.053192854 0.53394771 4278390284
0.46223879 -0.053493142 0.53420061 4278520587
0.46064973 -0.053841189 0.53458095 4278520589
0.45987517 -0.05397369 0.53475022 4278717964
0.45910254 -0.054106817 0.53491944 4279047182
0.44488883 -0.062644213 0.54067743 4279640866
0.44428292 -0.062447429 0.54067934 4279640866
0.44361991 -0.062424123 0.54076481 4279640866
0.44295785 -0.062401116 0.54085034 4279836962
0.44226873 -0.06246537 0.5409776 4280100134
0.44163671 -0.062356129 0.54102129 4280167210
0.44097763 -0.062334105 0.54110682 4280430896
0.44031954 -0.062312409 0.54119229 4280365103
0.43963534 -0.062378228 0.54131955 4280167722
0.43895262 -0.062444553 0.54144681 4279243791
0.43829799 -0.062423974 0.54153228 4279177747
0.4376443 -0.062403709 0.54161769 4280425502
0.43696555 -0.062471315 0.54174495 4281807155
0.43631411 -0.06245178 0.54183042 4283716159
0.43563807 -0.062520236 0.54195762 4283781948
0.43496346 -0.062589198 0.54208487 4284044091
0.43429038 -0.062658653 0.54221213 4284175413
0.43359393 -0.062816486 0.54238111 4284241458
0.43292403 -0.062886968 0.54250836 4284241458
0.43223125 -0.063046038 0.54267734 4284438837
0.43156457 -0.063117564 0.54280454 4284306999
0.43087548 -0.063277811 0.54297352 4284569403
0.43018836 -0.063438714 0.5431425 4284569403
0.42947987 -0.063688681 0.5433532 4284569403
0.42882007 -0.063762426 0.5434804 4284371770
0.42813888 -0.063925236 0.54364938 4284240184
0.42743701 -0.064177349 0.54386008 4284305977
0.4267824 -0.064252794 0.54398727 4284240954
0.42610714 -0.064417541 0.54415619 4284043575
0.42543381 -0.064582914 0.54432511 4284175161
0.42476249 -0.064748943 0.54449403 4284306747
0.42407173 -0.065004662 0.54470474 4284306747
0.42342573 -0.065082908 0.54483187 4284240954
0.42276031 -0.065250829 0.54500079 4284700735
0.42211753 -0.065330118 0.54512793 4284305977
0.42147622 -0.065409869 0.54525506 4284108598
0.42083639 -0.065490112 0.5453822 4284569921
0.42021796 -0.065481305 0.54546756 4284307776
0.41962019 -0.065383181 0.54551113 4284373308
0.41902292 -0.065285236 0.5455547 4284504894
0.41846451 -0.065007865 0.54551476 4284373308
0.4179056 -0.064730346 0.54547483 4284439101
0.41734621 -0.064452678 0.54543489 4284570687
0.41680476 -0.064084813 0.54535317 4284438847
0.41624412 -0.063806728 0.54531324 4285360214
0.41568303 -0.063528478 0.5452733 4285491800
0.41513911 -0.063159838 0.54519165 4285491546
0.41278213 -0.048472926 0.53915215 4280229130
0.4121666 -0.048273027 0.53915411 4279636491
0.41156629 -0.047982067 0.5391143 4279308812
0.41095051 -0.047782078 0.53911626 4279309582
0.41033471 -0.047582105 0.53911817 4280099098
0.40971893 -0.047382116 0.53912008 4280891694
0.40913165 -0.04699938 0.53903854 4281154866
0.40855739 -0.046524853 0.53891528 4281286454
0.52261072 -0.040151566 0.52053696 4285754205
0.52163196 -0.040314421 0.52074742 4285491800
0.52080572 -0.04023838 0.52083296 4285426007
0.51978135 -0.040482596 0.52108508 4285294421
0.51880944 -0.040647686 0.52129555 4285293908
0.51779073 -0.040893748 0.52154762 4285622359
0.51677501 -0.041140735 0.52179968 4285557080
0.51576221 -0.04138872 0.52205169 4285293908
0.51475239 -0.041637629 0.52230376 4285228111
0.51374555 -0.041887507 0.52255583 4284964929
0.51269352 -0.042218894 0.52284944 4285228099
0.51169282 -0.042470783 0.52310151 4284833857
0.51064748 -0.042804331 0.52339512 4284833859
0.50970024 -0.042977422 0.52360547 4284833859
0.50880253 -0.04307048 0.52377421 4285095747
0.50786 -0.043245107 0.52398455 4285358406
0.50691986 -0.043420523 0.52419496 4285293126
0.50593591 -0.043677866 0.5244469 4285293126
0.50504708 -0.043773785 0.52461565 4285358919
0.50397688 -0.044195369 0.5249508 4285095747
0.50300181 -0.044455588 0.52520275 4285029954
0.5019843 -0.04479818 0.5254963 4284899138
0.50088012 -0.04530488 0.52587306 4284636480
0.49969059 -0.045976192 0.52633309 4283255869
0.49859571 -0.046485946 0.52670979 4280427812
0.49746096 -0.047078863 0.52712816 4280296226
0.49646342 -0.047427967 0.52742165 4279837732
0.49546936 -0.047778144 0.52771515 4279772200
0.49443513 -0.048211426 0.52805018 4279772200
0.49349159 -0.048481882 0.52830207 4279903784
0.49259412 -0.048671141 0.52851224 4279904287
0.48797616 -0.04995966 0.52972966 4279970345
0.48709446 -0.05015406 0.52993983 4279970345
0.48633945 -0.050101161 0.53002518 4280035884
0.48554426 -0.050131336 0.53015208 4280036654
0.48475054 -0.050162032 0.53027904 4280102447
0.4839583 -0.050193176 0.53040594 4280628021
0.48316756 -0.050224811 0.5305329 4280956986
0.48237824 -0.050256923 0.53065979 4281088572
0.48163038 -0.050206348 0.53074515 4280760379
0.48080415 -0.050322577 0.53091365 4279640101
0.48005873 -0.050272807 0.53099895 4279245343
0.47931433 -0.050223336 0.53108424 4278784790
0.47853193 -0.050257683 0.53121114 4278916376
0.47778973 -0.050208926 0.53129643 4278718747
0.47697163 -0.050327823 0.53146493 4278718999
0.47619367 -0.050363615 0.53159177 4278521872
0.4754172 -0.050399914 0.53171867 4278390286
0.47464222 -0.050436661 0.53184557 4278324493
0.47390616 -0.050389916 0.5319308 4278520589
0.47309667 -0.050511613 0.53209931 4278454796
0.47232613 -0.050549805 0.53222615 4278454542
0.47155705 -0.050588474 0.53235298 4278454796
0.47078943 -0.050627649 0.53247988 4278454796
0.46995088 -0.050836042 0.53268987 4278454796
0.46911478 -0.051045224 0.53289992 4278717196
0.46828115 -0.051255211 0.5331099 4278586380
0.46741447 -0.051550642 0.53336149 4278586378
0.46662122 -0.051677629 0.53352994 4278520585
0.465725 -0.052059591 0.53382307 4278586378
0.46493644 -0.052188084 0.53399146 4278586378
0.46404636 -0.052572057 0.53428465 4278521098
0.46319401 -0.052872092 0.53453618 4278521102
0.4624126 -0.053002909 0.53470457 4278454792
0.46166694 -0.053049207 0.53483135 4278520335
0.46085572 -0.053266481 0.53504127 4278586128
0.4601135 -0.053313866 0.53516805 4278783759
0.45930672 -0.053532586 0.53537798 4279112975
0.44446898 -0.061885908 0.54110718 4279640353
0.44377655 -0.061949477 0.54123378 4279640353
0.44311392 -0.061926574 0.54131883 4279639583
0.44242418 -0.061991006 0.54144543 4279968035
0.44176379 -0.061968833 0.54153049 4279969318
0.44110438 -0.061946988 0.54161549 4280298796
0.4404186 -0.062012702 0.54174209 4280364589
0.4397614 -0.061991572 0.54182708 4280167206
0.43907833 -0.062058181 0.54195368 4279374859
0.43842334 -0.062037766 0.54203868 4279177745
0.43776935 -0.062017649 0.54212373 4280557339
0.43709022 -0.062085539 0.54225028 4282465336
0.43643844 -0.062066168 0.54233533 4283716157
0.43576202 -0.062134922 0.54246187 4283781948
0.43508708 -0.062204167 0.54258841 4283979063
0.43441361 -0.062273905 0.54271495 4284110645
0.43374163 -0.062344104 0.54284155 4284176179
0.43304646 -0.062502921 0.54300964 4284176179
0.43235329 -0.062662408 0.54317772 4284504376
0.43166208 -0.062822506 0.54334581 4284307001
0.43102065 -0.062806502 0.54343081 4284437817
0.43030924 -0.063056171 0.54364043 4284569403
0.42962369 -0.063218117 0.54380846 4284372024
0.42894012 -0.063380703 0.54397655 4284437563
0.42825851 -0.063543946 0.54414463 4284240184
0.4275789 -0.063707799 0.54431266 4284174909
0.42690122 -0.063872322 0.54448068 4284306749
0.42624772 -0.063948527 0.54460722 4283912503
0.42557377 -0.064114243 0.54477525 4284044089
0.42490178 -0.064280599 0.54494327 4284438333
0.42423174 -0.064447567 0.5451113 4284306747
0.42356372 -0.06461522 0.54527932 4284438333
0.42291856 -0.064694136 0.54540575 4284438333
0.42227492 -0.06477353 0.54553223 4284240954
0.42161229 -0.064942941 0.54570019 4283846196
0.42101228 -0.064844236 0.54574358 4284504642
0.42037281 -0.064924985 0.54587007 4284242751
0.41977426 -0.064826742 0.5459134 4284308026
0.41919568 -0.064638853 0.54591525 4284373819
0.41861713 -0.064450949 0.54591703 4284308026
0.4180575 -0.064173073 0.54587734 4284439101
0.41747868 -0.063985094 0.54587913 4284570433
0.41693681 -0.063616827 0.54579788 4284372802
0.41635752 -0.063428685 0.54579973 4285556828
0.41581416 -0.063059956 0.54571849 4285556828
0.41525209 -0.062781274 0.54567879 4285623134
0.41289905 -0.048075959 0.5396719 4280358929
0.41229877 -0.047784865 0.53963232 4279505418
0.41169801 -0.047493637 0.53959274 4279243540
0.41108173 -0.047293484 0.53959471 4280498488
0.41046545 -0.047093347 0.53959662 4280959039
0.40986371 -0.046801776 0.53955704 4280892730
0.40926149 -0.046510056 0.53951746 4281286203
0.40868685 -0.046035022 0.53939486 4281417275
0.52273023 -0.039790019 0.52120024 4285951322
0.52180159 -0.039873555 0.52136815 4285688664
0.52092493 -0.039877698 0.52149469 4285359699
0.51995015 -0.040042534 0.52170402 4285228115
0.51897782 -0.040208161 0.52191335 4285228113
0.51795864 -0.040454865 0.52216411 4285490771
0.5169915 -0.040622175 0.52237338 4285556564
0.5159291 -0.040951133 0.5226655 4285359185
0.5149188 -0.041200727 0.5229162 4285161806
0.51386309 -0.041531831 0.52320832 4285162056
0.51285887 -0.041783422 0.52345896 4285359689
0.51180983 -0.042116702 0.52375108 4284899652
0.51081181 -0.04237029 0.52400172 4284833859
0.50986415 -0.042543918 0.52421099 4284833859
0.50891894 -0.042718366 0.5244202 4285096517
0.50797617 -0.042893603 0.52462947 4285227331
0.50703585 -0.043069631 0.52483869 4285293124
0.50609803 -0.043246493 0.5250479 4285227331
0.50516266 -0.043424115 0.52525711 4285293124
0.50418389 -0.043683946 0.52550769 4285161023
0.50316244 -0.044026181 0.52579969 4285095745
0.50209904 -0.044451088 0.52613306 4285095747
0.50103956 -0.044877291 0.52646643 4284898884
0.49989432 -0.045468152 0.52688253 4283584582
0.49884322 -0.045897067 0.5272159 4282729273
0.4976185 -0.046654701 0.52771479 4280296228
0.49662045 -0.047004536 0.52800667 4279838243
0.49553806 -0.04751955 0.52838135 4279838245
0.49467838 -0.047625497 0.52854908 4279772198
0.49356019 -0.048225164 0.52896512 4279838245
0.49266276 -0.048415154 0.52917427 4280035622
0.4872466 -0.049737215 0.53051138 4280101417
0.48644981 -0.049767286 0.53063768 4279970345
0.4855721 -0.049963638 0.53084671 4279970345
0.48481971 -0.049911857 0.53093159 4280101931
0.48402759 -0.049943447 0.53105783 4280496687
0.48323697 -0.049975559 0.53118408 4280825140
0.4824478 -0.050008103 0.53131032 4280956726
0.48162016 -0.050124466 0.53147793 4281417791
0.48087394 -0.050074682 0.53156281 4280761144
0.48012868 -0.050025225 0.53164768 4279376929
0.47930598 -0.050143152 0.53181523 4278982169
0.47856319 -0.050094485 0.53190011 4278982169
0.47774392 -0.050213546 0.53206766 4278850583
0.4770036 -0.050165698 0.53215253 4278850067
0.47622603 -0.050202012 0.53227872 4278652688
0.47544995 -0.050238818 0.53240496 4278456079
0.47467533 -0.050276101 0.53253114 4278390286
0.47386467 -0.050397977 0.53269869 4278521102
0.47309327 -0.050436288 0.53282487 4278520589
0.47228634 -0.050559357 0.53299242 4278520589
0.47151813 -0.050598711 0.53311861 4278520589
0.4707514 -0.050638571 0.53324479 4278454796
0.4699499 -0.050763384 0.53341234 4278323210
0.4691143 -0.05097346 0.53362119 4278454794
0.46831697 -0.051099613 0.53378874 4278520585
0.46745056 -0.051395938 0.53403902 4278520585
0.46662238 -0.051608384 0.53424788 4278454792
0.4658317 -0.051736742 0.53441536 4278520585
0.46493864 -0.052120671 0.53470695 4278520585
0.46411809 -0.052335605 0.5349158 4278455309
0.46330002 -0.052551329 0.53512466 4278520848
0.46255249 -0.052597418 0.53525078 4278520587
0.46180648 -0.052643985 0.53537685 4278586641
0.46099481 -0.052861795 0.5355857 4278718227
0.44604629 -0.061197713 0.54128438 4279179298
0.44535005 -0.061260447 0.54141039 4279442720
0.44462639 -0.061410561 0.54157764 4279771685
0.44393334 -0.061474338 0.54170358 4279571478
0.44321337 -0.061625659 0.54187089 4280227606
0.44255167 -0.061603308 0.54195547 4280360994
0.44189095 -0.061581314 0.54204005 4279902238
0.44120356 -0.061646923 0.54216599 4279968282
0.44054505 -0.06162563 0.54225057 4280165661
0.43988752 -0.061604649 0.54233515 4279902489
0.4392041 -0.06167154 0.54246104 4279703315
0.43854877 -0.061651289 0.54254562 4279308814
0.43789446 -0.061631352 0.5426302 4281084187
0.43721497 -0.061699525 0.54275608 4283123770
0.43656284 -0.061680317 0.54284066 4283781950
0.43588606 -0.061749384 0.54296654 4283782202
0.43521076 -0.061818898 0.54309243 4284044856
0.43456209 -0.061800808 0.54317695 4284242231
0.43386456 -0.061959416 0.54334414 4284307765
0.43319368 -0.062030375 0.54347003 4284176179
0.43249986 -0.06219019 0.54363722 4284307513
0.43180799 -0.062350601 0.54380441 4284307263
0.43114203 -0.062423185 0.54393029 4284307263
0.43045387 -0.062584832 0.54409748 4284307261
0.42976767 -0.062747091 0.54426467 4284109882
0.42908344 -0.062910035 0.54443181 4284175161
0.4284012 -0.063073575 0.54459894 4284109622
0.4277209 -0.063237786 0.54476613 4284109370
0.4270426 -0.063402608 0.54493326 4284569151
0.42638847 -0.063479036 0.54505908 4284240184
0.42571387 -0.063645065 0.54522622 4284305977
0.4250412 -0.063811749 0.54539335 4284437563
0.42437053 -0.063979074 0.54556048 4284569149
0.42370182 -0.064147025 0.54572761 4284371770
0.4230561 -0.064226165 0.54585338 4284569149
0.42243257 -0.064216226 0.54593784 4284109884
0.42178956 -0.064296246 0.54606366 4283912505
0.421148 -0.064376742 0.54618943 4284308546
0.42052794 -0.06436795 0.54627389 4284242751
0.41994837 -0.064179733 0.54627573 4284177212
0.41934928 -0.06408143 0.54631883 4284243005
0.41876996 -0.063893288 0.54632068 4284111419
0.41817161 -0.063795269 0.54636383 4284439110
0.41763011 -0.063426852 0.54628301 4284504392
0.41705054 -0.063238636 0.54628485 4284767312
0.41647094 -0.063050419 0.54628664 4285819750
0.41592747 -0.062681347 0.54620588 4285753957
0.413616 -0.047969878 0.54023147 4280095759
0.41301602 -0.047678739 0.54019213 4279898380
0.41241556 -0.047387466 0.54015279 4279570444
0.4118146 -0.047096014 0.54011339 4279112476
0.41121313 -0.046804413 0.54007405 4280959043
0.41059637 -0.046604112 0.54007596 4280959043
0.40997958 -0.04640381 0.54007792 4280827453
0.40942016 -0.045837 0.53991467 4281155389
0.52284974 -0.039428473 0.52186352 4285820250
0.52192092 -0.039512485 0.52203059 4285491798
0.52104414 -0.039517 0.52215642 4285228626
0.52011901 -0.039602235 0.52232343 4285031247
0.51904702 -0.039929003 0.522614 4285359185
0.51807719 -0.040096119 0.5228222 4285424976
0.51701158 -0.040424988 0.52311277 4285490769
0.51604718 -0.040593877 0.52332091 4285359183
0.51503658 -0.040844202 0.5235703 4285096011
0.51398063 -0.04117617 0.52386081 4285096263
0.51297623 -0.041428491 0.52411014 4285227849
0.51192689 -0.04176262 0.52440065 4284899652
0.51092863 -0.042016953 0.52464998 4284899138
0.50998074 -0.042191193 0.52485806 4284964931
0.50908244 -0.042285159 0.52502501 4285161540
0.50813925 -0.042460918 0.52523315 4285227333
0.50715184 -0.042718738 0.52548242 4285293126
0.50626022 -0.042814851 0.52564931 4285227331
0.50527823 -0.043074444 0.52589858 4285095745
0.50429922 -0.043335021 0.52614784 4285161023
0.5033232 -0.043596521 0.52639711 4285226818
0.50225919 -0.044022337 0.52672869 4285227333
0.50119919 -0.044449404 0.52706021 4284964679
0.50009817 -0.044959605 0.52743292 4284045135
0.49895689 -0.045553148 0.52784681 4283650377
0.49773169 -0.046312258 0.52834302 4280230433
0.49677753 -0.046580896 0.52859217 4279903523
0.49573848 -0.047014788 0.52892369 4279838245
0.49474704 -0.047367722 0.52921402 4279771685
0.49375907 -0.047721773 0.5295043 4279837991
0.49277452 -0.048077002 0.52979463 4280035624
0.49200827 -0.048020944 0.52987909 4279904038
0.49039373 -0.04807514 0.53013033 4279904038
0.48735708 -0.049402982 0.53112459 4279904552
0.48660165 -0.049350485 0.53120899 4279904298
0.4857235 -0.049547374 0.53141689 4280035624
0.48488879 -0.049661979 0.53158367 4280167210
0.48409683 -0.049694017 0.53170925 4280561966
0.48330629 -0.049726531 0.53183484 4280759347
0.48251724 -0.049759567 0.53196037 4280825140
0.48172972 -0.04979305 0.53208596 4281417791
0.48094365 -0.049827009 0.53221148 4280958521
0.48015904 -0.049861461 0.53233707 4279772198
0.47933668 -0.049980044 0.53250372 4279180061
0.47855526 -0.050015554 0.53262931 4278982682
0.47781414 -0.049967691 0.53271371 4278850583
0.47703546 -0.05000405 0.53283924 4278849813
0.47621998 -0.050124884 0.53300595 4278718481
0.4754445 -0.050162286 0.53313148 4278652688
0.47463271 -0.050284341 0.53329813 4278521102
0.47386044 -0.050322786 0.53342366 4278652175
0.47308964 -0.050361708 0.53354913 4278520589
0.4722833 -0.050485492 0.53371578 4278520589
0.47151569 -0.050525486 0.53384131 4278520589
0.47071302 -0.050650463 0.53400791 4278454794
0.46994865 -0.050691485 0.53413343 4278323208
0.46911359 -0.050902396 0.53434122 4278454794
0.46828103 -0.051114082 0.53454894 4278454792
0.46741536 -0.051411465 0.53479785 4278520838
0.46662328 -0.051539898 0.53496444 4278455045
0.46579811 -0.051753998 0.53517222 4278455045
0.46497539 -0.051968902 0.53537995 4278520585
0.46415514 -0.052184597 0.53558767 4278455309
0.46333736 -0.052401096 0.53579539 4278455057
0.46259022 -0.052447736 0.5359208 4278586380
0.46184456 -0.052494809 0.53604627 4278652688
0.46106678 -0.052627891 0.5362128 4278850067
0.44772294 -0.060250089 0.54134232 4279443233
0.44699246 -0.060398534 0.54150873 4279376157
0.44623455 -0.060634464 0.54171628 4280031007
0.44553745 -0.060697332 0.54184151 4287201139
0.44478399 -0.060934737 0.54204905 4288845964
0.44409031 -0.060998708 0.54217434 4288451456
0.44336969 -0.061150357 0.5423407 4288188546
0.44270742 -0.06112811 0.54242486 4284045131
0.44201818 -0.061193526 0.54255009 4279836178
0.44133043 -0.061259419 0.54267538 4279902741
0.44067156 -0.061238304 0.54275948 4279968534
0.44001374 -0.061217487 0.54284358 4279639319
0.43932992 -0.061284661 0.54296887 4279440151
0.43867427 -0.061264589 0.54305297 4279703064
0.43801963 -0.061244816 0.54313707 4282794285
0.43733978 -0.061313272 0.5432623 4283386422
0.43668735 -0.061294228 0.54334641 4283978298
0.43601018 -0.061363563 0.54347163 4284307009
0.4353345 -0.061433375 0.54359686 4284373056
0.43468553 -0.061415449 0.54368097 4284175675
0.43401256 -0.061486155 0.54380614 4284109882
0.43331635 -0.061645731 0.54397249 4284175929
0.4326221 -0.061805934 0.54413879 4284175929
0.43192983 -0.061966777 0.54430509 4284307263
0.43126351 -0.062039644 0.54443026 4284504642
0.43059868 -0.062112972 0.54455543 4284373056
0.42991182 -0.062275589 0.54472172 4284109884
0.42920369 -0.062527701 0.54492909 4283978296
0.42854404 -0.062602714 0.5450542 4283978550
0.42786309 -0.062767267 0.54522049 4284043829
0.42718413 -0.062932417 0.54538673 4284305977
0.42650712 -0.063098237 0.54555297 4284305977
0.42587614 -0.063086152 0.54563701 4284305977
0.42518082 -0.063342422 0.54584432 4284305977
0.4245095 -0.063510075 0.54601055 4284437817
0.42386141 -0.063588858 0.54613566 4284371770
0.42321479 -0.063668102 0.54626083 4284371772
0.42254889 -0.063837528 0.54642701 4284108600
0.42194659 -0.063738331 0.54646993 4284240956
0.42130417 -0.063818946 0.5465951 4284439614
0.42068326 -0.063810155 0.54667908 4284243005
0.42008317 -0.063711673 0.54672199 4284111165
0.41948354 -0.06361337 0.54676491 4284242501
0.41888446 -0.063515231 0.54680783 4284242501
0.41832393 -0.063236773 0.54676855 4284373319
0.41776294 -0.062958166 0.54672933 4284438599
0.41718286 -0.062769786 0.54673111 4285556314
0.41660282 -0.062581405 0.54673296 4285885279
0.41431659 -0.047954887 0.5408321 4280162833
0.41373324 -0.047572613 0.54075187 4279767053
0.41314894 -0.047190011 0.54067171 4279767053
0.41254801 -0.046898454 0.54063255 4279570959
0.41194659 -0.046606719 0.54059339 4279902001
0.41132957 -0.046406329 0.54059535 4280958019
0.41071257 -0.046205953 0.54059732 4281155398
0.41012478 -0.045822263 0.54051709 4280826683
0.52204025 -0.03915143 0.52269292 4285360984
0.52111322 -0.039236575 0.5228591 4284900433
0.52018821 -0.039322376 0.52302521 4285228115
0.51911616 -0.039650083 0.52331418 4285491023
0.51814634 -0.039817914 0.5235213 4285359437
0.5171299 -0.040067106 0.52376932 4285556816
0.51616526 -0.040236607 0.52397633 4285425230
0.51515448 -0.040487662 0.52422434 4285096265
0.51409817 -0.040820494 0.5245133 4285359437
0.51309353 -0.041073561 0.52476132 4285227851
0.51209188 -0.041327581 0.52500927 4285030470
0.51109314 -0.04158254 0.52525723 4284899138
0.51014477 -0.0417573 0.52546424 4284964931
0.5091989 -0.041932911 0.52567124 4285161540
0.50830245 -0.042027965 0.52583724 4285161540
0.50736123 -0.042205095 0.52604425 4285161288
0.50642252 -0.042382985 0.5262512 4285095493
0.50544006 -0.042643219 0.52649915 4284898114
0.50446051 -0.042904437 0.52674705 4285291843
0.50348395 -0.043166623 0.52699494 4285226820
0.50251037 -0.043429732 0.52724278 4285227081
0.50144929 -0.043857574 0.52757257 4284897612
0.5003022 -0.044450581 0.52798426 4284438606
0.49920475 -0.044963136 0.52835488 4284043848
0.49793383 -0.045805588 0.52888936 4281151786
0.49693474 -0.046157002 0.52917814 4280034339
0.49589509 -0.046591803 0.52950782 4280034087
0.4948594 -0.047027856 0.52983749 4279837480
0.49387112 -0.047382757 0.53012627 4279837480
0.49301606 -0.047491297 0.53029215 4279837480
0.49211997 -0.04768303 0.53049898 4279903271
0.49122632 -0.047875613 0.53070581 4279903273
0.49029264 -0.048151687 0.53095359 4280100654
0.48940414 -0.048345938 0.53116041 4280035374
0.48851818 -0.04854095 0.53136718 4280101167
0.48755109 -0.048902765 0.53165591 4279903788
0.4867951 -0.048850358 0.53173989 4280035374
0.48583367 -0.049213991 0.53202856 4280101165
0.48499882 -0.049329087 0.53219438 4280101163
0.48420674 -0.049361497 0.53231931 4280298542
0.48337555 -0.049477771 0.53248513 4280364335
0.48254636 -0.049594685 0.53265095 4280627507
0.48171914 -0.049712256 0.53281677 4281022517
0.48093367 -0.049746841 0.53294164 4281154615
0.48014969 -0.049781889 0.53306651 4281023803
0.47940651 -0.049733639 0.53315043 4279576105
0.47858617 -0.049853459 0.53331625 4279115554
0.47784546 -0.049805969 0.53340018 4278916889
0.47699001 -0.050010949 0.53360689 4279113239
0.47625199 -0.049964398 0.53369081 4278981401
0.47543883 -0.050086483 0.53385663 4278718227
0.47466543 -0.050125003 0.53398144 4278652434
0.47381836 -0.050332665 0.53418815 4278586893
0.47304845 -0.050372273 0.53431296 4278521098
0.47224289 -0.050496906 0.53447872 4278586380
0.4714762 -0.050537542 0.53460354 4278717196
0.47067434 -0.050663352 0.5347693 4278717447
0.46983811 -0.050874531 0.53497595 4278651654
0.46904045 -0.051001713 0.53514165 4278717447
0.46820891 -0.051214427 0.5353483 4278651401
0.46737984 -0.05142796 0.53555495 4278586380
0.46655321 -0.051642269 0.53576154 4278520585
0.46576419 -0.051772222 0.53592724 4278454792
0.46494228 -0.05198808 0.53613383 4278586378
0.46415743 -0.052119389 0.53629953 4278586893
0.46334016 -0.052336767 0.53650612 4278586645
0.46259367 -0.052383974 0.53663087 4278850067
0.46184862 -0.052431673 0.53675562 4278719249
0.46110505 -0.052479863 0.53688037 4278850835
0.44941235 -0.059303358 0.54140556 4280298281
0.44870698 -0.059363961 0.54153019 4280035370
0.44791329 -0.059685498 0.54177755 4279180061
0.4471522 -0.059921101 0.54198396 4279506712
0.44639361 -0.060157508 0.54219031 4283580999
0.44566667 -0.060307637 0.54235584 4288779138
0.4449417 -0.060458407 0.54252136 4288515966
0.44421872 -0.060609818 0.54268682 4288122741
0.44349772 -0.060761869 0.54285234 4287728247
0.44283509 -0.060739785 0.54293603 4286809464
0.44211751 -0.060892969 0.54310149 4279836946
0.44145736 -0.060871691 0.54318517 4279706647
0.44079822 -0.060850739 0.54326886 4279904026
0.44014001 -0.060830086 0.54335254 4279442972
0.43945587 -0.060897544 0.54347712 4279506460
0.43879989 -0.060877621 0.54356074 4279571480
0.43814492 -0.060858026 0.54364443 4283978557
0.43746468 -0.060926765 0.543769 4283846971
0.43681192 -0.060907871 0.54385269 4284044089
0.43616015 -0.060889333 0.54393631 4284372804
0.43548384 -0.060959369 0.54406083 4284372802
0.43478379 -0.0611182 0.54422629 4284373056
0.43413571 -0.061100841 0.54430991 4284373056
0.43346384 -0.061172321 0.54443443 4284307261
0.43276894 -0.061332852 0.54459983 4284307261
0.43207601 -0.061494023 0.54476523 4284372802
0.43138507 -0.061655849 0.54493064 4284570181
0.43071985 -0.061729476 0.54505515 4284373056
0.43003261 -0.06189248 0.54522049 4284044091
0.42934731 -0.062056154 0.5453859 4283912505
0.428664 -0.062220439 0.54555124 4284044089
0.42800546 -0.062296227 0.54567575 4283978550
0.42732581 -0.062461734 0.5458411 4284109368
0.42664817 -0.062627867 0.54600644 4284175161
0.4260166 -0.062615871 0.54609001 4284240954
0.42534238 -0.062783137 0.54625535 4284175161
0.42464861 -0.063040584 0.54646158 4284569403
0.42402121 -0.063029945 0.54654515 4284437817
0.42335269 -0.063199028 0.54671049 4284371772
0.42270696 -0.063278988 0.54683495 4284108600
0.42208326 -0.063269556 0.54691851 4284307009
0.42146057 -0.063260436 0.54700208 4284308544
0.42085895 -0.063161597 0.54704475 4284111932
0.42021814 -0.063243151 0.54716921 4284111165
0.41963759 -0.063054621 0.547171 4284373065
0.41905704 -0.062866077 0.54717284 4284373065
0.41847649 -0.062677532 0.54717469 4284373065
0.41787708 -0.062579438 0.54721737 4284372806
0.41727817 -0.062481478 0.54726005 4285819736
0.41673484 -0.062111914 0.54718018 4285951322
0.41503325 -0.04784885 0.54139143 4284043837
0.4144505 -0.047466487 0.54131168 4279769358
0.41386676 -0.04708381 0.54123193 4279571979
0.41326612 -0.046792209 0.54119301 4279636237
0.41266498 -0.046500415 0.54115409 4279374099
0.41206336 -0.046208501 0.54111516 4280823875
0.41146126 -0.045916408 0.5410763 4281285701
0.41085866 -0.045624152 0.54103738 4281351494
0.41027021 -0.04523994 0.54095763 4280957758
0.40968081 -0.044855416 0.54087788 4281023549
0.52118218 -0.038956419 0.5235613 4285163605
0.52020729 -0.039123237 0.52376723 4285623384
0.51918519 -0.039371416 0.524014 4285491537
0.51821542 -0.039539933 0.52421987 4285228363
0.51719892 -0.03978996 0.52446657 4285359949
0.51618546 -0.040040925 0.52471322 4285228363
0.51522362 -0.04021202 0.52491915 4284965191
0.51421577 -0.040464818 0.5251658 4285228365
0.51321089 -0.040718615 0.52541244 4285030986
0.51220894 -0.04097338 0.52565908 4285030470
0.51125765 -0.041147888 0.52586496 4284899138
0.51030886 -0.041323185 0.52607083 4284964931
0.50936258 -0.041499302 0.52627671 4285161540
0.50841868 -0.041676223 0.52648258 4285030470
0.50752401 -0.041772425 0.52664769 4285029448
0.50658488 -0.041950852 0.52685356 4285095495
0.50560188 -0.042211771 0.52710009 4284898116
0.50462186 -0.042473659 0.52734667 4285160773
0.50364482 -0.042736471 0.52759326 4285226566
0.50267076 -0.043000251 0.52783978 4285095241
0.50165439 -0.043346986 0.52812701 4285029198
0.5005064 -0.043941066 0.52853644 4284569419
0.49940807 -0.044454589 0.52890509 4284306247
0.49831423 -0.044969544 0.52927375 4282664509
0.49704772 -0.04581517 0.52980524 4280034337
0.49613982 -0.046003759 0.530011 4280165414
0.49510306 -0.046440572 0.53033888 4279968296
0.49407023 -0.046878681 0.53066677 4279903271
0.49312794 -0.047152773 0.53091323 4279771685
0.49231774 -0.047179729 0.53103751 4279837478
0.4913806 -0.047455505 0.53128392 4279771685
0.49044642 -0.047732264 0.53153032 4279903271
0.48959982 -0.047844082 0.53169531 4279903784
0.48871312 -0.048039556 0.531901 4280035372
0.48774529 -0.048402056 0.53218812 4280035372
0.486864 -0.048599303 0.53239375 4280035372
0.48602653 -0.048714072 0.53255868 4280035372
0.48510885 -0.048996195 0.53280509 4280101167
0.48427582 -0.049112394 0.53297001 4280166960
0.48344472 -0.049229249 0.53313494 4280101165
0.48261559 -0.049346745 0.53329986 4280298544
0.48178846 -0.049464881 0.53346479 4280759093
0.48096329 -0.049583644 0.53362972 4280956472
0.48014009 -0.049703062 0.53379464 4281351998
0.47939757 -0.049655288 0.53387809 4280695097
0.47861692 -0.049691826 0.5340023 4280366132
0.47779888 -0.049812928 0.53416717 4279245854
0.47702146 -0.049850538 0.53429139 4279310618
0.47620714 -0.049972802 0.53445625 4279112987
0.47543287 -0.050011441 0.53458041 4278915093
0.47462225 -0.050134927 0.53474528 4278783507
0.47381359 -0.050259054 0.53491014 4278652688
0.47304428 -0.050299317 0.5350343 4278652171
0.47223932 -0.050424635 0.53519917 4278717964
0.47143632 -0.05055061 0.53536403 4278717964
0.47063529 -0.05067724 0.53552884 4278652171
0.46979988 -0.050889358 0.53573436 4278652171
0.46900302 -0.051017329 0.53589916 4278586893
0.46817228 -0.051230982 0.53610468 4278652173
0.46734399 -0.051445425 0.5363102 4278717966
0.46651816 -0.051660657 0.53651571 4278586380
0.46569479 -0.051876724 0.53672117 4278717966
0.46490881 -0.052008212 0.53688598 4278652173
0.4641248 -0.05214034 0.53705072 4278718477
0.46330833 -0.052358627 0.53725624 4278718999
0.46256268 -0.052406549 0.53738028 4278850583
0.46181849 -0.052454934 0.53750437 4278982419
0.46104211 -0.052589566 0.53766912 4278982419
0.45105267 -0.058530807 0.54155552 4280561455
0.4503125 -0.058677182 0.54172021 4280560685
0.44957432 -0.058824211 0.54188484 4280494892
0.44883811 -0.058971867 0.54204947 4279837480
0.44807386 -0.059207126 0.54225475 4278982171
0.44731212 -0.059443176 0.54246002 4279701260
0.44655281 -0.05968003 0.54266536 4286736988
0.44582525 -0.059830487 0.54282993 4284894782
0.44507062 -0.060068876 0.54303521 4284500024
0.44437596 -0.060133338 0.54315913 4282726184
0.4436543 -0.060285717 0.5433237 4284766028
0.44296286 -0.060351238 0.54344761 4287071613
0.4422729 -0.060417235 0.54357153 4285692777
0.44158441 -0.060483709 0.54369545 4279311635
0.44092491 -0.060462907 0.54377866 4279903772
0.4402664 -0.060442433 0.54386193 4279443487
0.43960887 -0.060422271 0.54394513 4279376157
0.43895236 -0.060402438 0.54402834 4279768855
0.43827027 -0.060470998 0.54415226 4284308294
0.43761593 -0.06045188 0.54423547 4284110915
0.4369626 -0.06043306 0.54431868 4284307515
0.43628448 -0.060502902 0.54444253 4284307263
0.43560782 -0.06057322 0.54456639 4284372802
0.43493265 -0.060644016 0.54469025 4284438849
0.43425894 -0.060715288 0.54481411 4284570435
0.43358672 -0.060787052 0.54493797 4284373056
0.4328914 -0.060947984 0.54510248 4284373569
0.43219805 -0.061109588 0.54526699 4284439108
0.43150669 -0.061271802 0.54543149 4284439108
0.43084112 -0.061345726 0.54555529 4284110395
0.43015346 -0.061509162 0.5457198 4283781430
0.42946774 -0.061673209 0.54588425 4283912503
0.42878401 -0.061837941 0.54604876 4284110136
0.42812511 -0.061913997 0.54617256 4284110136
0.42744508 -0.062079906 0.54633701 4284240956
0.42678937 -0.06215702 0.54646081 4284174911
0.42611304 -0.062324136 0.54662526 4284306497
0.42546052 -0.062402293 0.54674906 4284306497
0.42480949 -0.062480912 0.54687285 4284240702
0.42413858 -0.062649801 0.54703724 4284306747
0.42351186 -0.062639654 0.54712039 4284043837
0.42286524 -0.062719718 0.54724413 4284043837
0.42224076 -0.062710285 0.54732728 4284374085
0.42159685 -0.062791243 0.54745102 4284308805
0.42097458 -0.062782526 0.54753417 4284308805
0.42041293 -0.062503442 0.54749537 4283979327
0.41979188 -0.062495112 0.54757845 4283979327
0.41919118 -0.062396735 0.54762095 4284373319
0.41862929 -0.062117562 0.54758215 4284306759
0.41799131 -0.062200442 0.54770589 4285623386
0.41742942 -0.061921269 0.54766703 4285689179
0.41573301 -0.047834009 0.54199141 4283583286
0.41513437 -0.0475429 0.54195273 4279704074
0.41455171 -0.047160298 0.5418734 4279244813
0.41398424 -0.046685949 0.54175347 4279047434
0.41338339 -0.046394125 0.54171479 4279308561
0.41278204 -0.046102166 0.5416761 4282140233
0.41219568 -0.045718357 0.54159677 4281089859
0.41159311 -0.045425981 0.54155809 4281351494
0.41100502 -0.045041621 0.54147881 4281154115
0.41041592 -0.044656917 0.54139948 4281088576
0.52115071 -0.038837492 0.52434409 4285754455
0.52017629 -0.03900516 0.52454895 4286017627
0.51920438 -0.039173678 0.52475375 4285886295
0.5181855 -0.039423689 0.52499908 4285557330
0.51721871 -0.039593875 0.52520394 4285228363
0.51625443 -0.039764836 0.52540874 4285096777
0.51529264 -0.039936602 0.52561355 4284899398
0.51433331 -0.040109158 0.52581829 4285162056
0.51337647 -0.040282533 0.52602309 4285030218
0.51237404 -0.040537924 0.52626836 4285030218
0.51142228 -0.040712968 0.5264731 4285030472
0.51047307 -0.040888816 0.52667791 4285030472
0.50957358 -0.04098399 0.52684212 4285030470
0.50867605 -0.041079819 0.52700639 4285096263
0.5077337 -0.041257903 0.52721113 4285161034
0.50679386 -0.041436791 0.52741587 4285161034
0.50581014 -0.041698277 0.52766109 4285029448
0.50478333 -0.042042583 0.52794677 4285226827
0.50385159 -0.042224109 0.52815145 4285227081
0.5029223 -0.042406455 0.52835619 4285095495
0.50185961 -0.042835921 0.52868235 4285095495
0.50071073 -0.043431059 0.52908951 4284701253
0.49961156 -0.043945506 0.52945614 4284569667
0.4984723 -0.044543758 0.52986324 4284044100
0.49729365 -0.045226052 0.53031087 4280361495
0.49629667 -0.045580029 0.53059649 4280230437
0.49534699 -0.045852572 0.53084159 4280034089
0.49431312 -0.046291381 0.53116769 4279903271
0.49341315 -0.046483234 0.53137231 4279837478
0.49255875 -0.046593055 0.5315364 4279837478
0.49170631 -0.046703517 0.53170049 4279902755
0.49072808 -0.047063604 0.53198606 4279903525
0.48988032 -0.047175586 0.53215015 4279969318
0.48714086 -0.047931924 0.53284478 4280035370
0.48626086 -0.048130274 0.53304935 4280035370
0.48526001 -0.048579812 0.53337526 4280101165
0.48442653 -0.048696443 0.53353935 4280166958
0.48355442 -0.048897341 0.53374386 4280035372
0.48268479 -0.049099028 0.53394836 4280232751
0.48189783 -0.049133956 0.53407192 4280627507
0.48107252 -0.049253196 0.53423589 4280759093
0.48020953 -0.049457073 0.5344404 4281285953
0.47938839 -0.049577668 0.53460437 4280760892
0.4786475 -0.04953073 0.53468746 4280629306
0.47779089 -0.049736679 0.5348919 4279444519
0.47701406 -0.04977487 0.5350154 4279376929
0.47623873 -0.049813539 0.53513891 4279178780
0.4754267 -0.049937114 0.53530288 4279112472
0.47465456 -0.049976826 0.53542638 4278849813
0.47384623 -0.050101623 0.53559035 4278718227
0.47303987 -0.050227046 0.53575432 4278652686
0.4722355 -0.05035311 0.53591824 4278783757
0.4714331 -0.0504798 0.53608215 4278783757
0.4705593 -0.050776988 0.53632706 4278718479
0.46976131 -0.050905123 0.53649098 4278718479
0.46892911 -0.051119 0.53669536 4278652688
0.46809939 -0.051333651 0.53689975 4278717966
0.46727213 -0.051549092 0.53710413 4278717966
0.46644732 -0.051765382 0.53730851 4278717966
0.46566021 -0.051897034 0.53747237 4278783761
0.46487504 -0.052029341 0.53763628 4278717968
0.46409184 -0.05216229 0.53780019 4278915345
0.4633106 -0.052295879 0.53796405 4278850585
0.46253136 -0.052430123 0.5381279 4278850583
0.46178806 -0.052479193 0.53825128 4278982421
0.46101248 -0.052614614 0.53841519 4279048214
0.46003807 -0.053266406 0.53882176 4279508763
0.45920146 -0.053575665 0.53906655 4280100904
0.45292413 -0.057152823 0.54142678 4280232749
0.45205265 -0.057644397 0.5417524 4280232749
0.45127812 -0.057876974 0.5419566 4280561201
0.45044452 -0.058284029 0.54224169 4280560431
0.44973645 -0.058344558 0.54236495 4280494638
0.44899958 -0.058492541 0.54252875 4279836708
0.44826466 -0.05864118 0.54269242 4278916378
0.44747218 -0.058964759 0.54293704 4279701262
0.44668269 -0.059289292 0.54318166 4286540895
0.44598395 -0.05935286 0.54330492 4284303415
0.44525769 -0.0595043 0.54346865 4282461211
0.44450459 -0.059743851 0.5436728 4282331174
0.44378251 -0.059896633 0.54383647 4284700753
0.44306239 -0.06005007 0.54400015 4286280812
0.44240037 -0.060028717 0.54408294 4286546289
0.44171152 -0.060095474 0.54420614 4279244813
0.44105169 -0.060074836 0.54428899 4280034329
0.44039285 -0.060054541 0.54437172 4279508765
0.439735 -0.060034543 0.54445451 4279441691
0.43907815 -0.060014859 0.54453731 4280624164
0.43842226 -0.059995502 0.54462004 4284308292
0.43774104 -0.060064748 0.5447433 4284242499
0.43708739 -0.060046121 0.54482603 4284373821
0.43640888 -0.060116231 0.54494923 4284307009
0.43573186 -0.060186848 0.54507244 4284307524
0.4350563 -0.060257912 0.54519564 4284504901
0.43438223 -0.060329482 0.54531878 4284570694
0.43370965 -0.060401529 0.54544199 4284307776
0.43301392 -0.060562894 0.5456056 4284373569
0.43232018 -0.060724884 0.54576921 4284439108
