# .PCD v0.7 - Point Cloud Data file format
VERSION 0.7
FIELDS x y z rgb
SIZE 4 4 4 4
TYPE F F F U
COUNT 1 1 1 1
WIDTH 1046
HEIGHT 1
VIEWPOINT 0 0 0 1 0 0 0
POINTS 1046
DATA ascii
0.44449902 -0.046216995 0.4458684 4280624147
0.44387031 -0.045804441 0.44583946 4280295954
0.44329923 -0.045200169 0.44577786 4279704074
0.44272617 -0.044595331 0.44571632 4279309059
0.44215113 -0.043989778 0.44565475 4279309059
0.44154555 -0.043479562 0.44560951 4278784008
0.44096681 -0.042872846 0.44554797 4278652935
0.44035804 -0.042361587 0.44550276 4278718215
0.43974778 -0.041849822 0.44545752 4278718215
0.43916363 -0.041241348 0.44539604 4278718217
0.43855017 -0.040728599 0.44535083 4278652424
0.43793523 -0.040215373 0.44530565 4278652424
0.43737248 -0.039508671 0.44522786 4278652424
0.43707326 -0.037835658 0.44498718 4278652937
0.43647677 -0.03722322 0.44492573 4278586891
0.43598273 -0.036223322 0.44479913 4278587144
0.43538132 -0.035609305 0.4447377 4278587144
0.43464988 -0.035479039 0.44475776 4278652422
0.43412185 -0.034573287 0.44464749 4278849031
0.4336406 -0.033472389 0.44450468 4278783238
0.43300566 -0.032952696 0.44445959 4278652422
0.43236926 -0.032432526 0.4444145 4278652422
0.43178013 -0.03171736 0.44433689 4278652171
0.43099546 -0.031780183 0.44438952 4278652171
0.43047506 -0.030771762 0.44426304 4278652171
0.42961973 -0.031127214 0.44436452 4278717964
0.42904809 -0.030312538 0.44427064 4278915343
0.42552498 -0.018456966 0.44264179 4279178250
0.42423585 -0.02077511 0.44306859 4279112455
0.42365012 -0.019850791 0.44295865 4279112707
0.42295751 -0.019417673 0.44293001 4279309064
0.42224348 -0.019082755 0.44291767 4279309064
0.42154917 -0.018649101 0.44288903 4279506710
0.42089373 -0.018017709 0.44282791 4279704342
0.42023635 -0.017385691 0.44276682 4280558879
0.4195964 -0.016654134 0.44268945 4280822051
0.41889641 -0.016218662 0.44266084 4281348642
0.41823334 -0.015584797 0.44259977 4281939998
0.46683511 -0.068859845 0.44880867 4285761928
0.46642154 -0.068096071 0.44871551 4284314482
0.46596563 -0.067423761 0.44863847 4282338628
0.46546802 -0.066843197 0.44857755 4282339394
0.46496847 -0.066261947 0.44851661 4282206011
0.46450561 -0.065587431 0.4484396 4282140218
0.46396345 -0.065097585 0.44839481 4282532921
0.46341977 -0.064607278 0.44835001 4282401335
0.46291256 -0.064023599 0.44828913 4282467123
0.46236569 -0.063532278 0.44824436 4282467123
0.46177989 -0.063133523 0.44821569 4282533168
0.46123028 -0.062641323 0.44817093 4282729777
0.46071619 -0.062055379 0.4481101 4282598707
0.4601267 -0.061655462 0.44808143 4282664500
0.45957264 -0.061161816 0.4480367 4282664500
0.45901716 -0.060667664 0.44799197 4282467375
0.45846015 -0.060173094 0.44794723 4282533168
0.45790169 -0.059678018 0.44790253 4282401839
0.45734176 -0.059182495 0.44785783 4282204460
0.45681554 -0.058592707 0.44779706 4282401839
0.4562524 -0.058096111 0.44775236 4282204460
0.45568776 -0.057599038 0.44770768 4282007081
0.45515615 -0.057007521 0.44764692 4282007851
0.45458832 -0.056509435 0.44760227 4282007851
0.45408699 -0.055822551 0.44752547 4281941288
0.45351571 -0.055323333 0.4474808 4282137640
0.45297644 -0.054729313 0.44742012 4282269224
0.4524352 -0.054134697 0.44735941 4282400810
0.45185897 -0.053633898 0.4473148 4282072615
0.45131403 -0.053038061 0.44725412 4282072615
0.45076713 -0.052441597 0.44719344 4282138408
0.45015371 -0.052033961 0.44716489 4282138408
0.44960335 -0.051436365 0.44710425 4282137636
0.44901922 -0.050933063 0.44705969 4282137636
0.44843364 -0.050429255 0.44701511 4282268963
0.44781527 -0.050020039 0.44698662 4281873951
0.44722697 -0.049515337 0.44694206 4281742365
0.44663718 -0.049010217 0.44689751 4281413915
0.44604591 -0.048504591 0.44685298 4280888089
0.44545317 -0.047998488 0.44680843 4280493081
0.44482887 -0.047587335 0.44677997 4280229909
0.44423342 -0.047080368 0.44673544 4280032528
0.44363648 -0.046572953 0.44669095 4280295954
0.44303808 -0.046065003 0.44664645 4280295952
0.44246721 -0.04546085 0.44658589 4281416230
0.44186562 -0.044951856 0.4465414 4280889886
0.44129106 -0.044346541 0.4464809 4278982150
0.44065791 -0.043932557 0.44645247 4278849285
0.44007993 -0.04332608 0.44639197 4278718215
0.43949997 -0.042718977 0.44633147 4278652422
0.43889046 -0.042207479 0.44628704 4278783240
0.43827945 -0.041695505 0.4462426 4278717445
0.43766698 -0.041183054 0.44619817 4278783240
0.43705302 -0.040670127 0.44615376 4278586629
0.43670359 -0.039191186 0.44594899 4278652422
0.4361369 -0.038483232 0.44587255 4278586631
0.43561995 -0.037581086 0.44576403 4278586891
0.43504786 -0.036871403 0.44568759 4278652422
0.43447331 -0.036160886 0.44561118 4278586629
0.43382016 -0.035740465 0.44558287 4278718469
0.43334189 -0.034640521 0.44544238 4278783492
0.43273479 -0.034024715 0.44538203 4278717699
0.43229812 -0.032727927 0.4452095 4278783492
0.43161222 -0.032402039 0.44519725 4278652171
0.43080518 -0.032562792 0.44526511 4278717964
0.43016729 -0.032042176 0.44522083 4278586631
0.42940974 -0.032008618 0.44525665 4278718217
0.42289829 -0.019717008 0.44374958 4279046412
0.42196026 -0.020466238 0.44391349 4278914826
0.42126939 -0.020033687 0.44388536 4278981389
0.42057753 -0.019600809 0.44385725 4279177747
0.41990438 -0.019068837 0.44381315 4279441439
0.41926867 -0.01833868 0.44373706 4279703321
0.41859207 -0.017805606 0.44369298 4279834907
0.41795188 -0.017073989 0.44361693 4280953630
0.41727185 -0.016539782 0.44357285 4281478943
0.41662723 -0.015806794 0.44349679 4281808160
0.41594374 -0.015271455 0.44345275 4281873953
0.41527671 -0.014636338 0.44339272 4281939494
0.46720806 -0.069718361 0.44960064 4285565576
0.46671787 -0.069140151 0.4495407 4284838509
0.46622571 -0.06856133 0.44948077 4283325270
0.46573159 -0.067981839 0.44942087 4282272574
0.46527466 -0.067309231 0.44934511 4282141499
0.46473742 -0.066820994 0.44930106 4282074425
0.46427605 -0.06614694 0.44922537 4281942839
0.4636969 -0.065750331 0.44919717 4282336314
0.46319315 -0.06516777 0.4491373 4282269749
0.46264949 -0.064677447 0.44909328 4282467378
0.46210435 -0.064186662 0.44904929 4282533166
0.46152028 -0.063788474 0.4490211 4282533166
0.46097243 -0.06329684 0.44897711 4282598959
0.46042308 -0.062804684 0.44893312 4282598961
0.45983553 -0.062405407 0.44890499 4282533425
0.45931995 -0.061819047 0.44884518 4282467632
0.45876619 -0.061325461 0.44880122 4282401839
0.45821095 -0.060831428 0.44875729 4282270253
0.45765418 -0.060336918 0.44871333 4282204458
0.45706049 -0.059935629 0.44868523 4282270251
0.45650104 -0.059440255 0.44864127 4282270251
0.45597512 -0.058850527 0.44858155 4282007079
0.4554472 -0.058260202 0.44852179 4282007079
0.45484829 -0.057857215 0.44849372 4282138665
0.45435119 -0.057171673 0.4484182 4282138665
0.4537836 -0.056673676 0.4483743 4282007081
0.45324826 -0.056080967 0.44831461 4282137640
0.45271099 -0.055487573 0.44825491 4282203431
0.45217174 -0.054893583 0.44819525 4282203431
0.4516305 -0.054298937 0.44813558 4282203431
0.4510873 -0.053703696 0.44807595 4282137638
0.45050961 -0.05320242 0.44803211 4282203431
0.44996268 -0.052605957 0.44797248 4282006050
0.44938177 -0.052103668 0.44792867 4282137636
0.44879937 -0.051600933 0.44788486 4282006050
0.44821551 -0.051097691 0.44784105 4282071330
0.44763017 -0.050593942 0.44779724 4281610781
0.44701231 -0.050184876 0.44776925 4281479195
0.44639346 -0.049775511 0.44774127 4281084952
0.44583473 -0.049175233 0.44768173 4280559129
0.44521341 -0.048765063 0.44765374 4279901203
0.44456106 -0.048449993 0.44764158 4279900944
0.44396782 -0.047943741 0.44759783 4280229909
0.44334352 -0.047532618 0.44756988 4280493333
0.44274759 -0.047025472 0.44752613 4280427795
0.4421792 -0.046422094 0.44746661 4281284898
0.44158006 -0.045913965 0.44742289 4281284898
0.441008 -0.045309395 0.44736341 4279640334
0.44040564 -0.044800222 0.44731969 4279375629
0.43982989 -0.04419449 0.4472602 4278849031
0.4392243 -0.043684244 0.44721654 4278914054
0.43864486 -0.04307729 0.44715708 4278914054
0.43803608 -0.042566061 0.44711339 4278717445
0.43742582 -0.042054325 0.44706973 4278783240
0.43684095 -0.041445613 0.44701031 4278717447
0.43625408 -0.040836304 0.44695088 4278783240
0.43587607 -0.039453298 0.44676527 4278586631
0.43523109 -0.039035499 0.44673744 4278652424
0.43474025 -0.038036644 0.44661498 4278652422
0.43416864 -0.037327111 0.44653985 4278586629
0.43359458 -0.036616772 0.44646472 4278718469
0.43296778 -0.036099732 0.44642115 4278783492
0.43246391 -0.035096675 0.44629875 4278717699
0.43185759 -0.034481108 0.44623944 4278783492
0.43122488 -0.033962131 0.4461959 4278652171
0.43063897 -0.033248007 0.44612083 4278652171
0.42997894 -0.032825381 0.44609308 4278652424
0.42915243 -0.033084989 0.44617563 4278652424
0.42851552 -0.03256464 0.44613212 4278718217
0.42783087 -0.032239199 0.44612011 4278652424
0.42369097 -0.023338735 0.44501644 4278718467
0.4222807 -0.02267465 0.44499266 4278783757
0.41972998 -0.019961715 0.4447248 4279243288
0.41899922 -0.019726545 0.44472867 4279439892
0.41830689 -0.019293517 0.44470108 4279505685
0.4176704 -0.018563122 0.44462627 4279966737
0.41703147 -0.017831951 0.4445515 4280361495
0.41639006 -0.017099977 0.44447675 4281479456
0.41574621 -0.016367197 0.44440198 4281676835
0.41508192 -0.015732944 0.444343 4281873703
0.41441563 -0.015098095 0.44428399 4282005035
0.41372991 -0.014562041 0.44424072 4282137134
0.41304272 -0.014025569 0.44419748 4282400560
0.46806303 -0.071152404 0.45044792 4286092174
0.46753713 -0.070667848 0.45040458 4284381302
0.4670499 -0.070090577 0.45034567 4284047961
0.46656072 -0.069512695 0.45028675 4283190846
0.46606955 -0.068934187 0.45022786 4282664502
0.46561584 -0.068262592 0.45015341 4282206000
0.4650813 -0.067775235 0.45011011 4282140466
0.46454528 -0.067287415 0.45006683 4281942322
0.46404648 -0.066706434 0.45000798 4281942322
0.46350724 -0.066217571 0.44996473 4282269747
0.46296656 -0.065728202 0.44992149 4282269747
0.46242434 -0.065238386 0.44987822 4282467380
0.46184298 -0.064841077 0.44985056 4282467632
0.46129811 -0.064350381 0.44980735 4282467632
0.46071452 -0.063952357 0.44977969 4282401839
0.4601669 -0.063460797 0.44973648 4282204460
0.45958111 -0.063062027 0.44970882 4282073644
0.45899433 -0.062662959 0.44968119 4282007851
0.45847899 -0.062076688 0.44962245 4282007597
0.45792571 -0.061583281 0.44957924 4281811242
0.45733523 -0.061183035 0.44955164 4281745699
0.45681471 -0.060595065 0.4494929 4281941536
0.45622176 -0.060194016 0.4494653 4282073122
0.45569777 -0.059604913 0.44940656 4281941536
0.4551371 -0.059109151 0.44936344 4282007329
0.45460945 -0.058518887 0.44930473 4282072865
0.45404553 -0.058022082 0.44926161 4282138658
0.45351419 -0.057430625 0.44920292 4282204453
0.45301461 -0.056744277 0.44912869 4282137890
0.45244554 -0.056245804 0.44908559 4282137890
0.45190823 -0.055652469 0.44902694 4281940511
0.45136899 -0.05505845 0.44896832 4282137890
0.45082778 -0.054463834 0.4489097 4282268709
0.45028454 -0.053868562 0.44885108 4282137636
0.44973937 -0.053272694 0.44879246 4281874464
0.44916022 -0.052770942 0.44874942 4281874464
0.44857955 -0.052268744 0.44870639 4281677085
0.44799739 -0.051766068 0.44866335 4281544990
0.44738251 -0.051357955 0.44863588 4281281564
0.44676661 -0.050949514 0.4486084 4281018392
0.44614974 -0.050540745 0.44858092 4280295954
0.44556242 -0.05003643 0.44853792 4279507211
0.44494334 -0.049626946 0.44851044 4279440652
0.44432324 -0.049217194 0.44848299 4279638031
0.44370219 -0.048807085 0.44845554 4280295961
0.44308013 -0.048396677 0.44842809 4280559383
0.44245708 -0.047985911 0.44840065 4280296979
0.44189119 -0.047383398 0.44834214 4280296979
0.44129449 -0.046876013 0.4482992 4280428565
0.44072491 -0.046272218 0.44824073 4280691221
0.44018167 -0.045571864 0.44816673 4280164366
0.43957981 -0.04506284 0.44812381 4279243014
0.4390043 -0.044457167 0.44806537 4278914051
0.43842682 -0.043850869 0.44800693 4278914051
0.43784735 -0.043243974 0.44794852 4278717699
0.43726593 -0.042636365 0.4478901 4278652424
0.43665567 -0.042124659 0.44784722 4278586891
0.43604395 -0.041612446 0.44780433 4278586891
0.43556249 -0.040616602 0.44768387 4278652424
0.43502492 -0.039812952 0.44759449 4278586631
0.43448433 -0.03900829 0.44750512 4278652422
0.43394083 -0.038202703 0.44741577 4278586629
0.43336898 -0.03749308 0.44734192 4278652422
0.43281978 -0.036685675 0.44725257 4278652676
0.43219301 -0.036168635 0.44720978 4278717699
0.43136773 -0.036428601 0.44729105 4278586631
0.43100816 -0.034841329 0.44707769 4278652424
0.43037623 -0.034322619 0.44703493 4278652424
0.42974278 -0.033803433 0.44699216 4278586378
0.42903695 -0.03357628 0.44699591 4278652424
0.42833111 -0.033349127 0.44699967 4278652424
0.42767155 -0.032926649 0.44697243 4278652424
0.42714843 -0.031917393 0.44685221 4278914056
0.42407683 -0.025147706 0.44602287 4278718469
0.42335495 -0.024915367 0.44602671 4278652676
0.42267495 -0.024486333 0.44599956 4278784010
0.42195258 -0.024253845 0.44600341 4278783761
0.42135283 -0.023430139 0.44591433 4278718217
0.42064917 -0.023098588 0.44590271 4278718217
0.42000484 -0.022470802 0.44584462 4279046412
0.41927978 -0.02223745 0.44584846 4279176979
0.41869086 -0.021312147 0.44574398 4279176975
0.41804087 -0.020682484 0.44568592 4279242768
0.4174647 -0.019656181 0.445566 4279374857
0.4168098 -0.019024968 0.44550797 4279505940
0.41618982 -0.018194765 0.44541901 4279835158
0.41553044 -0.017562151 0.44536102 4280624926
0.41492301 -0.016630888 0.44525662 4281085477
0.41425899 -0.015996695 0.44519866 4281742117
0.41361043 -0.015262455 0.44512522 4281873701
0.41292498 -0.01472649 0.44508272 4281874214
0.41222101 -0.014289707 0.44505572 4282137386
0.4115161 -0.013852656 0.44502869 4282400558
0.4108102 -0.013415247 0.44500172 4282466605
0.41007081 -0.013177305 0.44500563 4282533166
0.40934744 -0.012839377 0.44499409 4282730545
0.46903059 -0.072307348 0.45124352 4286421139
0.46850815 -0.071823865 0.45120096 4284973179
0.46794355 -0.07143198 0.45117372 4283262561
0.46741837 -0.070947602 0.45113117 4282732101
0.46693191 -0.0703706 0.45107329 4282927422
0.46648338 -0.069700703 0.45100009 4282730043
0.46595305 -0.069214702 0.45095757 4282532664
0.4653818 -0.06882064 0.45093036 4282467380
0.46492708 -0.068148762 0.45085719 4282269999
0.46435314 -0.067753807 0.45083001 4282073390
0.46381688 -0.067265898 0.45078751 4282007597
0.46331757 -0.066684783 0.4507297 4282139183
0.46273991 -0.06628865 0.45070255 4282401585
0.46223715 -0.065706387 0.45064473 4282401839
0.46165705 -0.06530948 0.45061758 4282467375
0.46107593 -0.064912245 0.45059046 4282467375
0.46053103 -0.064421564 0.45054799 4282269996
0.45994771 -0.064023614 0.45052087 4282138667
0.45936337 -0.063625321 0.45049372 4282072872
0.45881453 -0.063133359 0.45045131 4282072872
0.45822799 -0.06273438 0.45042419 4282072872
0.45767644 -0.062241554 0.45038176 4281810470
0.45715913 -0.061654657 0.45032406 4281678882
0.4565689 -0.061254442 0.45029694 4281809952
0.45597768 -0.060853958 0.45026988 4282007331
0.45545542 -0.060265452 0.45021218 4282007331
0.45489648 -0.059770256 0.4501698 4282138658
0.45437056 -0.059180528 0.4501121 4282203681
0.4538084 -0.058684289 0.45006976 4282203681
0.45327875 -0.058093399 0.45001212 4282203681
0.45271337 -0.057596117 0.44996977 4282269476
0.45221356 -0.05690971 0.44989684 4282137890
0.45167801 -0.056316912 0.4498392 4282006304
0.45110747 -0.055817962 0.44979692 4282137890
0.4505682 -0.055223972 0.44973931 4282137890
0.45002699 -0.054629326 0.4496817 4282006050
0.44948378 -0.054034084 0.44962412 4281677855
0.4489066 -0.053533018 0.44958186 4281546269
0.4483279 -0.053031445 0.44953957 4281348892
0.44774774 -0.052529365 0.44949731 4281282847
0.44716612 -0.052026868 0.44945505 4280756505
0.44655195 -0.051618993 0.44942808 4280361747
0.4459368 -0.051210821 0.44940111 4279703817
0.44532067 -0.05080232 0.44937417 4279308807
0.44470355 -0.050393462 0.4493472 4279112455
0.44408542 -0.049984366 0.44932026 4279112205
0.44343653 -0.049670398 0.44930857 4279506963
0.44284627 -0.04916513 0.44926637 4280494106
0.44219589 -0.048850685 0.44925472 4280363796
0.44163221 -0.048248857 0.44919723 4279967244
0.44106656 -0.047646374 0.44913977 4280361999
0.4404704 -0.047139138 0.4490976 4280690964
0.43992937 -0.046439499 0.44902489 4280690964
0.43935782 -0.045835078 0.44896746 4279769615
0.43875644 -0.045326233 0.44892532 4278716424
0.43820876 -0.044624418 0.44885263 4278716424
0.43765861 -0.043921828 0.44877997 4278717445
0.43707892 -0.043314844 0.4487226 4278586378
0.43647039 -0.042803675 0.44868049 4278586891
0.4358604 -0.042291999 0.44863838 4278586891
0.43527526 -0.041683257 0.44858101 4278587144
0.43479261 -0.040687025 0.44846264 4278652424
0.43428013 -0.039786339 0.44835955 4278586631
0.43368736 -0.039175093 0.44830224 4278586631
0.43314335 -0.038369387 0.44821444 4278717447
0.43257126 -0.037659734 0.44814187 4278717699
0.43197185 -0.037046343 0.44808459 4278586883
0.43137044 -0.036432356 0.44802734 4278586378
0.43076706 -0.035817742 0.44797009 4278652171
0.43023413 -0.03491047 0.4478671 4278652424
0.42943496 -0.035073727 0.44793183 4278586631
0.4287796 -0.034652591 0.44790506 4278652424
0.42812327 -0.034231156 0.4478783 4278652424
0.4274891 -0.033711702 0.44783634 4278652424
0.42689925 -0.032996327 0.44776389 4278717447
0.42369398 -0.026919454 0.44705534 4278652676
0.42310363 -0.026098818 0.44696778 4278652676
0.42248937 -0.025375545 0.44689545 4278652171
0.42187262 -0.024651527 0.44682315 4278717714
0.42125344 -0.023926705 0.44675085 4278652424
0.42049044 -0.023891389 0.44678515 4278718217
0.41980821 -0.02346161 0.44675854 4278914826
0.41914469 -0.022932738 0.44671673 4278914323
0.41847968 -0.022403389 0.44667488 4278979596
0.41785163 -0.021675706 0.44660264 4279177478
0.4172211 -0.020947248 0.44653043 4279177478
0.41660678 -0.020118862 0.44644299 4279374607
0.41602647 -0.019091219 0.44632512 4279309331
0.41535112 -0.018558532 0.44628337 4279375124
0.41474617 -0.017628074 0.44618079 4279572503
0.41412002 -0.016795903 0.44609341 4280361500
0.41345596 -0.01616177 0.44603649 4280953630
0.41278997 -0.01552698 0.44597954 4281742367
0.41212195 -0.014891565 0.44592264 4281939746
0.41143525 -0.014355242 0.44588092 4281808160
0.4107306 -0.013918251 0.44585446 4281873953
0.41002494 -0.013480902 0.44582796 4282335015
0.40927032 -0.013343155 0.44584709 4282663982
0.40856341 -0.012905449 0.4458206 4282663982
0.40788653 -0.012267172 0.44576374 4282598961
0.47007352 -0.073276296 0.45200491 4286946965
0.46947125 -0.072977364 0.45199326 4286815381
0.46890962 -0.072586402 0.45196652 4286486164
0.46834701 -0.072195113 0.45193979 4283062616
0.46786472 -0.071619451 0.45188293 4282602065
0.46734005 -0.071135297 0.45184115 4282666049
0.46681392 -0.070650652 0.45179936 4282664507
0.46628627 -0.070165485 0.45175761 4282532664
0.46575719 -0.069679886 0.45171583 4282466871
0.46526602 -0.069101393 0.45165902 4282466869
0.4646945 -0.068707258 0.45163235 4282269999
0.46416098 -0.068220198 0.4515906 4282204206
0.46362597 -0.067732722 0.45154887 4282139183
0.46308944 -0.067244738 0.45150715 4282270769
0.46255147 -0.066756248 0.45146543 4282401585
0.46201199 -0.066267312 0.45142373 4282401839
0.46139565 -0.06596382 0.45141214 4282467375
0.46085373 -0.065474093 0.45137045 4282467375
0.46031031 -0.064983919 0.45132878 4282269996
0.45972845 -0.064586416 0.45130214 4282204203
0.45918232 -0.064095348 0.45126048 4282072617
0.45863473 -0.063603789 0.45121881 4282204203
0.45804942 -0.063205183 0.4511922 4282072617
0.45746315 -0.062806278 0.45116562 4281875236
0.45691159 -0.062313467 0.45112398 4282006820
0.45635855 -0.061820149 0.45108235 4281875486
0.45576882 -0.061420143 0.45105577 4282072865
0.45521307 -0.060925961 0.45101413 4282138658
0.45465586 -0.060431302 0.45097253 4282138658
0.45409715 -0.059936166 0.45093092 4282203681
0.45357123 -0.059346467 0.45087427 4282203681
0.45304331 -0.058756113 0.45081767 4282137888
0.45247969 -0.058259398 0.4507761 4282203681
0.45198157 -0.057573587 0.45070446 4282203681
0.45144776 -0.056981355 0.45064786 4282137890
0.45091197 -0.056388438 0.45059127 4282137890
0.45034143 -0.055889517 0.45054972 4282137636
0.44980192 -0.055295467 0.45049316 4281940259
0.44922817 -0.054795504 0.45045164 4281808673
0.44868499 -0.054200232 0.45039511 4281545501
0.44810802 -0.053699255 0.45035359 4281282847
0.44752961 -0.053197742 0.45031211 4281151263
0.4469184 -0.052790821 0.45028564 4280493079
0.44630623 -0.052383602 0.45025918 4279769358
0.44569305 -0.051976055 0.45023271 4279506186
0.44507888 -0.05156818 0.45020625 4279045640
0.44446373 -0.051159978 0.45017982 4278914824
0.4438476 -0.050751477 0.45015338 4279046159
0.44323048 -0.050342649 0.45012695 4279243538
0.44258282 -0.050029129 0.45011553 4280363294
0.44196397 -0.049619734 0.4500891 4280231186
0.44137323 -0.049114287 0.45004767 4280426768
0.44080979 -0.048512548 0.44999123 4280492815
0.44024441 -0.047910124 0.44993481 4280821780
0.43967703 -0.047307104 0.44987839 4280690962
0.43910772 -0.046703428 0.44982198 4279375629
0.43853638 -0.046099126 0.44976559 4278585610
0.43801826 -0.045301735 0.4496792 4278585610
0.43744254 -0.044696003 0.44962284 4278651654
0.43686479 -0.044089645 0.44956648 4278520838
0.43628511 -0.043482631 0.44951013 4278587144
0.43567684 -0.042971522 0.44946879 4278521351
0.43509343 -0.042363375 0.44941247 4278521351
0.43448198 -0.041851252 0.44937113 4278586631
0.43407592 -0.040564358 0.44920987 4278717447
0.43351072 -0.039856911 0.44913858 4278717447
0.43294308 -0.039148688 0.44906729 4278717447
0.43234783 -0.038536668 0.44901103 4278717447
0.43177551 -0.037826955 0.4489398 4278586631
0.4311761 -0.037213594 0.44888353 4278586631
0.43062347 -0.036405116 0.44879735 4278652424
0.4299472 -0.036082327 0.44878608 4278586629
0.42929432 -0.035661995 0.44875982 4278586631
0.42866409 -0.035143852 0.44871861 4278652424
0.42798561 -0.034820378 0.44870734 4278586631
0.42737603 -0.034203798 0.44865116 4278652424
0.42671874 -0.033782065 0.44862494 4278914056
0.42612839 -0.033066511 0.4485538 4278783240
0.42333254 -0.028593004 0.44806349 4278652676
0.4226405 -0.028265148 0.44805232 4278586883
0.42242935 -0.025674522 0.44769686 4278652171
0.42175132 -0.025246143 0.44767076 4278652175
0.42090878 -0.025605649 0.44776437 4278849033
0.42027113 -0.024979979 0.44770834 4278849033
0.41961157 -0.024452388 0.44766727 4278914826
0.41897023 -0.023825556 0.44761124 4278848784
0.41830742 -0.023296922 0.4475702 4278848782
0.41766238 -0.022668898 0.44751421 4278979847
0.41703433 -0.021941215 0.44744325 4279045640
0.41640377 -0.021212757 0.44737232 4279177745
0.41578925 -0.020384341 0.44728643 4279308561
0.41517174 -0.019554943 0.44720057 4279177745
0.41456926 -0.018625259 0.44709978 4279375124
0.41394562 -0.017793924 0.44701394 4279704091
0.41331899 -0.016961575 0.44692814 4280229911
0.41267216 -0.016227901 0.44685727 4281742367
0.41202289 -0.015493363 0.44678646 4281939746
0.41133767 -0.014957517 0.44674551 4281873181
0.410651 -0.014421195 0.4467046 4282334504
0.40994656 -0.013984263 0.44667861 4282203429
0.40924114 -0.013547033 0.44665265 4282335019
0.408519 -0.013209552 0.44664162 4282598191
0.40779635 -0.012871861 0.4466306 4282663730
0.40710375 -0.012333632 0.44658971 4282729525
0.47055215 -0.073853418 0.45273697 4286552723
0.46995106 -0.073554873 0.45272556 4286421135
0.46934953 -0.073256165 0.45271415 4283657055
0.46878862 -0.072865441 0.45268792 4282733125
0.46830857 -0.07229054 0.4526321 4282666049
0.46774521 -0.071899012 0.4526059 4282402877
0.46718088 -0.071507186 0.45257968 4282271291
0.46661556 -0.071115017 0.45255351 4282205498
0.46612909 -0.070538014 0.45249769 4282270521
0.46560097 -0.070052743 0.45245671 4282138935
0.46503195 -0.069659382 0.45243055 4282270519
0.4645403 -0.069080725 0.45237476 4282073138
0.46400774 -0.068594024 0.45233378 4282073390
0.46343502 -0.0681995 0.45230764 4282467378
0.46289974 -0.067711905 0.45226669 4282401585
0.462363 -0.067223817 0.45222574 4282467632
0.46178681 -0.066828206 0.45219961 4282401839
0.46124738 -0.066339254 0.45215869 4282270253
0.46063152 -0.066035956 0.45214736 4282270253
0.46008959 -0.0655462 0.45210645 4282204460
0.45950919 -0.065149233 0.45208031 4282138667
0.45892787 -0.064751938 0.4520542 4282006570
0.45838198 -0.0642609 0.45201331 4282072617
0.45779842 -0.06386289 0.45198721 4282072617
0.45724982 -0.063371018 0.45194635 4282006052
0.45669976 -0.062878668 0.45190549 4282137636
0.45611274 -0.062479556 0.45187938 4282137890
0.4555952 -0.061892539 0.45182374 4282269476
0.45500571 -0.061492592 0.45179769 4281940511
0.45444995 -0.06099844 0.45175683 4282269476
0.45389274 -0.060503781 0.45171601 4282203683
0.45333403 -0.060008645 0.45167518 4282006304
0.45280787 -0.059418857 0.4516196 4281940511
0.45227972 -0.058828473 0.45156401 4282006304
0.45174959 -0.058237433 0.45150843 4281808925
0.4512175 -0.057645738 0.45145285 4281940511
0.45068341 -0.057053447 0.4513973 4282137890
0.45014739 -0.0564605 0.45134175 4281742880
0.44960937 -0.055866927 0.45128623 4281545503
0.4490371 -0.05536741 0.45124549 4281544736
0.44849539 -0.054772645 0.45118997 4281413150
0.44788814 -0.054367006 0.45116398 4281084446
0.44734299 -0.053771108 0.45110849 4280427545
0.44673327 -0.053364664 0.45108253 4279900949
0.44612256 -0.052957922 0.4510566 4279243273
0.44551086 -0.052550852 0.45103064 4279045894
0.44486764 -0.052238733 0.45101947 4278783757
0.44428453 -0.051735759 0.45097876 4278718217
0.44363981 -0.051423162 0.45096758 4278783761
0.44302443 -0.05101487 0.45094165 4278915347
0.44237849 -0.050701916 0.45093051 4279113235
0.44176137 -0.050293088 0.45090458 4280164118
0.44114327 -0.049883962 0.45087868 4280230934
0.44055301 -0.049378663 0.450838 4280362002
0.43998984 -0.048777014 0.4507826 4280296209
0.43942469 -0.048174679 0.45072722 4279506695
0.43888566 -0.047475666 0.4506571 4279112203
0.43834415 -0.046775848 0.45058697 4278651401
0.4377726 -0.046171457 0.4505316 4278585608
0.43722641 -0.045470148 0.45046154 4278651654
0.43667778 -0.044768065 0.45039147 4278586631
0.43609983 -0.044161618 0.45033613 4278521351
0.43551987 -0.043554515 0.45028082 4278521098
0.43491161 -0.043043464 0.45024025 4278521098
0.43432796 -0.042435199 0.45018497 4278521351
0.43376821 -0.04172951 0.45011497 4278586378
0.43320599 -0.041023016 0.45004496 4278652173
0.43279356 -0.039734066 0.44988656 4278652173
0.43219978 -0.039122581 0.44983131 4278586380
0.43162894 -0.038413316 0.44976136 4278586380
0.43103099 -0.037800431 0.44970614 4278586631
0.4304311 -0.03718695 0.44965094 4278586631
0.42982921 -0.036572784 0.44959575 4278586629
0.42917755 -0.03615284 0.44957 4278586629
0.42854857 -0.035635114 0.44952956 4278586631
0.42791811 -0.035116881 0.44948912 4278586631
0.42726299 -0.034695864 0.4494634 4278586631
0.42665273 -0.034078985 0.44940823 4278783240
0.42601782 -0.033559382 0.44936782 4278783240
0.42540386 -0.032941341 0.44931269 4278783238
0.42483222 -0.032126695 0.44922814 4278783238
0.42425767 -0.031311184 0.44914362 4278586629
0.42370179 -0.030396521 0.44904438 4278586629
0.42312106 -0.029578954 0.44895989 4278586629
0.42285502 -0.027286053 0.44865474 4278586629
0.42222279 -0.026662141 0.4485997 4278651921
0.42156792 -0.02613607 0.44855937 4278652175
0.42091155 -0.025609493 0.44851908 4278783240
0.4200922 -0.025871336 0.44859642 4278849033
0.41947472 -0.02514708 0.44852671 4278849033
0.4187957 -0.024718344 0.44850111 4278848784
0.41813517 -0.024190456 0.44846085 4278782989
0.41749233 -0.023563117 0.44840586 4278849033
0.41686648 -0.022836179 0.44833618 4278914826
0.41623816 -0.022108436 0.44826654 4279046163
0.41562587 -0.021280706 0.4481822 4279046161
0.4150106 -0.020452023 0.44809788 4278981136
0.41441035 -0.019523114 0.44799888 4279112722
0.41380662 -0.018593073 0.44789991 4279112474
0.4131645 -0.01786086 0.44783032 4279703062
0.41255438 -0.016928762 0.44773138 4281083933
0.41190684 -0.01619482 0.44766182 4281807656
0.4112401 -0.015559793 0.44760698 4281741599
0.41055489 -0.015023947 0.44756684 4282005287
0.40988442 -0.014387757 0.447512 4281874214
0.40919599 -0.013850898 0.44747186 4282071082
0.40847459 -0.013513595 0.4474611 4282531633
0.4077372 -0.013276279 0.447465 4282531633
0.40701503 -0.012938797 0.44745424 4282531633
0.40629241 -0.012601107 0.44744349 4282663219
0.47090232 -0.074704513 0.45351064 4286486928
0.47030324 -0.074406609 0.4534995 4286092170
0.46978694 -0.073925138 0.45345923 4285236861
0.46926922 -0.073443189 0.45341894 4282340160
0.46870881 -0.073052615 0.45339325 4282666045
0.46810651 -0.072753698 0.4533821 4282337082
0.46750376 -0.072454587 0.45337099 4282271289
0.46698129 -0.071971133 0.45333073 4282205496
0.46641719 -0.071579367 0.45330507 4282139705
0.46585214 -0.071187302 0.45327938 4282336312
0.46536541 -0.07061027 0.4532246 4282270519
0.46483731 -0.070124954 0.4531844 4282336312
0.46430773 -0.069639221 0.45314419 4282138931
0.4637377 -0.069245532 0.45311853 4282073392
0.46324408 -0.06866625 0.45306382 4282336816
0.46267161 -0.068271816 0.45303819 4282336816
0.46213633 -0.067784235 0.45299801 4282401837
0.46159959 -0.067296177 0.45295784 4282204458
0.46102366 -0.066900626 0.45293221 4282204458
0.46044677 -0.066504717 0.45290661 4282204458
0.45983163 -0.066201687 0.45289552 4282204203
0.45928997 -0.065712005 0.45285541 4282203949
0.45874679 -0.065221891 0.45281526 4282006570
0.45816571 -0.064824671 0.45278966 4282138410
0.45758361 -0.064427093 0.45276409 4282138410
0.4570365 -0.063935742 0.45272398 4282203431
0.45645219 -0.063537449 0.45269841 4282137636
0.45590237 -0.063045189 0.4526583 4282203683
0.45535105 -0.062552452 0.45261821 4282269476
0.45479828 -0.062059253 0.45257813 4282006304
0.45427877 -0.061471611 0.45252353 4282203683
0.45368832 -0.061071366 0.45249799 4282137890
0.45313108 -0.060576707 0.45245793 4282006304
0.45260638 -0.059987396 0.45240337 4282137890
0.45204598 -0.059491754 0.45236334 4281940511
0.45151758 -0.05890125 0.45230877 4281808925
0.45102048 -0.058215737 0.45223972 4281874718
0.45045489 -0.057718366 0.45219973 4282006304
0.44992056 -0.057126015 0.45214522 4281742880
0.44938427 -0.056532979 0.45209068 4281545501
0.44884604 -0.055939317 0.4520362 4281478943
0.44830579 -0.055345029 0.45198172 4281018653
0.44770002 -0.054939866 0.45195624 4281018653
0.44715634 -0.054344475 0.45190179 4280164373
0.44651681 -0.054033548 0.45189083 4279769363
0.44593889 -0.053532243 0.45185089 4279046410
0.44532868 -0.05312562 0.45182547 4278849031
0.44468692 -0.052814037 0.45181453 4278783759
0.44404471 -0.052502215 0.45180359 4278717964
0.44343203 -0.052094817 0.45177817 4278717968
0.44284815 -0.051591605 0.45173827 4278915343
0.4422037 -0.051279098 0.45172736 4279046929
0.44155875 -0.050966442 0.45171642 4279440400
0.44094238 -0.050557852 0.45169103 4279638547
0.44035384 -0.050053149 0.45165116 4279704592
0.43982098 -0.049356103 0.45158228 4279573006
0.43925732 -0.048754275 0.45152792 4279243273
0.4386636 -0.048247874 0.45148805 4279046412
0.43812409 -0.047548681 0.45141923 4278520585
0.43758211 -0.046848744 0.45135042 4278454792
0.43703765 -0.046148002 0.45128161 4278586631
0.43649071 -0.045446426 0.45121282 4278586631
0.43596819 -0.044647634 0.45112956 4278521351
0.43538949 -0.044040918 0.45107529 4278521098
0.43478245 -0.043530256 0.4510355 4278521098
0.43420005 -0.042922407 0.45098123 4278521351
0.43364155 -0.042217135 0.45091251 4278586378
0.43308058 -0.041511059 0.45084378 4278652175
0.43246639 -0.040998071 0.45080402 4278652175
0.43190098 -0.040290564 0.45073533 4278586380
0.43113405 -0.04035908 0.45078242 4278586380
0.43086126 -0.038484454 0.45054013 4278586631
0.4302631 -0.03787148 0.45048594 4278586631
0.4296388 -0.037355274 0.45044625 4278586631
0.42906079 -0.036643714 0.45037761 4278586631
0.42843306 -0.036126345 0.45033792 4278586631
0.42780381 -0.03560853 0.45029825 4278586631
0.42719626 -0.034992576 0.45024413 4278586631
0.42651802 -0.034669191 0.4502334 4278782987
0.4258846 -0.034150004 0.45019373 4278783240
0.42527211 -0.0335325 0.45013964 4278652424
0.42472413 -0.03262037 0.45004219 4278652424
0.42412889 -0.031903267 0.44997364 4278586629
0.42346615 -0.031479746 0.44994849 4278586629
0.42273071 -0.027879626 0.44949356 4278586631
0.42214185 -0.027059466 0.44941065 4278586641
0.42152932 -0.026336789 0.44934219 4278652688
0.42087346 -0.025810391 0.44930267 4278717447
0.42019591 -0.025382131 0.44927758 4278783240
0.41953734 -0.024854869 0.44923806 4278718217
0.41883788 -0.024524659 0.44922745 4278717968
0.4180212 -0.024787396 0.44930348 4278717966
0.41734147 -0.024358422 0.44927841 4278652171
0.41669863 -0.023731112 0.44922447 4278717964
0.41607255 -0.023004085 0.44915611 4278783759
0.41546246 -0.0221771 0.44907331 4279046161
0.41484943 -0.021349132 0.44899052 4278915343
0.41423342 -0.02052027 0.44890779 4279046929
0.41363218 -0.019591033 0.44881061 4278981399
0.41301 -0.018760115 0.44872788 4279769114
0.41240212 -0.017828763 0.44863072 4280426268
0.41177377 -0.016995877 0.44854802 4281478693
0.41112575 -0.016261786 0.44847977 4281478693
0.41047522 -0.015526921 0.44841155 4281873449
0.40977353 -0.015090853 0.44838661 4281873703
0.40908685 -0.01455453 0.44834721 4281873703
0.40839866 -0.014017761 0.44830787 4282334254
0.40769351 -0.01358059 0.44828293 4282465840
0.40697211 -0.013243347 0.44827241 4282399793
0.40623519 -0.013006181 0.44827634 4282662965
0.4055278 -0.012568295 0.44825143 4282728758
0.40480492 -0.012230575 0.44824091 4282860344
0.47124904 -0.075554475 0.45428073 4285961607
0.47069407 -0.075165689 0.45425552 4286024067
0.47018 -0.074684918 0.454216 4282207554
0.46966448 -0.074203685 0.45417652 4281878589
0.46910608 -0.073813766 0.4541513 4282272304
0.4685055 -0.073515385 0.45414042 4282401835
0.46798629 -0.07303296 0.45410094 4282401839
0.4674249 -0.072642073 0.45407575 4282467632
0.46674126 -0.0725272 0.45409349 4282269999
0.466259 -0.071951553 0.45403972 4282269999
0.46569493 -0.071559802 0.45401454 4282401587
0.46512985 -0.071167737 0.45398939 4282401587
0.46456379 -0.070775345 0.45396423 4282467380
0.46403593 -0.070290163 0.4539248 4282139185
0.4635455 -0.069711894 0.4538711 4282139185
0.46297574 -0.069318324 0.45384595 4282467632
0.46244347 -0.068831697 0.45380655 4282401839
0.46190965 -0.068344623 0.45376715 4282269992
0.4613744 -0.067857012 0.45372775 4282072870
0.46083766 -0.067368969 0.45368835 4282072615
0.460262 -0.066973463 0.45366326 4282006824
0.45968533 -0.066577673 0.45363817 4282006824
0.45907068 -0.066274792 0.45362735 4282138410
0.45849231 -0.065878421 0.45360225 4282269996
0.4579494 -0.065388381 0.45356292 4282335789
0.45740503 -0.06489788 0.45352355 4282335789
0.45682317 -0.064500377 0.45349848 4282072615
0.45624033 -0.064102635 0.45347342 4282006820
0.4556565 -0.063704535 0.45344836 4282203429
0.45514217 -0.063118562 0.45339477 4282138406
0.45459089 -0.062625825 0.45335546 4282072613
0.45403811 -0.062132627 0.45331615 4282072867
0.45348385 -0.061638951 0.45327687 4282137636
0.4529624 -0.061050653 0.45322332 4282203431
0.45240492 -0.060555935 0.45318404 4282203431
0.45187974 -0.059966505 0.45313051 4281809443
0.45131907 -0.059470773 0.45309126 4281809445
0.4507902 -0.058880121 0.45303774 4281677859
0.45025933 -0.058288842 0.45298424 4281612066
0.44972652 -0.057696939 0.45293075 4281546276
0.44919169 -0.057104439 0.45287728 4281151772
0.44865495 -0.056511223 0.45282382 4280953630
0.44811618 -0.055917442 0.45277035 4280756001
0.44754368 -0.055417866 0.45273116 4280492829
0.44696972 -0.054917812 0.45269197 4279769365
0.44636297 -0.054512322 0.45266703 4279177998
0.44575521 -0.054106534 0.45264208 4278783759
0.44514647 -0.053700417 0.45261717 4278717966
0.44453678 -0.053294003 0.45259225 4278717968
0.44389576 -0.052982569 0.45258158 4278652173
0.44328433 -0.052575618 0.45255667 4278652173
0.4426719 -0.05216831 0.45253175 4278717964
0.44202891 -0.05185625 0.45252109 4278783757
0.44141477 -0.051448405 0.4524962 4279242768
0.44077054 -0.051135987 0.45248553 4279176975
0.44018349 -0.050631732 0.4524464 4279243021
0.43965212 -0.049935162 0.45237884 4279177228
0.43903327 -0.049525797 0.45235395 4278914826
0.43849772 -0.048827916 0.45228642 4278783240
0.43793184 -0.048225373 0.45223311 4278521098
0.43741918 -0.04742977 0.45215136 4278586378
0.43684888 -0.046825796 0.45209807 4278520585
0.4363308 -0.046028405 0.45201632 4278520838
0.43578288 -0.045326531 0.45194882 4278521351
0.43517929 -0.044816971 0.45190981 4278586380
0.43460059 -0.044210315 0.45185655 4278652173
0.43404603 -0.043506324 0.45178911 4278586631
0.43348902 -0.042801499 0.45172167 4278586629
0.43290389 -0.042192787 0.45166844 4278652424
0.43234217 -0.041486502 0.45160103 4278586631
0.43177801 -0.040779382 0.45153365 4278520585
0.43116161 -0.040265679 0.45149466 4278520838
0.43056837 -0.039654315 0.4514415 4278520836
0.42999753 -0.038945079 0.45137414 4278586631
0.42937595 -0.038429737 0.45133519 4278586631
0.42887235 -0.0374268 0.45122525 4278586631
0.42796281 -0.038080066 0.45135677 4278586378
0.42731512 -0.037661403 0.45133206 4278586631
0.42678219 -0.036754131 0.45123634 4278652424
0.42640617 -0.035161614 0.45104122 4278652424
0.42581931 -0.034447223 0.45097393 4278586378
0.42518514 -0.033927798 0.45093507 4278652424
0.42459387 -0.033211976 0.4508678 4278652424
0.42400008 -0.032495379 0.45080057 4278586631
0.42353389 -0.031189144 0.45064816 4278652422
0.42312652 -0.029586554 0.45045322 4278586629
0.42258522 -0.028571486 0.45034343 4278586629
0.42197713 -0.02785027 0.45027629 4278717966
0.42138726 -0.027029812 0.45019493 4278652686
0.42079446 -0.026208401 0.45011359 4278586378
0.42009771 -0.025879025 0.45010322 4278652424
0.41946033 -0.025253475 0.45005029 4278652424
0.41876185 -0.024923593 0.45003992 4278717714
0.41808236 -0.024494708 0.45001537 4278717968
0.41740185 -0.024065465 0.44999084 4278652171
0.41673934 -0.02353695 0.4499521 4278652171
0.41594434 -0.023701549 0.45001265 4278848780
0.41531751 -0.022974283 0.44994557 4278914575
0.41468823 -0.022246212 0.44987851 4278783757
0.41407442 -0.021418065 0.4497973 4278915860
0.41345769 -0.020588934 0.44971609 4278915860
0.41283801 -0.019758821 0.44963491 4279309331
0.41223258 -0.018828243 0.44953957 4279572754
0.41162372 -0.017896563 0.44944423 4280294934
0.4109779 -0.017163187 0.44937727 4280623899
0.41032964 -0.016429037 0.44931033 4281741093
0.40967888 -0.015694082 0.44924337 4281610531
0.40899366 -0.015158206 0.44920477 4281546021
0.40829122 -0.01472193 0.44918036 4282006572
0.40761882 -0.014085114 0.44912761 4282072620
0.40691391 -0.013648063 0.44910318 4282203949
0.40620801 -0.013210684 0.44907877 4282269742
0.40548635 -0.012873292 0.44906855 4282663730
0.40476421 -0.01253584 0.44905829 4282795316
0.40407011 -0.011997133 0.44901973 4282795318
0.40336052 -0.011558563 0.44899535 4282795834
0.40264994 -0.011119634 0.44897097 4282861884
0.47150701 -0.076586097 0.45507529 4285829772
0.47095475 -0.076198176 0.45505059 4284775796
0.47048581 -0.07562682 0.45499778 4282996045
0.47001487 -0.075054839 0.454945 4282666560
0.46941704 -0.074757352 0.45493436 4282337595
0.46890152 -0.074276105 0.45489565 4282271023
0.46830219 -0.073978141 0.45488501 4282401835
0.4677842 -0.073496103 0.45484629 4282335785
0.46718338 -0.073197663 0.45483565 4282335785
0.46662253 -0.072806925 0.45481101 4282335787
0.46602046 -0.072508097 0.45480037 4282335787
0.46545786 -0.072116807 0.45477572 4282467373
0.46489426 -0.071725219 0.45475107 4282401839
0.46432969 -0.071333304 0.45472643 4282467632
0.46384251 -0.070756093 0.45467374 4282270253
0.46327543 -0.070363387 0.45464912 4282270253
0.46274608 -0.069877729 0.45461047 4282467375
0.46221527 -0.069391578 0.45457181 4282335789
0.46168298 -0.068904951 0.45453319 4282204201
0.46114922 -0.068417847 0.45449457 4281941286
0.46061394 -0.067930296 0.45445594 4281875236
0.46003973 -0.067535281 0.45443135 4281875236
0.45946455 -0.067139968 0.45440677 4282072615
0.45888838 -0.066744328 0.45438218 4282335787
0.45831123 -0.066348344 0.45435759 4282533166
0.45773309 -0.065952078 0.45433304 4282335787
0.45719019 -0.065462053 0.45429444 4282335787
0.45660982 -0.065065071 0.45426989 4282138406
0.45602846 -0.064667776 0.45424533 4282072613
0.45548162 -0.06417647 0.45420679 4282072613
0.45489806 -0.06377846 0.45418224 4282138406
0.45434847 -0.06328629 0.4541437 4282006820
0.45383218 -0.06269969 0.45409116 4282006820
0.45327941 -0.062206477 0.45405263 4282006822
0.45275941 -0.061618716 0.45400012 4282072615
0.45220342 -0.061124444 0.45396161 4282072615
0.45167974 -0.060535491 0.4539091 4281809191
0.45112056 -0.060040236 0.45387062 4281809191
0.45059314 -0.05945009 0.45381814 4281611814
0.45003077 -0.058953762 0.45377967 4281546278
0.44953245 -0.058267862 0.45371321 4281480485
0.44899914 -0.057675809 0.45366076 4281020702
0.44843155 -0.057177842 0.45362231 4280822301
0.44789454 -0.056584567 0.45356986 4280558879
0.44732377 -0.056085587 0.45353144 4280229914
0.44678307 -0.055491149 0.45347902 4279637779
0.44617778 -0.055086106 0.45345461 4279111952
0.44560257 -0.054585725 0.4534162 4278652434
0.44499508 -0.054179966 0.45339179 4278586641
0.4443866 -0.05377394 0.45336738 4278652688
0.44377714 -0.053367615 0.45334297 4278521102
0.4431366 -0.053056359 0.45333254 4278652175
0.44252542 -0.052649468 0.45330817 4278717966
0.44188368 -0.052337795 0.45329773 4278783759
0.44127077 -0.051930368 0.45327336 4279046159
0.44065684 -0.051522613 0.45324898 4279046159
0.44001314 -0.051210314 0.45323858 4279046159
0.43945467 -0.050610155 0.45318627 4278849033
0.43889421 -0.0500094 0.45313397 4278849033
0.43833181 -0.049407959 0.45308167 4278783240
0.43776742 -0.048805892 0.45302939 4278455307
0.43722865 -0.048106998 0.45296314 4278586378
0.43671477 -0.047310948 0.45288295 4278520585
0.43617082 -0.046610385 0.45281672 4278520838
0.43562439 -0.045909017 0.45275053 4278521351
0.43507549 -0.045206845 0.45268434 4278586378
0.43447143 -0.044697106 0.45264608 4278652171
0.43391812 -0.043993503 0.45257992 4278652422
0.43336233 -0.043289125 0.45251378 4278586629
0.43280408 -0.042583913 0.45244762 4278586629
0.43221799 -0.041974872 0.45239547 4278520836
0.43162993 -0.041365176 0.45234331 4278520838
0.43106475 -0.040657789 0.45227721 4278520838
0.43042323 -0.040241122 0.45225298 4278520838
0.42985389 -0.039532363 0.45218688 4278520585
0.42923379 -0.039017469 0.45214874 4278586378
0.4286122 -0.038502127 0.45211056 4278586631
0.4278709 -0.038473755 0.45214215 4278586378
0.42720079 -0.038153023 0.45213187 4278586631
0.42678487 -0.036757886 0.45196825 4278586631
0.4262256 -0.035947263 0.45188829 4278652424
0.42568606 -0.035037875 0.45179442 4278652171
0.42509821 -0.034323156 0.45172843 4278586631
0.42446357 -0.033803612 0.45169032 4278586631
0.42389318 -0.032989383 0.45161045 4278586631
0.42336321 -0.031978011 0.45150268 4278652422
0.42280787 -0.031063557 0.45140889 4278652422
0.4222067 -0.030344546 0.45134297 4278586378
0.42179146 -0.028739423 0.4511517 4278717964
0.42120385 -0.02791968 0.45107189 4278717966
0.42061326 -0.027098954 0.45099211 4278586378
0.4199793 -0.026474535 0.45094019 4278717964
0.41934341 -0.025849432 0.45088828 4278717966
0.41866612 -0.025421262 0.45086426 4278717968
0.41798785 -0.024992794 0.4508402 4278717968
0.41732779 -0.024465054 0.45080224 4278586380
0.41664729 -0.024035841 0.45077822 4278652173
0.41600326 -0.023408145 0.45072636 4278848782
0.41533875 -0.022878975 0.45068842 4278914826
0.41456345 -0.022944808 0.45073402 4278718730
0.41391546 -0.02231583 0.45068216 4278850067
0.41330093 -0.021487415 0.4506025 4278850067
0.41268349 -0.020658046 0.45052287 4279638547
0.41206303 -0.019827753 0.45044324 4280034579
0.41145664 -0.018896878 0.45034972 4280493333
0.41083005 -0.018064559 0.45027012 4280690712
0.41020048 -0.017231315 0.45019054 4281281566
0.40955174 -0.016497016 0.45012489 4281216286
0.40886849 -0.015961826 0.45008704 4281413665
0.40821528 -0.015226066 0.45002142 4281479458
0.40751308 -0.014789879 0.44999751 4281940007
0.40684041 -0.014152974 0.44994581 4282203433
0.40613577 -0.013715982 0.44992191 4282268972
0.40545964 -0.013077974 0.4498702 4282400558
0.40473801 -0.012740642 0.44986022 4282597937
0.40403014 -0.012302607 0.44983634 4282729525
0.40332127 -0.011864275 0.44981247 4282664250
0.4026252 -0.011324972 0.44977471 4282532916
0.40191412 -0.010885894 0.44975084 4283059260
0.47235221 -0.077911779 0.45587564 4284973175
0.47184628 -0.077433661 0.45583764 4284906091
0.47125363 -0.077137813 0.45582721 4283392852
0.47083002 -0.076475978 0.45576167 4282732103
0.47023541 -0.076179489 0.45575124 4282731590
0.46976596 -0.075608015 0.4556995 4282467900
0.46921125 -0.075219274 0.45567533 4282402107
0.46865556 -0.074830234 0.45565116 4282139183
0.46809888 -0.074440867 0.45562699 4282401837
0.46754119 -0.074051186 0.45560282 4282270249
0.46694186 -0.073753208 0.45559245 4282467371
0.46638247 -0.073362976 0.45556831 4282467371
0.46578193 -0.073064581 0.45555794 4282467371
0.46522081 -0.072673783 0.45553377 4282598957
0.46465868 -0.072282687 0.45550966 4282467371
0.46413502 -0.071798846 0.45547175 4282467371
0.46360987 -0.071314529 0.45543385 4282269992
0.46308324 -0.070829734 0.45539597 4282335787
0.46255514 -0.070344448 0.45535809 4282138408
0.46198711 -0.06995143 0.45533398 4282204201
0.4614563 -0.069465294 0.4552961 4282138406
0.46096194 -0.068885773 0.45524448 4281612066
0.46039021 -0.068491578 0.4552204 4281808675
0.4598175 -0.06809704 0.45519632 4282269222
0.459281 -0.067609087 0.45515847 4282598187
0.45870608 -0.067213848 0.45513442 4282729773
0.45813015 -0.066818297 0.45511037 4282663982
0.45755324 -0.066422433 0.45508629 4282269994
0.45697534 -0.066026241 0.45506224 4282269994
0.45643243 -0.065536186 0.45502445 4282072613
0.45585233 -0.065139294 0.4550004 4282006820
0.45527121 -0.064742103 0.45497638 4282072613
0.45472437 -0.064250782 0.45493859 4282006820
0.45417604 -0.063758999 0.4549008 4281875234
0.45362622 -0.063266754 0.45486304 4281875234
0.45307493 -0.062774003 0.45482528 4282006820
0.45252216 -0.062280804 0.45478755 4282072615
0.45200193 -0.061692953 0.45473605 4282072615
0.45144597 -0.061198741 0.45469832 4281743652
0.45092201 -0.060609668 0.45464686 4281612069
0.45039612 -0.06002 0.45459542 4281611812
0.44986823 -0.059429675 0.45454398 4281283104
0.44933838 -0.058838785 0.45449254 4281217311
0.44880652 -0.058247179 0.45444113 4280822553
0.44824043 -0.057749689 0.45440343 4280822298
0.44770491 -0.05715695 0.45435202 4280295709
0.44713563 -0.056658387 0.45431438 4279835158
0.44659638 -0.056064457 0.454263 4279112205
0.44602388 -0.05556488 0.45422536 4278915345
0.44544992 -0.055064857 0.45418772 4278455577
0.44487447 -0.054564357 0.45415008 4278389784
0.44426697 -0.054158658 0.45412618 4278456079
0.44362819 -0.053847939 0.45411602 4278586895
0.44301897 -0.053441674 0.45409214 4278586641
0.44240874 -0.05303511 0.45406824 4278586893
0.44176799 -0.052723795 0.45405811 4278652686
0.44115609 -0.052316636 0.45403421 4278914573
0.44054317 -0.051909178 0.45401034 4278783757
0.43992925 -0.051501423 0.4539865 4278848780
0.43931437 -0.05109334 0.45396262 4278782989
0.43872681 -0.050588906 0.45392507 4278782989
0.43816587 -0.049987972 0.45387381 4278586631
0.43763083 -0.04929024 0.45380884 4278520587
0.43709329 -0.048591733 0.45374388 4278586378
0.4365533 -0.047892421 0.45367894 4278520585
0.43603793 -0.047095925 0.45360032 4278521351
0.43549275 -0.046394974 0.45353541 4278521349
0.43494511 -0.045693219 0.4534705 4278521351
0.43439499 -0.044990659 0.45340562 4278521351
0.43384242 -0.044287264 0.45334074 4278652422
0.43328738 -0.043583095 0.45327589 4278586631
0.43267861 -0.043071926 0.45323843 4278520585
0.43211913 -0.042366326 0.45317361 4278520585
0.43153206 -0.041756988 0.45312247 4278520585
0.43091816 -0.04124406 0.45308504 4278586378
0.43032736 -0.040633559 0.45303392 4278521100
0.42971021 -0.040119618 0.45299652 4278521100
0.42911574 -0.039507866 0.45294544 4278521100
0.42849541 -0.038992912 0.45290804 4278520838
0.42792088 -0.038282484 0.45284331 4278520838
0.42729706 -0.037766427 0.45280594 4278586631
0.4266718 -0.037249863 0.45276856 4278520838
0.42606795 -0.03663516 0.45271754 4278652171
0.42553014 -0.035726309 0.45262545 4278717964
0.42492157 -0.035110056 0.45257443 4278586378
0.42437759 -0.034199238 0.4524824 4278586378
0.42380822 -0.033385396 0.45240405 4278586378
0.4232142 -0.03266871 0.45233938 4278586631
