# .PCD v0.7 - Point Cloud Data file format
VERSION 0.7
FIELDS x y z rgb
SIZE 4 4 4 4
TYPE F F F U
COUNT 1 1 1 1
WIDTH 1068
HEIGHT 1
VIEWPOINT 0 0 0 1 0 0 0
POINTS 1068
DATA ascii
0.45737043 0.038779333 0.48689485 4279375126
0.45804811 0.038914636 0.48695722 4279505942
0.45868024 0.03912288 0.48696405 4279833882
0.45935869 0.039258391 0.48702642 4279571480
0.4599911 0.039466724 0.48703325 4279309331
0.46067023 0.039602503 0.48709559 4279309331
0.4613499 0.039738432 0.487158 4279375377
0.46207738 0.039802164 0.48727596 4279965202
0.46275824 0.039938509 0.48733836 4279900176
0.46343964 0.040075034 0.48740074 4281214228
0.46407348 0.040283844 0.48740757 4281806365
0.46475562 0.040420592 0.48746997 4282529316
0.46543825 0.040557504 0.48753238 4282595881
0.46607259 0.040766478 0.48753923 4282793006
0.46670693 0.040975451 0.48754609 4282990637
0.4673413 0.041184425 0.48755294 4282990637
0.46797562 0.041393384 0.48755977 4283121451
0.46860999 0.041602358 0.48756659 4282858279
0.46924433 0.041811332 0.48757344 4282923559
0.46987867 0.042020306 0.4875803 4283317547
0.47051305 0.04222928 0.48758715 4283185961
0.47109666 0.042509496 0.4875384 4283186215
0.47173077 0.042718396 0.48754525 4283383079
0.47231364 0.042998359 0.48749647 4283514665
0.47294751 0.043207183 0.48750329 4283449137
0.47352964 0.043486893 0.48745453 4283317551
0.47416326 0.043695629 0.48746139 4283383342
0.47479689 0.043904349 0.48746821 4283318317
0.47543049 0.044113085 0.48747504 4283185965
0.4760114 0.044392422 0.48742628 4283449387
0.47664475 0.044601068 0.48743311 4283449387
0.47722495 0.044880137 0.48738429 4283383079
0.47785807 0.045088708 0.48739111 4283513901
0.47843751 0.045367539 0.48734233 4283055149
0.47907037 0.045576021 0.48734915 4282989365
0.47970325 0.045784518 0.48735601 4282923572
0.48028168 0.046063036 0.48730719 4283580217
0.48091429 0.046271443 0.48731399 4283514930
0.48154694 0.046479851 0.48732084 4283776301
0.48212442 0.046758041 0.48727202 4283710508
0.48275679 0.046966359 0.48727882 4283842094
0.4833892 0.047174677 0.48728567 4283776555
0.48402157 0.047382995 0.48729247 4283842346
0.4845978 0.047660798 0.48724362 4283842094
0.48528633 0.047799647 0.48730612 4283776821
0.4859187 0.048007965 0.48731294 4283776821
0.48655111 0.048216298 0.48731977 4283842362
0.48718348 0.048424616 0.48732659 4283645751
0.48781586 0.048632935 0.48733342 4283711796
0.48850584 0.04877229 0.48739588 4283514417
0.48919636 0.048911795 0.48745841 4283974186
0.48988733 0.049051479 0.48752087 4284303667
0.49057883 0.049191311 0.4875834 4284631610
0.49132937 0.049262658 0.48770159 4285879885
0.4920221 0.049402893 0.48776412 4285879885
0.49271527 0.049543291 0.48782665 4285684298
0.49334961 0.049752265 0.4878335 4285619793
0.49404359 0.049892902 0.48789603 4285818716
0.49473798 0.050033703 0.48795858 4285754459
0.3806178 0.0038321167 0.49294633 4283921521
0.38124722 0.0042150766 0.49284258 4281944135
0.38192219 0.0043496192 0.49290514 4282336314
0.38255036 0.0047322214 0.49280137 4281612069
0.38319358 0.0050319135 0.49275303 4281217311
0.38382006 0.0054139495 0.49264926 4281217308
0.38446206 0.0057132691 0.49260086 4281479195
0.3850868 0.0060947239 0.49249709 4281479710
0.38569361 0.0065580904 0.49233779 4281348640
0.38631612 0.0069388002 0.49223396 4281348640
0.38695517 0.0072371364 0.49218559 4281218081
0.38757598 0.0076172799 0.49208173 4281480737
0.38821378 0.0079152286 0.4920333 4281480737
0.38885108 0.0082129836 0.49198493 4281546276
0.38946944 0.0085923374 0.49188107 4281546021
0.3901242 0.0088080466 0.49188811 4281546021
0.39076006 0.0091053098 0.49183971 4281546021
0.39139539 0.009402439 0.49179125 4281282595
0.39204967 0.0096179843 0.49179834 4281414433
0.39268428 0.0099148452 0.49174991 4281414433
0.39331836 0.010211572 0.49170148 4281545503
0.39393181 0.010589302 0.49159753 4281413917
0.39456469 0.010885611 0.4915491 4281347611
0.39519706 0.011181742 0.49150065 4281544218
0.39582896 0.011477739 0.49145216 4281610011
0.39646035 0.011773542 0.4914037 4281479195
0.39704844 0.012230769 0.49124423 4281282329
0.39767838 0.012526095 0.49119574 4281085722
0.3982859 0.012901887 0.49109176 4281085722
0.39893675 0.013116285 0.49109876 4281085722
0.39956519 0.01341112 0.4910503 4281217308
0.40019313 0.01370582 0.49100178 4281151515
0.40084347 0.013920069 0.49100879 4281085722
0.40149382 0.014134303 0.49101579 4281085722
0.4021208 0.01442866 0.4909673 4280888343
0.40274727 0.014722869 0.49091879 4280822298
0.40337324 0.015016899 0.49087027 4280821274
0.40397465 0.015390664 0.4907662 4280230936
0.40457505 0.015764087 0.49066213 4279047693
0.40519905 0.016057476 0.49061358 4278652937
0.40579772 0.016430333 0.49050951 4278521351
0.40639541 0.016802877 0.49040538 4278521351
0.40696678 0.017254546 0.49024576 4278587144
0.40756226 0.01762636 0.4901416 4278586891
0.40815675 0.017997861 0.49003747 4278586378
0.40877634 0.018289804 0.48998886 4278652171
0.40934277 0.018739864 0.48982918 4278586893
0.40993431 0.019110382 0.48972499 4278586893
0.41055167 0.019401565 0.48967639 4278586893
0.41114151 0.019771516 0.48957217 4278521868
0.41173035 0.020141155 0.48946798 4278521868
0.41229063 0.020589188 0.48930821 4278521870
0.41290504 0.020879433 0.48925954 4278521870
0.41349092 0.021248057 0.48915532 4278521868
0.4141041 0.021537885 0.48910666 4278521868
0.41468826 0.021905959 0.48900241 4278521868
0.41530022 0.022195399 0.48895374 4278456077
0.41591167 0.022484645 0.48890507 4278521870
0.41652268 0.022773728 0.48885638 4278718477
0.41716269 0.022984564 0.48886329 4278652686
0.41780269 0.023195401 0.4888702 4278652686
0.41847271 0.023328304 0.4889327 4278652684
0.41911298 0.02353923 0.48893958 4278718477
0.41978374 0.023672387 0.48900211 4278652684
0.42042422 0.023883387 0.48900902 4278717964
0.42112672 0.023939162 0.48912716 4278783757
0.421799 0.024072781 0.48918968 4278586891
0.42250323 0.024129137 0.48930782 4278652424
0.42320842 0.024185792 0.48942599 4278652424
0.42394662 0.024165511 0.48959976 4278652424
0.42465404 0.02422291 0.48971796 4278652424
0.42536247 0.024280638 0.48983616 4278586631
0.4261373 0.024184614 0.4900656 4278520838
0.4269141 0.024089217 0.49029511 4278586382
0.42765969 0.024071351 0.49046898 4278586382
0.42837325 0.024130791 0.49058717 4278585608
0.42912152 0.024113804 0.4907611 4278651654
0.42983732 0.024173975 0.49087936 4278717447
0.43051988 0.024311006 0.490942 4278783240
0.4312374 0.024371743 0.49106032 4278783240
0.43188652 0.024585575 0.49106729 4278783240
0.43253565 0.024799407 0.49107432 4278783240
0.43318474 0.025013253 0.4910813 4278783238
0.43379843 0.02530323 0.49103266 4278849031
0.43444729 0.025516987 0.49103963 4278980101
0.43506026 0.025806725 0.490991 4278718469
0.4356727 0.026096299 0.49094233 4278849033
0.43628466 0.026385725 0.49089366 4278717964
0.4369328 0.026599228 0.49090064 4278717964
0.43750709 0.026964083 0.49079627 4278652171
0.43811756 0.027253002 0.4907476 4278717447
0.43872756 0.027541786 0.49069887 4278717447
0.43929943 0.027905792 0.49059454 4278717447
0.43990818 0.028194174 0.49054581 4278717447
0.44051647 0.028482363 0.49049711 4278520836
0.44112423 0.028770417 0.49044839 4278586380
0.44165426 0.029208481 0.49028826 4278586895
0.4422217 0.029571056 0.49018383 4278652686
0.44274899 0.030008227 0.49002373 4278718479
0.44331419 0.030370072 0.48991925 4278718477
0.4437992 0.030881137 0.48970339 4278783757
0.44428223 0.031391546 0.4894875 4279046159
0.44520202 0.032484964 0.48899993 4278915606
0.44567889 0.032993346 0.48878396 4278915606
0.44615382 0.033501074 0.48856801 4278981138
0.44658566 0.034082457 0.48829627 4278915596
0.44713908 0.034440383 0.48819172 4278915594
0.4476499 0.034872144 0.48803139 4279047693
0.44820106 0.03522937 0.48792678 4278981900
0.44879335 0.035512313 0.48787791 4278981653
0.44934282 0.035868943 0.4877733 4278915606
0.4498913 0.036225274 0.48766863 4278981651
0.45052439 0.036433846 0.48767549 4279046933
0.45115754 0.036642417 0.48768228 4279244058
0.45174736 0.036924526 0.48763341 4279178265
0.45233667 0.037206501 0.48758447 4279178265
0.45296931 0.037414908 0.4875913 4279244312
0.45355788 0.037696615 0.48754239 4279112724
0.45419025 0.037904933 0.48754919 4279178517
0.45477811 0.038186416 0.48750025 4279505940
0.45536545 0.03846772 0.48745131 4279440147
0.45599735 0.038675889 0.48745814 4279309081
0.45662922 0.038884044 0.48746496 4279309335
0.45730662 0.039019391 0.48752755 4279309335
0.45793879 0.039227635 0.48753434 4279505944
0.45861691 0.039363191 0.48759696 4279833880
0.45924932 0.039571524 0.48760378 4279571478
0.45992818 0.039707348 0.48766637 4279309331
0.46060759 0.039843321 0.48772895 4279309331
0.46128744 0.039979473 0.4877916 4279506191
0.46196783 0.040115789 0.48785421 4279834129
0.46264866 0.040252253 0.48791683 4280031249
0.46337774 0.04031679 0.48803523 4281608214
0.46401185 0.040525675 0.48804206 4282529316
0.46469417 0.040662631 0.4881047 4282726693
0.46532851 0.040871605 0.48811156 4282661674
0.46596286 0.041080579 0.48811841 4282727467
0.4665972 0.041289553 0.48812523 4282858799
0.46723157 0.041498527 0.48813206 4282858799
0.46786591 0.041707486 0.48813891 4282989865
0.46850026 0.04191646 0.48814577 4282792486
0.46913463 0.042125434 0.48815262 4282989352
0.46976897 0.042334408 0.48815945 4283252778
0.47035289 0.042614594 0.48811048 4283055399
0.47098699 0.042823479 0.48811734 4283120420
0.4716211 0.043032363 0.48812416 4283186467
0.472204 0.043312222 0.4880752 4283383846
0.47283787 0.043521032 0.48808202 4283449137
0.47347173 0.043729842 0.48808885 4283317551
0.47405368 0.044009358 0.48803985 4283383342
0.47468728 0.044218093 0.48804671 4283384112
0.47532088 0.044426814 0.48805353 4283055147
0.47590184 0.044706032 0.48800451 4283449133
0.4765352 0.044914678 0.48801136 4283514926
0.47711542 0.045193627 0.48796234 4283317801
0.47774854 0.045402199 0.48796916 4283382829
0.47838169 0.045610771 0.48797598 4283055149
0.47896093 0.045889392 0.48792696 4283121203
0.47959378 0.046097875 0.48793378 4282989617
0.48017228 0.046376288 0.48788476 4283580471
0.48080489 0.046584696 0.48789158 4283580723
0.48143753 0.046793088 0.48789841 4283645487
0.48201504 0.047071159 0.48784935 4283579694
0.48264742 0.047279477 0.48785621 4283711280
0.48327979 0.04748781 0.487863 4283645485
0.4839122 0.047696128 0.48786983 4283645739
0.48448846 0.047973797 0.48782074 4283777073
0.48517695 0.048112765 0.48788348 4283776821
0.48580933 0.048321098 0.4878903 4283711028
0.4864417 0.048529416 0.48789713 4283776823
0.48707411 0.048737749 0.48790395 4283776821
0.48776382 0.048877135 0.48796666 4283646003
0.48845401 0.049016669 0.48802936 4283514417
0.48914471 0.049156398 0.48809209 4284172083
0.48983589 0.049296275 0.48815483 4284435767
0.49058586 0.049367711 0.48827347 4284828730
0.49121973 0.049576506 0.4882803 4285814090
0.49191242 0.049716875 0.48834306 4285879883
0.49260557 0.049857393 0.48840582 4285881931
0.49323991 0.050066367 0.48841265 4285752408
0.49399334 0.050138906 0.48853135 4285688162
0.3811788 0.0042935908 0.49361163 4282933081
0.38180807 0.0046762675 0.49350744 4282732355
0.38245207 0.0049760938 0.49345887 4282072368
0.38307962 0.0053582042 0.49335468 4281677610
0.38372236 0.0056576431 0.49330607 4281020702
0.38436463 0.0059569031 0.49325752 4281479195
0.38498974 0.006338194 0.49315327 4281413917
0.38561383 0.006719172 0.49304897 4281217313
0.38621977 0.0071818382 0.49288905 4281283106
0.38685909 0.0074801296 0.49284041 4281087267
0.38748023 0.007860139 0.4927361 4281415460
0.38810039 0.0082398057 0.49263179 4281480483
0.38875592 0.0084557533 0.49263889 4281480483
0.38937461 0.0088349134 0.49253458 4281480483
0.39001095 0.0091322511 0.49248591 4281546021
0.39066574 0.0093479604 0.49249297 4281546021
0.39130136 0.009645015 0.49244434 4281348388
0.39195588 0.0098606348 0.4924514 4281348642
0.39259076 0.010157481 0.49240273 4281414435
0.39322516 0.010454148 0.49235409 4281479710
0.39385909 0.010750681 0.49230543 4281413917
0.39447209 0.011128008 0.49220103 4281413404
0.39510477 0.011424094 0.49215239 4281479197
0.39573696 0.011720031 0.4921037 4281742369
0.39634752 0.012096539 0.49199927 4281479195
0.3969571 0.012472734 0.49189484 4281413402
0.39756572 0.012848601 0.49179041 4281216538
0.39819518 0.013143674 0.49174169 4281282331
0.39882416 0.013438538 0.49169299 4281281818
0.39945266 0.013733253 0.49164426 4281479197
0.40008065 0.014027849 0.49159554 4281347611
0.400731 0.014242083 0.49160254 4281282329
0.40138134 0.014456317 0.49160957 4281085722
0.40200835 0.014750555 0.49156082 4280888343
0.40263486 0.015044644 0.49151209 4280756760
0.40326089 0.015338555 0.49146336 4280690715
0.40386236 0.015712067 0.49135882 4280296727
0.40446284 0.016085252 0.49125433 4279179281
0.4050869 0.016378522 0.49120554 4278652684
0.40568566 0.016751125 0.49110103 4278521098
0.40628344 0.017123431 0.49099645 4278587144
0.40685493 0.017574742 0.49083614 4278587144
0.4074505 0.017946318 0.49073154 4278586891
0.40804505 0.018317565 0.49062696 4278521100
0.40863866 0.018688485 0.49052235 4278586893
0.40923128 0.019059077 0.49041775 4278521100
0.40982288 0.019429356 0.49031311 4278652686
0.4104403 0.01972042 0.4902643 4278652686
0.41100317 0.02016893 0.49010384 4278522383
0.41161913 0.020459518 0.49005502 4278456590
0.41217953 0.020907179 0.48989457 4278456077
0.41279399 0.021197304 0.48984566 4278652686
0.41340798 0.021487236 0.48979682 4278456077
0.41399318 0.021855399 0.48969209 4278521870
0.41457742 0.022223234 0.48958743 4278521870
0.41518945 0.02251254 0.48953849 4278521870
0.41582996 0.022723541 0.4895454 4278652684
0.41641197 0.023090631 0.48944071 4278718477
0.41705197 0.023301467 0.48944759 4278717964
0.41769201 0.023512304 0.48945451 4278783757
0.41836196 0.023645326 0.48951724 4278652684
0.41903245 0.023778528 0.48957998 4278718477
0.41967297 0.023989528 0.48958689 4278718477
0.42031345 0.024200529 0.4895938 4278717964
0.42098492 0.024334028 0.48965654 4278717964
0.42165685 0.024467707 0.48971927 4278587144
0.42236078 0.024524212 0.48983788 4278718730
0.42306566 0.02458106 0.48995647 4278718217
0.42373958 0.024715364 0.49001926 4278718217
0.42444617 0.024772778 0.49013788 4278717964
0.42518622 0.024753496 0.49031237 4278652424
0.42589504 0.024811611 0.49043101 4278586380
0.42663777 0.024793237 0.49060553 4278652171
0.42738193 0.024775341 0.49078006 4278586378
0.42812765 0.024757922 0.49095458 4278520585
0.42884111 0.024817586 0.49107331 4278520838
0.42958951 0.024801075 0.49124786 4278651654
0.43030524 0.02486147 0.4913666 4278783240
0.43098751 0.024998561 0.49142945 4278717447
0.43167031 0.0251358 0.49149233 4278717447
0.43231869 0.025349393 0.4914993 4278717445
0.43300217 0.025486872 0.49156219 4278651652
0.43361545 0.02577658 0.49151331 4278783238
0.4342638 0.025990158 0.49152029 4278783238
0.43491217 0.026203752 0.49152729 4278652935
0.4355244 0.026493132 0.49147838 4278652424
0.43613619 0.026782334 0.49142951 4278717964
0.43671083 0.02714701 0.49132469 4278717964
0.4373582 0.02736029 0.49133167 4278586378
0.43793139 0.027724475 0.49122685 4278717447
0.43854094 0.028012946 0.49117795 4278783240
0.43911237 0.028376579 0.4910731 4278717447
0.43968284 0.028739884 0.49096826 4278783240
0.44029039 0.029027745 0.49091929 4278652424
0.44082081 0.029465511 0.49075854 4278651921
0.44138831 0.029827848 0.49065363 4278652688
0.44195485 0.030189857 0.49054876 4278652686
0.44248131 0.030626342 0.49038795 4278652686
0.44300628 0.031062335 0.4902271 4278718479
0.44349021 0.031572506 0.49001032 4278915343
0.44397217 0.032082021 0.48979351 4279046159
0.44497055 0.033024713 0.48941576 4278850067
0.44544685 0.033532366 0.48919892 4278915860
0.44592118 0.034039378 0.48898202 4278915347
0.44639355 0.03454572 0.48876512 4278915858
0.44698784 0.034829199 0.48871604 4278981389
0.44754007 0.035186484 0.48861098 4278981902
0.44809136 0.035543472 0.48850593 4278981902
0.44864163 0.035900131 0.48840088 4278981653
0.44923323 0.036182687 0.48835176 4278981401
0.44978178 0.036538765 0.48824668 4279047446
0.45037213 0.036820918 0.48819754 4279046933
0.45100501 0.0370294 0.48820436 4279113239
0.45159462 0.037311345 0.48815525 4279113239
0.45222723 0.037519738 0.48816204 4279112987
0.45281613 0.037801415 0.48811293 4279112985
0.4534485 0.038009733 0.48811972 4279178517
0.45403662 0.038291186 0.48807055 4279505940
0.45466876 0.03849943 0.4880774 4279505940
0.45525616 0.0387806 0.48802823 4279571478
0.45588803 0.038988769 0.48803502 4279571478
0.45656517 0.039124146 0.48809785 4279309333
0.45719731 0.039332405 0.48810467 4279309333
0.45787519 0.039468005 0.48816749 4279440149
0.45850754 0.039676324 0.48817432 4279833878
0.45918614 0.039812192 0.48823714 4279505944
0.45986524 0.03994821 0.48829997 4279309333
0.46054482 0.040084407 0.48836279 4279506712
0.46117795 0.040292963 0.48836961 4279440398
0.46185827 0.040429398 0.48843247 4279703319
0.46263397 0.040421873 0.48860732 4280359960
0.46326804 0.040630773 0.48861414 4282264609
0.4639501 0.040767759 0.48867702 4282922539
0.46458444 0.040976733 0.48868388 4282791975
0.46521878 0.041185707 0.4886907 4282923561
0.46585315 0.041394666 0.48869753 4282727213
0.4664875 0.04160364 0.48870438 4282858801
0.46712184 0.041812614 0.48871124 4282793008
0.46775621 0.042021587 0.48871809 4283055145
0.46839055 0.042230561 0.48872492 4282923559
0.4690249 0.042439535 0.48873174 4283186215
0.46965924 0.042648509 0.4887386 4283318571
0.47024322 0.042928562 0.48868942 4283186985
0.47087729 0.043137461 0.48869625 4283186215
0.47151142 0.043346345 0.48870307 4283120422
0.47209436 0.043626085 0.4886539 4283449387
0.47272822 0.043834895 0.48866072 4283383090
0.47336209 0.044043705 0.48866755 4283448883
0.47399592 0.0442525 0.4886744 4283383344
0.4745777 0.044531822 0.48862517 4283514928
0.47521129 0.044740543 0.48863202 4283185963
0.47584492 0.044949278 0.48863885 4283317551
0.47637281 0.045298561 0.48853353 4283383344
0.47700593 0.045507118 0.48854035 4283383344
0.47763905 0.04571569 0.48854721 4283448624
0.47827217 0.045924261 0.488554 4283317551
0.47885144 0.046202764 0.48850477 4283186733
0.47948432 0.046411246 0.48851159 4283186733
0.4801172 0.046619728 0.48851842 4283514928
0.48069549 0.046897933 0.48846918 4283580723
0.4813281 0.047106341 0.48847598 4283514930
0.48190567 0.047384277 0.48842672 4283580208
0.48253804 0.047592595 0.48843354 4283514415
0.48317042 0.047800928 0.48844036 4283383344
0.4838028 0.048009261 0.48844719 4283383344
0.4844352 0.04821758 0.48845401 4283646003
0.48506758 0.048425898 0.48846084 4283776821
0.48569995 0.048634216 0.48846763 4283513649
0.48633233 0.048842534 0.48847449 4283317551
0.4869647 0.049050868 0.48848128 4283384110
0.48765439 0.049190387 0.48854423 4283647034
0.48834455 0.049330041 0.48860717 4283975999
0.48903519 0.049469888 0.48867011 4284304446
0.48966831 0.04967846 0.48867697 4285027390
0.49041799 0.049750045 0.48879606 4285289279
0.49116862 0.049821958 0.48891515 4285552966
0.49180272 0.050030842 0.488922 4285684552
0.49249583 0.05017148 0.48898494 4285817683
0.49318945 0.050312296 0.48904794 4285556578
0.49388355 0.050453261 0.48911095 4285623913
0.38109493 0.0044553727 0.49432617 4283921775
0.3817248 0.0048379749 0.49422151 4283854444
0.38236934 0.0051378608 0.49417275 4282534974
0.38299745 0.005519852 0.49406809 4282206009
0.38360843 0.0059838146 0.49390745 4281481507
0.38425076 0.0062829405 0.4938587 4281479708
0.38485926 0.0067460835 0.49369806 4281413915
0.3855001 0.0070447177 0.49364924 4281217565
0.38610619 0.0075070262 0.49348861 4281217565
0.38674551 0.0078051984 0.49343979 4281152542
0.38738438 0.0081032068 0.49339095 4281349151
0.3880049 0.0084827095 0.49328619 4281546273
0.38864252 0.0087803304 0.49323735 4281611812
0.38927966 0.0090777576 0.4931885 4281611812
0.38991633 0.0093750358 0.49313965 4281611812
0.39055249 0.0096721649 0.49309078 4281611812
0.39120725 0.0098878592 0.49309784 4281414435
0.39184269 0.01018472 0.49304897 4281348640
0.39249721 0.01040034 0.49305606 4281414433
0.39313188 0.010696992 0.49300715 4281282077
0.39374599 0.011074409 0.49290234 4281348124
0.39435911 0.011451483 0.49279749 4281479710
0.39499182 0.01174745 0.49274862 4281479710
0.39562404 0.012043267 0.49269968 4281479710
0.39625576 0.012338936 0.49265078 4281479710
0.3968657 0.012714967 0.4925459 4281479708
0.39747462 0.01309067 0.492441 4281151261
0.39808255 0.01346606 0.49233609 4281347870
0.39871159 0.013760805 0.49228719 4281347357
0.39934012 0.014055401 0.49223825 4281478943
0.39996815 0.014349863 0.49218929 4281610013
0.40061849 0.014564097 0.49219632 4281348124
0.40126884 0.014778346 0.49220333 4280888600
0.40189591 0.01507245 0.49215436 4280888600
0.40252247 0.01536642 0.49210539 4280822807
0.40314853 0.015660211 0.49205643 4280690969
0.40377411 0.015953839 0.49200743 4280625176
0.40437493 0.016326874 0.49190247 4279705112
0.40497476 0.016699567 0.49179751 4278718997
0.40557361 0.017071933 0.49169251 4278455825
0.40617144 0.017443985 0.49158752 4278390286
0.40674308 0.017894939 0.49142653 4278456075
0.40733874 0.018266261 0.49132147 4278587144
0.40793338 0.01863727 0.49121645 4278586893
0.40852708 0.019007936 0.4911114 4278586893
0.40909353 0.019457191 0.49095035 4278521098
0.40968499 0.019827142 0.49084526 4278586891
0.41027546 0.020196766 0.49074018 4278652686
0.41089192 0.020487413 0.4906911 4278522383
0.41148067 0.020856455 0.49058598 4278390797
0.41206846 0.021225184 0.4904809 4278521870
0.41268295 0.021515176 0.49043179 4278717966
0.413297 0.021804988 0.4903827 4278586893
0.41388229 0.022172913 0.49027756 4278521870
0.41449505 0.022462338 0.49022841 4278521870
0.41510737 0.022751585 0.49017933 4278521870
0.41571915 0.023040682 0.49013019 4278652684
0.41635966 0.023251683 0.4901371 4278718477
0.41697073 0.023540527 0.49008799 4278717964
0.41761097 0.023751438 0.49009487 4278783757
0.41825122 0.023962364 0.49010178 4278652684
0.41889149 0.024173275 0.49010867 4278718477
0.41953173 0.024384186 0.49011558 4278587661
0.42017201 0.024595112 0.4901225 4278652684
0.42084318 0.024728671 0.49018547 4278652684
0.42151484 0.024862364 0.49024844 4278652937
0.42218697 0.024996251 0.49031141 4278784010
0.42285964 0.025130287 0.49037439 4278652937
0.42353278 0.025264487 0.49043739 4278652171
0.42423856 0.025321901 0.49055645 4278717964
0.42491293 0.025456488 0.49061945 4278652424
0.42565307 0.025437668 0.49079463 4278652173
0.4263947 0.02541934 0.49096978 4278652171
0.42710465 0.02547811 0.4910889 4278586378
0.42784899 0.02546066 0.4912641 4278520585
0.4285948 0.025443688 0.49143934 4278520838
0.42927432 0.025580004 0.4915024 4278520838
0.42998847 0.025640145 0.49162155 4278717447
0.43070361 0.025700629 0.4917407 4278717447
0.43141973 0.02576144 0.49185988 4278717447
0.43210196 0.02589865 0.49192297 4278717445
0.4327496 0.02611199 0.49192995 4278651652
0.43339723 0.026325345 0.49193692 4278717445
0.43404487 0.026538685 0.49194393 4278717445
0.4346925 0.02675204 0.49195093 4278521351
0.43530405 0.027041033 0.49190179 4278652424
0.43595147 0.027254313 0.49190879 4278652171
0.43656227 0.027543098 0.49185961 4278652171
0.43717259 0.027831689 0.4918105 4278586631
0.43774536 0.028195471 0.49170521 4278586629
0.43835443 0.028483674 0.49165606 4278783238
0.4389255 0.02884689 0.49155077 4278783240
0.43945771 0.029284894 0.49138933 4278783240
0.44002658 0.029647365 0.49128401 4278586629
0.4405944 0.030009523 0.49117869 4278652173
0.44116127 0.030371368 0.49107337 4278652688
0.44168833 0.030807659 0.49091187 4278652688
0.44221395 0.031243473 0.49075037 4278718479
0.44273806 0.031678781 0.49058884 4278718479
0.44322118 0.032188132 0.49037117 4278915343
0.44374213 0.032622382 0.49020961 4278915596
0.4441815 0.033204913 0.4899357 4278915343
0.44473928 0.033563718 0.48983029 4278981140
0.44521502 0.034070656 0.48961252 4278981140
0.44572955 0.034502834 0.48945087 4278981140
0.44624263 0.034934491 0.48928922 4279046929
0.44683668 0.035217732 0.48923993 4279046929
0.44738877 0.035574719 0.48913443 4279046929
0.44793987 0.035931364 0.48902893 4278981136
0.44853199 0.036213979 0.48897958 4278981140
0.44912362 0.036496416 0.48893023 4279047194
0.44967228 0.036852255 0.4888247 4279047446
0.45026267 0.03713429 0.48877534 4278981653
0.45085257 0.03741619 0.48872599 4278916630
0.45148519 0.037624583 0.48873281 4278982423
0.45207435 0.037906215 0.48868346 4279047192
0.45270675 0.038114533 0.48869026 4279178265
0.45333913 0.038322851 0.48869711 4279178519
0.45392728 0.038604185 0.4886477 4279505942
0.45455942 0.038812429 0.48865452 4279440149
0.45519155 0.039020672 0.48866135 4279571478
0.45582369 0.039228916 0.48866814 4279571476
0.45650101 0.039364472 0.48873121 4279505940
0.45713341 0.039572805 0.48873803 4279440147
0.45776579 0.039781123 0.48874485 4279374354
0.45844409 0.039917037 0.48880789 4279833878
0.4590767 0.040125445 0.48881471 4279505944
0.45975578 0.040261567 0.48887777 4279375128
0.4604353 0.040397897 0.48894081 4279572507
0.46111533 0.040534362 0.4890039 4279506193
0.46179587 0.040670976 0.48906696 4279703319
0.46252429 0.040735856 0.48918626 4280293397
0.46315837 0.04094474 0.48919308 4282461988
0.46384037 0.041081861 0.48925617 4282922539
0.46447474 0.041290835 0.489263 4282988584
0.46510908 0.041499808 0.48926985 4283054377
0.46574342 0.041708782 0.48927671 4282857779
0.46642667 0.041846305 0.48933983 4282857779
0.46701211 0.042126715 0.48929039 4282923572
0.46764648 0.042335689 0.48929721 4283055147
0.46828082 0.042544663 0.48930407 4283252524
0.46891516 0.042753637 0.48931092 4283120422
0.46954954 0.042962611 0.48931777 4283252778
0.47013354 0.043242544 0.48926833 4283384364
0.47076762 0.043451428 0.48927516 4283186731
0.47140175 0.043660328 0.48928201 4283185961
0.47203583 0.043869212 0.48928887 4283252526
0.47261858 0.044148743 0.48923942 4283383344
0.47325245 0.044357553 0.48924625 4283317551
0.47388631 0.044566363 0.4892531 4283317551
0.47452015 0.044775173 0.48925993 4283514928
0.47510171 0.045054287 0.48921049 4283185963
0.47573531 0.045263007 0.48921734 4283185965
0.47631612 0.045541897 0.48916787 4283317551
0.47689641 0.045820609 0.4891184 4283252528
0.47752953 0.04602918 0.48912522 4283448624
0.47816265 0.046237752 0.48913205 4283383344
0.47874197 0.046516135 0.48908257 4283317549
0.47937486 0.046724617 0.4890894 4283317549
0.48000771 0.0469331 0.48909622 4283580208
0.48058605 0.047211185 0.48904675 4283580469
0.4812187 0.047419593 0.48905358 4283514676
0.48185131 0.047628 0.4890604 4283579956
0.48242867 0.047905728 0.4890109 4283448370
0.48306105 0.048114046 0.48901772 4283448883
0.48369342 0.04832238 0.48902455 4283383090
0.48432583 0.048530698 0.48903137 4283580210
0.4849582 0.048739016 0.48903817 4283711282
0.48559058 0.048947349 0.48904502 4283513903
0.48622295 0.049155667 0.48905182 4283251243
0.48691234 0.049295232 0.489115 4283318317
0.48754495 0.049503639 0.48912179 4283974975
0.48823509 0.049643412 0.48918498 4284303940
0.48898342 0.049714848 0.48930451 4284698439
0.48961681 0.049923494 0.48931134 4285355585
0.4903084 0.050063774 0.48937452 4285551935
0.49100047 0.050204232 0.4894377 4285487941
0.49169305 0.050344825 0.48950091 4285882699
0.4923861 0.050485596 0.48956412 4285818968
0.49307969 0.050626516 0.48962733 4285688164
0.38096553 0.0048649609 0.49487323 4283922034
0.3816106 0.0051648617 0.49482423 4283724659
0.38223955 0.0055468827 0.49471915 4284183659
0.38288337 0.0058463812 0.49467015 4282144076
0.38351062 0.0062278509 0.49456501 4282073390
0.38413686 0.0066089779 0.49445987 4281940257
0.38476211 0.006989792 0.4943547 4281546269
0.38536954 0.0074521303 0.49419338 4281283097
0.38599259 0.0078322142 0.49408823 4281283097
0.38663197 0.0081302673 0.49403918 4281283351
0.3872709 0.0084281564 0.49399012 4281414683
0.38790929 0.0087258816 0.49394104 4281546273
0.38852915 0.0091049075 0.49383581 4281677859
0.38918465 0.0093208551 0.4938429 4281677859
0.38980302 0.0096993595 0.4937377 4281677089
0.39045805 0.0099151433 0.49374473 4281742882
0.391094 0.010212079 0.49369565 4281282849
0.39174879 0.010427773 0.49370271 4281414433
0.39238399 0.01072444 0.4936536 4281546019
0.39301872 0.011020958 0.49360448 4281413663
0.39365295 0.011317298 0.4935554 4281282331
0.39428669 0.011613503 0.49350628 4281348124
0.3948994 0.011990175 0.49340099 4281479710
0.39553192 0.012285948 0.49335188 4281677089
0.3961429 0.012662053 0.49324656 4281479456
0.39675289 0.013037845 0.49314123 4281546019
0.39736193 0.013413295 0.49303591 4281282595
0.39796996 0.013788432 0.49293053 4281347618
0.39859903 0.014083073 0.49288142 4281478175
0.39922759 0.014377549 0.49283224 4281675554
0.39985567 0.014671877 0.49278304 4281609759
0.40050602 0.014886126 0.49279004 4281413404
0.40115637 0.01510036 0.49279708 4281282331
0.40178347 0.015394345 0.4927479 4281216538
0.40243357 0.015608504 0.49275491 4281216538
0.4030599 0.015902281 0.4927057 4280822296
0.40368578 0.016195863 0.49265653 4280822296
0.40428692 0.01656872 0.49255109 4280427543
0.40488708 0.016941249 0.49244568 4279901199
0.40548626 0.017313465 0.49234021 4278718479
0.40605947 0.017764539 0.49217856 4278586895
0.40663123 0.01821512 0.49201691 4278586891
0.40722698 0.018586203 0.49191141 4278587144
0.407796 0.019035935 0.4917497 4278586893
0.40836358 0.019485146 0.49158797 4278521100
0.40895584 0.019855082 0.49148244 4278521098
0.40954715 0.020224705 0.49137694 4278586891
0.41016418 0.020515367 0.49132764 4278521872
0.41075373 0.020884424 0.49122211 4278456592
0.4113695 0.021174699 0.49117279 4278390799
0.41195738 0.021543175 0.49106723 4278587665
0.41257191 0.021833062 0.49101791 4278717966
0.41318598 0.022122741 0.49096859 4278586893
0.41377139 0.022490427 0.490863 4278586893
0.41438419 0.022779718 0.49081364 4278586893
0.41499653 0.023068845 0.49076432 4278652686
0.41563728 0.02327992 0.49077123 4278652686
0.41627803 0.02349101 0.49077815 4278717964
0.41691878 0.023702085 0.49078506 4278783757
0.41752988 0.023990825 0.49073568 4278717964
0.41817039 0.024201825 0.49074259 4278784010
0.41881087 0.024412826 0.49074951 4278587661
0.41945139 0.024623826 0.49075642 4278587661
0.42009187 0.024834827 0.49076331 4278652937
0.42073238 0.025045812 0.49077022 4278652937
0.421404 0.025179639 0.49083346 4278652937
0.42204475 0.025390714 0.49084038 4278849033
0.42271709 0.02552481 0.49090356 4278718217
0.42338997 0.02565904 0.49096677 4278782987
0.42406332 0.025793448 0.49102998 4278782987
0.42473716 0.025928006 0.49109322 4278652424
0.42541146 0.026062742 0.4911564 4278586378
0.42611915 0.026121035 0.49127597 4278652171
0.42686087 0.026103154 0.4914518 4278652171
0.42760408 0.026085719 0.49162769 4278586378
0.42828161 0.026221514 0.49169093 4278520838
0.42899346 0.026281178 0.4918105 4278520838
0.42970631 0.02634117 0.49193013 4278586631
0.4304201 0.02640149 0.49204972 4278586631
0.43113491 0.026462123 0.49216932 4278586883
0.43181589 0.02659905 0.49223262 4278717699
0.43246228 0.026812002 0.49223959 4278717445
0.433144 0.026949137 0.49230289 4278717445
0.43379065 0.027162164 0.49230987 4278586629
0.4344373 0.027375191 0.49231684 4278586631
0.43508399 0.027588218 0.49232382 4278586631
0.43569434 0.02787672 0.49227446 4278586631
0.43634075 0.028089657 0.49228144 4278652424
0.43695036 0.028377891 0.49223205 4278586631
0.43755949 0.02866599 0.49218267 4278717445
0.43816814 0.028953895 0.49213332 4278783238
0.43870124 0.02939178 0.49197119 4278783238
0.43927068 0.029754162 0.49186546 4278783238
0.43980107 0.030191153 0.4917033 4278652422
0.44036824 0.030552834 0.49159753 4278587144
0.44089594 0.030988917 0.49143535 4278652686
0.44142216 0.031424507 0.49127319 4278718227
0.44194692 0.031859621 0.49111098 4278718481
0.44247019 0.032294229 0.4909488 4278718481
0.44295251 0.03280279 0.49073017 4278783757
0.44347256 0.033236355 0.49056795 4279112205
0.44399118 0.033669427 0.49040571 4278915343
0.44450828 0.034102038 0.49024341 4278981136
0.44498345 0.034608245 0.49002475 4279046929
0.4455381 0.034965768 0.48991883 4278981140
0.44605079 0.035396904 0.48975652 4279046931
0.44668561 0.035606042 0.48976335 4279046931
0.44723755 0.035962701 0.4896574 4279046929
0.44778851 0.036319032 0.48955145 4278981138
0.44838041 0.036601424 0.48950189 4279046931
0.44897184 0.036883667 0.4894523 4278981149
0.44956279 0.037165746 0.48940274 4278915608
0.4501532 0.037447661 0.48935315 4278784790
0.45074314 0.037729427 0.48930359 4278982169
0.45137578 0.037937835 0.48931038 4278982169
0.4520084 0.038146242 0.48931724 4278850583
0.45259738 0.038427666 0.48926765 4279112987
0.45322973 0.038635984 0.48927444 4279439899
0.45381796 0.038917199 0.48922482 4279505690
0.45445007 0.039125428 0.48923165 4279505690
0.45508224 0.039333671 0.48923847 4279440149
0.45575929 0.039469272 0.48930174 4279505940
0.45639163 0.039677605 0.48930857 4279505944
0.4570694 0.039813474 0.48937184 4279440151
0.45770204 0.040021881 0.48937863 4279374354
0.45833468 0.040230289 0.48938549 4279505940
0.45901343 0.040366456 0.48944873 4279374874
0.45969269 0.040502816 0.48951203 4279374874
0.46032581 0.040711388 0.48951882 4279572253
0.46100581 0.040847972 0.48958212 4279833878
0.46168625 0.04098472 0.48964542 4280031259
0.46241462 0.041049838 0.48976517 4280819995
0.4630487 0.041258723 0.48977202 4282397478
0.46373066 0.041395962 0.48983532 4282726443
0.46436501 0.041604936 0.48984218 4283185450
0.46504772 0.041742414 0.48990548 4282988332
0.4656823 0.041951463 0.48991233 4282987830
0.46631691 0.042160526 0.48991919 4283184946
0.46695149 0.042369574 0.48992604 4283119153
0.46753675 0.042649791 0.48987639 4283185198
0.46817112 0.042858765 0.48988324 4283514676
0.46880543 0.043067738 0.48989007 4282989356
0.4694398 0.043276712 0.48989689 4283121455
0.47002384 0.043556526 0.48984727 4283253041
0.47065794 0.043765411 0.4898541 4283252274
0.47134286 0.043903619 0.48991746 4283580469
0.47192615 0.044183195 0.48986781 4283449137
0.47256026 0.044392079 0.48987463 4283579692
0.47319436 0.044600978 0.48988146 4283382313
0.47377667 0.044880226 0.48983181 4283513899
0.47441053 0.045089021 0.48983863 4283513899
0.4749921 0.045368016 0.48978895 4283120172
0.47562572 0.045576751 0.4897958 4282858031
0.47620657 0.045855507 0.48974612 4282792238
0.47678691 0.046134099 0.48969641 4282989615
0.47742003 0.046342671 0.48970324 4283252528
0.47805315 0.046551242 0.48971009 4283383344
0.47863251 0.046829507 0.48966038 4283383344
0.47926539 0.047037989 0.48966721 4283514930
0.47989827 0.047246471 0.48967403 4283580469
0.48053113 0.047454953 0.48968086 4283580217
0.48110926 0.047732845 0.48963115 4283448631
0.48174191 0.047941238 0.48963797 4283317045
0.48237452 0.048149645 0.4896448 4283382838
0.48300713 0.048358053 0.48965162 4283383608
0.48358405 0.048635498 0.48960191 4283317299
0.48421642 0.048843816 0.48960871 4283711794
0.48490503 0.048983261 0.48967209 4283580208
0.48553765 0.049191669 0.48967892 4283382829
0.48617029 0.049400076 0.48968574 4283383344
0.48680291 0.049608484 0.48969257 4283713079
0.48749274 0.049748287 0.48975596 4284304444
0.48818305 0.049888298 0.48981935 4284501823
0.48887387 0.050028458 0.48988277 4285027652
0.48944929 0.050305441 0.489833 4285618244
0.49014062 0.05044575 0.48989642 4285750597
0.49089083 0.050518081 0.49001643 4285621585
0.49146602 0.050794959 0.48996669 4285687378
0.49221748 0.050867692 0.49008667 4285754207
0.38149643 0.0054917485 0.49542698 4283724405
0.38212544 0.005873546 0.49532142 4283921521
0.38275349 0.0062550008 0.49521583 4284184693
0.38338056 0.0066361278 0.49511027 4282470466
0.38400665 0.0070169419 0.49500465 4282072613
0.38461518 0.0074792355 0.49484271 4281808671
0.38527268 0.0076958239 0.4948498 4281283097
0.38587898 0.0081574023 0.49468783 4281283097
0.38651842 0.0084553212 0.49463853 4281348374
0.38715738 0.0087530911 0.49458927 4281479706
0.38779584 0.0090506971 0.49453998 4281414687
0.38845184 0.0092668086 0.49454704 4281611812
0.38907129 0.0096454322 0.49444136 4281611812
0.38972679 0.009861365 0.49444842 4281676835
0.39034474 0.010239482 0.49434277 4281742628
0.39099976 0.010455266 0.49434984 4281348642
0.39163554 0.010751992 0.49430048 4281546019
0.39229029 0.010967687 0.49430758 4281611812
0.39290556 0.011344925 0.49420184 4281413665
0.39353985 0.011641145 0.49415255 4281282077
0.39417362 0.011937231 0.49410319 4281282077
0.39478642 0.012313664 0.49399742 4281479458
0.39541894 0.012609303 0.4939481 4281742630
0.39603004 0.01298517 0.49384233 4281546021
0.39661887 0.013440982 0.49368018 4281414435
0.39722773 0.013816118 0.49357438 4281282595
0.39785734 0.014110819 0.49352497 4281282595
0.39848644 0.01440534 0.49347562 4281347359
0.39911509 0.014699683 0.4934262 4281544738
0.39976567 0.014914006 0.49343324 4281609759
0.40039352 0.01520814 0.49338382 4281413404
0.40104386 0.015422389 0.49339083 4281348124
0.40169421 0.015636623 0.49339783 4281282331
0.4023211 0.015930399 0.49334842 4281216538
0.40294752 0.016224056 0.49329901 4280888089
0.40357342 0.016517505 0.4932496 4280888089
0.40417466 0.016890138 0.49314374 4280427543
0.40479934 0.0171832 0.4930943 4280098578
0.40537417 0.017634392 0.49293196 4278915856
0.40597242 0.018006042 0.49282607 4278586895
0.40651938 0.018535316 0.4926073 4278586891
0.40711519 0.018906161 0.49250135 4278652424
0.40768436 0.019355521 0.49233896 4278586893
0.40825206 0.019804358 0.49217656 4278521100
0.40884441 0.020174056 0.49207059 4278521098
0.40943581 0.020543441 0.49196464 4278456075
0.41002622 0.020912498 0.49185863 4278521872
0.41064253 0.021202788 0.49180913 4278456592
0.41123122 0.021571279 0.49170312 4278390799
0.41184628 0.021861181 0.49165356 4278587665
0.41246089 0.022150934 0.49160403 4278717968
0.41307497 0.022440508 0.4915545 4278586891
0.4136886 0.022729918 0.49150491 4278586891
0.41430169 0.02301918 0.49145538 4278586891
0.41491431 0.023308277 0.49140579 4278718479
0.4155553 0.023519427 0.4914127 4278783757
0.4161672 0.023808271 0.49136314 4278717964
0.41680795 0.024019346 0.49137005 4278783757
0.4174487 0.024230435 0.49137697 4278717964
0.41808945 0.02444151 0.49138388 4278784010
0.4187302 0.024652585 0.49139079 4278587661
0.41937095 0.024863675 0.49139771 4278521868
0.4200117 0.02507475 0.49140459 4278652937
0.4206216 0.025362968 0.491355 4278652937
0.42126209 0.025573969 0.49136192 4278718730
0.42193392 0.02570799 0.49142534 4278914826
0.42257467 0.025919065 0.49143225 4278849033
0.42321542 0.02613014 0.49143916 4278782987
0.42385617 0.026341215 0.49144608 4278782987
0.42452922 0.026475683 0.4915095 4278652424
0.42520279 0.026610285 0.49157298 4278652424
0.42587683 0.026745051 0.4916364 4278652684
0.42658439 0.026803598 0.49175638 4278586891
0.42729294 0.026862457 0.49187639 4278521098
0.42796898 0.026997864 0.49193984 4278586631
0.42867923 0.027057305 0.49205986 4278520838
0.42939052 0.027117059 0.49217987 4278586631
0.43010277 0.027177125 0.49229991 4278586631
0.43078148 0.027313426 0.49236342 4278652676
0.43146071 0.027449906 0.49242693 4278586883
0.43221045 0.027435049 0.49260354 4278717445
0.43285584 0.027647674 0.49261051 4278520836
0.43353677 0.02778469 0.49267402 4278586629
0.43418247 0.027997389 0.492681 4278586631
0.43482813 0.028210089 0.49268794 4278586378
0.4354738 0.028422788 0.49269491 4278586378
0.43611947 0.028635487 0.49270189 4278652171
0.43669164 0.028998554 0.4925957 4278586631
0.43729985 0.029286206 0.49254608 4278717445
0.43790755 0.029573664 0.49249649 4278783238
0.43847728 0.029935911 0.49239028 4278783238
0.43904603 0.030297831 0.49228406 4278652422
0.43957582 0.030734196 0.49212125 4278652422
0.44010413 0.031170055 0.49195841 4278652937
0.44066945 0.031530857 0.49185216 4278521872
0.44119507 0.031965837 0.49168929 4278587665
0.44168025 0.032474771 0.49146983 4278587665
0.44220266 0.032908723 0.49130693 4278719251
0.4427236 0.033342168 0.49114406 4278783759
0.44324306 0.033775121 0.49098113 4278981136
0.44380099 0.034133479 0.49087477 4278915858
0.44427755 0.034639597 0.49065521 4278981136
0.44483301 0.03499715 0.49054885 4279046929
0.44538748 0.035354361 0.49044248 4278981140
0.44590008 0.035785049 0.4902795 4279046933
0.44653466 0.035994098 0.49028635 4279046931
0.44712782 0.036276802 0.49023655 4279046931
0.44772053 0.036559328 0.49018678 4278981138
0.44827083 0.036915153 0.49008036 4278981138
0.44886231 0.037197277 0.49003059 4278981403
0.44945326 0.037479237 0.48998076 4278981401
0.45004374 0.037761018 0.48993096 4278850583
0.4506337 0.038042679 0.48988116 4278982169
0.45122322 0.038324133 0.48983133 4278982169
0.4518556 0.038532466 0.48983815 4278916378
0.45248798 0.038740784 0.48984498 4278982171
0.45312035 0.038949117 0.4898518 4279505435
0.45375276 0.039157435 0.48985863 4279439642
0.45438513 0.039365754 0.48986545 4279439897
0.45501751 0.039574087 0.48987228 4279374356
0.45564988 0.039782405 0.48987907 4279440147
0.45628226 0.039990723 0.48988593 4279505690
0.45695999 0.040126726 0.48994941 4279439897
0.4576382 0.040262848 0.49001288 4279440147
0.45827109 0.04047133 0.49001971 4279505942
0.45895004 0.040607736 0.49008322 4279374874
0.45958316 0.040816307 0.49009004 4279374874
0.46026289 0.040952936 0.49015355 4279572253
0.46094304 0.041089728 0.49021709 4279703064
0.46162373 0.0412267 0.49028057 4279965466
0.46230492 0.04136382 0.49034411 4282199847
0.46298659 0.04150109 0.49040765 4282594598
0.46362093 0.041710064 0.49041447 4282857770
0.46430334 0.041847587 0.49047804 4283185448
0.46493793 0.042056635 0.49048489 4282923563
0.46557254 0.042265683 0.49049172 4282660402
0.46620715 0.042474747 0.49049857 4283119407
0.46684173 0.042683795 0.4905054 4283250993
0.46742702 0.042963892 0.49045554 4283316524
0.46806139 0.043172866 0.49046236 4283382831
0.46869573 0.043381825 0.49046922 4283054127
0.46933007 0.043590799 0.49047607 4282923570
0.46996444 0.043799773 0.49048293 4283186742
0.47059879 0.044008747 0.49048975 4283121719
0.47123313 0.044217721 0.49049658 4283515194
0.47186747 0.044426695 0.49050343 4283318069
0.47245058 0.044706061 0.49045354 4283710249
0.47308469 0.044914946 0.4904604 4283447077
0.47371879 0.045123845 0.49046725 4283644967
0.47430089 0.045402884 0.49041736 4283579944
0.47488251 0.04568176 0.49036744 4283383081
0.47551614 0.04589048 0.49037427 4283317549
0.47609702 0.046169117 0.49032438 4283120170
0.47667739 0.04644759 0.49027443 4283449137
0.47731051 0.046656162 0.49028128 4283580723
0.47794366 0.046864733 0.49028811 4283448883
0.47852305 0.047142878 0.49023819 4283579956
0.47915593 0.047351345 0.49024501 4283645749
0.47978878 0.047559842 0.49025184 4283514678
0.48042166 0.047768325 0.49025866 4283580217
0.48105454 0.047976807 0.49026549 4283448631
0.48163247 0.04825449 0.49021554 4283382838
0.48226508 0.048462883 0.49022239 4283317045
0.4828977 0.04867129 0.49022919 4283448885
0.48353034 0.048879698 0.49023604 4283448370
0.48416299 0.049088106 0.49024284 4283646001
0.4847956 0.049296513 0.49024969 4283580208
0.48548466 0.049436212 0.49031329 4283579956
0.48611754 0.049644694 0.49032012 4284106313
0.48675042 0.049853176 0.49032694 4284566337
0.48738328 0.050061658 0.49033377 4284697405
0.48807353 0.050201789 0.49039739 4284960577
0.48870668 0.05041036 0.49040422 4285092933
0.48933977 0.050618932 0.49041104 4285882701
0.49008921 0.050691232 0.4905315 4285687119
0.49072281 0.050899968 0.49053833 4285754968
0.49141505 0.051040754 0.49060196 4285886554
0.3819958 0.0062821954 0.49586716 4283987827
0.3826237 0.0066633373 0.49576113 4284119413
0.38325059 0.0070441365 0.49565509 4283459938
0.38387653 0.0074246228 0.49554902 4282140214
0.38450146 0.0078047961 0.49544299 4282466601
0.38512543 0.0081846267 0.49533689 4281874466
0.38574839 0.0085641295 0.49523082 4281677087
0.38638762 0.0088618547 0.49518132 4281413915
0.38704386 0.0090780407 0.49518842 4281479706
0.38768238 0.0093755275 0.49513888 4281479708
0.38832039 0.0096728355 0.49508935 4281677089
0.38897616 0.0098888576 0.49509645 4281677089
0.38961342 0.010185942 0.49504691 4281545251
0.39023146 0.010563806 0.49494079 4281808423
0.39088649 0.010779589 0.49494785 4281611814
0.39152226 0.011076197 0.49489832 4281677605
0.39217705 0.011291906 0.49490535 4281611812
0.39279237 0.011668906 0.4947992 4281348640
0.39342672 0.011964992 0.49474967 4281282595
0.39406052 0.012260944 0.49470007 4281151011
0.39467341 0.012637138 0.49459389 4281348388
0.39528531 0.013012975 0.4944877 4281545767
0.39591715 0.013308287 0.49443811 4281874732
0.39650613 0.013763741 0.49427527 4281414181
0.39711508 0.014138624 0.49416903 4281545769
0.39774472 0.014433205 0.49411941 4281546021
0.39837387 0.014727592 0.49406981 4281414435
0.39900255 0.015021831 0.49402019 4281544988
0.39965314 0.015236139 0.4940272 4281610011
0.40028104 0.015530154 0.49397758 4281413404
0.40093139 0.015744403 0.49398458 4281216284
0.40158173 0.015958637 0.49399161 4281282077
0.40223208 0.016172886 0.49399862 4281413663
0.40285876 0.016466454 0.493949 4281151261
0.40348497 0.016759902 0.49389935 4281085468
0.40408653 0.017132357 0.49379301 4280756503
0.40468711 0.017504483 0.49368671 4280493331
0.40526205 0.017955318 0.49352369 4279243789
0.40586042 0.018326715 0.49341735 4278586893
0.40640754 0.018855512 0.49319768 4278586891
0.40700343 0.019226104 0.49309129 4278586891
0.40757275 0.019675091 0.49292821 4278586893
0.40814054 0.020123571 0.49276513 4278521100
0.40873301 0.020493031 0.49265873 4278521098
0.40935084 0.020783693 0.49260902 4278456328
0.40994155 0.021152586 0.49250257 4278456590
0.41050446 0.021599457 0.49233943 4278456590
0.41114718 0.021811187 0.49234638 4278390797
0.41173521 0.022179171 0.49223992 4278521870
0.41234985 0.022468805 0.49219012 4278717966
0.41296399 0.02275826 0.49214038 4278652684
0.41357762 0.023047552 0.49209058 4278586891
0.4141908 0.023336694 0.49204081 4278652684
0.41483203 0.023547933 0.49204773 4278718479
0.41547328 0.023759171 0.49205464 4278717714
0.41611451 0.02397041 0.49206156 4278652688
0.41675574 0.024181649 0.49206847 4278652684
0.41739699 0.024392888 0.49207538 4278586891
0.41800842 0.024681464 0.49202555 4278784008
0.41864941 0.024892628 0.49203247 4278652937
0.41929039 0.025103778 0.49203941 4278522121
0.41990086 0.025392011 0.49198961 4278522121
0.42054161 0.025603101 0.49199653 4278522121
0.42115131 0.02589111 0.4919467 4278718730
0.42179182 0.026102111 0.49195361 4278849033
0.4224008 0.026389852 0.49190378 4278718217
0.42304105 0.026600763 0.49191067 4278849033
0.42368132 0.026811689 0.49191758 4278783240
0.42432156 0.0270226 0.49192446 4278783238
0.42499432 0.027157098 0.49198812 4278849031
0.42566758 0.02729173 0.49205181 4278652684
0.42634133 0.027426541 0.49211547 4278586891
0.42704883 0.027485326 0.4922359 4278586891
0.42769033 0.027696654 0.49224281 4278718469
0.42836556 0.027831942 0.49230653 4278718215
0.42907524 0.027891442 0.49242699 4278651921
0.42978594 0.027951285 0.49254745 4278586128
0.43049762 0.028011456 0.49266791 4278586378
0.43117556 0.028147623 0.49273163 4278652422
0.43188894 0.028208345 0.49285215 4278848261
0.43253291 0.028420478 0.4928591 4278586631
0.43321231 0.028557166 0.49292278 4278586631
0.43389222 0.028693989 0.49298656 4278586631
0.43453667 0.028906286 0.4929935 4278586378
0.43518111 0.029118583 0.49300045 4278652171
0.43582553 0.029330865 0.49300742 4278586631
0.43643326 0.029618233 0.49295753 4278652424
0.43707746 0.029830456 0.49296451 4278652422
0.43764728 0.03019245 0.49285787 4278783238
0.43825355 0.030479312 0.49280798 4278849033
0.43878394 0.030915484 0.49264449 4278652688
0.43935084 0.031276494 0.49253783 4278652688
0.43987852 0.031711772 0.4923743 4278652688
0.44044319 0.032072082 0.49226761 4278587665
0.44100684 0.03243205 0.49216086 4278719251
0.44153064 0.032866016 0.49199733 4278587665
0.44205293 0.033299491 0.49183375 4278719251
0.44257373 0.033732519 0.49167019 4278915347
0.44313276 0.034090921 0.49156344 4278785044
0.44365084 0.034523055 0.49139979 4278718997
0.44416749 0.034954682 0.49123615 4278850063
0.44472304 0.035311982 0.49112937 4278915856
0.44531825 0.035595179 0.49107939 4278981138
0.44587207 0.035951912 0.49097255 4279112726
0.4464249 0.036308333 0.49086571 4279243540
0.44701812 0.036590889 0.4908157 4279308814
0.44761086 0.036873296 0.49076569 4279243021
0.44816124 0.037228897 0.49065885 4279242768
0.44875276 0.037510887 0.49060881 4279112474
0.44934374 0.037792727 0.4905588 4279046933
0.44993427 0.038074389 0.49050876 4278981653
0.4505243 0.038355932 0.49045873 4278851350
