# .PCD v0.7 - Point Cloud Data file format
VERSION 0.7
FIELDS x y z rgb
SIZE 4 4 4 4
TYPE F F F U
COUNT 1 1 1 1
WIDTH 1047
HEIGHT 1
VIEWPOINT 0 0 0 1 0 0 0
POINTS 1047
DATA ascii
0.4030309 -0.038430169 0.4821192 4278915093
0.40238225 -0.038042977 0.48222506 4278915860
0.40174273 -0.037568942 0.48238283 4278784792
0.40110174 -0.037094429 0.48254061 4278718997
0.40045926 -0.03661944 0.48269841 4278784790
0.39981532 -0.036144003 0.48285621 4278915345
0.39916986 -0.035668045 0.48301405 4278850316
0.39852297 -0.035191655 0.48317182 4278784262
0.39787456 -0.034714788 0.48332965 4278915848
0.39721629 -0.034324512 0.48343551 4279046410
0.39656517 -0.033846751 0.48359337 4278981138
0.39591259 -0.033368528 0.48375118 4278981136
0.39525852 -0.032889843 0.48390901 4279112205
0.39461038 -0.032323271 0.48411882 4279046412
0.39396745 -0.031668618 0.48438054 4278981138
0.39332205 -0.031013161 0.48464227 4278981138
0.39267421 -0.030356884 0.48490402 4279112724
0.3920303 -0.029612139 0.48521769 4279178517
0.39138347 -0.02886644 0.48553142 4281083947
0.39073366 -0.028119773 0.48584515 4281675304
0.39008087 -0.027372211 0.48615885 4282267178
0.38941967 -0.026711673 0.48642063 4282201385
0.38874564 -0.02622658 0.48657852 4282726443
0.38807505 -0.025652826 0.48678839 4282923563
0.38740247 -0.025078461 0.48699823 4282923309
0.38672796 -0.02450344 0.4872081 4282989869
0.38604301 -0.02410464 0.48731405 4282989869
0.38536504 -0.023528501 0.48752391 4283187248
0.38467765 -0.023128912 0.48762989 4283252528
0.38398924 -0.022729009 0.48773587 4282989352
0.38330311 -0.022240043 0.48789379 4282989352
0.3826125 -0.02183941 0.48799977 4283976499
0.38192362 -0.021349579 0.48815769 4283713590
0.38123578 -0.020770282 0.48836759 4283384623
0.38054594 -0.020190358 0.48857751 4283253039
0.37985215 -0.019698977 0.48873544 4283253039
0.37915689 -0.01920709 0.48889339 4283450420
0.37846011 -0.018714696 0.48905137 4283384623
0.37776187 -0.018221885 0.48920932 4283187498
0.37706217 -0.017728597 0.48936731 4283121705
0.37636095 -0.017234802 0.48952526 4283122221
0.37565726 -0.016919762 0.48957932 4284307024
0.47419572 -0.08040826 0.47155452 4286477664
0.4735781 -0.080210552 0.47155634 4285952097
0.47296047 -0.080012843 0.47155815 4285622105
0.47234288 -0.079815134 0.47156 4285226827
0.47172529 -0.079617426 0.47156185 4285489999
0.47110766 -0.079419717 0.47156367 4286280017
0.47045159 -0.079299316 0.47151345 4286345297
0.46983421 -0.079101682 0.47151524 4286082125
0.46921685 -0.078904063 0.47151709 4286016332
0.46852401 -0.078861535 0.47141474 4285555781
0.46790713 -0.078664064 0.47141659 4285226568
0.46725303 -0.078544319 0.47136635 4285094728
0.4665994 -0.078424707 0.4713161 4284634694
0.46598303 -0.078227386 0.47131792 4284503624
0.46536666 -0.07803008 0.47131974 4284503624
0.46475029 -0.077832758 0.47132158 4284240452
0.46416992 -0.07755734 0.4713755 4284174911
0.46358904 -0.077281758 0.47142941 4284043323
0.46300769 -0.077006027 0.47148329 4284109116
0.46242583 -0.076730117 0.47153723 4284109116
0.46184349 -0.076454073 0.47159114 4283845946
0.46129543 -0.076099351 0.47169715 4283845944
0.46071184 -0.07582292 0.47175103 4283714872
0.46019632 -0.075388968 0.47190917 4283714872
0.4596453 -0.075033307 0.47201514 4283451963
0.45905951 -0.07475616 0.47206908 4283451450
0.45850676 -0.074399948 0.47217509 4283516729
0.45795301 -0.074043408 0.4722811 4283648569
0.45736521 -0.073765635 0.47233504 4283845948
0.45680976 -0.073408544 0.47244108 4284043323
0.45622075 -0.073130339 0.47249502 4284043577
0.45566356 -0.072772712 0.47260106 4283845944
0.45510536 -0.072414756 0.47270703 4283977530
0.45454621 -0.072056487 0.47281307 4283714360
0.45395446 -0.071777433 0.47286704 4283845948
0.45339358 -0.071418598 0.47297308 4283977280
0.45283169 -0.071059465 0.47307912 4283845694
0.45223799 -0.070779786 0.47313306 4283648315
0.4516744 -0.070420086 0.47323912 4283582522
0.4511098 -0.070060074 0.47334516 4283647545
0.45054421 -0.069699749 0.4734512 4283713592
0.44997764 -0.069339111 0.47355729 4283713592
0.44943964 -0.068898007 0.47371542 4283713079
0.44887087 -0.068536654 0.47382149 4283778872
0.44830108 -0.068174988 0.47392756 4283843891
0.44770145 -0.067893416 0.47398153 4283843891
0.44712996 -0.067531183 0.4740876 4283843891
0.44652909 -0.067249224 0.47414154 4283449903
0.44592777 -0.06696707 0.47419554 4283449903
0.44535378 -0.066604063 0.47430164 4283121451
0.4447512 -0.066321537 0.47435558 4282989865
0.44414812 -0.066038832 0.47440958 4283121451
0.44354457 -0.065755993 0.47446352 4283187498
0.4429405 -0.065473005 0.47451752 4283121705
0.44236258 -0.065108731 0.47462362 4282990639
0.44178367 -0.064744145 0.47472972 4282990639
0.44120377 -0.06437923 0.47483578 4282661674
0.440597 -0.064095333 0.47488979 4281082650
0.43998972 -0.063811332 0.47494376 4279374354
0.43938196 -0.063527137 0.47499776 4279111954
0.43879884 -0.063161209 0.47510386 4279177747
0.43818986 -0.062876612 0.47515786 4278915608
0.43758038 -0.062591881 0.47521186 4279046679
0.43699479 -0.062225148 0.47531796 4278915093
0.43638408 -0.061940014 0.47537196 4278915093
0.43577287 -0.061654717 0.47542596 4278981653
0.43516117 -0.06136927 0.47547996 4278850583
0.43454897 -0.061083645 0.47553396 4278850333
0.43395942 -0.06071566 0.47564012 4278719514
0.433346 -0.060429662 0.47569412 4278719514
0.43273208 -0.060143486 0.47574812 4278719514
0.43211764 -0.059857175 0.47580212 4278719510
0.43152493 -0.059488162 0.47590825 4278718999
0.43095315 -0.05903624 0.47606653 4278718999
0.4303799 -0.058583796 0.47622478 4278784792
0.42980516 -0.058130935 0.47638303 4278784792
0.42922893 -0.057677567 0.47654131 4278785305
0.42867219 -0.057140812 0.47675171 4278785305
0.42807207 -0.056769431 0.47685787 4278785305
0.42755279 -0.056065381 0.47717255 4278785307
0.42696992 -0.055609897 0.47733083 4278981140
0.42638555 -0.055153936 0.47748911 4279046931
0.42583916 -0.054530829 0.47775167 4278981138
0.42525133 -0.054073766 0.47790998 4278850067
0.42466205 -0.053616241 0.47806829 4279047192
0.4240523 -0.053241774 0.47817451 4278981401
0.42347902 -0.052699715 0.47838494 4278849813
0.42286679 -0.052324459 0.47849113 4278915606
0.42120168 -0.050357282 0.47933108 4278587665
0.42061806 -0.0498119 0.47954154 4278587665
0.42008418 -0.049013585 0.47990847 4278718477
0.41944483 -0.048719287 0.47996253 4278718477
0.41888881 -0.04800348 0.4802773 4278717964
0.41831329 -0.047371075 0.48053998 4278915343
0.41771904 -0.046822295 0.4807505 4278783759
0.41712281 -0.046272904 0.48096099 4278848780
0.41652462 -0.045722887 0.48117149 4278783238
0.41590893 -0.045256883 0.48132992 4278783238
0.41530702 -0.044705674 0.48154044 4278849031
0.41467309 -0.044323474 0.48164669 4278849031
0.41405296 -0.04385604 0.48180512 4278783509
0.4134168 -0.043473125 0.48191136 4278521620
0.41275108 -0.043260008 0.48191333 4278521620
0.41211343 -0.042876646 0.4820196 4278914575
0.411461 -0.042578146 0.48207372 4278783507
0.41080809 -0.042279512 0.48212785 4278652173
0.41014138 -0.042066082 0.48212981 4278848782
0.40947467 -0.041852653 0.48213181 4278848782
0.40880796 -0.041639224 0.48213378 4278783759
0.40812868 -0.041511387 0.48208362 4278718227
0.40747452 -0.04121238 0.48213774 4278718997
0.40681988 -0.04091315 0.48219186 4278849815
0.4061529 -0.040699646 0.48219386 4278718229
0.40548596 -0.040486142 0.48219582 4278849815
0.40483034 -0.040186644 0.48224995 4278718227
0.4041853 -0.039800882 0.48235625 4278849813
0.40353927 -0.039414808 0.48246253 4278718227
0.40289223 -0.039028406 0.48256883 4278850067
0.40225458 -0.038555384 0.48272729 4278915606
0.40161547 -0.038081869 0.48288575 4278784790
0.40097484 -0.037607908 0.48304421 4278718997
0.40034235 -0.037046894 0.48325485 4278718997
0.39969853 -0.03657189 0.48341328 4278719251
0.39905322 -0.036096424 0.48357177 4278719247
0.39840642 -0.035620451 0.48373026 4278916107
0.39775816 -0.035144046 0.48388875 4278916107
0.39710003 -0.034754097 0.48399508 4278914824
0.39644906 -0.034276813 0.48415357 4278915858
0.3957966 -0.033799052 0.48431206 4278850063
0.3951503 -0.033233613 0.48452273 4279177998
0.39450201 -0.032667533 0.4847334 4279112205
0.39385176 -0.032100841 0.48494411 4278915860
0.39320639 -0.031446099 0.48520693 4278915858
0.39256522 -0.030703038 0.48552197 4279113237
0.39191473 -0.030046612 0.48578483 4279047444
0.39126787 -0.029301733 0.4860999 4281348140
0.39061216 -0.028643668 0.48636276 4281873451
0.38995963 -0.027897 0.48667783 4282135590
0.38929874 -0.027237251 0.48694074 4282267176
0.38863021 -0.026664719 0.48715144 4282792490
0.38796464 -0.02600348 0.48741436 4282924074
0.38728726 -0.025517732 0.48757294 4282858281
0.38661283 -0.024943292 0.4877837 4283055147
0.38593224 -0.024456531 0.48794228 4283384112
0.38525015 -0.023969293 0.48810086 4283713077
0.38456661 -0.023481563 0.48825943 4283844145
0.38387471 -0.023170441 0.48831367 4283450157
0.38318551 -0.022770539 0.48842013 4283713329
0.38249823 -0.022281647 0.48857874 4283910454
0.38180953 -0.021792263 0.48873734 4283318832
0.38111931 -0.021302402 0.48889595 4283253039
0.3804298 -0.020723134 0.48910671 4283318580
0.37973639 -0.02023226 0.48926535 4283318580
0.37904149 -0.019740939 0.48942396 4283384373
0.37834218 -0.019427419 0.48947823 4283318834
0.37764481 -0.018935293 0.48963687 4283253039
0.37694693 -0.018353343 0.48984769 4283253039
0.3762449 -0.018038988 0.48990196 4284305725
0.37554383 -0.017455995 0.49011278 4285754466
0.47294071 -0.08017233 0.47222194 4285688152
0.47232261 -0.079974458 0.47222376 4285490003
0.47170451 -0.079776585 0.47222561 4285621589
0.47104773 -0.079655826 0.47217515 4286213976
0.47042987 -0.079458043 0.47217697 4286280019
0.46985018 -0.079182982 0.47223109 4286214226
0.46919417 -0.079062462 0.47218066 4286148431
0.46853858 -0.078942105 0.47213018 4285753673
0.4678461 -0.078899428 0.47202742 4285226566
0.46722898 -0.078701869 0.47202924 4285225544
0.46653795 -0.078659654 0.47192648 4284765765
0.46592134 -0.078462258 0.4719283 4284634694
0.4653047 -0.078264862 0.47193015 4284437315
0.46468806 -0.078067467 0.47193196 4283779903
0.46407145 -0.077870086 0.47193378 4283845948
0.46349055 -0.077594608 0.4719879 4284043325
0.46290916 -0.077319011 0.47204205 4284043325
0.46232727 -0.077043235 0.4720962 4284109118
0.46174487 -0.076767311 0.47215033 4283845946
0.46119672 -0.076412842 0.47225678 4283846460
0.4606131 -0.076136529 0.4723109 4283649594
0.46006322 -0.075781509 0.47241735 4283649594
0.45951238 -0.075426176 0.47252381 4283846721
0.45896053 -0.07507053 0.47263026 4283846210
0.4584077 -0.074714556 0.47273675 4283713340
0.45785388 -0.07435827 0.47284323 4283713338
0.45726606 -0.074080616 0.47289735 4283713338
0.45671052 -0.073723778 0.47300383 4284043323
0.45615399 -0.073366627 0.47311032 4284109370
0.4555642 -0.073088318 0.4731645 4284043577
0.45500591 -0.072730631 0.47327092 4283977784
0.45444667 -0.0723726 0.47337741 4283780153
0.45388645 -0.072014272 0.47348392 4283780153
0.45329395 -0.071735084 0.4735381 4283845948
0.45273197 -0.071376204 0.47364455 4283845948
0.45216903 -0.071017027 0.47375107 4283648569
0.45157456 -0.070737198 0.47380525 4283714362
0.45100987 -0.070377439 0.47391173 4283648315
0.45047426 -0.069937497 0.47407055 4283582776
0.44987756 -0.069656968 0.47412473 4283516983
0.44933945 -0.069216251 0.47428358 4283713079
0.44877058 -0.068855152 0.47439006 4283843895
0.44817168 -0.068573937 0.47444427 4283646514
0.44760108 -0.068212271 0.47455078 4283778100
0.44702947 -0.067850307 0.4746573 4283843893
0.4464286 -0.067568451 0.47471148 4283449903
0.44582722 -0.067286432 0.47476566 4283449903
0.44522533 -0.067004278 0.47481987 4283121451
0.44465053 -0.066641271 0.47492641 4282989865
0.44404742 -0.0663587 0.47498059 4283121451
0.44344383 -0.066075981 0.47503477 4283187244
0.44283971 -0.065793127 0.47508898 4283121451
0.44226173 -0.065429106 0.47519553 4282990639
0.44168273 -0.065064758 0.47530207 4282990639
0.44110274 -0.064700097 0.47540861 4282595879
0.44049594 -0.064416334 0.47546282 4281936414
0.43988863 -0.064132452 0.47551703 4279571729
0.4393062 -0.063767001 0.47562361 4278981138
0.43869764 -0.063482702 0.47567779 4279046931
0.43808863 -0.063198239 0.47573203 4278980886
0.4375037 -0.062831998 0.47583857 4278981140
0.43689343 -0.062547147 0.47589278 4278915347
0.43625855 -0.06234391 0.47589469 4278915347
0.43567142 -0.061976954 0.47600126 4278981653
0.43505967 -0.061691642 0.47605547 4278784790
0.43444744 -0.061406136 0.47610968 4278850335
0.43385783 -0.061038405 0.47621626 4278785307
0.43322146 -0.060834691 0.47621816 4278719514
0.43263039 -0.060466483 0.47632474 4278719512
0.43201593 -0.060180292 0.47637898 4278719510
0.43142313 -0.059811518 0.47648555 4278784792
0.43085122 -0.059359983 0.47664446 4278915608
0.43027785 -0.058907911 0.47680342 4278981401
0.429703 -0.058455423 0.47696233 4278850585
0.42912665 -0.058002442 0.47712129 4278850583
0.42854884 -0.05754897 0.47728023 4278785303
0.42799023 -0.057012171 0.47749153 4278785303
0.42742962 -0.05647473 0.47770286 4278785307
0.42688721 -0.055853605 0.47796649 4278981140
0.42628255 -0.055481061 0.47807312 4278915858
0.42571628 -0.054941788 0.47828442 4278915858
0.42512861 -0.054485187 0.47844341 4278850067
0.42452025 -0.054111451 0.47855005 4279047194
0.42391092 -0.053737387 0.47865665 4279047192
0.42330059 -0.053363025 0.47876331 4278915093
0.42267084 -0.053071901 0.47881758 4278980886
0.42148164 -0.052154258 0.47913557 4278718997
0.42093796 -0.051443234 0.47945166 4278719251
0.42035639 -0.050899073 0.47966301 4278719251
0.41979003 -0.050270289 0.47992676 4278850063
0.41920426 -0.049724787 0.48013815 4278850063
0.41863325 -0.049094528 0.48040187 4278783757
0.41805977 -0.048463464 0.48066565 4278915343
0.41746756 -0.047915906 0.48087704 4278914575
0.4168734 -0.047367707 0.48108846 4278849033
0.41629303 -0.046734437 0.48135224 4278849031
0.41569465 -0.046184897 0.48156366 4278849031
0.41507909 -0.04571937 0.48172271 4278914824
0.41446203 -0.045253366 0.48188177 4278914826
0.41385826 -0.044702083 0.48209321 4278783507
0.41320899 -0.04440476 0.48214751 4278587161
0.41257352 -0.044022322 0.48225424 4278587161
0.41193703 -0.043639585 0.48236096 4278652688
0.41128579 -0.043341607 0.48241532 4278586643
0.41063407 -0.043043494 0.48246965 4278717714
0.40996861 -0.042830452 0.48247164 4278717966
0.40931612 -0.042532086 0.48252597 4278783759
0.4086504 -0.04231897 0.48252794 4278783759
0.40798467 -0.042105854 0.48252991 4278718227
0.40734351 -0.041721642 0.48263663 4278719251
0.40667731 -0.041508377 0.4826386 4278718997
0.40602285 -0.041209355 0.48269296 4278587411
0.40536794 -0.040910229 0.48274732 4278718997
0.4047125 -0.040610895 0.48280168 4278718481
0.40405658 -0.040311441 0.48285604 4278850067
0.40341097 -0.039925769 0.48296276 4278718481
0.40277493 -0.039453685 0.48312187 4278850067
0.40212712 -0.039067298 0.48322862 4278915860
0.40148833 -0.03859432 0.48338777 4278850837
0.40084809 -0.038120881 0.48354691 4278850067
0.40021592 -0.037560523 0.48375839 4278915860
0.39957249 -0.037086055 0.48391753 4278915606
0.39893663 -0.036524519 0.48412907 4278718229
0.39828998 -0.036049038 0.48428822 4278585861
0.39763325 -0.03565982 0.484395 4280428065
0.39698389 -0.03518346 0.48455417 4282006577
0.39633304 -0.034706607 0.48471332 4278979847
0.3956807 -0.034229293 0.48487249 4279047182
0.39502689 -0.033751518 0.48503166 4278981389
0.39438629 -0.033098951 0.48529562 4278981389
0.39374322 -0.03244561 0.48555958 4278850065
0.39309081 -0.031878769 0.48577118 4278981651
0.39244306 -0.031223953 0.48603514 4279506710
0.39179283 -0.030568317 0.48629913 4280164640
0.39114624 -0.029824346 0.48661551 4281611564
0.39049667 -0.029079452 0.48693189 4281808423
0.38984418 -0.028333589 0.4872483 4282136103
0.38918334 -0.027674571 0.48751229 4282333482
0.38851491 -0.02710259 0.48772395 4282793260
0.3878445 -0.026529998 0.48793557 4282727463
0.38717213 -0.025956795 0.4881472 4282792740
0.38649338 -0.025471002 0.48830646 4282989865
0.38581318 -0.024984777 0.48846573 4283450416
0.38513535 -0.024409816 0.48867735 4283779122
0.38444829 -0.024010882 0.48878422 4283975983
0.38376024 -0.02361162 0.48889107 4283976499
0.38307434 -0.023123577 0.48905033 4283844913
0.38238409 -0.022723615 0.48915723 4283515696
0.38169548 -0.022234678 0.48931649 4283318832
0.38100299 -0.021834016 0.48942336 4283187246
0.38031167 -0.021344215 0.48958266 4283384625
0.37961888 -0.020853937 0.48974192 4283384625
0.37892792 -0.020185292 0.49000603 4283318580
0.37822884 -0.01987201 0.49006051 4283253041
0.37753159 -0.019380301 0.49021983 4283187248
0.376831 -0.019066542 0.49027431 4283582006
0.3761313 -0.018574029 0.49043363 4285555542
0.47234133 -0.080057472 0.47294098 4286016347
0.47172248 -0.079859361 0.47294283 4286082140
0.47106498 -0.07973823 0.47289211 4286476385
0.47044641 -0.079540193 0.47289395 4286146646
0.4698278 -0.079342172 0.4728958 4286475352
0.46920919 -0.07914415 0.47289765 4286541397
0.46851528 -0.079100728 0.47279441 4286212432
0.4678598 -0.078980237 0.47274375 4285949258
0.46716762 -0.078937382 0.47264051 4285751879
0.46655023 -0.078739747 0.47264236 4285291330
0.46589619 -0.078619748 0.47259164 4284896831
0.46524268 -0.078499898 0.47254097 4284896831
0.46462581 -0.078302413 0.47254276 4283976762
0.46400893 -0.078104943 0.47254461 4283845946
0.46339205 -0.077907473 0.47254646 4283977530
0.46284604 -0.077553973 0.47265333 4283977530
0.46222869 -0.077356339 0.47265518 4283912251
0.46164626 -0.077080533 0.47270954 4283846460
0.46109805 -0.076726317 0.47281641 4283846460
0.46051437 -0.076450139 0.47287077 4283846723
0.45996442 -0.076095372 0.4729777 4283846723
0.45941347 -0.075740293 0.47308457 4284307792
0.45886156 -0.075384885 0.4731915 4283913032
0.45830864 -0.075029165 0.4732984 4283977794
0.45775473 -0.074673131 0.4734053 4283582776
0.45716691 -0.074395597 0.47345966 4283582776
0.45661128 -0.074039012 0.47356659 4283845946
0.45605466 -0.073682114 0.47367352 4284109116
0.45549706 -0.073324889 0.47378045 4283912251
0.45490646 -0.073046491 0.47383481 4283714872
0.45434716 -0.072688714 0.47394174 4283780151
0.45378685 -0.072330624 0.47404867 4283976762
0.45319432 -0.07205157 0.47410309 4284042042
0.45263225 -0.071692929 0.47421002 4283910969
0.45206922 -0.071334004 0.47431695 4283779383
0.45147473 -0.07105431 0.47437134 4283780153
0.45090997 -0.070694804 0.4744783 4283780153
0.4503442 -0.070334971 0.47458524 4283780153
0.44977748 -0.06997484 0.4746922 4283648567
0.44920975 -0.06961441 0.47479916 4283713592
0.44864106 -0.069253638 0.47490609 4283778872
0.44807136 -0.068892539 0.47501305 4283778100
0.44750071 -0.068531141 0.47512001 4283647284
0.44690049 -0.068249643 0.47517443 4283647284
0.44629982 -0.067967996 0.47522885 4283449907
0.44572666 -0.067605808 0.47533581 4283384625
0.44512475 -0.067323759 0.47539023 4283121451
0.44452232 -0.067041546 0.47544467 4283187244
0.44391942 -0.066759199 0.47549909 4282990119
0.44331604 -0.066476673 0.47555351 4283056682
0.44273895 -0.066113248 0.47566047 4282990639
0.44216084 -0.065749466 0.47576743 4283056178
0.44158179 -0.065385371 0.47587445 4283056178
0.44100174 -0.065020964 0.47598141 4282858799
0.44039488 -0.06473732 0.47603589 4282792488
0.43981311 -0.064372391 0.47614285 4280491796
0.43920502 -0.064088359 0.4761973 4279243538
0.43859643 -0.063804194 0.47625172 4279243538
0.43798736 -0.06351985 0.4763062 4278981138
0.43737778 -0.063235357 0.47636062 4278915093
0.43676773 -0.062950701 0.47641507 4278981140
0.43615717 -0.062665895 0.47646952 4278981140
0.43554613 -0.062380925 0.47652397 4278981651
0.43495819 -0.062014014 0.47663099 4278915606
0.4343459 -0.061728641 0.4766854 4278981149
0.43373311 -0.06144312 0.47673988 4278850587
0.43311986 -0.061157435 0.47679433 4278784794
0.43250608 -0.060871601 0.47684878 4278719512
0.43191421 -0.060503408 0.4769558 4278785557
0.43132132 -0.060134888 0.47706282 4278981651
0.4307493 -0.059683725 0.47722244 4278981399
0.4301542 -0.059314504 0.47732946 4278981399
0.42960083 -0.058779925 0.47754163 4278850583
0.42900327 -0.058409914 0.47764868 4278785044
0.42844644 -0.057874218 0.47786087 4278784790
0.42788768 -0.057337925 0.47807306 4278784790
0.42732692 -0.056800976 0.47828525 4278850585
0.42674404 -0.056346297 0.47844493 4278915860
0.42615968 -0.055891171 0.47860456 4278915860
0.4255935 -0.055352479 0.47881675 4278915860
0.42496717 -0.055062622 0.47887123 4278849813
0.42435947 -0.054689363 0.47897834 4278981401
0.42376968 -0.054232508 0.47913796 4279047192
0.42315978 -0.053858548 0.47924504 4278981399
0.42253047 -0.053567708 0.47929955 4278915606
0.42191884 -0.053193197 0.47940665 4278915606
0.42134205 -0.052651137 0.47961885 4278785044
0.42071027 -0.052359536 0.47967339 4278785044
0.42014766 -0.051732644 0.47993821 4278785044
0.41958261 -0.051104963 0.48020309 4278783757
0.41899818 -0.050560445 0.48041534 4278850063
0.41842842 -0.049931273 0.4806802 4278783757
0.4178398 -0.049385399 0.48089248 4278915343
0.41724917 -0.048838899 0.48110479 4278915343
0.41665658 -0.048291773 0.48131704 4278784010
0.41607773 -0.047659665 0.48158199 4278849033
0.41548094 -0.047111213 0.48179424 4278848782
0.41488218 -0.046562091 0.48200658 4278914575
0.41425154 -0.0461815 0.48211372 4278914575
0.41364932 -0.045631275 0.48232603 4278783509
0.41301623 -0.045249894 0.4824332 4278653469
0.41238213 -0.044868186 0.48254034 4278653469
0.41176102 -0.044401273 0.48270011 4278587413
0.41112471 -0.044018865 0.48280722 4278521620
0.41047394 -0.043721184 0.48286182 4278719001
0.40982267 -0.04342334 0.48291636 4278652436
0.40915793 -0.043210536 0.48291832 4278849815
0.40851864 -0.042827174 0.48302552 4278718481
0.40785342 -0.042614222 0.48302749 4278587665
0.40720043 -0.042315826 0.48308206 4278785044
0.40655893 -0.041931748 0.48318923 4278849813
0.40589294 -0.041718572 0.48319119 4278718227
0.40522698 -0.041505367 0.48319316 4278915606
0.40457225 -0.041206449 0.48324776 4278850065
0.40392804 -0.040821508 0.48335493 4278915858
0.40328285 -0.040436238 0.4834621 4278718479
0.40263668 -0.040050671 0.48356926 4278850065
0.40199977 -0.039578706 0.48372906 4278981140
0.40136138 -0.039106265 0.48388886 4278850835
0.40072149 -0.038633361 0.48404866 4278850065
0.40008968 -0.038073659 0.4842611 4278915858
0.39944661 -0.037599728 0.4844209 4278915606
0.39880204 -0.037125334 0.4845807 4278848530
0.39816481 -0.036563903 0.48479313 4282993215
0.39751703 -0.036088437 0.48495299 4282532664
0.39686781 -0.035612538 0.48511279 4282664248
0.39621708 -0.035136163 0.48527262 4282203956
0.39556485 -0.034659296 0.48543248 4279637528
0.39491117 -0.034181967 0.48559231 4278981389
0.39427063 -0.033530116 0.48585737 4278915596
0.39362055 -0.032964572 0.48606986 4278850063
0.3929753 -0.032311246 0.48633492 4278915858
0.39232758 -0.031657115 0.48660004 4279703323
0.39167741 -0.031002164 0.48686513 4281084976
0.39103085 -0.030259043 0.48718286 4281939757
0.39038131 -0.029514953 0.48750058 4281940007
0.38972878 -0.02876991 0.4878183 4282202150
0.38906267 -0.02819927 0.48803085 4282399529
0.38839966 -0.027540222 0.48829597 4282662186
0.38772452 -0.027056023 0.48845589 4282596391
0.38705248 -0.026483446 0.48866841 4282793510
0.38637847 -0.025910273 0.48888093 4283122221
0.38569838 -0.025424466 0.48904085 4283516979
0.3850168 -0.024938226 0.48920077 4283779122
0.38433376 -0.024451494 0.48936069 4283975983
0.38364586 -0.024052575 0.48946804 4284239671
0.38295698 -0.023653328 0.48957533 4283844913
0.38226715 -0.023253769 0.48968264 4283449903
0.38157892 -0.022765383 0.48984259 4283384625
0.38088921 -0.022276521 0.49000254 4283188016
0.380198 -0.021787167 0.49016249 4283253809
0.37950534 -0.021297365 0.49032244 4283188016
0.37880793 -0.020984739 0.49037716 4283253809
0.37811142 -0.020583063 0.49048448 4283318830
0.37741616 -0.02000308 0.49069709 4283384625
0.37671718 -0.0196006 0.49080443 4285227097
0.37601721 -0.019197822 0.49091178 4285621855
0.47177905 -0.079866081 0.47371408 4286082908
0.47112066 -0.079744503 0.47366318 4286542691
0.47050107 -0.079546154 0.47366503 4286279006
0.46988147 -0.079347819 0.47366685 4286212441
0.46914828 -0.07938081 0.47351044 4286344279
0.46849182 -0.079259858 0.47345954 4286146900
0.46783584 -0.079139113 0.47340864 4286278225
0.46714327 -0.079095811 0.47330499 4286080842
0.46648854 -0.078975454 0.47325408 4285292093
0.46583432 -0.078855231 0.47320315 4285159742
0.46521693 -0.078657597 0.47320497 4285291328
0.46456343 -0.078537628 0.47315407 4284437311
0.46394631 -0.078340083 0.47315589 4283846458
0.4633292 -0.078142524 0.4731577 4283912251
0.46274748 -0.077867076 0.4732123 4283846458
0.46213013 -0.077669442 0.47321415 4283846458
0.46154764 -0.07739377 0.47326872 4283846458
0.46096468 -0.07711792 0.47332329 4283649083
0.46041563 -0.076763749 0.47343063 4283978309
0.45983145 -0.076487496 0.47348523 4284044102
0.45931458 -0.076054394 0.47364533 4284241999
0.45872894 -0.075777665 0.47369993 4284109641
0.4581762 -0.075422287 0.47380728 4283978561
0.45762244 -0.075066596 0.47391462 4283517497
0.45706773 -0.074710578 0.47402197 4283451704
0.45651203 -0.074354246 0.47412938 4283780153
0.4559229 -0.074076429 0.47418398 4283845944
0.45536548 -0.073719531 0.47429135 4283846458
0.45480704 -0.07336235 0.4743987 4283714872
0.45424765 -0.073004827 0.47450608 4283714874
0.45368725 -0.07264699 0.47461346 4283976762
0.45309466 -0.072368056 0.47466809 4284042044
0.45253253 -0.072009668 0.47477546 4283910969
0.45193872 -0.07173036 0.47483009 4283845176
0.45137489 -0.071371421 0.47493747 4283910969
0.45081005 -0.071012169 0.47504485 4283976762
0.45021427 -0.070732236 0.47509947 4284108348
0.44967741 -0.070292696 0.47525966 4283910969
0.44910961 -0.06993252 0.47536704 4283647797
0.44854081 -0.069572002 0.47547442 4283779383
0.44797105 -0.069211155 0.47558185 4283582004
0.44737157 -0.068930015 0.47563648 4283647284
0.44677159 -0.068648741 0.47569114 4283647284
0.44619936 -0.068287104 0.47579855 4283450418
0.44559813 -0.068005443 0.47585315 4283384625
0.44499642 -0.067723587 0.4759078 4283253543
0.44442171 -0.067361176 0.47601524 4283253543
0.44381878 -0.067078933 0.47606987 4282990369
0.44321534 -0.066796541 0.47612453 4283056680
0.44263816 -0.066433355 0.47623193 4282991153
0.44205999 -0.066069841 0.4763394 4282991153
0.44148085 -0.065706 0.47644681 4283056946
0.44090071 -0.06534183 0.47655424 4282727981
0.44029385 -0.065058321 0.47660893 4282661674
0.43971196 -0.06469363 0.47671634 4281476378
0.43910384 -0.064409733 0.47677103 4279636501
0.43849522 -0.064125687 0.47682568 4279570708
0.43788612 -0.063841462 0.47688037 4279046933
0.43727648 -0.063557103 0.476935 4278981140
0.43664211 -0.06335403 0.47693688 4279046679
0.43603176 -0.063069418 0.47699156 4278980886
0.43542093 -0.062784657 0.47704622 4279047444
0.4348096 -0.062499732 0.47710091 4278784792
0.43422106 -0.062132895 0.47720838 4278915356
0.4336085 -0.061847582 0.47726303 4278784794
0.43299544 -0.061562106 0.47731769 4278784794
0.4323819 -0.061276466 0.47737238 4278785307
0.43179017 -0.060908601 0.47747988 4278851096
0.43119743 -0.060540408 0.47758734 4279046931
0.43062556 -0.060089678 0.47774759 4278981399
0.43005219 -0.0596385 0.47790787 4278981399
0.42947733 -0.059186786 0.47806817 4278785044
0.42890102 -0.058734655 0.47822845 4278785042
0.42832321 -0.058282033 0.47838873 4278850835
0.42776453 -0.057746291 0.47860181 4278785042
0.42718351 -0.05729264 0.47876209 4278850585
0.42660102 -0.056838498 0.47892243 4278850837
0.42603689 -0.056301042 0.47913551 4278915860
0.42545119 -0.055845872 0.47929582 4278915860
0.42486402 -0.055390239 0.47945613 4278785042
0.42427534 -0.054934159 0.47961646 4278915860
0.42364749 -0.054643929 0.47967118 4279177749
0.42303774 -0.054270282 0.47977871 4279046679
0.42240864 -0.053979695 0.47983342 4279046679
0.42179719 -0.053605512 0.47994095 4278915860
0.4212026 -0.053147525 0.48010129 4278915606
0.42057127 -0.052856192 0.480156 4278981399
0.41997421 -0.0523974 0.48031634 4278981399
0.41939282 -0.051854402 0.48052949 4279046161
0.41884324 -0.051143125 0.48084828 4278981136
0.41825739 -0.050598741 0.48106146 4278850067
0.4176532 -0.050137624 0.4812218 4278915860
0.4170475 -0.04967609 0.48138219 4278981653
0.41645622 -0.049129933 0.48159537 4278915093
0.41587865 -0.048498929 0.48186138 4278783761
0.41528317 -0.04795143 0.48207456 4278718481
0.41467059 -0.047487661 0.48223495 4278718481
0.41407141 -0.046938971 0.48244816 4278718227
0.41345561 -0.046474203 0.48260856 4278718999
0.41283834 -0.0460089 0.48276895 4278719512
0.4122054 -0.045627877 0.48287654 4278522131
0.41158539 -0.045161724 0.48303697 4278522131
0.41096392 -0.044695124 0.48319739 4278456338
0.41031408 -0.044397861 0.48325217 4278718747
0.40967697 -0.044015482 0.48335975 4278718231
0.40903884 -0.043632761 0.48346737 4278849817
0.40838706 -0.043334872 0.48352218 4278785044
0.40772229 -0.043122083 0.48352414 4278719251
0.40708196 -0.042738646 0.48363179 4278981651
0.40642869 -0.04244031 0.48368657 4278915347
0.40577489 -0.042141795 0.48374134 4278915347
0.40512064 -0.041843131 0.48379615 4278915858
0.40445468 -0.04162994 0.48379812 4278915858
0.40381062 -0.041245326 0.48390573 4278915858
0.40316558 -0.0408604 0.48401338 4278850065
0.40250909 -0.04056105 0.48406816 4278915858
0.40187258 -0.040089592 0.48422867 4278915345
0.40123457 -0.039617702 0.48438913 4278783759
0.40059507 -0.039145336 0.48454958 4278850065
0.39996359 -0.038586289 0.48476291 4278850065
0.3993209 -0.038112894 0.48492336 4278717966
0.39868569 -0.03755267 0.48513666 4281741347
0.39803979 -0.037078261 0.48529714 4282860078
0.39739239 -0.036603332 0.48545766 4281677607
0.39675179 -0.036041394 0.48567098 4281151263
0.39610121 -0.035565451 0.4858315 4282664248
0.3954491 -0.035089061 0.48599198 4282858811
0.39480308 -0.034525365 0.48620534 4279635218
0.39415506 -0.033961028 0.48641869 4279569425
0.39350507 -0.033396095 0.48663205 4278915345
0.39285988 -0.032743424 0.48689824 4279177747
0.39220569 -0.03217715 0.48711163 4280952864
0.39156207 -0.031435788 0.48743069 4281808173
0.39090949 -0.030780777 0.48769689 4282005548
0.39026019 -0.030037597 0.48801595 4282071080
0.38960797 -0.029293463 0.48833507 4282333736
0.38894746 -0.028635934 0.48860133 4282465322
0.38827947 -0.028065205 0.48881471 4282465322
0.38760948 -0.027493864 0.48902813 4282596393
0.38693753 -0.026921868 0.48924154 4282793256
0.38625929 -0.026437119 0.48940212 4283253809
0.38557959 -0.025951833 0.48956275 4283319602
0.38489839 -0.025466129 0.48972332 4283449905
0.38421571 -0.024979934 0.4898839 4283384110
0.38353157 -0.024493247 0.49004453 4283713840
0.38284287 -0.024094343 0.49015227 4283713840
0.38215601 -0.023606807 0.49031287 4283384877
0.38146508 -0.023207173 0.49042064 4283450418
0.38077548 -0.022718787 0.49058127 4283253809
0.38008234 -0.022318423 0.49068904 4283319602
0.37939006 -0.021829158 0.49084964 4283319602
0.37869468 -0.021428108 0.49095744 4283451186
0.37799832 -0.02102676 0.4910652 4283188268
0.37730098 -0.020625085 0.49117303 4285160786
0.37660265 -0.020223081 0.49128079 4285687910
0.47175771 -0.080027118 0.47438121 4286543709
0.4711374 -0.079828531 0.47438306 4286542939
0.47044045 -0.079783604 0.47427896 4286411101
0.46985868 -0.07950826 0.47433376 4286016343
0.46920076 -0.079386756 0.47428262 4285950550
0.4685058 -0.07934244 0.47417855 4285687380
0.46777445 -0.079375565 0.47402146 4286213211
0.46711877 -0.079254776 0.47397032 4286213463
0.4664636 -0.079134092 0.47391921 4285686597
0.4658089 -0.079013601 0.47386807 4285291839
0.46515471 -0.078893259 0.47381693 4285423166
0.46450099 -0.078773081 0.47376579 4284963648
0.46388364 -0.078575447 0.47376761 4284438335
0.46326625 -0.078377813 0.47376943 4284109370
0.4626489 -0.078180179 0.47377127 4283846198
0.46203154 -0.077982545 0.47377312 4283977784
0.46144903 -0.077707008 0.4738279 4283648565
0.46086603 -0.077431291 0.47388273 4283648567
0.4603169 -0.077077359 0.4739905 4283912262
0.45973268 -0.076801226 0.47404534 4283978055
0.45918185 -0.076446727 0.4741531 4284043850
0.45863 -0.0760919 0.47426093 4284042821
0.45807719 -0.075736761 0.47436872 4283977280
0.45752335 -0.075381339 0.47447652 4283714874
0.45696855 -0.075025573 0.47458431 4283649081
0.45641279 -0.07466948 0.47469214 4283517495
0.4558236 -0.074391782 0.47474697 4283385909
0.45526612 -0.074035153 0.4748548 4283253811
0.45470759 -0.07367821 0.47496259 4283582776
0.45414811 -0.07332094 0.47507042 4283714108
0.45355624 -0.073042378 0.47512525 4283910717
0.45299503 -0.072684556 0.47523308 4284173889
0.45240191 -0.072405607 0.47528791 4284108350
0.45183897 -0.072047234 0.47539574 4284108350
0.45127505 -0.071688533 0.47550359 4283910971
0.45071012 -0.071329534 0.47561145 4283845176
0.45011431 -0.071049735 0.47566625 4284108346
0.44954765 -0.07069017 0.47577411 4283910967
0.44900945 -0.07025063 0.47593495 4283779381
0.44841141 -0.069970101 0.47598982 4283779381
0.44784182 -0.069609582 0.47609764 4283713588
0.44727123 -0.069248766 0.47620553 4283713075
0.44667119 -0.068967611 0.47626036 4283647282
0.44607067 -0.068686277 0.47631526 4283515696
0.44549763 -0.06832467 0.47642308 4283515698
0.44489586 -0.068042949 0.47647798 4283384614
0.4443211 -0.067680776 0.47658584 4283318821
0.44371811 -0.067398682 0.4766407 4283187487
0.44311464 -0.06711641 0.4766956 4283253037
0.44253737 -0.066753477 0.47680342 4283253811
0.44193268 -0.066470787 0.47685832 4283188018
0.4413799 -0.066026613 0.47701919 4283253811
0.44079971 -0.065662712 0.47712708 4282859051
0.44019276 -0.065379307 0.47718197 4282662186
0.43961084 -0.065014884 0.47728986 4282398502
0.43900266 -0.064731106 0.47734475 4280292886
0.43839401 -0.064447179 0.47739962 4279898128
0.43778485 -0.064163089 0.47745451 4279046933
0.43715072 -0.06396009 0.47745639 4278980886
0.43654081 -0.063675776 0.47751129 4279046679
0.43590641 -0.063472688 0.47751313 4278980886
0.43529579 -0.063188121 0.47756803 4278916630
0.43468466 -0.062903404 0.47762293 4278850587
0.43407306 -0.062618524 0.47767782 4278915356
0.43346095 -0.062333494 0.47773272 4278850587
0.4328711 -0.061966509 0.47784063 4278784794
0.43225774 -0.061681092 0.47789553 4278719514
0.4316662 -0.061313555 0.47800344 4278785305
0.43107364 -0.060945705 0.47811139 4279046931
0.43050188 -0.060495436 0.47827232 4278981399
0.42992866 -0.060044661 0.47843325 4278981399
0.42935395 -0.059593454 0.47859418 4278981653
0.42877775 -0.059141755 0.47875515 4278850833
0.42817926 -0.058771998 0.47886309 4278850837
0.42762092 -0.058236927 0.47907707 4278785044
0.42706057 -0.057701215 0.47929105 4278850585
0.42647821 -0.057247549 0.47945201 4278850583
0.42589438 -0.056793377 0.47961301 4278785044
0.42530906 -0.056338757 0.479774 4278850837
0.42472222 -0.055883676 0.47993496 4278719251
0.42409581 -0.055594042 0.47998989 4278915860
0.42348772 -0.055221215 0.48009789 4279242772
0.42287862 -0.054848105 0.48020583 4279046933
0.42226857 -0.054474637 0.48031381 4279046933
0.42167559 -0.054017544 0.48047483 4278981140
0.42104548 -0.053726763 0.48052976 4278849813
0.42046762 -0.053185448 0.4807438 4279047192
0.41985309 -0.05281055 0.48085177 4278981399
0.4192718 -0.052268147 0.48106581 4279176979
0.41867167 -0.051808774 0.48122686 4278981136
0.41808665 -0.051265165 0.4814409 4278915606
0.41748333 -0.050804779 0.48160195 4278915606
0.41689461 -0.050259978 0.48181599 4278981399
0.41630393 -0.049714595 0.48203009 4278980888
0.41569567 -0.049252599 0.48219115 4278915093
0.41510126 -0.048705995 0.48240525 4278718227
0.41450492 -0.048158765 0.48261929 4278849813
0.4138917 -0.047695205 0.4827804 4278587411
0.413277 -0.047231182 0.48294145 4278653719
0.41266084 -0.046766713 0.4831025 4278653971
0.41204321 -0.046301723 0.48326358 4278522385
0.41143796 -0.045751661 0.48347771 4278522385
0.41080347 -0.04537037 0.48358572 4278521872
0.41016796 -0.044988781 0.48369378 4278718999
0.40954465 -0.044521973 0.48385489 4278718229
0.40890694 -0.044139683 0.48396292 4278849815
0.40825561 -0.043842077 0.48401797 4278785044
0.40760374 -0.043544337 0.48407295 4278719249
0.40696359 -0.043161243 0.48418105 4278981651
0.4063105 -0.042863086 0.48423606 4278915345
0.40565693 -0.04256478 0.48429108 4278915345
0.40499145 -0.042351753 0.48429304 4278915858
0.40434831 -0.041967705 0.48440111 4278850065
0.40369329 -0.041668952 0.48445612 4278915858
0.40304843 -0.041284353 0.48456419 4278850063
0.40239215 -0.040985152 0.48461926 4278915856
0.40175575 -0.040514201 0.48478037 4278915343
0.40110791 -0.040128648 0.48488843 4278783759
0.4004688 -0.039656818 0.48504958 4278850063
0.3998282 -0.039184481 0.48521072 4278718477
0.39919531 -0.038625568 0.48542491 4278586378
0.39856046 -0.038066 0.48563913 4282925871
0.39791495 -0.037592113 0.48580027 4282991914
0.3972764 -0.037031367 0.48601449 4280558354
0.39663586 -0.036469996 0.4862287 4280755733
0.39598539 -0.035994515 0.48638991 4282795064
0.39533344 -0.035518557 0.48655108 4282859061
0.3946875 -0.034955442 0.48676533 4280159763
0.39403957 -0.034391701 0.48697954 4279962384
0.39339665 -0.033740491 0.48724687 4279242770
0.39274451 -0.033175394 0.48746115 4279703319
0.39209691 -0.032522663 0.48772845 4281413415
0.39144683 -0.031869128 0.4879958 4281873966
0.39079428 -0.031214833 0.48826313 4282005548
0.390145 -0.030472472 0.48858356 4282202666
0.38948727 -0.029816508 0.48885089 4282333736
0.38882709 -0.029159769 0.48911828 4282399529
0.38815939 -0.028589696 0.48933256 4282465322
0.38748977 -0.028018996 0.4895469 4282596395
0.38681364 -0.027535319 0.48970813 4282727979
0.38614029 -0.026963428 0.48992246 4283253809
0.38546097 -0.026478708 0.49008369 4283188016
0.38478392 -0.025905639 0.49029803 4283514928
0.38410136 -0.025419906 0.49045929 4283055145
0.38341406 -0.025021717 0.49056751 4283319082
0.38272882 -0.02453512 0.49072877 4283450668
0.38203928 -0.024136215 0.49083698 4283582256
0.38134876 -0.023736998 0.49094519 4283582006
0.38066185 -0.023160771 0.49115956 4283253811
0.37996888 -0.022760764 0.49126777 4283451188
0.37927133 -0.02253747 0.49126983 4283319602
0.37857997 -0.021959841 0.49148419 4283253809
0.37788403 -0.021558881 0.49159241 4283122221
0.37718606 -0.021246344 0.4916476 4285621085
0.37648839 -0.020844847 0.49175584 4286018158
0.47169742 -0.080265194 0.47499606 4286674777
0.47107685 -0.080066547 0.47499791 4286674777
0.4704563 -0.079867885 0.47499973 4286608986
0.46979767 -0.079745993 0.47494841 4286346330
0.46913958 -0.079624236 0.47489703 4286148951
0.46848196 -0.079502702 0.47484568 4285622607
0.46778756 -0.079458296 0.47474113 4285884498
0.46709412 -0.079414204 0.47463658 4285950550
0.4664385 -0.079293251 0.47458524 4285818453
0.46574679 -0.07924971 0.47448066 4285555281
0.46509239 -0.079129159 0.47442931 4285488455
0.46443847 -0.079008788 0.47437793 4285291076
0.46382087 -0.078811079 0.47437978 4285291589
0.46320325 -0.078613371 0.47438163 4284831038
0.46255034 -0.078493297 0.47433025 4284436280
0.46196803 -0.078217953 0.47438526 4284042292
0.46135041 -0.078020245 0.47438711 4283779381
0.46076739 -0.077744648 0.47444212 4283713588
0.46018386 -0.077468902 0.47449714 4284108348
0.45959982 -0.077193022 0.47455221 4283976762
0.45908299 -0.076760709 0.47471365 4284174143
0.45853108 -0.076406136 0.4748219 4284108096
0.45794481 -0.076129541 0.47487694 4283976764
0.45739117 -0.075774416 0.47498518 4284174139
0.45683655 -0.075418979 0.47509342 4283910967
0.45628095 -0.075063229 0.4752017 4283910969
0.45572433 -0.07470715 0.47530997 4283648567
0.45516676 -0.074350759 0.47541821 4283253811
0.45460814 -0.07399407 0.47552645 4283516983
0.45401698 -0.073715866 0.47558153 4283319352
0.45345667 -0.07335861 0.47568983 4283714110
0.45286426 -0.073080033 0.47574487 4283977280
0.45230222 -0.072722211 0.47585315 4283976762
0.45173922 -0.072364092 0.47596142 4284239934
0.45117521 -0.072005644 0.47606969 4283910967
0.45061022 -0.071646884 0.47617799 4283910967
0.45001435 -0.071367219 0.47623307 4283976247
0.44944763 -0.071007907 0.47634134 4283778868
0.44887993 -0.070648283 0.47644964 4283976247
0.44831121 -0.07028833 0.47655794 4283910708
0.44771263 -0.070007771 0.47661299 4283844915
0.44714221 -0.069647282 0.47672132 4283713327
0.44654241 -0.069366321 0.47677642 4283647534
0.44597027 -0.069005266 0.47688472 4283713329
0.44536921 -0.068723917 0.4769398 4283778352
0.44476765 -0.068442419 0.47699487 4283974702
0.44419307 -0.068080574 0.47710317 4283843116
0.44361746 -0.067718416 0.47721151 4283580710
0.44301394 -0.067436263 0.47726661 4283449385
0.44240993 -0.067153975 0.47732168 4283384877
0.44183183 -0.066791028 0.47743002 4283319084
0.44127899 -0.066347227 0.47759157 4283384877
0.44067276 -0.066064194 0.47764668 4283187498
0.44009173 -0.065700293 0.47775501 4283187496
0.43950969 -0.065336123 0.47786331 4282990371
0.43890148 -0.065052465 0.47791845 4282463273
0.4382928 -0.064768672 0.47797355 4280884241
0.43768361 -0.064484701 0.47802866 4279570959
0.43704945 -0.064281702 0.47803056 4279046933
0.43641531 -0.064078704 0.47803244 4279243542
0.43578118 -0.063875705 0.47803432 4279177749
0.43514702 -0.063672692 0.4780362 4278850837
0.43453634 -0.063388273 0.4780913 4278850585
0.43392518 -0.063103676 0.47814643 4278850333
0.43331352 -0.06281893 0.47820154 4278916378
0.43272412 -0.062452346 0.4783099 4278850585
0.4321337 -0.06208545 0.47841823 4278719512
0.43154231 -0.06171824 0.47852662 4278785307
0.43097192 -0.061268821 0.47868824 4278850837
0.43037829 -0.060900897 0.4787966 4278981399
0.42980519 -0.060450613 0.47895819 4279047192
0.4292306 -0.059999824 0.47911984 4279047446
0.42865455 -0.059548587 0.47928143 4278851350
0.42805624 -0.059179172 0.47938985 4278785303
0.42749798 -0.058644667 0.47960469 4278719510
0.42691746 -0.058192 0.47976634 4278785055
0.42633545 -0.05773887 0.47992796 4278850583
0.42575201 -0.057285249 0.4800896 4278784540
0.42516705 -0.056831151 0.48025125 4278916126
0.4245806 -0.056376591 0.4804129 4278719510
0.42397368 -0.056004405 0.48052132 4278915858
0.42336574 -0.055631906 0.48062974 4278850065
0.42275685 -0.055259094 0.48073816 4278915860
0.42214695 -0.054885954 0.48084658 4278981653
0.42153603 -0.054512501 0.48095497 4278981138
0.42088857 -0.054305241 0.48095691 4278981140
0.4203113 -0.053764656 0.48117185 4279046679
0.41971475 -0.053306878 0.48133349 4278980886
0.41913378 -0.052765101 0.48154846 4278980886
0.41853404 -0.05230628 0.48171014 4278915606
0.41794938 -0.051763326 0.4819251 4278784540
0.41734639 -0.051303476 0.48208678 4278784792
0.41675803 -0.050759345 0.48230177 4278784792
0.41615185 -0.050298482 0.48246348 4278915608
0.41555977 -0.049753159 0.48267844 4278849813
0.4149504 -0.049291253 0.48284015 4278718229
0.41435462 -0.048744753 0.48305514 4278849815
0.41374204 -0.048281819 0.48321688 4278915606
0.41312799 -0.047818393 0.48337862 4278784792
0.41251242 -0.047354519 0.48354036 4278719764
0.41189539 -0.046890169 0.48370206 4278653971
0.41127691 -0.046425313 0.48386383 4278522385
0.4106569 -0.045960024 0.4840256 4278522385
0.41003543 -0.045494258 0.48418733 4278719510
0.40939939 -0.045112744 0.48429585 4278784790
0.40876234 -0.044730917 0.48440433 4278718997
0.4081369 -0.044263884 0.48456609 4278850067
0.40748531 -0.043966323 0.48462135 4278719249
0.4068453 -0.043583557 0.48472983 4278785042
0.40618056 -0.043370754 0.48473182 4278915345
0.40553907 -0.042987511 0.48484033 4278915345
0.40487382 -0.042774558 0.4848423 4278915856
0.40421972 -0.042476237 0.48489755 4278850063
0.40356514 -0.042177722 0.48495281 4278915856
0.40292069 -0.04179357 0.48506129 4278915856
0.40227526 -0.04140906 0.48516983 4278915856
0.40161869 -0.041109905 0.48522508 4278783757
0.40098143 -0.040639088 0.48538688 4278915343
0.4003427 -0.040167779 0.48554868 4278915856
0.39970246 -0.039695993 0.4857105 4278850063
0.39906076 -0.039223731 0.48587233 4279112722
0.3984265 -0.038664907 0.48608741 4282729775
0.39779893 -0.038019285 0.48635578 4281807127
0.39715204 -0.037545383 0.48651761 4280426768
0.39651185 -0.036984667 0.48673272 4280426768
0.39586174 -0.036509722 0.48689458 4281347620
0.39521787 -0.035947815 0.48710972 4282990901
0.39457199 -0.035385281 0.48732483 4281805091
0.39393133 -0.034735471 0.48759326 4280226059
0.39328128 -0.034171581 0.48780841 4279504400
0.39263594 -0.033520281 0.48807687 4281545268
0.39198169 -0.032955065 0.48829201 4281743150
0.39133164 -0.032302245 0.48856044 4281743150
0.39067915 -0.031648651 0.4888289 4282071082
0.39002991 -0.030907124 0.48915064 4282399529
0.3893722 -0.030251876 0.48941913 4282267428
0.38870686 -0.029683098 0.48963434 4282727465
0.38804448 -0.029026344 0.48990279 4282661672
0.38737023 -0.028543651 0.49006474 4282793258
0.38669446 -0.028060496 0.49022663 4282859565
0.38602144 -0.02748926 0.49044186 4282925358
0.38534647 -0.026917428 0.49065706 4283122737
0.38466579 -0.026432663 0.49081901 4283253807
0.38398361 -0.025947481 0.49098092 4283187498
0.38329995 -0.025461793 0.49114287 4282990117
0.38261482 -0.024975628 0.49130481 4283384875
0.38192546 -0.024577051 0.49141347 4283517233
0.38123512 -0.024178162 0.49152213 4283319604
0.38054606 -0.023690745 0.49168408 4283319604
0.37984949 -0.023467764 0.49168617 4283319602
0.37915993 -0.022891238 0.4919014 4283253809
0.37846389 -0.022579491 0.49195677 4283122225
0.37776607 -0.022356093 0.49195886 4284570444
0.37707236 -0.021778226 0.49217412 4285624432
0.47105473 -0.080228299 0.47566658 4286543191
0.47039545 -0.08010605 0.47561502 4286608986
0.46977463 -0.079907313 0.47561687 4286346330
0.46911606 -0.079785302 0.47556531 4286280537
0.46842051 -0.079740226 0.47546029 4285819986
0.46776316 -0.079618633 0.47540873 4285818703
0.46710634 -0.079497159 0.47535715 4285884498
0.46637648 -0.079529956 0.47519875 4285818453
0.46568459 -0.079486102 0.47509372 4285621074
0.46503001 -0.079365328 0.47504213 4285488203
0.46441188 -0.079167455 0.47504395 4285356871
0.46375802 -0.07904695 0.47499239 4285422410
0.46310464 -0.078926593 0.47494081 4284962626
0.46245176 -0.0788064 0.47488922 4284633661
0.46186942 -0.078531176 0.47494447 4284042294
0.4612518 -0.078333467 0.47494629 4283779383
0.46066874 -0.078058004 0.47500154 4283713590
0.46008515 -0.077782393 0.4750568 4284173628
0.45950109 -0.077506632 0.47511205 4283910456
0.45891654 -0.077230677 0.47516733 4284239421
0.45839858 -0.076798469 0.47532943 4284173630
0.45784587 -0.076443911 0.47543812 4283976764
0.45729214 -0.076089025 0.47554684 4284174141
0.45673743 -0.07573384 0.47565556 4283910969
0.45614916 -0.075456724 0.47571081 4283910969
0.45562506 -0.075022504 0.47587293 4283779383
0.4550353 -0.074744925 0.47592822 4283450418
0.45447689 -0.074388549 0.47603694 4283647797
0.4539175 -0.07403186 0.47614563 4283253811
0.45332578 -0.073753625 0.47620094 4283516729
0.45276466 -0.073396385 0.47630966 4283648315
0.45217171 -0.073117763 0.47636494 4283976247
0.45160887 -0.072759956 0.47647366 4284305212
0.45104504 -0.072401881 0.47658238 4283911221
0.45048022 -0.072043449 0.47669113 4283976760
0.44988453 -0.071763933 0.47674644 4283845174
0.44931799 -0.071404949 0.47685516 4283779381
0.44875047 -0.071045652 0.47696388 4283976247
0.44818193 -0.070686072 0.47707263 4283976501
0.4476124 -0.070326149 0.47718138 4283844915
0.44701332 -0.070045531 0.47723669 4283713329
0.44644207 -0.069685057 0.47734541 4283713329
0.4458417 -0.069404066 0.47740072 4283779122
0.44526875 -0.06904304 0.4775095 4283778352
0.44466716 -0.068761662 0.47756478 4284040495
0.44409245 -0.06840007 0.47767353 4283974702
0.44348964 -0.068118274 0.47772887 4283580196
0.44291323 -0.067756131 0.47783762 4283514665
0.44230917 -0.067473963 0.47789294 4283515948
0.44173104 -0.067111269 0.47800171 4283384875
0.44115189 -0.066748261 0.47811049 4283384875
0.44057178 -0.066384941 0.47821927 4283384875
0.43999067 -0.066021293 0.47832805 4283187496
0.43938315 -0.065738037 0.47838336 4283187750
0.43880031 -0.065373838 0.47849217 4282660904
0.43819159 -0.065090165 0.47854751 4282068767
0.4375577 -0.064887241 0.47854936 4279898893
0.43694821 -0.064603314 0.47860473 4279243542
0.43631405 -0.064400315 0.47860658 4279112472
0.43565598 -0.064278468 0.47855502 4279112472
0.43504578 -0.063994318 0.47861037 4278850835
0.43443507 -0.063710019 0.47866568 4278850583
0.43380067 -0.063506931 0.47866756 4278850587
0.43318921 -0.063222378 0.47872293 4279047194
0.43257728 -0.062937677 0.47877824 4278981401
0.43200973 -0.062489584 0.47894052 4278719512
0.43141848 -0.062122703 0.47904932 4278785305
0.43082628 -0.061755493 0.47915813 4278850837
