# .PCD v0.7 - Point Cloud Data file format
VERSION 0.7
FIELDS x y z rgb
SIZE 4 4 4 4
TYPE F F F U
COUNT 1 1 1 1
WIDTH 1068
HEIGHT 1
VIEWPOINT 0 0 0 1 0 0 0
POINTS 1068
DATA ascii
0.42483181 0.049974695 0.54473352 4284766782
0.42536965 0.050150454 0.54473948 4283977012
0.42590746 0.050326228 0.54474533 4284634942
0.42652518 0.05034256 0.54465699 4284240186
0.4271037 0.050438851 0.54461575 4284240186
0.42772317 0.050455734 0.54452735 4284240186
0.42834362 0.05047296 0.54443902 4284438335
0.42896506 0.050490484 0.54435068 4284569921
0.42958748 0.050508365 0.54426235 4284307263
0.43025231 0.0504473 0.54412687 4284570435
0.4309603 0.050307587 0.54394436 4284504642
0.43167028 0.050168499 0.54376179 4284504642
0.43238223 0.050030038 0.54357928 4284504642
0.43313855 0.04981336 0.54334968 4285096525
0.4339827 0.049439788 0.54302585 4285359697
0.43478739 0.049146071 0.54274917 4285688662
0.43559498 0.048853368 0.54247254 4285425744
0.43649238 0.04840441 0.54210174 4285359951
0.43739372 0.047956765 0.541731 4285096779
0.4382112 0.04766728 0.54145443 4285491537
0.43903163 0.047378719 0.54117799 4285425490
0.43985501 0.047091156 0.54090148 4285096011
0.44068134 0.046804562 0.5406251 4285030218
0.44155553 0.04644081 0.54030162 4285358413
0.44234291 0.046234235 0.54007232 4286016347
0.44326887 0.045794636 0.53970182 4286543457
0.44415313 0.045434192 0.53937846 4286280285
0.44504088 0.045074865 0.53905511 4287268196
0.44588593 0.044794351 0.5387789 4287004762
0.44678029 0.044437215 0.53845567 4286741590
0.44777134 0.043926105 0.53803825 4286346832
0.44857937 0.04372631 0.53780925 4285490503
0.4495312 0.043295145 0.53743899 4285290562
0.450629 0.04263337 0.53692764 4285159492
0.45168465 0.042050585 0.53646344 4285291078
0.45269734 0.041546553 0.53604627 4285357382
0.45419538 0.040273339 0.53515863 4285291843
0.45517108 0.039849997 0.53478873 4285291843
0.45615071 0.039427936 0.53441882 4285094464
0.45713431 0.039007172 0.53404891 4285226050
0.45797461 0.038817897 0.53382027 4284567355
0.45891601 0.03847611 0.53349751 4284567355
0.45971218 0.038365215 0.5333159 4284567355
0.46060994 0.038101926 0.53304029 4283250739
0.46141052 0.037992463 0.53285873 4280815886
0.46226341 0.037807301 0.53263015 4280486921
0.46306819 0.037699208 0.53244865 4280552712
0.46392572 0.037515566 0.53222018 4280423177
0.46478572 0.037332758 0.53199172 4280292620
0.46575078 0.036998719 0.5316692 4280358413
0.4667708 0.036589846 0.53129977 4280557591
0.46789834 0.036030561 0.53083628 4281084450
0.46892673 0.03562443 0.53046691 4280557852
0.47001135 0.035143897 0.53005058 4280821024
0.47110042 0.034664825 0.5296343 4279702545
0.4721939 0.034187183 0.52921808 4283648581
0.47313279 0.03393735 0.52894288 4283912262
0.47396809 0.033839226 0.52876168 4283649090
0.47480536 0.033741757 0.52858055 4281674789
0.47564462 0.03364493 0.52839947 4281147428
0.47659385 0.033398479 0.52812433 4280557601
0.47760028 0.03307794 0.52780235 4280557601
0.47850114 0.032908484 0.5275743 4280624164
0.38440078 -0.033967957 0.5088799 4284710517
0.38510963 -0.03364338 0.50893509 4284512877
0.38583386 -0.03340669 0.50894302 4284510045
0.38652587 -0.032994673 0.50904536 4284836698
0.38720053 -0.032495454 0.50919485 4284639317
0.38785711 -0.031909212 0.50939143 4284770903
0.38851172 -0.031323597 0.50958806 4285099868
0.38914725 -0.030651346 0.50983185 4285230684
0.38978034 -0.02997987 0.51007557 4284967512
0.39041096 -0.029309198 0.51031929 4284835669
0.39107478 -0.028813496 0.51046866 4284901462
0.39168286 -0.028057292 0.51075947 4284638290
0.40083209 0.0059664398 0.52667773 4286675561
0.40136799 0.0065132529 0.52687305 4290227601
0.40190196 0.0070594102 0.52706838 4283313686
0.40238446 0.0077745765 0.52735776 4284297226
0.40293893 0.0082345605 0.52750593 4293384357
0.40341628 0.008948043 0.52779531 4287594583
0.40381426 0.0099143386 0.5282259 4280752128
0.40423352 0.010794684 0.5286094 4281741863
0.40464884 0.011673734 0.52899283 4281745206
0.4050864 0.012467161 0.52932918 4280494628
0.40549409 0.013343707 0.5297125 4279899411
0.40597793 0.013966411 0.52995461 4279832335
0.40643239 0.014672413 0.53024375 4279963921
0.40688387 0.015377462 0.53053284 4280359192
0.40733239 0.016081542 0.53082192 4282794035
0.40777797 0.016784638 0.53111094 4283124272
0.40827644 0.017319202 0.53130585 4283848506
0.40874478 0.017936856 0.53154778 4284177989
0.40923905 0.018470049 0.53174263 4284112196
0.40970272 0.019086152 0.53198457 4284375370
0.41022176 0.019534543 0.53213233 4284243784
0.4107393 0.019982427 0.53228009 4284638544
0.41116714 0.020679742 0.53256893 4284572751
0.41378501 0.031477198 0.53766501 4285099091
0.41416878 0.032160118 0.53795338 4285099091
0.41570738 0.034800008 0.53905952 4285098325
0.41683728 0.039815009 0.54143989 4284768843
0.41715223 0.040568367 0.54177487 4285032015
0.4175334 0.041157499 0.54201579 4285163601
0.41794717 0.041664392 0.5422098 4284769356
0.41832364 0.042252004 0.54245073 4284966737
0.4186621 0.042920098 0.54273856 4284966737
0.41899759 0.043587252 0.54302645 4284966737
0.41933012 0.044253409 0.54331422 4284966737
0.41965973 0.044918612 0.54360199 4284768073
0.4200229 0.045501888 0.54384279 4283518006
0.42038363 0.046084344 0.54408354 4284637257
0.42077893 0.046585202 0.54427731 4284308292
0.42120954 0.047004685 0.54442412 4283847223
0.42160115 0.047504321 0.54461783 4283779883
0.42199081 0.048003316 0.54481155 4284371761
0.42249256 0.048260212 0.54486442 4284306481
0.42291725 0.048677772 0.54501116 4284569401
0.42337903 0.049014524 0.54511094 4284569401
0.42383981 0.049350917 0.54521072 4284306999
0.42437762 0.049526691 0.54521662 4284570171
0.42491543 0.049702451 0.54522252 4284569401
0.42545325 0.049878225 0.54522842 4284240438
0.42599106 0.050053984 0.54523432 4284372024
0.42652887 0.050229758 0.54524022 4284766528
0.42714718 0.050246015 0.54515231 4284569149
0.42776647 0.05026257 0.54506433 4284634942
0.42838675 0.050279438 0.54497647 4284174391
0.42900801 0.050296649 0.54488856 4284634942
0.4296715 0.05023475 0.54475379 4284175163
0.43033645 0.050173312 0.54461896 4284240702
0.43104461 0.050033107 0.54443729 4284569921
0.4317967 0.049814314 0.54420877 4284504128
0.43246683 0.049754575 0.54407406 4284569921
0.43330827 0.049379155 0.54375178 4285951834
0.43411046 0.049083844 0.5434764 4285359697
0.43495858 0.048710614 0.54315424 4285359697
0.43581012 0.048338518 0.54283202 4285754455
0.43670857 0.047888815 0.54246306 4285491537
0.43756723 0.047519043 0.54214096 4285425744
0.43842939 0.047150388 0.54181892 4284899146
0.43929496 0.046782881 0.54149687 4285030732
0.44011956 0.046494871 0.5412218 4284899146
0.44094712 0.04620783 0.54094672 4285359697
0.44182256 0.045843557 0.5406248 4285820502
0.44270143 0.045480385 0.54030293 4286215258
0.44349295 0.045274466 0.54007483 4287004260
0.4443782 0.044913381 0.53975302 4287333225
0.44522104 0.044631347 0.53947812 4287070819
0.4460668 0.044350252 0.53920323 4287070817
0.44696194 0.043992385 0.53888154 4286478418
0.44786054 0.043635681 0.53855991 4285820488
0.44871566 0.043357655 0.53828514 4285686597
0.4496209 0.043003082 0.53796357 4285159492
0.45071912 0.042339936 0.53745466 4285357134
0.45177513 0.041755915 0.53699267 4285291341
0.45288396 0.041096225 0.53648388 4285093960
0.45452756 0.039589241 0.53546005 4284765245
0.4555048 0.039165318 0.53509188 4284896831
0.45648599 0.038742647 0.53472376 4285094464
0.45751998 0.038244337 0.53430891 4284765247
0.45841107 0.037978068 0.53403449 4284370489
0.4591077 0.038019896 0.53394747 4284370489
0.45995408 0.037831947 0.53371996 4280816902
0.46075311 0.03772141 0.5335393 4280619284
0.46160421 0.037534982 0.53331184 4280225548
0.46235707 0.037502289 0.53317797 4280159755
0.46321261 0.037317321 0.53295058 4280029452
0.46391809 0.037362054 0.53286362 4280031249
0.46487993 0.037026003 0.53254265 4280624669
0.46589658 0.036614925 0.53217494 4280493083
0.46691716 0.036205158 0.5318073 4280821278
0.4679935 0.035720691 0.53139287 4280623899
0.47010717 0.034831896 0.53061098 4280887071
0.47124913 0.034275949 0.53014988 4280097301
0.47223762 0.0339486 0.52982926 4280620052
0.47317645 0.033697948 0.52955538 4284633940
0.47401166 0.033599243 0.52937514 4281870634
0.47484887 0.033501193 0.52919483 4281015842
0.47568804 0.033403784 0.52901465 4280818977
0.47669128 0.033081248 0.52869415 4280820262
0.47769797 0.032759845 0.52837366 4280886055
0.38528487 -0.034361705 0.50940561 4283921001
0.38597825 -0.033949003 0.50950754 4284312930
0.38668683 -0.033624366 0.50956243 4284837468
0.38734573 -0.033036813 0.50975823 4284639317
0.38801929 -0.032537535 0.50990701 4284705110
0.38865757 -0.031863645 0.51014972 4285230684
0.3892763 -0.031103149 0.51043928 4285296474
0.38989204 -0.030343607 0.51072884 4285099095
0.39055771 -0.029846892 0.51087755 4284835923
0.39120406 -0.029263452 0.51107323 4284703313
0.39181215 -0.028506383 0.51136267 4284834899
0.40149051 0.006108284 0.52740067 4291739303
0.40202454 0.0066550225 0.52759504 4286342730
0.40253183 0.0072860867 0.52783632 4286666541
0.40306169 0.0078314394 0.52803063 4290619766
0.40353906 0.0085457712 0.5283187 4289503347
0.40396243 0.0094285458 0.52870041 4281345024
0.40435612 0.010394678 0.52912897 4281214749
0.40477136 0.011274815 0.52951062 4282009414
0.40518269 0.012153655 0.52989221 4281615688
0.40559006 0.013031214 0.53027374 4281152568
0.40607372 0.01365453 0.53051472 4279965466
0.40652794 0.014361292 0.53080255 4279439122
0.40697917 0.015067086 0.53109032 4279635986
0.40745494 0.015687838 0.53133118 4279703062
0.40790054 0.016391784 0.53161889 4280295700
0.40839911 0.016926929 0.53181291 4282533416
0.40892392 0.0173776 0.53196007 4283717947
0.40939036 0.017995298 0.53220087 4283981119
0.40985432 0.018612176 0.53244162 4283651902
0.41034478 0.019144684 0.53263557 4284243782
0.41086245 0.019593015 0.53278267 4284112200
0.41134921 0.020124316 0.53297651 4284834901
0.41727316 0.040205538 0.54223293 4285098323
0.4176544 0.040795371 0.54247278 4284703565
0.41803312 0.041384429 0.54271263 4285098323
0.41844478 0.041891158 0.54290569 4285032530
0.41878325 0.042560101 0.54319221 4285032530
0.41908291 0.043309405 0.54352546 4285229911
0.41941524 0.043976322 0.54381192 4285098325
0.41974461 0.044642255 0.54409832 4285163603
0.42010757 0.045226157 0.54433799 4284833866
0.42046809 0.045809254 0.5445776 4284242753
0.42086327 0.046310604 0.54477048 4284769097
0.42121911 0.046892151 0.54501009 4283978550
0.42164764 0.047311381 0.54515618 4283911471
0.42203689 0.047810778 0.545349 4284305714
0.42250028 0.048148334 0.54544836 4284569653
0.42300102 0.048405036 0.54550099 4284635446
0.42342415 0.048822477 0.54564703 4284767032
0.4239234 0.049078688 0.54569966 4285359687
0.42442217 0.049334735 0.54575229 4284109622
0.42492044 0.049590632 0.54580486 4284175413
0.42545778 0.049766243 0.54581076 4284175413
0.42603487 0.049861789 0.54576993 4284438585
0.4266125 0.049957514 0.54572916 4284570173
0.42719057 0.050053403 0.54568839 4284504126
0.42780972 0.050069645 0.54560089 4284306747
0.42842981 0.050086185 0.54551345 4283385129
0.42905092 0.050103068 0.54542595 4283977266
0.42971426 0.050040707 0.54529184 4284898114
0.43042058 0.04989934 0.54511106 4284897862
0.43112889 0.049758628 0.54493028 4285688402
0.43183917 0.049618542 0.54474956 4285096265
0.43259367 0.049399868 0.54452217 4284767300
0.43343565 0.049023658 0.54420143 4285030732
0.43428105 0.048648581 0.54388076 4284964939
0.43512994 0.048274651 0.54356015 4285293904
0.43598223 0.047901824 0.54323953 4285688662
0.43692493 0.04737246 0.5428257 4285490769
0.43778464 0.047002047 0.54250515 4285359183
0.43860382 0.046711445 0.54223132 4284635460
0.4395144 0.046264619 0.54186422 4284899146
0.44033995 0.045976117 0.54159051 4285096525
0.44116849 0.045688584 0.54131675 4285425490
0.44204491 0.04532364 0.54099643 4286149467
0.44287959 0.045038119 0.54072279 4286281051
0.44380814 0.044597164 0.54035592 4287070821
0.44464922 0.044313744 0.54008234 4287136614
0.44544733 0.0441093 0.53985536 4287070817
0.44629407 0.043827713 0.53958189 4287070817
0.4470973 0.043624967 0.53935498 4286082892
0.44794971 0.043345243 0.53908157 4285753927
0.44880509 0.043066472 0.53880811 4285555781
0.4496634 0.042788669 0.5385347 4285028419
0.45095152 0.041813865 0.53784186 4285093960
0.45593575 0.038324907 0.53530407 4284764993
0.45701626 0.037747517 0.53484458 4284633661
0.45780832 0.037634149 0.53466475 4284633661
0.45855317 0.037598416 0.53453147 4284173110
0.45925009 0.037640095 0.53444487 4283449387
0.46014661 0.037374765 0.53417194 4280423175
0.46089637 0.037340656 0.53403872 4280488720
0.46164763 0.037307024 0.53390557 4280357647
0.46245074 0.037197262 0.53372586 4279897096
0.46320522 0.037164703 0.5335927 4280162065
0.46406287 0.036979735 0.53336644 4280097555
0.47134534 0.033962712 0.53071249 4280426266
0.47243977 0.033482909 0.53030032 4280752923
0.47327316 0.033383086 0.53012091 4279700749
0.47400185 0.033435121 0.53003466 4280358679
0.38544467 -0.034992978 0.50992477 4284842877
0.38612282 -0.034491792 0.51007295 4284312932
0.38681564 -0.034078971 0.51017439 4284508251
0.3875075 -0.033666506 0.51027578 4284770903
0.388165 -0.033078834 0.51047063 4284836696
0.38882053 -0.032491878 0.51066548 4284968536
0.38943973 -0.031730369 0.51095378 4285296729
0.39005601 -0.030969813 0.51124197 4285033557
0.39070463 -0.030385092 0.51143676 4284901719
0.3913334 -0.029713616 0.51167822 4284638549
0.39194152 -0.028955773 0.51196635 4284441170
0.40214723 0.0062503815 0.52812219 4292462501
0.40265456 0.0068821311 0.52836233 4291740825
0.40315944 0.007513091 0.52860242 4292466335
0.40363657 0.008228153 0.52888912 4286212932
0.40403411 0.0091967881 0.52931571 4281081088
0.40447879 0.0099944323 0.52964896 4282399025
0.40486795 0.010960326 0.53007543 4282009414
0.40530524 0.011755556 0.53040862 4281682246
0.40571254 0.012634203 0.53078842 4281485637
0.4061695 0.013342664 0.53107488 4281877574
0.40662348 0.014050171 0.53136134 4279443233
0.40710175 0.014672428 0.53160113 4279242518
0.40755007 0.015378088 0.53188753 4279308565
0.40802321 0.015998647 0.53212726 4279243538
0.40852186 0.016534388 0.53232038 4280032782
0.40901858 0.017069474 0.5325135 4282204201
0.40951329 0.017603919 0.53270662 4282664752
0.41000605 0.018137708 0.53289962 4284112707
0.41049683 0.018670857 0.53309268 4284441161
0.41098565 0.019203365 0.53328568 4284441422
0.4114725 0.019735247 0.53347868 4284901721
0.41186818 0.020516887 0.53381139 4284506709
0.41232038 0.021130607 0.53405094 4284638295
0.41700009 0.037756681 0.54170197 4285032782
0.41711369 0.039005294 0.5423131 4284835403
0.41739419 0.039842471 0.54269147 4285098575
0.41774055 0.040514782 0.54297674 4285032269
0.41815427 0.041022778 0.5431689 4285230161
0.41853061 0.041611701 0.54340762 4285229907
0.41886884 0.042281374 0.54369283 4285427286
0.41920412 0.042950094 0.54397798 4285624667
0.41950032 0.04369922 0.54430962 4285031245
0.41979307 0.044447213 0.5446412 4285294156
0.42015564 0.045031667 0.54487973 4285359949
0.42051572 0.045615286 0.54511821 4284636228
0.42091048 0.046117067 0.5453102 4284570435
0.42134061 0.046537191 0.54545569 4284307263
0.42173168 0.047037765 0.54564762 4284569919
0.42215863 0.047456846 0.54579306 4284635966
0.42258409 0.047875479 0.54593843 4284570169
0.42304644 0.04821296 0.54603732 4284701239
0.42346919 0.048630685 0.54618269 4284372274
0.42396817 0.04888694 0.54623508 4284569653
0.42446664 0.049143046 0.54628748 4284767548
0.42496464 0.049398974 0.54633987 4284635962
0.4255017 0.049574509 0.54634571 4284175665
0.4260388 0.04975003 0.54635167 4284504630
0.42661595 0.049845472 0.54631108 4284899388
0.4272339 0.049861059 0.546224 4284767548
0.42785287 0.049876973 0.54613698 4284437817
0.42847279 0.049893185 0.54604995 4283977262
0.42913479 0.04982996 0.5459165 4284569399
0.42975694 0.049846917 0.54582947 4284964929
0.43046317 0.049704984 0.54564959 4285294158
0.4312132 0.049484149 0.54542327 4285030986
0.43196568 0.049264118 0.54519695 4284899400
0.43276292 0.048965529 0.54492426 4285228111
0.43356308 0.048667893 0.54465157 4285688662
0.43445182 0.048212826 0.54428601 4285688916
0.43534446 0.047759041 0.54392052 4285425744
0.43624103 0.047306553 0.54355502 4285294158
0.4371416 0.04685533 0.54318964 4285359951
0.43800229 0.046484321 0.5428707 4285096779
0.43886644 0.046114415 0.54255182 4285359951
0.43968976 0.045824334 0.54227936 4285425492
0.44056058 0.045456603 0.54196054 4286281312
0.4414348 0.045090005 0.54164177 4286544484
0.44226751 0.044803008 0.54136944 4286413922
0.44403273 0.044075251 0.54073203 4287136614
0.44482905 0.04386957 0.54050618 4287136614
0.44567382 0.043586493 0.54023397 4286938201
0.4464753 0.043382496 0.54000825 4287003481
0.44727921 0.043179289 0.53978252 4285358404
0.44808567 0.042976886 0.5395568 4285161025
0.44894147 0.042697459 0.53928471 4284437813
0.4556269 0.037520394 0.53565204 4285029700
0.45651257 0.037250698 0.5353803 4285095245
0.45730376 0.03713651 0.53520131 4284766280
0.45799905 0.037177369 0.53511512 4284371007
0.45869535 0.037218541 0.53502893 4284699972
0.45949143 0.037105978 0.53485 4281081355
0.46023989 0.03707099 0.5347175 4279963657
0.46103969 0.036959633 0.53453863 4279832333
0.46179134 0.036925703 0.53440613 4279504651
0.46249402 0.036968961 0.53432 4280096788
0.46329898 0.036859304 0.53414118 4280360475
0.46410596 0.036750272 0.53396243 4280295452
0.47138891 0.033725455 0.53132147 4280625444
0.38629949 -0.03521131 0.51054621 4284313702
0.38696077 -0.034621879 0.51074022 4284639837
0.38765302 -0.034208968 0.51084119 4284968282
0.38831088 -0.03362067 0.51103514 4285099868
0.38896674 -0.033033028 0.5112291 4284902743
0.38958621 -0.032270625 0.51151603 4284967764
0.39020273 -0.031509146 0.51180291 4284441163
0.39085171 -0.030923739 0.51199681 4284901721
0.3914628 -0.030164078 0.51228362 4284770135
0.40229458 0.0057602078 0.52860343 4290683526
0.40277737 0.0064779669 0.52888882 4292529573
0.40328231 0.0071096122 0.52912784 4292860839
0.40373412 0.0079105496 0.5294596 4283975466
0.40413129 0.0088803023 0.52988416 4281870090
0.4045499 0.0097637028 0.53026223 4282202164
0.40493846 0.010730624 0.53068668 4281944651
0.4053489 0.011611387 0.53106475 4281683275
0.40578198 0.012406215 0.53139627 4281354564
0.40623847 0.013115361 0.53168142 4281419590
0.40669197 0.013823539 0.53196651 4281156418
0.40716982 0.014446333 0.53220522 4278718997
0.4076452 0.015068322 0.53244388 4279242770
0.40811813 0.015689522 0.53268254 4278915345
0.40861666 0.016225755 0.5328747 4279506193
0.4091132 0.016761333 0.53306693 4281742628
0.40960777 0.017296284 0.53325915 4282334765
0.41010037 0.017830566 0.53345126 4283257398
0.41056198 0.01844807 0.5336898 4284112455
0.41105041 0.018980995 0.5338819 4284047180
0.41156638 0.019429609 0.53402764 4284376147
0.41199157 0.020128518 0.53431243 4284441940
0.41244382 0.020742953 0.53455085 4284310354
0.41289359 0.021356583 0.5347892 4284441940
0.41800144 0.039824694 0.54324919 4285163335
0.41841623 0.040333539 0.54344046 4285164366
0.41875818 0.041005269 0.54372436 4285032530
0.41909719 0.041676015 0.5440082 4285032530
0.42002359 0.043845311 0.54495215 4285425478
0.42035025 0.044512019 0.54523587 4285490755
0.42071092 0.045096517 0.54547328 4284964931
0.42106909 0.045680225 0.54571062 4284767552
0.42146221 0.046181992 0.54590172 4284569667
0.42181569 0.046764165 0.546139 4284570181
0.42224252 0.047183618 0.54628378 4284636226
0.42266789 0.047602624 0.5464285 4284635964
0.42313015 0.047940359 0.54652697 4284437815
0.42355281 0.048358455 0.54667163 4284437815
0.42401284 0.04869546 0.5467701 4284700987
0.42451105 0.048951596 0.54682225 4284767030
0.42504811 0.049127117 0.54682815 4284635698
0.42558521 0.049302652 0.54683399 4284701491
0.42612228 0.049478173 0.54683989 4284438319
0.42669946 0.049573481 0.54679954 4284702007
0.42727715 0.049668953 0.54675925 4284635962
0.42789593 0.049684539 0.54667264 4284569403
0.42855656 0.049620464 0.54653978 4284372024
0.42917755 0.049636737 0.54645324 4284635196
0.42975819 0.049733192 0.54641294 4284636476
0.43050569 0.049510852 0.5461877 4284965704
0.43125564 0.049289301 0.54596245 4284965706
0.43200809 0.049068585 0.54573727 4285031499
0.4328053 0.048769176 0.54546595 4285293904
0.43373317 0.048232481 0.54505593 4285688916
0.43457988 0.047855899 0.54473835 4285688654
0.43547308 0.047401205 0.54437464 4285096517
0.43735844 0.046337485 0.54355496 4285557582
0.43826395 0.0458868 0.54319137 4285491789
0.4390853 0.045595288 0.54292029 4286084437
0.43999821 0.045147032 0.54255676 4286084185
0.44082594 0.044857591 0.54228574 4286545506
0.44165665 0.044569105 0.54201472 4286216541
0.44346279 0.043759495 0.54133421 4286611299
0.4443031 0.043474153 0.54106331 4287070305
0.44510061 0.043268144 0.5408386 4287267684
0.44590053 0.04306297 0.54061395 4286938201
0.44670296 0.042858556 0.5403893 4286608723
0.44750783 0.042654976 0.54016471 4285292609
0.44826841 0.042530239 0.53998631 4285424195
0.45591235 0.036908984 0.5360083 4284766528
0.45675075 0.036716357 0.53578407 4284897360
0.45744535 0.036756709 0.53569829 4284438347
0.45814097 0.036797389 0.53561252 4284305475
0.4588868 0.036761165 0.53548068 4281805341
0.4596341 0.036725417 0.53534877 4280423690
0.46043259 0.036613062 0.53517079 4279569427
0.46113312 0.036655366 0.53508514 4279569945
0.46183467 0.036697984 0.53499943 4279833878
0.46258762 0.036664084 0.53486764 4280426015
0.46339279 0.036553919 0.53468972 4281084198
0.38639635 -0.035490647 0.5112527 4284642919
0.38715482 -0.035429701 0.51116812 4284902491
0.38779873 -0.034751967 0.51140749 4284967512
0.38845688 -0.034162983 0.51160061 4285033305
0.38909608 -0.033486769 0.51183993 4284836176
0.38973284 -0.032811359 0.51207924 4284901712
0.39036712 -0.032136753 0.51231849 4284835919
0.3909812 -0.031375274 0.512604 4284967509
0.40292513 0.0059881955 0.52936959 4282064654
0.40338013 0.0067911297 0.5296998 4283054368
0.40385705 0.0075077713 0.52998382 4282202668
0.40425414 0.008478716 0.53040636 4281807910
0.40462089 0.0095332265 0.53087509 4281678649
0.40500888 0.010501206 0.5312975 4281813580
0.40544516 0.011298031 0.53162754 4281683793
0.40582475 0.012263253 0.53204989 4281880654
0.40630734 0.012888283 0.53228754 4281420357
0.40678746 0.013512537 0.53252512 4281354564
0.4072378 0.014220476 0.53280884 4281090875
0.40771273 0.014843032 0.53304636 4278916626
0.40821308 0.015380383 0.5332377 4278915856
0.40871143 0.015917122 0.53342909 4279243021
0.40920782 0.016453207 0.53362036 4280624669
0.40970224 0.01698865 0.53381163 4280887841
0.41016588 0.01760748 0.53404903 4282730041
0.41062704 0.018225521 0.53428644 4282994492
0.41111505 0.018758863 0.53447765 4283850055
0.41160113 0.01929158 0.53466886 4284179020
0.41205537 0.019907355 0.53490615 4284376399
0.41250718 0.020522326 0.53514344 4284310606
0.41292623 0.021220058 0.53542686 4284179020
0.41334233 0.021916822 0.53571022 4284506958
0.42115346 0.045405492 0.54620409 4284964931
0.42158386 0.045826524 0.54634815 4284372802
0.42189974 0.046490565 0.54663044 4284044354
0.42236438 0.046829328 0.54672849 4284307011
0.42275167 0.047329769 0.54691857 4284307522
0.42321387 0.047667742 0.54701656 4284109884
0.42363641 0.048086211 0.54716063 4284175677
0.42409638 0.048423469 0.54725862 4284504126
0.42459452 0.048679739 0.54731053 4284635698
0.42513162 0.04885526 0.54731643 4284569903
0.42566869 0.049030781 0.54732227 4284635444
0.42620575 0.049206316 0.54732817 4284701237
0.42674285 0.049381837 0.54733407 4284570169
0.42736071 0.049396843 0.54724795 4284438587
0.42797959 0.049412176 0.54716182 4284438333
0.42864031 0.049347728 0.54702967 4284767550
0.42922026 0.049443796 0.54698956 4284701757
0.42988345 0.049380139 0.54685742 4285031234
0.43058974 0.049237117 0.54667932 4285097029
0.43129802 0.049094737 0.54650122 4284965193
0.43209252 0.048793614 0.54623115 4284899400
0.43288997 0.048493445 0.54596114 4285491789
0.43386084 0.047876105 0.54550713 4285557318
0.43479377 0.047339827 0.5450992 4285425732
0.43577421 0.046725616 0.54464531 4285359939
0.43671626 0.046192303 0.54423743 4285491275
0.43761912 0.045739681 0.54387563 4286085205
0.43848208 0.045367464 0.54355985 4286085205
0.43934849 0.044996366 0.54324412 4286085457
0.44026268 0.044547424 0.54288244 4286150998
0.44104707 0.044336468 0.54265869 4286414172
0.44192356 0.043968678 0.54234308 4286479965
0.44284862 0.043523267 0.54198152 4286348892
0.44368693 0.043236464 0.54171193 4286742367
0.44448262 0.043029204 0.54148829 4287135580
0.44537243 0.04266575 0.5411728 4287332959
0.44617355 0.042460248 0.54094929 4285884746
0.44697714 0.042255566 0.54072577 4285687371
0.44773665 0.042129904 0.54054826 4285358404
0.44854492 0.041926757 0.54032481 4285424197
0.45512086 0.036879182 0.53681916 4284832062
0.45605329 0.036529645 0.53650415 4284766269
0.45684355 0.036414087 0.53632694 4284568901
0.45758703 0.036376655 0.5361957 4284306507
0.45828298 0.036417171 0.5361104 4281017374
0.45902914 0.036380649 0.53597921 4280227858
0.45972732 0.036421895 0.53589392 4279963659
0.46047622 0.036386237 0.53576279 4279307025
0.46117657 0.036428213 0.53567755 4279504413
0.46192819 0.036393464 0.53554636 4279900700
0.46268126 0.036359176 0.53541523 4280163872
0.46353731 0.03617163 0.53519231 4280690984
0.38787836 -0.034942672 0.51215893 4284967766
0.38858628 -0.034617707 0.51221293 4285033559
0.38924259 -0.034028813 0.5124051 4284836176
0.38987961 -0.033352599 0.51264334 4284836430
0.39046159 -0.032413587 0.51301962 4284836173
0.40350309 0.0063872635 0.53022587 4280883728
0.4039292 0.0072753429 0.53060049 4280952860
0.40432569 0.0082473308 0.531021 4281216032
0.40471774 0.0092178732 0.53144145 4281679166
0.40510538 0.010186955 0.5318619 4281944651
0.40551499 0.011069626 0.53223634 4281814863
0.40592065 0.011951014 0.53261071 4282077522
0.40634924 0.012746289 0.53293908 4281683016
0.40685585 0.013286263 0.53312963 4281617223
0.40730569 0.013994887 0.53341204 4281221693
0.40780783 0.014533401 0.53360248 4279706144
0.408308 0.015071258 0.53379297 4278850065
0.4088062 0.01560849 0.53398341 4279243021
0.4092741 0.016229391 0.53421974 4279769363
0.40979671 0.016681015 0.53436416 4279769363
0.41023129 0.017384633 0.53464639 4282335033
0.41072112 0.017919123 0.53483677 4282928447
0.41120899 0.018452972 0.53502703 4283718469
0.41166529 0.019070104 0.5352633 4284047434
0.41211915 0.019686416 0.53549945 4284441422
0.41260058 0.020218179 0.53568971 4284441422
0.41298908 0.021000341 0.53601766 4284309834
0.41340467 0.021697775 0.53629971 4284507213
0.4137865 0.022477761 0.53662753 4284704333
0.4213123 0.044967905 0.54660583 4285294156
0.4217056 0.045470849 0.54679513 4284439110
0.42209694 0.045973137 0.54698437 4284044354
0.42252427 0.046393603 0.54712778 4284110145
0.42283547 0.047056898 0.54740864 4284110145
0.42333606 0.047314107 0.54746038 4283912251
0.42372 0.047813982 0.54764956 4284175423
0.42421886 0.04807061 0.5477013 4284504378
0.42471722 0.048327088 0.54775298 4284635696
0.4252151 0.048583403 0.54780471 4284438315
0.42575216 0.048758924 0.54781055 4284438067
0.42628926 0.048934445 0.54781646 4284438067
0.42686653 0.049029514 0.54777658 4284569401
0.42744428 0.049124733 0.54773664 4284438587
0.42806321 0.049139813 0.54765099 4284570171
0.42872405 0.049074993 0.54751951 4284834368
0.42934522 0.049090773 0.54743385 4284571196
0.43000877 0.049026847 0.54730237 4285031747
0.43067381 0.048963383 0.547171 4285031749
0.43142414 0.048740596 0.54694802 4284900165
0.43217695 0.048518643 0.54672503 4284768579
0.43301705 0.048137993 0.54641056 4285622861
0.43398854 0.04751946 0.54595882 4285557064
0.43496495 0.046902552 0.54550713 4285425478
0.43603259 0.046128273 0.54496396 4285491785
0.43693256 0.045673579 0.54460388 4285754707
0.43783647 0.045220196 0.54424387 4286216541
0.43870044 0.044847354 0.5439297 4286216541
0.43961197 0.04439646 0.54356974 4286216793
0.44048309 0.044025943 0.54325563 4286347607
0.44126841 0.043814585 0.543033 4286545756
0.44223565 0.043288276 0.54262745 4286611549
0.44311711 0.042921156 0.54231346 4286545756
0.44395664 0.042633936 0.54204518 4286610779
0.44479913 0.04234764 0.54177701 4286544986
0.44569045 0.041983724 0.54146308 4286477396
0.4465391 0.041699484 0.54119492 4285883980
0.44734436 0.041494653 0.54097259 4285423945
0.44805887 0.041447371 0.5408417 4285423945
0.44910276 0.040852517 0.54039073 4285358404
0.45452318 0.036539927 0.53744453 4284898368
0.45530945 0.036422506 0.53726816 4284700476
0.45614597 0.036227867 0.53704613 4284634683
0.45688784 0.036189526 0.53691554 4284173880
0.45763117 0.036151662 0.53678501 4282529584
0.45837599 0.036114275 0.53665447 4280030997
0.4591223 0.03607738 0.53652394 4279767825
0.45982051 0.036118373 0.53643906 4279504905
0.46056956 0.036082342 0.53630859 4279570708
0.46126997 0.036124066 0.53622377 4279768607
0.4619714 0.036166102 0.53613901 4280098849
0.46282542 0.0359772 0.53591716 4280230435
0.38937211 -0.034483179 0.51301706 4285033557
0.4040522 0.0068723112 0.53112519 4280299045
0.4044486 0.0078454912 0.53154367 4280956975
0.4048146 0.008902505 0.53200787 4281550406
0.40517572 0.0099578947 0.53247201 4281944905
0.40558475 0.010841489 0.53284466 4281946188
0.40601653 0.011638761 0.53317153 4282077520
0.40647182 0.012349993 0.53345263 4281748809
0.40695131 0.01297538 0.53368801 4281748809
0.40737349 0.013769522 0.53401476 4281746754
0.40787524 0.014308438 0.5342043 4281286205
0.4083471 0.014931351 0.53443956 4281087795
0.40887284 0.015384391 0.53458345 4279177226
0.40934026 0.016005844 0.53481865 4279177996
0.40986255 0.016457751 0.53496242 4279177996
0.41029665 0.01716204 0.53524327 4279900448
0.41081524 0.01761274 0.53538704 4282467900
0.41124415 0.018315345 0.53566784 4283190076
0.41175905 0.018764839 0.53581154 4283847752
0.41224259 0.019297808 0.53600097 4284375118
0.41272414 0.019830152 0.53619027 4284440911
0.41311258 0.020613268 0.53651667 4284441165
0.41349757 0.021395251 0.53684306 4284573001
0.41391003 0.022092462 0.53712368 4284704587
0.42118675 0.043780655 0.54668325 4285228876
0.42150855 0.044448242 0.54696286 4285228876
0.42186493 0.04503341 0.54719687 4284570948
0.42221886 0.045617744 0.54743087 4283978559
0.42264631 0.046038672 0.54757357 4283846975
0.42299581 0.046621576 0.54780751 4283649596
0.42345834 0.04696022 0.54790461 4283714872
0.42388111 0.047379613 0.5480473 4283912251
0.42434144 0.047717512 0.5481444 4284110132
0.42480075 0.048055112 0.5482415 4284307503
0.42533809 0.048230708 0.5482474 4284307501
0.42583567 0.048487067 0.54829884 4284307249
0.42641273 0.048581928 0.5482592 4284307249
0.42699027 0.048676938 0.5482195 4284569401
0.42756832 0.048772112 0.54817981 4284307001
0.42818758 0.048787042 0.54809457 4284636476
0.42880782 0.048802257 0.54800934 4284900415
0.42947027 0.048737541 0.54787856 4284768829
0.43013418 0.048673302 0.54774779 4285163333
0.4307996 0.048609555 0.54761708 4285031749
0.43150842 0.04846625 0.54744077 4284900165
0.43226141 0.048243657 0.54721892 4284900165
0.43411633 0.047162592 0.54641098 4285622859
0.43517923 0.046385109 0.54587042 4285425480
0.43624806 0.045609564 0.54532993 4285689166
0.43727937 0.044915482 0.54483503 4285754961
0.43805405 0.044699967 0.54461348 4286216025
0.43896294 0.044247106 0.54425526 4286413404
0.43987578 0.043795526 0.54389715 4286282588
0.44070375 0.043503687 0.54363012 4286413402
0.44148996 0.043291956 0.54340863 4286742365
0.44259304 0.042527601 0.54286855 4286742365
0.44338593 0.042318046 0.54264718 4286676313
0.44427207 0.041951478 0.54233474 4286478420
0.44511604 0.041664869 0.54206789 4286149455
0.44600883 0.04130049 0.54175556 4285687369
0.44695121 0.040858567 0.54139781 4285751881
0.447712 0.04073225 0.54122204 4285489222
0.44880119 0.040057093 0.54072779 4285489222
0.45243281 0.037494451 0.53892696 4285095232
0.45368823 0.036592409 0.53829646 4285029952
0.45456767 0.036317363 0.53803003 4284898368
0.45540193 0.036121354 0.53780907 4284700989
0.45614195 0.03608197 0.53767914 4284437817
0.45698062 0.035887375 0.53745824 4282858020
0.45772409 0.035849139 0.53732836 4280885273
0.45841992 0.035889059 0.53724396 4279834131
0.45916611 0.035851732 0.53711408 4279636752
0.45991373 0.035814852 0.53698421 4279505418
0.46061304 0.035855904 0.53689986 4279899673
0.46131331 0.0358973 0.53681552 4279768864
0.46211523 0.035784423 0.53664023 4280033826
0.40537709 0.0093025714 0.5328542 4281683275
0.40573385 0.010357916 0.53331602 4281814863
0.4060857 0.011411652 0.53377783 4281748557
0.40656748 0.012038484 0.53401208 4281748555
0.40699235 0.012834474 0.53433734 4282142543
0.40746871 0.013459519 0.53457153 4281747785
0.40797031 0.013998941 0.53476024 4281418824
0.40841401 0.014707223 0.53503984 4281615940
0.40891117 0.015245199 0.53522849 4281022253
0.40943483 0.015697956 0.5353716 4279243288
0.40987092 0.01640372 0.53565115 4279045909
0.41039085 0.016855285 0.53579426 4279374878
0.41088015 0.017390698 0.53598279 4280558881
0.41133803 0.018009707 0.5362168 4281676587
0.41185281 0.018459573 0.53635985 4283321408
0.41233617 0.01899305 0.53654832 4283782981
0.41278741 0.019609883 0.53678226 4284111946
0.41323617 0.020225927 0.53701615 4284309834
0.41365182 0.020925 0.53729546 4284310084
0.41406453 0.02162315 0.53757477 4284507206
0.41444308 0.022404 0.53789949 4284703817
0.41484964 0.023100108 0.53817868 4284966989
0.41984946 0.038158283 0.54478222 4285623888
0.42015687 0.038915858 0.54510617 4285360716
0.42046082 0.03967233 0.54543006 4285163853
0.42068869 0.040591672 0.54584467 4285163855
0.42091212 0.041509569 0.54625928 4285229648
0.42116794 0.042344183 0.54662848 4285294669
0.42145687 0.043095753 0.54695219 4285031497
0.42177969 0.043764487 0.54723048 4284965704
0.42209953 0.044432268 0.54750878 4284965445
0.42241645 0.045099109 0.54778701 4284110397
0.42280647 0.045602068 0.54797447 4284044352
0.42315626 0.046185747 0.54820728 4283845946
0.42361921 0.046524808 0.54830396 4283583286
0.42404237 0.046944737 0.548446 4283846458
0.42450309 0.047283053 0.54854262 4283846460
0.42496285 0.047621042 0.5486393 4284043837
0.42550066 0.047796816 0.54864514 4284110134
0.42599869 0.048053458 0.5486964 4284110132
0.42653626 0.048229143 0.54870236 4284044339
0.42711413 0.048324108 0.5486629 4284110132
0.42773294 0.048338622 0.54857808 4284110134
0.42835277 0.048353449 0.54849327 4285162306
0.42901459 0.048288092 0.54836315 4285359685
0.42963666 0.048303634 0.54827839 4284899648
0.43025967 0.048319519 0.54819363 4285228615
0.43092543 0.048255458 0.54806358 4285228615
0.43163466 0.048111752 0.54788816 4285096777
0.43234587 0.047968686 0.5477128 4285228363
0.43348384 0.047026351 0.54708415 4285294669
0.43432966 0.046645626 0.5467729 4285886293
0.43659347 0.044850841 0.54556125 4285886283
0.43749624 0.044394895 0.54520482 4285689418
0.43831557 0.044099405 0.54493904 4286150230
0.43926972 0.043566361 0.54453737 4286413402
0.44009569 0.043273062 0.54427165 4286281816
0.44092461 0.042980686 0.54400599 4286414174
0.44175649 0.042689323 0.54374033 4286019416
0.44277108 0.042082146 0.54329354 4285952849
0.44365504 0.041713923 0.5429827 4285885498
0.44449699 0.041425839 0.54271716 4285489972
0.44534194 0.041138723 0.54245162 4285358386
0.44628167 0.040694833 0.5420956 4285489470
0.4471792 0.040331036 0.54178488 4285555015
0.44817299 0.039810956 0.54138362 4285357636
0.45127529 0.038102433 0.54008967 4285095230
0.45266658 0.036961257 0.53932643 4284963644
0.45368499 0.036449224 0.53892541 4285029954
0.45461205 0.036095068 0.53861505 4284832071
0.45534995 0.036054611 0.53848577 4284766015
0.45618612 0.035858512 0.53826594 4283779120
0.45697612 0.035741195 0.53809142 4280490505
0.45776808 0.035624519 0.53791696 4279965204
0.4585129 0.035586298 0.53778774 4279374097
0.45925918 0.035548583 0.53765857 4279439890
0.46000695 0.03551133 0.53752935 4279900692
0.46070632 0.035552144 0.53744549 4280164123
0.46140668 0.035593271 0.53736156 4279902240
0.46230948 0.03532508 0.53709668 4280033826
0.40663612 0.011812165 0.53461683 4281617484
0.40711498 0.012438744 0.53484994 4281880656
0.40753639 0.013234556 0.53517359 4281682764
0.4080376 0.01377438 0.53536135 4281419594
0.40850884 0.014398471 0.5355944 4281551176
0.40900585 0.014936939 0.53578216 4281221429
0.40947241 0.01555948 0.53601509 4279771687
0.40996522 0.016096592 0.53620279 4278718999
0.41045609 0.016633064 0.53639048 4279178269
0.41094497 0.017168865 0.53657812 4279836447
0.41143188 0.01770407 0.53676575 4280690465
0.41188711 0.018322885 0.53699863 4283190592
0.4123998 0.018772498 0.53714097 4283126080
0.41288081 0.019305751 0.53732848 4283586631
0.41329893 0.020006478 0.53760654 4284047432
0.41374481 0.020622239 0.53783929 4284375620
0.41421914 0.021153331 0.53802675 4284441413
0.41459796 0.02193521 0.53834993 4284572999
0.4150362 0.022548497 0.53858256 4284769608
0.42004311 0.037628591 0.54515421 4285492818
0.42031512 0.038469568 0.54552174 4285361232
0.42061931 0.039227083 0.54584408 4285229646
0.42092004 0.039983466 0.54616642 4285229394
0.42118073 0.040820763 0.54653382 4285295187
0.42140061 0.041738734 0.54694635 4285228876
0.42169029 0.042491481 0.54726851 4285228876
0.42201385 0.043161288 0.54754555 4284965958
0.42233443 0.043830156 0.54782248 4285031751
0.4226521 0.044498041 0.5480994 4284439362
0.42304298 0.045001835 0.54828596 4284307009
0.42339355 0.045586467 0.54851764 4284174143
0.42385739 0.045926094 0.54861391 4283714358
0.42424262 0.046428025 0.54880041 4283977530
0.42470402 0.046766832 0.54889661 4283912766
0.4251644 0.047105327 0.54899281 4284044352
0.42566341 0.047362432 0.54904383 4284110647
0.4262017 0.047538355 0.54904974 4284044852
0.42674002 0.047714278 0.5490557 4284044852
0.42731863 0.047809362 0.54901648 4284110386
0.42789775 0.047904626 0.54897726 4284373558
0.42851812 0.047919333 0.54889292 4285162560
0.42913952 0.047934383 0.54880857 4285359939
0.42980316 0.047869265 0.54867911 4284833855
0.43042678 0.047885031 0.54859483 4285360201
0.43109316 0.047820762 0.54846543 4285491785
0.43180302 0.047676727 0.54829097 4285294156
0.43268394 0.047212526 0.54793602 4285294156
0.43373895 0.046429172 0.54740077 4285295441
0.43608168 0.044468433 0.54610491 4285294669
0.4369393 0.044090644 0.54579532 4285557832
0.4377569 0.043793768 0.54553086 4285820488
0.43862116 0.043418139 0.54522133 4286083660
0.4394449 0.043123275 0.54495698 4285952849
0.44031584 0.042749822 0.54464751 4286084437
0.44119018 0.042377487 0.54433811 4285953623
0.44215751 0.041847512 0.54393858 4285558865
0.44303924 0.041477606 0.54362929 4285754961
0.44387925 0.041188046 0.54336506 4285688636
0.44472218 0.040899456 0.54310089 4285424949
0.44575095 0.040295556 0.54265648 4285293363
0.44655484 0.040088207 0.54243743 4285358654
0.44745356 0.039723843 0.54212832 4285424195
0.44949496 0.038604781 0.54128486 4285292611
0.45049921 0.038086861 0.54088575 4285161538
0.45164949 0.037334636 0.54035151 4285029952
0.45285311 0.036505848 0.53977227 4284832573
0.45377699 0.036149681 0.5394634 4284766528
0.45460844 0.035951361 0.53924465 4284700233
0.45539415 0.035832092 0.53907102 4285291339
0.45618182 0.035713479 0.5388974 4282922791
0.45702016 0.03551738 0.53867871 4280292620
0.45776314 0.03547816 0.53855014 4279702032
0.45860589 0.035283521 0.53833157 4279374097
0.45930287 0.035323292 0.53824806 4279439890
0.45995116 0.03544116 0.53820962 4280163866
0.46074972 0.035326079 0.53803611 4280295709
0.46165052 0.035056397 0.53777254 4280033824
0.40715584 0.012298435 0.5354982 4281945936
0.40763158 0.012924671 0.53573012 4281748557
0.40810484 0.013550088 0.5359621 4281747787
0.40857562 0.014174685 0.53619397 4281682762
0.40907222 0.0147136 0.53638083 4281485637
0.40956688 0.015251845 0.53656763 4281156168
0.41005957 0.015789449 0.53675443 4280103480
0.41052124 0.016411096 0.53698623 4278916376
0.41103899 0.016862735 0.53712797 4279310616
0.41149625 0.017482921 0.53735971 4279507997
0.41201055 0.017933473 0.53750145 4280756001
0.41246337 0.018552199 0.53773314 4282403638
0.41297421 0.019001603 0.53787476 4282732603
0.41342258 0.019618884 0.53810644 4283719752
0.41386855 0.02023536 0.53833807 4284375622
0.41431201 0.020851061 0.53856969 4284769862
0.41472176 0.021549866 0.53884625 4284769349
0.41516006 0.022163853 0.53907782 4284835142
0.41565934 0.022609457 0.53921932 4285164107
0.42100611 0.03970325 0.54666966 4285295441
0.42130312 0.040459365 0.54699033 4285360980
0.42159671 0.041214362 0.54731101 4285163601
0.421924 0.041886196 0.54758668 4285032015
0.4226073 0.043145165 0.54809302 4284900683
0.42292595 0.043814227 0.54836857 4284769097
0.42327979 0.044400603 0.54859924 4284570948
0.42366952 0.044904575 0.54878491 4284306245
0.4240573 0.045407891 0.54897052 4283845694
0.42448196 0.045829132 0.54911125 4284109116
0.42494425 0.046168506 0.54920697 4284175677
0.42540556 0.046507582 0.54930276 4284241983
0.42586589 0.046846315 0.54939848 4284373567
0.42636508 0.047103629 0.54944932 4284110649
0.4269039 0.047279716 0.54945523 4284242235
0.42748302 0.04737483 0.54941624 4284439614
0.42810327 0.047389224 0.54933238 4284505405
0.42868364 0.047484741 0.5492934 4285359939
0.42934668 0.047418997 0.54916465 4285491525
0.43001118 0.047353715 0.54903585 4284899652
0.4306356 0.04736948 0.54895204 4285359687
0.431261 0.047385588 0.54886818 4285622857
0.43192947 0.047321588 0.54873949 4285294410
0.43298021 0.046535179 0.54820687 4285097031
0.43386662 0.046071693 0.54785377 4284834638
0.43638319 0.043787226 0.54638493 4285098575
0.43719903 0.04348895 0.54612178 4285294408
0.43806136 0.043111712 0.5458138 4285491271
0.43888333 0.042815462 0.54555076 4285557064
0.43966424 0.042599931 0.54533261 4285688654
0.44058046 0.042146176 0.54497987 4285886033
0.44136703 0.041932479 0.54476178 4285557328
0.44237995 0.041322008 0.54431939 4285491535
0.4432627 0.040951476 0.54401165 4285425742
0.44405839 0.040740773 0.54379368 4285491273
0.44499308 0.040293053 0.54344112 4285359939
0.44597748 0.039767414 0.54304379 4285228353
0.44678229 0.039559692 0.54282588 4285096765
0.44768202 0.039194703 0.54251832 4285228351
0.44881773 0.038436055 0.54198658 4285162308
0.44977236 0.037994862 0.54163432 4285228101
0.45082492 0.037397355 0.54119235 4285096517
0.45188242 0.036801457 0.5407505 4284701505
0.45289737 0.036285803 0.54035354 4284569919
0.45382124 0.035928711 0.54004622 4284568897
0.45465261 0.035729676 0.5398286 4284240702
0.45543826 0.035609812 0.5396558 4281806373
0.45627433 0.035412326 0.53943825 4280424720
0.45701542 0.035372064 0.53931034 4279767053
0.45785591 0.035176009 0.53909284 4279570444
0.45860046 0.035136893 0.53896499 4279440143
0.45934647 0.035098255 0.53883713 4279703315
0.46004426 0.035138011 0.53875411 4280163864
0.46079302 0.035100251 0.53862625 4280427042
0.40864235 0.013951182 0.53679311 4281813578
0.40913856 0.014490485 0.53697908 4281617223
0.4096328 0.015029162 0.53716499 4281090629
0.41012508 0.015567198 0.53735089 4280959043
0.41061538 0.016104579 0.53753674 4279115036
0.41113299 0.016556591 0.53767782 4279048214
0.4116196 0.017092794 0.53786367 4279179802
0.41210425 0.017628327 0.53804946 4280229665
0.41258693 0.018163204 0.53823525 4281810738
0.41309792 0.01861307 0.53837627 4282600254
0.41351581 0.019315362 0.53865159 4283455815
0.41396156 0.019932464 0.53888208 4284178500
0.41443583 0.020464629 0.5390678 4284769347
0.41484565 0.021164253 0.539343 4284835140
0.41531551 0.021694973 0.53952867 4284835140
0.41578341 0.022225037 0.53971434 4285098312
0.41624931 0.022754446 0.53989995 4285229900
0.42004961 0.034462258 0.54495043 4285230161
0.42018977 0.035639524 0.54549342 4285295954
0.42039543 0.036649585 0.54594696 4285295952
0.42075574 0.03874737 0.54689848 4285492818
0.42109215 0.039423034 0.54717296 4285361234
0.42138892 0.040180027 0.54749209 4285492566
0.42175609 0.040771455 0.54772174 4285492566
0.42212081 0.041362092 0.54795134 4285032015
0.42244565 0.04203397 0.54822564 4284900429
0.42280519 0.042622909 0.54845524 4285032015
0.42316228 0.043211043 0.54868478 4284965706
0.42355508 0.043716565 0.54886955 4284768327
0.42390746 0.044303164 0.54909909 4284306759
0.42429605 0.044807315 0.5492838 4283846208
0.4247216 0.045229226 0.54942387 4284306749
0.42514566 0.045650691 0.54956388 4284569919
0.42560762 0.045990244 0.54965919 4284373308
0.42610827 0.046248138 0.5497098 4284373821
0.42656851 0.046587124 0.5498051 4284373821
0.42710805 0.046763465 0.54981101 4284373821
0.427688 0.046858683 0.54977226 4284570687
0.42830902 0.046873093 0.54968888 4284570687
0.42889017 0.046968743 0.54965007 4285359687
0.42955408 0.04690285 0.54952204 4285491273
0.43017805 0.046918198 0.5494386 4285096265
0.43080306 0.046933889 0.54935521 4285228103
0.43147087 0.046869278 0.54922718 4285820238
0.43214017 0.046805143 0.54909915 4285425230
0.43323448 0.045937076 0.54852456 4285096265
0.4341222 0.045472905 0.54817331 4284900433
0.4365989 0.043265149 0.54675651 4285098575
0.43745905 0.042886242 0.54645008 4285425478
0.4383226 0.042508468 0.54614365 4285425732
0.43910199 0.042291731 0.54592657 4285491525
0.43992791 0.041995943 0.54566491 4285622861
0.44075677 0.041701123 0.54540324 4285688400
0.44260263 0.040795788 0.54470152 4285556814
0.44344133 0.040504158 0.54443997 4285622607
0.44432831 0.040134043 0.54413384 4285819470
0.44535542 0.039526835 0.5436939 4285556296
0.44620422 0.039238527 0.54343247 4285490503
0.44700995 0.039030403 0.54321569 4285161536
0.44809589 0.038348168 0.54273123 4285161788
0.44909418 0.037825838 0.54233605 4285227581
0.45009688 0.037304968 0.54194093 4285358656
0.45105699 0.036864445 0.54159051 4285161277
0.4520683 0.036346376 0.54119545 4284963648
0.45303655 0.035908535 0.5408451 4284766269
0.45386541 0.035707965 0.54062855 4284239419
0.45474476 0.035429642 0.54036748 4283910717
0.4554823 0.035387814 0.54024017 4279965204
0.4562698 0.035268039 0.54006833 4279702032
0.45710802 0.035070539 0.5398519 4279505418
0.45789969 0.034952149 0.53968012 4279374602
0.45869339 0.03483437 0.53950834 4279769884
0.45939001 0.034873456 0.53942573 4279769884
0.46008763 0.034912884 0.53934312 4280296228
0.40928984 0.014012158 0.5374431 4282010957
0.40967003 0.014891788 0.53780645 4281485637
0.41019052 0.015345171 0.53794688 4281288258
0.4107095 0.015798077 0.53808725 4281025597
0.41122702 0.016250461 0.53822768 4278589723
0.41171348 0.016787156 0.53841263 4278982684
0.41219795 0.017323181 0.53859752 4279572253
0.41271055 0.017773971 0.53873783 4280229663
0.41316101 0.018393308 0.53896731 4282006074
0.41363961 0.01892741 0.53915215 4282863676
0.41408539 0.019545227 0.53938156 4284179268
0.41452873 0.020162225 0.53961092 4284703552
0.41496956 0.020778418 0.53984028 4284769347
0.41543955 0.021309704 0.540025 4285098060
0.41683757 0.022899702 0.5405792 4285098062
0.42024329 0.033927232 0.54533112 4285229648
0.42058975 0.036117777 0.54632276 4285493331
0.42061087 0.037541047 0.54699647 4285493331
0.42087829 0.038383827 0.54735863 4285361232
0.4212147 0.039060324 0.54763174 4285295441
0.42154816 0.039735839 0.54790479 4285492050
0.42191565 0.040328071 0.54813331 4285426003
0.42228067 0.040919468 0.54836184 4285228624
0.42264321 0.041510075 0.5485903 4285228113
0.42300332 0.042099878 0.54881877 4285228113
0.42339891 0.042606845 0.54900271 4285293906
0.4237543 0.043195143 0.54923111 4284768073
0.4241457 0.04370074 0.54941499 4284307013
0.42453516 0.044205725 0.54959887 4283846462
0.42496154 0.044628352 0.54973829 4284700737
0.42542565 0.044968858 0.54983318 4284701757
0.42584938 0.045390621 0.54997253 4284504890
0.42631125 0.045730412 0.55006742 4284307513
0.42681211 0.04598853 0.55011779 4284175927
0.42735264 0.046165183 0.55012369 4284504894
0.42789316 0.046341836 0.55012965 4284570687
0.42851502 0.046356216 0.55004668 4284636480
0.42909694 0.046451971 0.55000818 4285294408
0.42972052 0.046466917 0.54992521 4285425994
0.43038648 0.046401307 0.54979783 4285228363
0.4310123 0.046416968 0.54971486 4285491275
0.43163908 0.046432972 0.54963195 4285753677
0.4325197 0.045965388 0.54928243 4285490505
0.43353146 0.04525736 0.54879957 4285096263
0.43446335 0.044712096 0.54840571 4285096265
0.43600002 0.043042585 0.54738986 4285425230
0.43685797 0.04266201 0.54708499 4285228099
0.43767598 0.042362779 0.54682457 4285491005
0.43854058 0.041984379 0.5465197 4285359169
0.43932086 0.041767299 0.54630381 4285359169
0.44014776 0.04147096 0.54604346 4285556816
0.44102195 0.041095704 0.54573876 4285622609
