# .PCD v0.7 - Point Cloud Data file format
VERSION 0.7
FIELDS x y z rgb
SIZE 4 4 4 4
TYPE F F F U
COUNT 1 1 1 1
WIDTH 1046
HEIGHT 1
VIEWPOINT 0 0 0 1 0 0 0
POINTS 1046
DATA ascii
0.42748159 -0.017663151 0.444318 4283255606
0.42647541 -0.017199218 0.44460702 4283255606
0.42542565 -0.016650066 0.44493234 4283189813
0.42441139 -0.016188815 0.44522133 4283124022
0.42343336 -0.015815243 0.44547406 4283189561
0.42241147 -0.015356496 0.44576305 4283189563
0.42138565 -0.01489906 0.44605207 4283255356
0.42027408 -0.014270738 0.44641361 4283189563
0.41903403 -0.013385922 0.44688401 4283583549
0.41782904 -0.012589201 0.44731811 4283780928
0.41665977 -0.011880293 0.44771594 4283649342
0.41540128 -0.011001587 0.44818628 4283978309
0.41426289 -0.010382146 0.44854778 4283912262
0.41311955 -0.0097643137 0.44890928 4283912264
0.41201395 -0.0092336535 0.44923449 4283912264
0.41081816 -0.0085335672 0.44963226 4284110415
0.40978947 -0.008176744 0.44988489 4284110674
0.40875736 -0.0078211129 0.4501375 4284308053
0.40772182 -0.0074665844 0.4503901 4284571225
0.40663892 -0.0070281029 0.450679 4284571225
0.40555209 -0.006590873 0.45096788 4284702811
0.40446138 -0.0061549842 0.45125675 4285031776
0.4690192 0.0044756532 0.44824186 4283714874
0.46849829 0.0035067201 0.44794822 4283649592
0.46798134 0.0025390685 0.4476546 4283518776
0.46739507 0.0018470883 0.44747061 4283649844
0.46681127 0.0011559427 0.44728661 4283781680
0.46627975 0.00028303266 0.44702953 4283517745
0.4658522 -0.00095358491 0.44662631 4283517745
0.46570939 -0.0031907558 0.4458212 4283451702
0.46570554 -0.0058795214 0.4448334 4283451702
0.46503228 -0.0087901652 0.44384438 4283583288
0.46453416 -0.0096519887 0.44358736 4283583286
0.46398628 -0.010331273 0.44340345 4283583540
0.46344087 -0.011009693 0.44321951 4283583540
0.46287078 -0.011596799 0.44307214 4284044343
0.46233001 -0.012273699 0.4428882 4284110134
0.46173653 -0.012769014 0.44277737 4284307513
0.46114451 -0.013263837 0.44266653 4284570171
0.459676 -0.022509798 0.43944439 4284634690
0.45925936 -0.023444191 0.43915093 4284371518
0.45869759 -0.02392897 0.43904015 4284306231
0.45813727 -0.024413273 0.43892938 4284370991
0.4576391 -0.025076091 0.4387455 4284502577
0.45723498 -0.026006311 0.43845212 4284567855
0.45680404 -0.026845887 0.43819523 4284633650
0.45637652 -0.027684316 0.43793833 4284567866
0.45598376 -0.028610811 0.43764493 4284371005
0.4555949 -0.029535964 0.43735155 4284437565
0.45511466 -0.030192822 0.43716773 4284174393
0.45460483 -0.030759931 0.43702048 4283187244
0.4540647 -0.031237572 0.43690974 4283121451
0.45346099 -0.031537175 0.43687201 4282727979
0.45289055 -0.031925321 0.4367978 4282727981
0.45222208 -0.032047346 0.43683314 4282991153
0.45151982 -0.032081008 0.43690503 4283846460
0.45071608 -0.031849682 0.43708646 4284176456
0.44994363 -0.031707555 0.43723136 4284505936
0.44906723 -0.031301245 0.43748581 4284505936
0.44822162 -0.030984282 0.43770379 4284242762
0.44733858 -0.030580163 0.43795824 4284110913
0.44648683 -0.030265242 0.43817616 4283979063
0.44556215 -0.029775411 0.43846714 4284110649
0.44463354 -0.029286861 0.43875811 4284110132
0.44370103 -0.028799638 0.43904907 4283649333
0.44276455 -0.028313696 0.43934 4283845948
0.44193202 -0.028091937 0.43952137 4283845948
0.44095224 -0.027520835 0.43984884 4283648831
0.43989509 -0.026776284 0.44024932 4283911751
0.43894261 -0.026295632 0.44054022 4283583299
0.43798625 -0.025816321 0.44083112 4283451713
0.4370259 -0.025338292 0.44112203 4283583297
0.43598679 -0.024687305 0.44148594 4283583551
0.43498039 -0.02412501 0.44181335 4283714622
0.4340834 -0.023825079 0.4420312 4283648829
0.43314525 -0.023439229 0.44228557 4283583801
0.43063998 -0.021283448 0.44337845 4283124018
0.42775273 -0.018358395 0.44479993 4283189813
0.42670846 -0.017808646 0.44512725 4283189813
0.42573911 -0.017433122 0.44538155 4283124020
0.42468649 -0.01688616 0.44570887 4282860848
0.42362946 -0.016340643 0.44603616 4283124022
0.42260841 -0.01588276 0.44632697 4282926137
0.42158338 -0.015426174 0.44661772 4282926137
0.42047268 -0.014798924 0.44698155 4283122746
0.41923368 -0.013915569 0.44745484 4283385405
0.41802967 -0.013120174 0.44789165 4283583551
0.41677809 -0.012240976 0.44836491 4283583551
0.41552016 -0.011363894 0.4488382 4283912516
0.41429794 -0.01057452 0.44927496 4283912262
0.41319689 -0.010043621 0.44960216 4283846469
0.41209143 -0.009514153 0.44992939 4283846469
0.41098151 -0.0089861751 0.45025659 4283978829
0.40991026 -0.0085448921 0.45054731 4284044881
0.40879175 -0.0080197752 0.45087451 4284242260
0.40779957 -0.0077513754 0.45109215 4284505432
0.4067606 -0.007398963 0.45134634 4284571225
0.4056741 -0.0069627464 0.451637 4284637018
0.40462804 -0.0066126883 0.45189115 4285032030
0.46637017 -0.0027653277 0.44667596 4282860848
0.46564728 -0.0082730651 0.44472378 4283254836
0.46519762 -0.0093166828 0.4443917 4283385909
0.46472609 -0.010268152 0.44409636 4283385907
0.46420532 -0.011037141 0.44387454 4283255086
0.46363384 -0.011624157 0.44372624 4283386672
0.46306434 -0.012210503 0.44357798 4283649844
0.46249679 -0.012796164 0.44342971 4283912757
0.46187609 -0.013200685 0.44335493 4284110136
0.46131203 -0.013785243 0.44320667 4284307001
0.46089721 -0.017202914 0.44199124 4284306749
0.46035039 -0.022354096 0.44014984 4284569669
0.45998928 -0.023467749 0.4397811 4284306495
0.45948547 -0.02413173 0.43959612 4284371518
0.45892456 -0.024615839 0.43948466 4284306231
0.45842516 -0.025278345 0.4392997 4284634933
0.45789796 -0.025850683 0.4391515 4284634933
0.45746425 -0.0266902 0.43889305 4284436782
0.45703399 -0.027528599 0.4386346 4284568370
0.45663819 -0.028454944 0.43833941 4284502325
0.45621505 -0.029291004 0.43808097 4284437304
0.45582688 -0.030214846 0.4377858 4284634942
0.45537913 -0.030959621 0.43756413 4284240184
0.45490235 -0.031614631 0.43737918 4283122221
0.45433137 -0.032002687 0.43730453 4282990635
0.45372885 -0.032301754 0.43726659 4282531111
0.45312685 -0.032600686 0.43722868 4282466090
0.45245937 -0.032722488 0.43726426 4282663469
0.45175818 -0.032756075 0.43733659 4283650375
0.4509891 -0.032613397 0.43748242 4284374348
0.45015061 -0.032294869 0.4377017 4284506188
0.44934314 -0.032065496 0.43788424 4284571214
0.44846481 -0.031660795 0.43814027 4284373835
0.44761747 -0.031345218 0.43835956 4284176710
0.44669783 -0.030854821 0.43865234 4284044604
0.44577423 -0.030365735 0.43894508 4284373569
0.44488186 -0.029965684 0.43920109 4284241983
0.44395065 -0.029479116 0.43949383 4283781178
0.44305116 -0.029081419 0.43974984 4283649081
0.44211233 -0.0285974 0.44004256 4283583288
0.44124186 -0.028289467 0.44026178 4283714624
0.44025922 -0.027720556 0.44059128 4283846471
0.43923551 -0.027065858 0.44095743 4283451713
0.43824375 -0.026499942 0.44128686 4283385920
0.4373219 -0.026109651 0.44154283 4283517504
0.43643397 -0.025807559 0.44176203 4283583297
0.43535492 -0.025071785 0.44216496 4283649342
0.43445987 -0.024772018 0.44238412 4283583549
0.43356189 -0.02447325 0.44260332 4283320631
0.43266094 -0.024175435 0.44282252 4283123252
0.4295285 -0.020641252 0.44450986 4283057457
0.42786705 -0.018706903 0.445427 4282860850
0.4267838 -0.018071905 0.44579309 4282794803
0.42581448 -0.017697364 0.44604895 4282663217
0.42476201 -0.017151579 0.44637829 4282663730
0.4237051 -0.016607285 0.44670761 4282597937
0.42272446 -0.016236484 0.44696343 4282532666
0.42169976 -0.015780881 0.44725603 4282598459
0.42058948 -0.015154883 0.44762203 4282663228
0.41935101 -0.014273137 0.44809824 4282663482
0.41810614 -0.013393521 0.44857445 4283124033
0.41685486 -0.012516052 0.44905064 4283058240
0.4155972 -0.011640668 0.44952685 4283189824
0.41441733 -0.010938317 0.44992954 4283452481
0.41335893 -0.010493875 0.45022207 4283846469
0.41212636 -0.0097095966 0.45066148 4283846469
0.41097355 -0.0090976655 0.45102739 4283649090
0.40998799 -0.0088279247 0.45124644 4283847239
0.4089562 -0.0084740818 0.4515022 4283979079
0.40783387 -0.0079514384 0.4518314 4284110665
0.40683848 -0.0076849461 0.45205042 4284571214
0.40575209 -0.0072498024 0.45234287 4284702802
0.40479463 -0.007070154 0.45252514 4284899927
0.46594137 -0.0092539489 0.44508728 4282926389
0.46541494 -0.010023981 0.44486412 4283123252
0.46491775 -0.0108836 0.44460398 4283386422
0.46437094 -0.011561126 0.44441783 4283255088
0.46382657 -0.012237847 0.44423169 4283452467
0.46325764 -0.012823433 0.4440825 4283452467
0.46269068 -0.013408393 0.44393331 4283846712
0.46212569 -0.013992682 0.44378418 4284109116
0.46159044 -0.014666393 0.443598 4284174909
0.46133775 -0.016239047 0.44304207 4284306495
0.46117723 -0.018078968 0.44237521 4284174909
0.4606328 -0.023222476 0.44052264 4284503874
0.46021426 -0.024155274 0.4402256 4284240956
0.45968175 -0.02472882 0.4400765 4284306749
0.45918092 -0.025391102 0.43989041 4284569919
0.45865256 -0.025963277 0.43974131 4284437563
0.45812619 -0.026534751 0.43959224 4284634942
0.45769319 -0.02737312 0.43933219 4284503095
0.45726362 -0.028210297 0.43907219 4284305714
0.45686847 -0.029135346 0.43877521 4284437300
0.45650846 -0.030148014 0.43844128 4284437300
0.4560585 -0.0308927 0.43821824 4284371770
0.45564324 -0.031725183 0.43795824 4284174391
0.45513552 -0.032290488 0.4378092 4283122225
0.45459759 -0.032766536 0.43769711 4282990637
0.45402873 -0.033153608 0.43762198 4282596906
0.45339546 -0.033363491 0.43762082 4282465838
0.45276219 -0.033573359 0.43761966 4282794803
0.45199621 -0.033430159 0.43776637 4283650373
0.45122826 -0.033287629 0.43791306 4284439878
0.4504247 -0.03305766 0.43809676 4284702534
0.44955084 -0.032652453 0.43835434 4284702282
0.4487077 -0.032336295 0.43857497 4284504903
0.44782716 -0.031933293 0.43883258 4284307522
0.44694322 -0.031531423 0.43909016 4284044604
0.44605583 -0.031130701 0.43934774 4284242499
0.44512987 -0.030643508 0.43964228 4283781948
0.44423532 -0.030245155 0.43989986 4283583801
0.44330174 -0.029760465 0.44019437 4283781182
0.44236419 -0.029277086 0.4404889 4283518010
0.44142273 -0.028795034 0.44078341 4283583803
0.44047731 -0.028314263 0.44107795 4283912516
0.43949133 -0.027747676 0.44140941 4283385918
0.43853784 -0.027269617 0.44170386 4283385918
0.43761748 -0.026879817 0.44196141 4283451711
0.43665633 -0.026404247 0.44225588 4283583297
0.43572885 -0.026016802 0.44251338 4283451963
0.43479794 -0.025630519 0.4427709 4283122998
0.43386358 -0.025245354 0.44302839 4282860850
0.43304077 -0.025120974 0.44317499 4282729264
0.43213886 -0.024824321 0.4433955 4282662701
0.42062467 -0.01533936 0.44833645 4281546026
0.41445261 -0.011131436 0.45065805 4282532412
0.41339409 -0.010688186 0.45095232 4282598462
0.41224656 -0.010075867 0.45132053 4282927427
0.41109413 -0.0094651878 0.45168871 4283255617
0.4100228 -0.00902614 0.451983 4283848006
0.40903407 -0.0087582767 0.45220336 4283650625
0.40799886 -0.0084065199 0.45246068 4283782211
0.40687272 -0.0078864098 0.45279187 4284177223
0.40587413 -0.0076217949 0.4530122 4284374350
0.40482837 -0.0072735548 0.45326948 4284834901
0.46613184 -0.009870708 0.44559652 4282992182
0.46560591 -0.010639757 0.44537199 4282992436
0.46510917 -0.011498258 0.44511029 4283386422
0.46458939 -0.01226528 0.44488579 4283255088
0.46401906 -0.012850776 0.44473574 4283452467
0.4634777 -0.013525829 0.44454846 4283452467
0.46293879 -0.014200062 0.44436118 4283715126
0.46237487 -0.014783442 0.44421113 4284109370
0.46189609 -0.015635997 0.44394946 4284174909
0.46178436 -0.017655492 0.44320413 4284240702
0.46122116 -0.02279833 0.44134039 4284372802
0.46076992 -0.023641735 0.44107875 4284438849
0.46032214 -0.024484023 0.44081715 4284109882
0.4598189 -0.02514641 0.44062993 4284306747
0.4593181 -0.025807992 0.44044274 4284635712
0.45881978 -0.026468784 0.44025552 4284634942
0.45829371 -0.027039617 0.44010556 4284634942
0.45789135 -0.027965978 0.43980676 4284700989
0.45752358 -0.028979972 0.4394708 4284371509
0.45712936 -0.029903591 0.43917203 4284437302
0.45673904 -0.030825973 0.43887326 4284371509
0.45638406 -0.03183572 0.4385373 4284371772
0.4559069 -0.032489479 0.43835014 4284174393
0.45546409 -0.03323099 0.43812579 4283187246
0.45489562 -0.033617646 0.43805024 4282990639
0.45429572 -0.033915579 0.43801188 4282727727
0.45366371 -0.034125045 0.43801072 4282531633
0.45299876 -0.034246311 0.43804675 4283124283
0.45226705 -0.0341914 0.43815717 4283716420
0.45150054 -0.034048989 0.43830475 4284374339
0.45066476 -0.033731237 0.43852675 4284767814
0.44979215 -0.033326566 0.43878591 4284570694
0.44895023 -0.03301084 0.43900791 4284439108
0.448071 -0.032608375 0.43926704 4284307522
0.44718832 -0.032207057 0.4395262 4284110397
0.44630218 -0.031806886 0.43978536 4284176960
0.44537753 -0.031320319 0.44008172 4283847995
0.44444892 -0.030835122 0.44037801 4283452985
0.44355196 -0.030438513 0.44063714 4283780928
0.44265157 -0.030043066 0.44089627 4283517756
0.44171166 -0.029561579 0.4411926 4283517756
0.44073147 -0.028994307 0.44152606 4283517758
0.43978345 -0.028515533 0.44182235 4283385918
0.43879467 -0.027951136 0.44215584 4283320125
0.43787557 -0.027561843 0.44241494 4283451711
0.43695307 -0.027173728 0.44267398 4283583297
0.43602711 -0.026786745 0.44293308 4283255356
0.43509769 -0.026400909 0.44319212 4282860598
0.43420288 -0.026102722 0.44341403 4282729012
0.43334344 -0.02589193 0.44359872 4282663219
0.43255863 -0.025854677 0.44370902 4282465840
0.4315396 -0.025300294 0.44404244 4282400045
0.4300867 -0.023799345 0.44478485 4282334252
0.42837685 -0.023473904 0.445117 4281741865
0.41223928 -0.010187 0.45209113 4281744695
0.41112924 -0.0096627772 0.45242435 4282336060
0.4101437 -0.0093946755 0.45264608 4283651397
0.40906876 -0.0089579523 0.45294213 4283519811
0.40812027 -0.0087766349 0.45312667 4283585856
0.40708196 -0.0084269345 0.45338553 4283914051
0.40604013 -0.0080783367 0.45364439 4284176717
0.4049949 -0.0077308714 0.45390326 4284768854
0.46652782 -0.011210442 0.44580489 4282729010
0.46592644 -0.011706695 0.44569135 4282860850
0.46537897 -0.012383103 0.44550294 4282992434
0.46480751 -0.012968421 0.44535199 4283123502
0.46426469 -0.013643265 0.44516361 4283386674
0.46375132 -0.014407307 0.44493777 4283320881
0.4631865 -0.014990449 0.44478685 4283518258
0.46273339 -0.015932515 0.44448614 4284110136
0.46233958 -0.017052889 0.44411063 4284175163
0.46211827 -0.018709987 0.44351059 4284240704
0.46141559 -0.023397252 0.44182277 4284307009
0.46090698 -0.024060741 0.44163442 4284110395
0.46045914 -0.024902061 0.44137123 4284110134
0.45995596 -0.025563776 0.44118291 4284306999
0.45948485 -0.026313812 0.44095719 4284569401
0.4589569 -0.026884735 0.4408063 4284569403
0.45846108 -0.027543992 0.44061798 4284700989
0.45808929 -0.028558075 0.44027999 4284700989
0.45775253 -0.029659554 0.43990457 4284700989
0.45742071 -0.030759394 0.43952918 4284635194
0.45706266 -0.031768918 0.43919122 4284437815
0.45667768 -0.032688409 0.43889067 4284306231
0.45620179 -0.033341065 0.4387024 4283451186
0.45572835 -0.033992901 0.43851411 4283188014
0.45512891 -0.034290552 0.43847555 4282859565
0.45452994 -0.034588039 0.43843699 4282662449
0.45389891 -0.034797177 0.43843579 4282728758
0.453235 -0.034918234 0.43847206 4283190076
0.45253751 -0.034951419 0.4385457 4283716420
0.45173901 -0.034721121 0.43873167 4284308296
0.45090449 -0.034403801 0.43895498 4284439880
0.45006698 -0.034087449 0.43917829 4284374087
0.44919246 -0.033684388 0.43943903 4284374087
0.44831449 -0.033282459 0.43969977 4284176706
0.44743305 -0.032881692 0.43996048 4283913788
0.44651338 -0.032394588 0.44025862 4283782202
0.44562486 -0.031996176 0.44051933 4283847995
0.44469756 -0.03151162 0.44081742 4283518776
0.44380188 -0.031115577 0.44107813 4283583801
0.44290274 -0.030720636 0.44133884 4283518010
0.44196415 -0.030239835 0.44163692 4283518010
0.44102162 -0.029760316 0.441935 4283451963
0.44007516 -0.029282138 0.44223309 4283320127
0.43908793 -0.028718427 0.44256857 4283583299
0.43809631 -0.028156206 0.44290406 4283385920
0.43717483 -0.027768716 0.44316471 4283254334
0.4362874 -0.02746889 0.44338793 4282991930
0.43539703 -0.027170062 0.44361115 4282335537
0.43454173 -0.0269586 0.44379696 4282467123
0.43368396 -0.026747972 0.44398278 4282467123
0.43286222 -0.026624352 0.44413117 4282203951
0.43196106 -0.02632913 0.44435439 4281808941
0.4310959 -0.026120901 0.44454017 4281414183
0.4299536 -0.025311679 0.4449878 4281084448
0.4112072 -0.0099456906 0.45312351 4280823853
0.41017875 -0.0095936656 0.45338398 4281546546
0.40914682 -0.0092427731 0.45364442 4282138683
0.4081983 -0.0090622008 0.45383006 4283453768
0.40720367 -0.0087979138 0.4540531 4283782213
0.40625 -0.0086190701 0.45423871 4283716418
0.40524969 -0.0083566606 0.45446175 4284176456
0.46711624 -0.010605276 0.4467251 4281151016
0.46653774 -0.011192366 0.44657323 4282203181
0.46619448 -0.012591168 0.44608247 4282598191
0.46551746 -0.01281555 0.44608122 4282795053
0.46507815 -0.013850778 0.44574109 4282926639
0.46453661 -0.01452449 0.44555157 4283320881
0.46399754 -0.015197411 0.44536206 4283320881
0.46346092 -0.015869498 0.44517255 4283452465
0.46295416 -0.016630501 0.44494542 4283978296
0.46278208 -0.0184668 0.44426647 4283978044
0.46247941 -0.019852147 0.44377577 4284240706
0.46158117 -0.023906082 0.44234145 4284307009
0.46110171 -0.024658084 0.44211432 4284241983
0.46059608 -0.025319889 0.4419249 4284175675
0.46012229 -0.026070014 0.44169778 4284306999
0.45962185 -0.02673012 0.44150835 4284306999
0.45912385 -0.027389392 0.44131893 4284504378
0.4586885 -0.028225616 0.44105422 4284635964
0.45834765 -0.029327035 0.44067657 4284766780
0.45798114 -0.030338138 0.44033659 4284700987
0.45764989 -0.031436414 0.43995893 4284569401
0.45729247 -0.032444522 0.43961895 4284437815
0.45693949 -0.03345114 0.43927899 4284306229
0.45649618 -0.034191146 0.43905196 4283320116
0.45596033 -0.034665272 0.43893787 4283056944
0.45539394 -0.03505069 0.43886143 4282859567
0.4547962 -0.035347641 0.43882263 4282794033
0.45413381 -0.03546834 0.43885911 4282860598
0.45347092 -0.035589159 0.43889558 4283255354
0.45274144 -0.035534382 0.43900734 4283847491
0.45197719 -0.035392284 0.43915671 4284243014
0.4511103 -0.034987643 0.43941903 4284506438
0.45030761 -0.034759462 0.43960607 4284308805
0.44943434 -0.034356937 0.43986839 4284177219
0.44855765 -0.033955574 0.44013065 4284176960
0.44764298 -0.033467904 0.44043058 4283978811
0.44675913 -0.033068895 0.44069287 4283584053
0.44587186 -0.032671034 0.44095516 4283978811
0.44494587 -0.032187104 0.44125509 4283781178
0.44401598 -0.031704545 0.44155496 4283583801
0.44315362 -0.031397238 0.44177958 4283518010
0.44221634 -0.030917108 0.44207945 4283518010
0.44127509 -0.030438259 0.44237936 4283517758
0.44029343 -0.029873967 0.44271687 4283385920
0.43934408 -0.029397845 0.44301671 4283583299
0.43835381 -0.028836399 0.44335422 4283254334
0.43739635 -0.02836293 0.44365406 4282860346
0.4365474 -0.028150052 0.44384101 4282794551
0.43562055 -0.027765304 0.44410321 4282400306
0.43480414 -0.027640477 0.44425249 4282400306
0.43390933 -0.027343929 0.44447708 4282203951
0.43308851 -0.027220577 0.44462636 4281743400
0.43222702 -0.027011856 0.44481328 4281216806
0.43140203 -0.026889905 0.44496256 4280953634
0.41029972 -0.0099624097 0.4540475 4281152820
0.40926808 -0.0096123815 0.45430952 4281350199
0.40836316 -0.0095168948 0.45445865 4282270018
0.40736902 -0.0092533231 0.45468304 4283585350
0.40641582 -0.0090750158 0.45486978 4283715905
0.40550423 -0.0089817047 0.45501891 4284307526
0.40450194 -0.0087207854 0.45524329 4284570698
0.46708634 -0.013069794 0.44654787 4280691237
0.46653968 -0.013744518 0.44635725 4281677610
0.46602163 -0.014508471 0.44612873 4282467373
0.4654274 -0.015001535 0.44601387 4282795053
0.46480802 -0.015404239 0.44593686 4283188528
0.46435082 -0.016345456 0.44563261 4283320114
0.46381623 -0.017016187 0.44544199 4283188528
0.46339351 -0.01804468 0.44509989 4283648565
0.46311325 -0.019519508 0.4445684 4284043323
0.46275631 -0.020723611 0.44415057 4284175163
0.46214372 -0.023394391 0.4432013 4284175677
0.46174657 -0.024414405 0.44285923 4284044091
0.4612962 -0.025254652 0.44259292 4284373056
0.46076202 -0.025826514 0.44244021 4284306747
0.46022981 -0.02639775 0.44228753 4284307001
0.45972916 -0.02705723 0.44209701 4284110134
0.45923096 -0.027715892 0.44190645 4284306997
0.45882541 -0.028639972 0.44160229 4284570169
0.45851469 -0.029828757 0.44118452 4284700726
0.45823997 -0.031104356 0.4407289 4284766519
0.45794034 -0.032289475 0.44031116 4284569399
0.45761508 -0.033384368 0.43993133 4284372020
0.45723215 -0.034300968 0.43962723 4284240434
0.45675856 -0.034951478 0.4394367 4283320631
0.45622382 -0.035424829 0.43932194 4283057459
0.45565856 -0.035809591 0.43924505 4282859826
0.45502973 -0.036017999 0.43924388 4282925873
0.45440087 -0.036226422 0.43924272 4283057205
0.4537065 -0.036259115 0.43931729 4283255354
0.45297813 -0.036204398 0.43942973 4283847491
0.45221502 -0.036062449 0.43958002 4284506184
0.45138294 -0.035745963 0.43980604 4284375874
0.45051414 -0.035342917 0.44006991 4284309311
0.44967592 -0.035028487 0.44029593 4284111932
0.44876623 -0.034540296 0.44059765 4284177212
0.44792157 -0.034227937 0.44082364 4283913016
0.44700456 -0.033742204 0.44112533 4284110395
0.44608355 -0.033257738 0.44142705 4283978809
0.44519389 -0.032861635 0.44169089 4283846971
0.44430074 -0.03246668 0.44195473 4283846460
0.44336843 -0.031985998 0.44225639 4283583801
0.44243219 -0.031506583 0.44255811 4283649594
0.44149202 -0.031028494 0.44285977 4283517756
0.44054794 -0.030551717 0.44316143 4283385920
0.43959987 -0.030076221 0.44346309 4283320127
0.43864793 -0.029602051 0.44376472 4282991162
0.43769202 -0.029129162 0.44406638 4282531381
0.43680704 -0.028830215 0.44429228 4282597687
0.43588144 -0.028445989 0.44455606 4282334513
0.43502825 -0.028235212 0.44474411 4281873962
0.43417263 -0.02802524 0.44493216 4281282597
0.43331453 -0.027816072 0.44512019 4280952610
0.43256998 -0.027865425 0.44519469 4280821026
0.43159097 -0.027400196 0.44549626 4280821026
0.40852797 -0.0099713802 0.45508683 4280956476
0.40762147 -0.0098769665 0.45523685 4282862923
0.4066692 -0.0096990466 0.4554247 4283387203
0.4057585 -0.0096060038 0.45557475 4283978055
0.40489021 -0.0095976591 0.4556869 4284307020
0.40388671 -0.0093379617 0.45591259 4284505684
0.46683246 -0.014715597 0.44670421 4280823591
0.46628979 -0.01538831 0.44651246 4282072363
0.46521184 -0.016731322 0.44612896 4283122737
0.46473017 -0.017580956 0.44586104 4283320114
0.46427906 -0.018519029 0.445555 4283188528
0.46383184 -0.019455835 0.44524899 4283516979
0.4634437 -0.020570189 0.44486678 4284175163
0.4630605 -0.021682948 0.44448459 4284175163
0.46276635 -0.023061872 0.44398808 4284175163
0.46236542 -0.024081916 0.44364399 4284109884
0.46194035 -0.025011346 0.44333804 4284044089
0.46137527 -0.025494367 0.44322252 4284373054
0.46089876 -0.026243702 0.44299275 4284307001
0.46033734 -0.026725501 0.44287726 4284373308
0.45986602 -0.027473137 0.44264752 4284175929
0.45936787 -0.028131083 0.44245586 4284306999
0.45893219 -0.028965473 0.44218802 4284570171
0.45849842 -0.031869292 0.44111902 4284766519
0.45823032 -0.033141002 0.44066074 4284569653
0.45793712 -0.034322485 0.44024056 4284372274
0.45755559 -0.035237521 0.43993467 4284109620
0.45702052 -0.035710573 0.43981922 4282992434
0.45651865 -0.036271185 0.43966568 4282860848
0.45592278 -0.036567226 0.43962646 4282729264
0.45526293 -0.036687359 0.43966338 4282991666
0.45463508 -0.036895439 0.43966222 4282860596
0.45394176 -0.036928073 0.43973723 4283386940
0.4532145 -0.036873415 0.43985033 4283913284
0.45241931 -0.036644056 0.44003963 4284374598
0.45162165 -0.036415562 0.44022888 4284506690
0.45078784 -0.036100447 0.44045627 4284374589
0.44988319 -0.035611719 0.44075978 4284243003
0.44904298 -0.035298735 0.44098711 4283979831
0.44816539 -0.034899592 0.44125253 4283912503
0.44724965 -0.034414515 0.44155604 4284110395
0.44636488 -0.034017712 0.44182146 4283978809
0.44544154 -0.033535182 0.44212493 4283912764
0.44451421 -0.033053905 0.44242844 4283781178
0.44358301 -0.032573968 0.44273189 4283583799
0.44264781 -0.032095313 0.44303536 4283583799
0.44174489 -0.03170456 0.44330075 4283518010
0.4408021 -0.031228468 0.44360417 4283385918
0.43985537 -0.030753627 0.44390765 4283254334
0.43886781 -0.030193776 0.44424915 4282991162
0.43795013 -0.029807925 0.44451451 4282531381
0.43702897 -0.029423192 0.44477987 4282531381
0.43610442 -0.029039621 0.4450452 4282072111
0.43521428 -0.028743178 0.44527245 4281677353
0.43439746 -0.028619602 0.44542354 4280690467
0.43354031 -0.028410822 0.4456127 4280624166
0.4326807 -0.028202862 0.44580185 4280624166
0.43185753 -0.028081387 0.44595295 4280689959
0.40899575 -0.011015147 0.45544803 4280561718
0.40778658 -0.010331631 0.45586544 4281088062
0.40696612 -0.010406375 0.45594022 4281152570
0.40601256 -0.010229528 0.45612922 4283190601
0.40510082 -0.010137439 0.45628011 4283585359
0.40418714 -0.010045946 0.45643103 4283847754
0.46769387 -0.01510261 0.44720256 4279968544
0.46712467 -0.015684962 0.44704801 4280034337
0.46658352 -0.016356513 0.44685516 4281217829
0.46601853 -0.016937479 0.44670063 4282268459
0.46550858 -0.017697111 0.44646946 4282729262
0.46502838 -0.0185453 0.44619995 4282926639
0.46455163 -0.019392341 0.44593045 4282992432
0.46416011 -0.020506456 0.445546 4282992432
0.46380106 -0.02170822 0.44512326 4284044089
0.46344742 -0.022908211 0.44470048 4284044089
0.46304315 -0.023928106 0.44435439 4284044091
0.46255854 -0.024679333 0.44412327 4283978298
0.46204835 -0.025340572 0.44393045 4283978298
0.46154064 -0.026001021 0.44373766 4284110397
0.4610064 -0.02657181 0.44358316 4284110397
0.4604449 -0.027053237 0.44346702 4284241983
0.45997331 -0.027800128 0.4432359 4284241983
0.45950466 -0.02854605 0.44300479 4284373308
0.45915893 -0.029644981 0.44262046 4284570687
0.4587869 -0.032721341 0.44146857 4284570173
0.45858124 -0.034167588 0.44093096 4284241206
0.45838246 -0.03561154 0.44039339 4284043827
0.45784724 -0.036084205 0.44027728 4283715124
0.45731354 -0.036556423 0.44016117 4282729514
0.45678127 -0.037028134 0.44004506 4282729262
0.45615464 -0.037235811 0.44004393 4282729262
0.45552802 -0.037443489 0.44004273 4282860850
0.45486891 -0.037563458 0.44007993 4282795570
0.45417669 -0.037596047 0.44015539 4283387455
0.45345053 -0.037541375 0.44026917 4283782213
0.45268971 -0.037399828 0.44042122 4284439878
0.45186007 -0.037084162 0.44064996 4284637761
0.45102751 -0.03676948 0.44087866 4284571966
0.45012414 -0.036281407 0.44118395 4284308794
0.44928515 -0.035968855 0.44141266 4283979829
0.44840884 -0.035570234 0.44167966 4283715124
0.44752905 -0.03517279 0.44194663 4283913016
0.44657603 -0.034602731 0.44229022 4283913016
0.44568887 -0.034207702 0.44255719 4283846971
0.44476289 -0.033727109 0.44286248 4283781180
0.44386861 -0.033334464 0.44312942 4283781180
0.44297087 -0.032942936 0.44339639 4283518008
0.44196132 -0.0322932 0.44377825 4283452215
0.44101959 -0.031817824 0.44408348 4283320629
0.44007391 -0.031343728 0.44438875 4282991414
0.43912432 -0.030871004 0.44469395 4282925621
0.43817079 -0.030399531 0.44499919 4282399795
0.43725067 -0.030015424 0.4452661 4282268722
0.43636471 -0.029718459 0.44549468 4281282854
0.43551368 -0.029508322 0.44568497 4280559131
0.43469828 -0.029384851 0.44583696 4280098849
0.43384254 -0.029176265 0.44602728 4280033576
0.43294579 -0.028882876 0.44625583 4280493355
0.43208489 -0.028676003 0.44644612 4280427562
0.40816915 -0.011206076 0.45630214 4280824888
0.40721899 -0.011028796 0.45649225 4280890170
0.40631035 -0.010936201 0.45664406 4282729797
0.40539977 -0.010844231 0.45679587 4283453520
0.40448722 -0.010752946 0.45694768 4283651145
0.40348321 -0.010495096 0.45717606 4283913547
0.46800944 -0.016161114 0.44750559 4279902755
0.46746784 -0.016832098 0.44731161 4279771167
0.46687669 -0.017322943 0.44719476 4280165661
0.4663395 -0.017992437 0.44700074 4281412900
0.46583128 -0.018750638 0.44676825 4282531631
0.46535277 -0.019597337 0.44649717 4282729777
0.46490467 -0.020532221 0.44618762 4282861363
0.46448773 -0.021555066 0.44583946 4282796336
0.46410272 -0.02266565 0.44545275 4283519028
0.46369487 -0.023685485 0.44510466 4283978550
0.46320757 -0.024436757 0.44487217 4283978298
0.4627232 -0.025187075 0.44463971 4284043837
0.46221331 -0.025847539 0.44444579 4284174909
0.46164846 -0.026329622 0.44432896 4284240702
0.46114302 -0.026988655 0.44413504 4284438335
0.46055242 -0.027380988 0.44405675 4284438335
0.46005115 -0.028038606 0.44386286 4284504128
0.4596414 -0.02896075 0.44355333 4284767300
0.45920569 -0.029793248 0.44328234 4284767300
0.45901403 -0.033395454 0.4418925 4284373054
0.4590849 -0.035632819 0.44100493 4284109620
0.45864135 -0.036369562 0.44077253 4283780657
0.45813841 -0.036929458 0.4406172 4283714610
0.45757461 -0.03731291 0.440539 4282991916
0.45701182 -0.037696019 0.44046074 4282663469
0.45638615 -0.037903368 0.44045961 4282663469
0.45576054 -0.038110718 0.44045845 4282860596
0.45507008 -0.038142964 0.44053435 4282992184
0.4544113 -0.038262993 0.44057176 4283255615
0.45368624 -0.038208395 0.4406862 4283847752
0.45292658 -0.038066968 0.44083917 4284439880
0.45209819 -0.037751764 0.44106922 4284637763
0.45126683 -0.037437499 0.44129926 4284571968
0.45039862 -0.037037164 0.44156784 4284440382
0.44952703 -0.036637962 0.44183642 4284111928
0.4486863 -0.036326796 0.44206643 4284111415
0.44777346 -0.035842985 0.44237351 4283848245
0.44682178 -0.035273716 0.44271913 4283716659
0.44593588 -0.034879208 0.44298768 4283913538
0.4450112 -0.034399316 0.44329473 4283715907
0.444047 -0.033834204 0.44364029 4283518528
0.44315004 -0.033443406 0.44390881 4283518528
0.44221357 -0.032967389 0.44421589 4283321147
0.44127315 -0.032492697 0.44452292 4283320631
0.44032878 -0.032019287 0.44482994 4282794551
0.4393805 -0.031547204 0.44513696 4282728758
0.43842828 -0.031076416 0.44544399 4282136884
0.43750942 -0.03069286 0.44571245 4281807408
0.43666229 -0.030482143 0.44590384 4280295709
0.43581265 -0.030272245 0.44609529 4280164123
0.43499863 -0.030148849 0.44624817 4279902240
0.43418264 -0.030026078 0.44640106 4280033574
0.43324906 -0.029647425 0.44666949 4280362539
0.40760273 -0.01190193 0.45692736 4280953906
0.40660784 -0.01164186 0.45715711 4283585100
0.40574259 -0.011633724 0.45727128 4283650893
0.404787 -0.011458948 0.45746252 4283585352
0.40382892 -0.011284992 0.45765373 4283585352
0.48051435 0.013521641 0.4583866 4280230435
0.47985631 0.012910903 0.45823008 4282005298
0.47918069 0.012392491 0.45811239 4283319852
0.46824795 -0.016948506 0.4479214 4279837732
0.46773311 -0.017708123 0.44768751 4279640353
0.46716928 -0.018287614 0.44753116 4279968797
0.46663362 -0.018955946 0.44733608 4280756001
0.46612686 -0.01971285 0.44710225 4282400047
0.46567649 -0.020647377 0.44679087 4282663730
0.46520308 -0.021491379 0.44651824 4282664752
0.46473312 -0.022334263 0.44624564 4282730545
0.46432146 -0.023354113 0.44589549 4283453496
0.46383122 -0.024105549 0.44566166 4283913016
0.46339977 -0.025033832 0.44535029 4283913016
0.4628877 -0.025694326 0.44515526 4284043577
0.46234968 -0.026265293 0.44499898 4284109370
0.46178496 -0.026746914 0.4448815 4284240956
0.46122172 -0.027228042 0.44476399 4284306749
0.46065995 -0.027708724 0.44464648 4284438335
0.4602173 -0.028542548 0.44437391 4284569921
0.45968911 -0.029110208 0.44421768 4284767300
0.45946494 -0.036742762 0.44122815 4284109620
0.45899248 -0.037390143 0.44103315 4283846448
0.45839798 -0.03768535 0.44099325 4283780657
0.45780393 -0.037980378 0.44095331 4283057196
0.45730528 -0.038538262 0.44079712 4282663467
0.4566811 -0.038745135 0.44079596 4282663467
0.45605695 -0.038951993 0.44079483 4282794803
0.45536804 -0.038983986 0.44087118 4282992184
0.45464557 -0.038928971 0.44098634 4283386688
0.45392162 -0.038874432 0.44110143 4283913032
0.45316309 -0.038733169 0.44125533 4284570696
0.45236927 -0.03850548 0.44144794 4284637763
0.45150581 -0.038104534 0.4417181 4284637761
0.45067275 -0.037791684 0.44194949 4284374589
0.44980264 -0.037392944 0.44221961 4284308796
0.44892907 -0.036995351 0.44248974 4284243001
0.44805208 -0.036598876 0.44275987 4283914038
0.44710201 -0.036030322 0.44310749 4283716659
0.44618258 -0.03554976 0.44341636 4283847745
0.44525921 -0.035070524 0.4437252 4283715653
0.44433188 -0.034592569 0.44403404 4283649860
0.44340068 -0.03411594 0.44434288 4283715653
0.44246548 -0.033640593 0.44465172 4283321662
0.44152638 -0.033166587 0.44496053 4283320377
0.44054681 -0.032607809 0.44530812 4282728758
0.43959957 -0.032136455 0.4456169 4282531379
0.4386484 -0.031666398 0.44592574 4281939759
0.43776786 -0.031369299 0.44615701 4281675052
0.43688437 -0.031073153 0.4463883 4280163870
0.43607348 -0.03094925 0.44654208 4280098077
0.43529862 -0.030911595 0.44665712 4279836447
0.43444577 -0.030703455 0.44684964 4279968294
0.406905 -0.012346536 0.45766836 4283651145
0.40599668 -0.012254909 0.45782197 4284045903
0.40513086 -0.012247413 0.45793682 4283651143
0.40412956 -0.011990294 0.45816791 4283256389
0.40321511 -0.011900723 0.45832151 4283979860
0.40216327 -0.011562213 0.45859128 4284505686
0.48125884 0.013944477 0.45929068 4280164642
0.48061723 0.013241708 0.45909429 4280098849
0.47992024 0.012814671 0.45901489 4283256135
0.47924376 0.012296408 0.45889652 4283584053
0.46851152 -0.017824262 0.44829592 4279706405
0.46797222 -0.018493086 0.4480997 4279574819
0.46746129 -0.019250572 0.4478645 4279640351
0.46690097 -0.019828349 0.4477073 4280165661
0.46639544 -0.020584002 0.4474721 4281413411
0.46589291 -0.021338701 0.4472369 4282400558
0.4654471 -0.022270605 0.44692373 4282598961
0.46495092 -0.023023188 0.44668856 4282664754
0.46451253 -0.023952663 0.4463754 4283256117
0.46402273 -0.0247031 0.44614023 4283650875
0.4635638 -0.02554135 0.44586608 4283716409
0.4630239 -0.026112378 0.44570893 4284109370
0.46248597 -0.026682749 0.44555175 4284175163
0.46189272 -0.02707541 0.44547257 4284175163
0.46135825 -0.027644634 0.44531542 4284175163
0.46082574 -0.028213188 0.44515824 4284371772
0.46023643 -0.028604537 0.44507909 4284700737
0.45931211 -0.038320929 0.44132918 4284044341
0.45871928 -0.03861542 0.44128907 4283650094
0.45812693 -0.038909778 0.44124889 4282991916
0.45753509 -0.039203942 0.44120878 4282729262
0.45691192 -0.039410472 0.44120765 4282860848
0.45628873 -0.039617017 0.44120649 4282795055
0.45560092 -0.03964892 0.44128329 4282926643
0.4549121 -0.039681166 0.44136012 4283649596
0.4541567 -0.039539456 0.44151488 4284438595
0.4533993 -0.039398372 0.44166967 4284635974
0.45260668 -0.039170966 0.44186342 4284637511
0.45177802 -0.038857475 0.44209617 4285032015
0.45087883 -0.038371295 0.44240683 4284637257
0.4500438 -0.03805995 0.44263953 4284374085
0.44913721 -0.037576199 0.44295025 4284111165
0.44826126 -0.037180379 0.44322193 4283979579
0.44734704 -0.036699206 0.44353259 4283716155
0.44646394 -0.036305711 0.44380426 4283650362
0.44550687 -0.035740718 0.4441539 4283518780
0.44458088 -0.035263464 0.4444645 4283650114
0.4436152 -0.034701318 0.44481412 4283650114
0.44271708 -0.034312829 0.44508576 4283255102
0.44177929 -0.033839449 0.44539639 4283188278
0.44083756 -0.03336741 0.44570699 4282531631
0.43985516 -0.032810807 0.44605657 4282268459
0.4389053 -0.032341436 0.44636717 4281414435
0.43798876 -0.031959042 0.44663876 4280886817
0.43714371 -0.03174901 0.44683245 4279900698
0.43633395 -0.031625286 0.44698712 4279834905
0.43556023 -0.03158766 0.44710281 4279836960
0.43470854 -0.031379819 0.44729644 4279969066
0.40642703 -0.013208956 0.45821548 4282467121
0.40556303 -0.013201252 0.45833099 4283125305
0.4045637 -0.012944311 0.45856342 4281546021
0.4036063 -0.012771517 0.45875686 4280888363
0.40264642 -0.012599543 0.45895031 4282206026
0.48132476 0.013847113 0.46007839 4280033056
0.48066321 0.013236344 0.45992011 4280033056
0.48002288 0.012534678 0.45972258 4283585102
0.47932652 0.012108117 0.45964277 4283650362
0.4687238 -0.01851958 0.4487462 4279706405
0.46818528 -0.019187465 0.44854888 4279640612
0.46767509 -0.019943863 0.44831234 4279443487
0.46711558 -0.020520806 0.44815424 4279968544
0.46661082 -0.021275416 0.4479177 4281018657
0.46613562 -0.022118092 0.44764197 4282268972
0.46566385 -0.022959605 0.44736624 4282729775
0.46519554 -0.023800015 0.44709051 4282663982
0.46473065 -0.024639249 0.44681478 4283190324
0.46421403 -0.025299937 0.44661748 4283650875
0.46372768 -0.026048377 0.44638097 4283716155
0.46318811 -0.026618749 0.4462229 4283978298
0.46262217 -0.027099967 0.44610405 4284240956
0.46205771 -0.027580708 0.4459852 4284175163
0.46149468 -0.028060943 0.44586638 4284175163
0.46090409 -0.028452456 0.44578677 4284175161
0.46034381 -0.028931782 0.44566792 4284569149
0.45960039 -0.039162293 0.44166133 4283979831
0.45897794 -0.039368585 0.44166017 4283322153
0.45841807 -0.039749891 0.44158059 4282991662
0.45779613 -0.039956018 0.44157946 4282729262
0.45714238 -0.04007481 0.44161749 4282926641
0.45652017 -0.040281028 0.44161636 4282860848
0.45583344 -0.040312871 0.4416936 4282926641
0.45514569 -0.040345028 0.44177088 4283649594
0.4544242 -0.040290505 0.44188735 4284504642
0.45363522 -0.040062577 0.44208223 4284636228
0.45284373 -0.039835453 0.44227713 4284703302
0.45201632 -0.039522395 0.44251117 4284900429
0.45115221 -0.03912361 0.44278446 4284637259
0.45028463 -0.038725942 0.44305772 4284439880
0.4494136 -0.038329408 0.443331 4283913788
0.44850469 -0.037847608 0.44364345 4283782200
0.44762653 -0.037453458 0.44391668 4283650616
0.44670996 -0.036974147 0.44422913 4283453237
0.44575423 -0.036409959 0.44458079 4283650366
0.44482952 -0.03593336 0.44489318 4283452994
0.44390091 -0.035458043 0.44520563 4283584580
0.44296837 -0.034984052 0.44551802 4283123516
0.44203186 -0.034511343 0.44583043 4282991160
0.44101852 -0.033868372 0.44622123 4282662447
0.4401471 -0.033569887 0.44645524 4282399275
0.43916184 -0.03301546 0.44680682 4281217056
0.43824658 -0.032633618 0.44708002 4280558881
0.43744016 -0.032509327 0.44723558 4279834905
0.43659413 -0.032300338 0.44743037 4279834905
0.43578354 -0.032177433 0.44758591 4279902753
0.43500918 -0.032140434 0.44770229 4279969064
0.40568435 -0.013571009 0.45899633 4282665007
0.40464067 -0.01323171 0.45926929 4282204201
0.40363842 -0.012976572 0.45950302 4280165410
0.40290356 -0.013220116 0.45950168 4280956474
0.48069057 0.0133214 0.46078718 4279704859
0.48008719 0.012437224 0.46050963 4280821545
0.47946781 0.011645466 0.46027154 4281873714
0.46903715 -0.01957126 0.44903696 4279640866
0.46844921 -0.020059362 0.44891739 4279640866
0.4679144 -0.02072534 0.44871897 4279377694
0.46738207 -0.021390498 0.44852051 4279771165
0.46682584 -0.021965817 0.44836152 4280361249
0.46635133 -0.0228073 0.44808424 4281873962
0.46588027 -0.023647636 0.44780692 4282729777
0.46538559 -0.024398059 0.44756907 4282729777
0.46492118 -0.025236204 0.44729176 4283190328
0.46446019 -0.026073188 0.44701448 4283650875
0.46389142 -0.026554927 0.44689497 4283781430
0.46335217 -0.027124643 0.44673601 4284240954
0.4627583 -0.027516961 0.44665593 4284240956
0.46216539 -0.027908951 0.44657585 4284109370
0.46165985 -0.028565213 0.44637746 4284175161
0.46101159 -0.028780073 0.44637626 4284241208
0.46050912 -0.039796367 0.44199187 4283125553
0.4598574 -0.039914623 0.44203016 4283520568
0.45923617 -0.040120512 0.442029 4283125807
0.45867747 -0.040501177 0.44194901 4282663469
0.45802525 -0.040619582 0.44198728 4282925619
0.45737255 -0.040738165 0.44202557 4283254584
0.45675132 -0.040944055 0.44202441 4282991666
0.45606562 -0.040975809 0.44210213 4283254838
0.45537895 -0.041007891 0.44217986 4283583801
0.45465857 -0.040953413 0.44229698 4284570687
0.45390373 -0.040812597 0.44245356 4284833859
0.45308048 -0.040498957 0.442689 4284769347
0.4522543 -0.040186286 0.44292441 4284769349
0.45139143 -0.039788052 0.44319928 4284571464
0.45052513 -0.039390936 0.44347408 4284374085
0.44965538 -0.038994983 0.44374892 4284110913
0.44874775 -0.038513824 0.44406316 4283847993
0.44787088 -0.03812024 0.44433796 4283847225
0.44695562 -0.0376416 0.44465223 4283913018
0.44603643 -0.037164241 0.44496644 4283584580
0.44507787 -0.036602229 0.4453201 4283452996
0.44415057 -0.036127612 0.44563431 4283255617
0.44325525 -0.035740122 0.44590908 4282926652
0.44228414 -0.035182253 0.44626272 4282400308
0.44130859 -0.034625858 0.44661632 4282334513
0.44043863 -0.034327701 0.44685167 4282202927
0.4394919 -0.033859521 0.44716585 4280296477
0.4385412 -0.033392608 0.44748002 4279968035
0.43773621 -0.033268422 0.44763649 4279573275
0.43692926 -0.033144906 0.44779295 4279706144
0.4361203 -0.033022016 0.44794941 4279837730
0.43530941 -0.032899797 0.44810587 4280166956
0.46919799 -0.020085633 0.44956213 4279640866
0.4687382 -0.021018922 0.44924355 4279640866
0.46817911 -0.021594614 0.44908369 4279508765
0.46759593 -0.022080719 0.44896343 4279507993
0.46709314 -0.02283299 0.44872424 4279771167
0.46661982 -0.023673147 0.44844535 4280822303
0.46612316 -0.024423376 0.44820616 4282663984
0.46562946 -0.025172651 0.44796696 4282795570
0.46511143 -0.025832385 0.44776744 4283387192
0.46459585 -0.026491284 0.44756791 4283847995
0.46408275 -0.027149409 0.44736838 4284044091
0.46351606 -0.027630031 0.44724822 4284240956
0.46292257 -0.028021932 0.44716769 4284305979
0.46235859 -0.02850166 0.4470475 4284371772
0.46176735 -0.028892845 0.44696698 4284240186
0.46067303 -0.040285215 0.44247726 4281809448
0.46008328 -0.040578261 0.44243646 4283258434
0.45946306 -0.040783823 0.44243532 4282928176
0.45884281 -0.040989384 0.44243416 4282794035
0.45825404 -0.041282147 0.44239336 4282925367
0.45760235 -0.041400492 0.44243187 4283056953
0.45695016 -0.041519046 0.44247037 4282991414
0.45629749 -0.041637763 0.44250888 4283057205
0.45561188 -0.041669771 0.44258705 4283518778
0.45489261 -0.041615307 0.44270486 4284504894
0.45413893 -0.041474685 0.44286233 4284833859
0.45335007 -0.041248068 0.44305944 4284899650
0.45249194 -0.040849224 0.44333586 4284833857
0.45166403 -0.040537983 0.44357261 4284571198
0.45079923 -0.040141344 0.44384903 4284439612
0.44989684 -0.03965953 0.44416505 4284308026
0.44902492 -0.03926526 0.44444147 4284110647
0.44808027 -0.03869988 0.44479716 4283847225
0.44720095 -0.038308024 0.44507352 4283978811
0.44628307 -0.037831366 0.44538954 4283715907
0.44532585 -0.037270144 0.4457452 4283650114
0.44439989 -0.036796182 0.44606119 4283320895
0.44350582 -0.036409244 0.44633755 4282860344
0.4426083 -0.036023423 0.44661391 4282268722
0.44163465 -0.035467669 0.44696951 4282137138
0.44072977 -0.035084292 0.44724584 4281084972
0.43978459 -0.034616679 0.4475618 4280098077
0.43883544 -0.034150362 0.44787776 4279573023
0.43806922 -0.0341115 0.44799548 4279376927
0.43726388 -0.033987984 0.44815287 4279706659
0.43634301 -0.033609912 0.44842917 4279838245
0.4355711 -0.033572927 0.44854689 4280101163
0.46951029 -0.021134123 0.44984704 4279772452
0.46897557 -0.02179867 0.44964635 4279640866
0.46841756 -0.022373497 0.44948557 4279443487
0.46783552 -0.022858813 0.44936469 4279442200
0.46730745 -0.023521155 0.44916403 4279573788
0.46680832 -0.024271414 0.44892347 4280690717
0.46631217 -0.025020689 0.44868293 4282531885
0.46581894 -0.025768951 0.4484424 4282795057
0.46532869 -0.026516259 0.44820186 4283518008
0.46478641 -0.027085871 0.44804111 4283847995
0.46424609 -0.027654797 0.44788039 4284044091
0.46365181 -0.028046712 0.44779938 4284240956
0.46311495 -0.028614521 0.44763866 4284305725
0.4625231 -0.029005602 0.44755769 4284371518
0.46190354 -0.029308394 0.44751662 4284305466
0.46086723 -0.040860921 0.44292188 4282730552
0.46030885 -0.041240916 0.44284096 4283651654
0.45965868 -0.041358948 0.44287968 4283124531
0.45907032 -0.041651383 0.44283867 4282793781
0.4584825 -0.041943699 0.44279763 4282925367
0.45783183 -0.04206185 0.44283637 4282991414
0.45718068 -0.042180195 0.44287509 4282991414
0.45652902 -0.042298704 0.44291383 4283057205
0.45584449 -0.042330623 0.44299245 4283518776
0.45512632 -0.042276233 0.44311094 4284504894
0.45434088 -0.042049199 0.44330919 4284636480
0.45355299 -0.041822985 0.4435074 4285096515
0.45269588 -0.041424766 0.44378537 4285030720
0.45186895 -0.041114002 0.44402349 4284570685
0.45100516 -0.040717974 0.44430146 4284439099
0.45013797 -0.040323108 0.44457942 4284242233
0.44923294 -0.039843276 0.44489726 4284110647
0.44832402 -0.03936477 0.44521508 4283847225
0.44741112 -0.03888756 0.44553292 4284044604
0.44645917 -0.038325816 0.44589058 4283780928
0.44553819 -0.037851304 0.44620839 4283715905
0.44464886 -0.03746374 0.44648632 4283255354
0.44375607 -0.037077338 0.44676423 4282794803
0.44285983 -0.036692068 0.44704214 4282202927
0.44199651 -0.036393389 0.44728017 4282005552
0.44102049 -0.035839647 0.4476378 4280492580
0.44011369 -0.035457894 0.44791567 4280032029
0.43916637 -0.034992084 0.44823343 4279507484
0.43832707 -0.034782901 0.44843158 4279311388
0.43756044 -0.034744531 0.44854999 4279838245
0.43671674 -0.034536839 0.44874811 4279904038
0.46926349 -0.022754982 0.4499667 4279771937
0.46865562 -0.023151129 0.44988525 4279640351
0.46810064 -0.023724377 0.4497236 4279442200
0.4675476 -0.024296969 0.44956192 4279507993
0.46702302 -0.024957508 0.44936016 4280230938
0.46652758 -0.025705695 0.44911826 4282400045
0.46603513 -0.026452914 0.44887638 4282663217
0.46551841 -0.027110815 0.44867462 4283714358
0.4649767 -0.027679682 0.44851297 4284044091
0.46440929 -0.028159738 0.44839147 4284044091
0.46384335 -0.028639302 0.44826993 4284109370
0.4632507 -0.029030398 0.44818848 4284371518
0.46268746 -0.029509053 0.44806698 4284305725
0.46165001 -0.041143402 0.44340637 4282795305
0.46103078 -0.041348636 0.44340521 4284111428
0.46044216 -0.041641071 0.44336396 4283848256
0.45988494 -0.042020425 0.4432826 4283189813
0.45929754 -0.042312413 0.44324136 4282662447
0.45864791 -0.042430401 0.44328031 4282991414
0.45802939 -0.042635381 0.44327918 4282859826
0.45741087 -0.042840376 0.44327804 4282859826
0.45672813 -0.042871982 0.44335711 4283123252
0.45607677 -0.042990506 0.44339609 4283846710
0.4553597 -0.042936176 0.44351524 4284504640
0.45460832 -0.042795867 0.44367447 4284767812
0.45382184 -0.042569861 0.44387382 4284964931
0.45296624 -0.042172104 0.4441534 4284899136
0.45210719 -0.04177548 0.44443291 4284570685
0.45124471 -0.041380018 0.44471246 4284570685
0.45037878 -0.040985689 0.44499201 4284110136
0.44947505 -0.040506512 0.44531161 4284110136
0.44853285 -0.039942801 0.44567132 4284043839
0.44762102 -0.039466321 0.44599095 4284109632
0.44674033 -0.03907688 0.44627047 4283781182
0.44585621 -0.038688585 0.44654995 4283649596
0.4448975 -0.038130328 0.44690964 4283386940
0.4439702 -0.037659004 0.44722921 4282860596
0.44314709 -0.037445128 0.44742849 4282137388
0.44224894 -0.037061468 0.44770795 4281873451
0.44134736 -0.036678955 0.44798744 4280163615
0.44044232 -0.036297575 0.44826686 4279900443
0.43945977 -0.03574723 0.44862652 4279507482
0.43865919 -0.035623223 0.44878569 4279508765
0.43789417 -0.035584778 0.44890475 4279772966
0.43701434 -0.035292357 0.44914412 4279772966
0.43605554 -0.034831494 0.44946361 4279772966
0.47010773 -0.023136213 0.45044649 4279771935
0.46955085 -0.023709536 0.45028391 4279771935
0.46894461 -0.024104863 0.45020205 4279508763
0.46841711 -0.02476567 0.44999912 4279442200
0.46781355 -0.025160074 0.44991726 4279442200
0.46726382 -0.025731057 0.44975469 4280164121
0.46679604 -0.026566461 0.44947112 4282333482
0.4662779 -0.027224138 0.44926825 4283583026
0.4657622 -0.027881026 0.44906539 4283846198
0.46519417 -0.028360873 0.44894317 4283978296
0.46465525 -0.02892828 0.44878063 4284044089
0.46406251 -0.029319078 0.44869876 4284175163
0.46349892 -0.02979748 0.44857657 4284371518
0.46290839 -0.030187577 0.4484947 4284305725
0.46252126 -0.041687623 0.44376898 4283585588
0.46175271 -0.041456357 0.44396949 4284309309
0.46119416 -0.041835874 0.44388768 4284177471
0.46060598 -0.042128012 0.4438462 4283585334
0.46004915 -0.042506918 0.44376442 4283254834
0.45946223 -0.042798653 0.44372293 4282860080
0.45887578 -0.043090194 0.44368148 4282991412
0.45822668 -0.043208137 0.44372064 4282925873
0.45760891 -0.043412879 0.44371951 4282860080
0.45695907 -0.043531045 0.44375873 4283123250
0.45627642 -0.043562934 0.44383821 4283649331
0.45556021 -0.043508694 0.44395804 4284701505
0.45480973 -0.043368638 0.4441182 4285030470
0.4540242 -0.043143004 0.44431868 4285031238
0.4532029 -0.042832047 0.44455945 4284768577
0.45234513 -0.042435944 0.44484058 4284505405
