# .PCD v0.7 - Point Cloud Data file format
VERSION 0.7
FIELDS x y z rgb
SIZE 4 4 4 4
TYPE F F F U
COUNT 1 1 1 1
WIDTH 1040
HEIGHT 1
VIEWPOINT 0 0 0 1 0 0 0
POINTS 1040
DATA ascii
0.41340935 -0.0077602156 0.45100534 4282598191
0.41339231 -0.0070752706 0.4511103 4282993465
0.41339538 -0.0064104963 0.45101517 4282993719
0.41336828 -0.0057144333 0.45122021 4283716670
0.41336131 -0.0050390549 0.4512251 4284178248
0.41334426 -0.0043525565 0.45133007 4284309834
0.41332722 -0.003665546 0.45143503 4284309836
0.41329005 -0.0029547382 0.45174009 4284243786
0.41177964 0.0037322566 0.46628278 4279768855
0.41176215 0.0044602007 0.46638805 4279571476
0.41175476 0.0051746964 0.46639323 4280032280
0.41174737 0.0058891959 0.46639848 4280428582
0.4117299 0.0066181794 0.46650374 4280561455
0.41170231 0.0073624253 0.46670908 4280627759
0.41170502 0.0080626905 0.46661419 4280627759
0.40981096 -0.045564488 0.48321325 4281354813
0.40984374 -0.044789795 0.48281902 4280960055
0.40990704 -0.044006221 0.48212504 4281155638
0.40991953 -0.043243229 0.48193067 4279510562
0.40991172 -0.042487543 0.48193622 4279050526
0.40990388 -0.041731857 0.4819417 4279378974
0.40991643 -0.040970936 0.48174733 4279313181
0.41190192 -0.022914331 0.46058786 4281545517
0.41191515 -0.022222584 0.46039295 4281413931
0.41190791 -0.021523112 0.46039802 4281020970
0.41192117 -0.020832919 0.46020317 4279507993
0.41193444 -0.020143762 0.46000832 4279900951
0.41195798 -0.019460801 0.45971334 4281809196
0.41199178 -0.018784808 0.45931846 4282598712
0.41203585 -0.018116567 0.4588235 4282862390
0.41207996 -0.017450912 0.4583286 4282993715
0.4121241 -0.016787851 0.45783365 4283124785
0.41217852 -0.01613383 0.45723867 4282927156
0.41223297 -0.015482919 0.4566437 4282729523
0.41228747 -0.014835117 0.45604867 4282795316
0.41234198 -0.01419043 0.45545357 4282926904
0.41239655 -0.013548844 0.45485854 4282926902
0.41245112 -0.01291037 0.45426339 4283124272
0.41249546 -0.012266994 0.45376831 4283320879
0.41253984 -0.011626214 0.45327318 4283320881
0.41256365 -0.010970971 0.45297807 4283057709
0.41260806 -0.010334849 0.45248294 4282729264
0.4126319 -0.0096832346 0.45218778 4282663471
0.41265577 -0.0090331752 0.45189267 4282663469
0.41267967 -0.0083846673 0.45159751 4282269226
0.41268298 -0.0077180695 0.45150244 4282663984
0.41267598 -0.0070419125 0.45150733 4282927926
0.41266897 -0.0063657574 0.45151228 4282927672
0.41267228 -0.0057002027 0.45141715 4283716670
0.412655 -0.0050134454 0.45152211 4284375879
0.41264799 -0.0043372922 0.45152706 4284178500
0.41262037 -0.0036383923 0.45173204 4284507215
0.4125824 -0.0029268097 0.4520371 4284572497
0.41106242 0.0030238405 0.46637434 4280032532
0.41101369 0.0037921257 0.46677977 4279703315
0.4110063 0.0045076609 0.46678495 4279571729
0.41098854 0.0052371509 0.46689022 4280625444
0.41097078 0.0059671737 0.46699554 4280495141
0.41096339 0.0066832229 0.46700072 4280627246
0.41094562 0.0074140131 0.46710604 4280561966
0.40906489 -0.044805437 0.48301542 4281222974
0.40908828 -0.044035941 0.48272115 4281353017
0.40910131 -0.043271389 0.48252678 4281419070
0.40912473 -0.042504743 0.48223251 4281156668
0.40913776 -0.041742526 0.48203814 4281090875
0.41113892 -0.022898393 0.4611845 4279506191
0.41114217 -0.022200966 0.46108967 4279703315
0.41114542 -0.021504059 0.46099478 4279902491
0.41115919 -0.020812307 0.46079987 4279310867
0.41117296 -0.020121593 0.46060503 4280164123
0.41120774 -0.019442221 0.46021014 4281809450
0.41122153 -0.018754097 0.46001524 4282598966
0.41126689 -0.018084027 0.45952028 4282928183
0.41131228 -0.017416544 0.45902538 4283059765
0.41136822 -0.016757848 0.45843047 4283125301
0.41141367 -0.016095808 0.45793551 4282796340
0.41148019 -0.015449777 0.45724052 4282533168
0.41153619 -0.014800405 0.45664555 4282598709
0.41158172 -0.014146918 0.45615047 4282730295
0.41163781 -0.013503501 0.45555544 4282796340
0.41169393 -0.012863198 0.45496035 4283058992
0.41173956 -0.012217997 0.45446527 4283190065
0.41178519 -0.011575388 0.45397019 4283190065
0.41182032 -0.010926846 0.45357507 4282926893
0.41185546 -0.010280378 0.45317996 4282795055
0.41188008 -0.0096269418 0.45288485 4282729262
0.41191524 -0.0089843571 0.45248967 4282663469
0.41192934 -0.0083247311 0.45229459 4282269224
0.41193289 -0.0076563153 0.45219952 4282663982
0.41193643 -0.0069884285 0.45210439 4283124533
0.41193998 -0.0063210521 0.45200932 4283058742
0.41192243 -0.0056330077 0.45211428 4284307272
0.41192597 -0.004966151 0.45201921 4284637259
0.41191897 -0.0042887013 0.4520241 4284439880
0.4118908 -0.0035885051 0.45222914 4284637772
0.41029495 0.0030823946 0.46687132 4280756001
0.41026637 0.0038250759 0.46707666 4279637779
0.41023773 0.0045687966 0.467282 4279703572
0.41021973 0.0052995905 0.46738726 4281548859
0.41021231 0.0060166754 0.4673925 4280561966
0.41019428 0.0067482442 0.46749777 4280561964
0.41018686 0.0074655935 0.46750301 4280496171
0.4103801 -0.023585584 0.46177608 4279178517
0.41037282 -0.022882488 0.4617812 4279046931
0.41037631 -0.022183504 0.46168637 4279374354
0.41036904 -0.021480665 0.46169144 4279375126
0.41039407 -0.020791728 0.46139663 4279244308
0.41040835 -0.020099452 0.46120173 4280033305
0.41042262 -0.019408211 0.46100682 4281085993
0.41044769 -0.018723421 0.46071202 4282598966
0.41049433 -0.018051524 0.46021712 4282928183
0.41054097 -0.017382216 0.45972216 4282928953
0.41059846 -0.01672169 0.45912731 4283191353
0.41065595 -0.016064271 0.45853233 4282927926
0.41071349 -0.015409959 0.45793736 4282533168
0.41077104 -0.014758758 0.45734239 4282598709
0.41081786 -0.014103444 0.45684737 4282795834
0.41087547 -0.0134582 0.45625234 4282927156
0.41092232 -0.012808321 0.45575732 4283058990
0.41098002 -0.012169037 0.45516223 4283124783
0.41101614 -0.01151634 0.45476717 4283124783
0.41106308 -0.010874234 0.45427203 4282795818
0.41108844 -0.010217162 0.45397699 4282729775
0.41113541 -0.0095797237 0.45348185 4282663984
0.4111608 -0.008926278 0.45318675 4282729523
0.41116458 -0.0082552731 0.45309168 4282466351
0.41116837 -0.0075847898 0.45299655 4282533168
0.41118297 -0.0069248974 0.45280147 4282993717
0.41118675 -0.0062557068 0.4527064 4282993719
0.41119057 -0.0055870358 0.45261133 4284308042
0.41117269 -0.0048971754 0.45271629 4284439628
0.41116568 -0.0042179115 0.45272124 4284571468
0.40960824 0.0023333728 0.4666627 4284045637
0.40957916 0.0030750111 0.46686804 4281216036
0.40952832 0.0038445778 0.46727347 4279703570
0.40951005 0.0045751072 0.46737874 4279769363
0.40949178 0.0053061545 0.46748406 4281548348
0.40946263 0.006051939 0.46768934 4280759345
0.40944433 0.0067842789 0.46779466 4280561966
0.4095816 -0.022858907 0.46257782 4281023801
0.4095743 -0.022153735 0.46258295 4279114518
0.40958905 -0.021457307 0.4623881 4279047442
0.40959278 -0.020757284 0.46229327 4279113488
0.40960756 -0.020062674 0.46209842 4280429600
0.40963334 -0.019374248 0.46180356 4281350702
0.4096702 -0.018692784 0.46140873 4282797115
0.40970707 -0.018013392 0.46101385 4282863160
0.40976605 -0.017347926 0.46041894 4282862906
0.40982506 -0.016685568 0.45982409 4283257148
0.4098841 -0.01602632 0.45922917 4283190328
0.40994316 -0.015370181 0.4586342 4282795570
0.41000226 -0.014717149 0.45803922 4282926389
0.41005033 -0.014060006 0.45754427 4283189561
0.41010949 -0.013412934 0.45694923 4283189813
0.41015762 -0.01276123 0.45645422 4283190317
0.41020581 -0.01211212 0.45595914 4282992938
0.410254 -0.011465596 0.45546407 4282861352
0.41030219 -0.010821663 0.45496905 4282729766
0.41032833 -0.010162769 0.45467395 4282466088
0.41037658 -0.0095235035 0.45417881 4282729010
0.41039166 -0.0088589396 0.45398378 4282729525
0.41040674 -0.0081954151 0.4537887 4282466353
0.41041076 -0.0075231139 0.45369363 4282532919
0.41041479 -0.0068513304 0.45359862 4282927929
0.41041881 -0.0061800648 0.45350349 4283125305
0.41041178 -0.0054987278 0.4535085 4284242503
0.41040471 -0.0048173908 0.45351344 4284439882
0.41037551 -0.0041138399 0.45371848 4284834640
0.40891519 0.0023001619 0.46645933 4284110917
0.40888557 0.0030412748 0.46666467 4282926137
0.40881148 0.0038371868 0.4672702 4280097301
0.40879294 0.0045677125 0.46737546 4280031508
0.40876329 0.005312711 0.46758074 4282073920
0.40875587 0.0060303211 0.46758598 4281481783
0.40872619 0.006776873 0.46779132 4280693041
0.40874112 -0.022819959 0.46377432 4281221691
0.40876761 -0.022124011 0.46347958 4279773732
0.40878287 -0.021425247 0.46328473 4278982419
0.4087981 -0.020727521 0.46308994 4279310867
0.40881339 -0.020030832 0.4628951 4280495393
0.40883994 -0.019340325 0.46260023 4281613874
0.40886652 -0.01865137 0.46230543 4282928701
0.40892699 -0.017980969 0.46171057 4282928953
0.4089762 -0.017307747 0.46121573 4282928953
0.40903673 -0.016643303 0.46062082 4283257148
0.40910861 -0.015988406 0.45992595 4283255867
0.4091692 -0.015330436 0.45933104 4282729523
0.40922984 -0.014675576 0.45873606 4282926389
0.4092792 -0.014016608 0.45824111 4283189561
0.4093399 -0.013367707 0.45764613 4283321399
0.40938932 -0.012714177 0.45715111 4283190063
0.40943873 -0.012063233 0.4566561 4282992684
0.4094882 -0.011414886 0.45616102 4282926891
0.4095377 -0.010769129 0.45566595 4282729766
0.40957591 -0.010117186 0.45527089 4282465572
0.40961412 -0.0094673168 0.45487583 4282729264
0.40964103 -0.0088102296 0.45458072 4282663732
0.40964529 -0.0081355926 0.45448571 4282466353
0.40964955 -0.0074614771 0.45439065 4282664248
0.40965381 -0.0067878757 0.45429564 4282862138
0.40964675 -0.0061044674 0.45430058 4283059258
0.40961698 -0.0053998828 0.45450568 4284242501
0.4095872 -0.0046942625 0.45471066 4284439880
0.40954608 -0.0039765034 0.45501578 4284834638
0.40829873 0.0014767535 0.4656505 4284242503
0.40824589 0.0022411123 0.46605587 4284176971
0.40818167 0.003020715 0.46656132 4283452994
0.40812877 0.0037894845 0.46696675 4280162835
0.40808722 0.00454662 0.4672721 4280228628
0.40806842 0.0052774064 0.46737736 4282401855
0.40804964 0.006008707 0.46748269 4282073920
0.40800804 0.0067694671 0.46778804 4280693041
0.40794894 -0.021384504 0.46438128 4279180564
0.40798777 -0.020693172 0.46398652 4279639830
0.40800351 -0.019994147 0.46379173 4280297760
0.40804237 -0.019306444 0.46339691 4282402103
0.40808126 -0.018620813 0.46300215 4283059517
0.40814328 -0.017948581 0.46240729 4282993974
0.40819377 -0.017273534 0.46191245 4283125303
0.40825582 -0.016607258 0.4613176 4283059769
0.40832949 -0.015950531 0.46062273 4283257148
0.40839162 -0.015290732 0.46002781 4282664754
0.40844223 -0.014627086 0.45953286 4282796340
0.40850443 -0.013973247 0.45893794 4282993719
0.40856665 -0.013322514 0.45834297 4283191096
0.40862894 -0.012674894 0.45774794 4283059508
0.40867966 -0.012022385 0.45725298 4282927922
0.40873039 -0.011372468 0.45675796 4283190578
0.40876958 -0.01071663 0.4563629 4282795566
0.4088088 -0.010062864 0.45596784 4282466092
0.40884805 -0.0094111711 0.45557278 4282663984
0.4088757 -0.0087522659 0.45527774 4282597685
0.4088918 -0.0080853589 0.45508271 4282597685
0.4088963 -0.0074096825 0.45498765 4282730043
0.4088892 -0.0067244601 0.45499265 4282796088
0.40887052 -0.0060289148 0.45509768 4283189813
0.40884021 -0.0053222626 0.45530272 4284373054
0.40879831 -0.0046037287 0.45560783 4284438847
0.40774453 0.00059554726 0.46434146 4284571466
0.40763256 0.0014187731 0.46524704 4284374087
0.40757868 0.0021820888 0.46565241 4283979331
0.4074899 0.0029869974 0.46635795 4284110917
0.40742433 0.0037686601 0.46686333 4281083933
0.40741694 0.0044844523 0.46686858 4280623382
0.40736297 0.0052560531 0.46727401 4281809200
0.40733227 0.0060013086 0.46747935 4282272069
0.4070695 -0.022040078 0.46587259 4281023031
0.40712109 -0.021348178 0.46537787 4279246104
0.40717274 -0.020658873 0.46488315 4280495393
0.40720078 -0.019962391 0.46458834 4281219116
0.40724066 -0.019272603 0.46419358 4282533943
0.40729237 -0.018590292 0.4636988 4283125308
0.4073559 -0.01791623 0.46310401 4282993974
0.4074077 -0.017239356 0.46260917 4283191096
0.4074831 -0.016577428 0.46191436 4283059767
0.40754676 -0.015912691 0.46131945 4283191353
0.40761042 -0.015251063 0.46072459 4282730547
0.4076623 -0.01458559 0.46022969 4282927924
0.40772605 -0.013929922 0.45963478 4283059510
0.40778983 -0.013277361 0.45903981 4283125301
0.4078536 -0.012627907 0.45844483 4283125301
0.40790561 -0.011973575 0.45794982 4283059508
0.40795761 -0.01132183 0.45745486 4283190324
0.40799785 -0.010664169 0.4570598 4282861359
0.40803808 -0.010008575 0.4566648 4282466351
0.40807831 -0.0093550608 0.45626974 4282795316
0.40811861 -0.0087036192 0.45587468 4282597937
0.40812331 -0.0080256071 0.45577967 4282597937
0.40812808 -0.0073481183 0.45568466 4282795316
0.40812096 -0.0066610835 0.45568967 4282861363
0.40810201 -0.0059637204 0.45579469 4282926893
0.40807116 -0.0052552633 0.45599973 4283519030
0.40801659 -0.0045240875 0.45640486 4284439612
0.40793824 -0.0037686396 0.45701009 4284768579
0.40724447 -0.00032739341 0.46263242 4284899911
0.4070946 0.00052625686 0.46383798 4284899911
0.40698031 0.0013481602 0.46474355 4284702532
0.40688977 0.0021489076 0.46544904 4284308546
0.40681106 0.0029401109 0.4660545 4284308544
0.40674421 0.0037209913 0.46655995 4283124785
0.40670112 0.0044770725 0.4668653 4281743132
0.40663421 0.005262617 0.46737081 4281348645
0.40618238 -0.022703508 0.46736372 4281616189
0.40622318 -0.022002313 0.46696907 4280693039
0.40628809 -0.021311913 0.4663744 4279311384
0.40634099 -0.02062 0.46587968 4281217059
0.40639392 -0.019930677 0.46538496 4281940782
0.40644687 -0.019243948 0.46489024 4282730804
0.40649986 -0.01855981 0.46439546 4283125562
0.40656495 -0.017883919 0.46380067 4283191353
0.406618 -0.017205218 0.46330589 4283125558
0.40669522 -0.016541457 0.46261108 4283125560
0.40676039 -0.015874891 0.46201622 4283191353
0.4068135 -0.015204741 0.46152139 4282599216
0.40687874 -0.014544131 0.46092647 4282928181
0.40694404 -0.013886632 0.46033156 4283125303
0.40700933 -0.013232246 0.45973665 4283191096
0.40707466 -0.012580963 0.45914173 4283191094
0.40711585 -0.011916813 0.45874673 4283125301
0.40718123 -0.011271231 0.4581517 4282993715
0.40723455 -0.010620253 0.45765674 4282927152
0.4072758 -0.0099630971 0.45726168 4282663984
0.40730497 -0.0092989914 0.4569667 4282729777
0.40734628 -0.0086457226 0.45657164 4282729777
0.40735126 -0.0079658944 0.45647669 4282597937
0.40735623 -0.0072865915 0.45638162 4282861363
0.40736121 -0.0066077989 0.45628667 4282927156
0.40732986 -0.0058985669 0.45649171 4282926893
0.40728635 -0.0051777232 0.45679682 4283650616
0.40724286 -0.0044553224 0.45710188 4284571198
0.40717506 -0.0037091728 0.45760715 4284768577
0.407083 -0.0029377267 0.45831239 4284571970
0.40677741 -0.0012651905 0.46072334 4284637763
0.40657595 -0.00037106872 0.46232903 4284769349
0.40642297 0.00048177689 0.46353465 4284703556
0.40633067 0.0012775846 0.46424007 4284637763
0.40622616 0.0020899214 0.46504557 4284571716
0.40612161 0.0029064082 0.46585113 4284374337
0.40604132 0.0037001856 0.46645665 4283915071
0.40527523 -0.023371205 0.4689548 4281879361
0.40532935 -0.02266866 0.4684602 4280628524
0.40537113 -0.021964602 0.46806556 4279838241
0.40543759 -0.021271337 0.46747088 4280034842
0.40550408 -0.020581182 0.46687621 4282007081
0.40555829 -0.019889256 0.46638155 4282270253
0.40563715 -0.019210193 0.46568686 4282731054
0.40569142 -0.018523969 0.46519208 4283059508
0.40575802 -0.017845986 0.46459734 4283454266
0.40582466 -0.017171115 0.46400255 4283191351
0.40589136 -0.016499352 0.46340775 4283191351
0.40595806 -0.015830696 0.46281296 4283191351
0.40602481 -0.01516515 0.46221811 4282862386
0.40609157 -0.014502712 0.46162325 4282730802
0.40615839 -0.013843387 0.46102834 4283059767
0.4062252 -0.013187168 0.46043342 4283191096
0.40627974 -0.01252633 0.45993853 4283191096
0.40633428 -0.01186808 0.45944357 4283125303
0.40640122 -0.011220669 0.4588486 4283190326
0.40644345 -0.010559358 0.45845366 4283058740
0.40649807 -0.0099088829 0.45795858 4282861109
0.40654036 -0.0092519764 0.45756364 4282795316
0.40657032 -0.0085878633 0.4572686 4282861109
0.40657553 -0.0079062209 0.45717359 4282597937
0.40658078 -0.0072251 0.45707858 4283058742
0.40658599 -0.006544495 0.45698363 4283190324
0.40654171 -0.0058231391 0.45728874 4282992684
0.40652218 -0.0051213764 0.45739383 4283913786
0.40647787 -0.0043974333 0.45769894 4284702782
0.40640879 -0.0036497451 0.45820409 4284768829
0.40632728 -0.0028881114 0.45880932 4284440382
0.40620857 -0.0020885281 0.45971471 4284703554
0.40607741 -0.0012724102 0.46072012 4284637761
0.405909 -0.00041472539 0.4620257 4284637761
0.40575293 0.00043731183 0.46323127 4284637761
0.40563399 0.001257617 0.46413678 4284571968
0.40553984 0.0020567775 0.4648422 4284571970
0.40435991 -0.02404728 0.47054577 4282207556
0.4044278 -0.023342859 0.46995121 4282076487
0.40448314 -0.022637708 0.46945667 4281022517
0.40453854 -0.021935148 0.46896201 4279903774
0.40459394 -0.021235179 0.46846735 4281284646
0.40467456 -0.020547029 0.46777278 4281745197
0.40475518 -0.01986251 0.46707815 4282271023
0.40481067 -0.019171346 0.46658343 4282730800
0.4048788 -0.018488171 0.4659887 4283125301
0.40495953 -0.017813753 0.465294 4283322682
0.40504029 -0.017142961 0.46459925 4283256889
0.40510851 -0.016469628 0.46400446 4283191096
0.40517676 -0.015799401 0.46340966 4283191353
0.40524507 -0.015132286 0.46281487 4282862386
0.40528816 -0.014454383 0.46241999 4282730802
0.4053565 -0.013792967 0.46182513 4283191094
0.40542486 -0.013134658 0.46123022 4283321910
0.40549329 -0.012479462 0.4606353 4283387703
0.40554911 -0.011819385 0.46014041 4283190326
0.40560496 -0.011161901 0.45964545 4283190326
0.4056482 -0.010498509 0.45925051 4283124533
0.40570411 -0.0098459478 0.45875549 4282598707
0.40576005 -0.0091959797 0.45826054 4282664500
0.40579075 -0.0085300412 0.45796549 4282664500
0.4057962 -0.0078465845 0.45787054 4282532914
0.40581429 -0.0071734432 0.45767558 4282796086
0.40580714 -0.0064812247 0.45768058 4283255606
0.40576208 -0.005758062 0.4579857 4283190063
0.40575489 -0.0050650667 0.45799077 4283979579
0.40572244 -0.0043504108 0.45819587 4284703034
0.40565205 -0.0036014412 0.45870101 4284768827
0.40558159 -0.002849875 0.45920628 4284571196
0.40548584 -0.0020725019 0.45991153 4284834368
0.40536475 -0.0012677573 0.46081692 4284768325
0.4052183 -0.00043410435 0.46192241 4284768579
0.40508443 0.00039286911 0.46292788 4284834370
0.40355706 -0.024034861 0.47114229 4282076738
0.40360084 -0.023321718 0.47074765 4280497968
0.40364462 -0.022610646 0.47035307 4280232488
0.40370131 -0.021905741 0.46985847 4281282852
0.40378365 -0.021212135 0.46916389 4282401835
0.40385321 -0.020517539 0.46856928 4282533421
0.40393561 -0.019830927 0.46787471 4282468398
0.40401807 -0.019147944 0.46718007 4282730800
0.40408772 -0.018463194 0.46658534 4282993715
0.40417027 -0.017787203 0.46589065 4283387705
0.40425283 -0.017114839 0.46519589 4283321912
0.40432259 -0.016439933 0.46460116 4283321912
0.40436667 -0.015755285 0.46420634 4283256889
0.40443647 -0.015086081 0.46361154 4282665007
0.40450633 -0.014419984 0.46301675 4282664750
0.40457621 -0.013757002 0.46242189 4283321910
0.40463325 -0.013089659 0.461927 4283321397
0.4047032 -0.012432631 0.46133214 4283387190
0.4047603 -0.011770729 0.46083724 4283321397
0.40483028 -0.011119656 0.46024227 4283321910
0.40487456 -0.010454699 0.45984733 4283190324
0.40493175 -0.0098005701 0.45935237 4282861359
0.40497607 -0.0091400165 0.45895743 4282598959
0.40500754 -0.0084722582 0.45866239 4282598959
0.40502614 -0.0077965185 0.45846748 4282598959
0.40501893 -0.0071022287 0.45847255 4282927154
0.40503755 -0.0064280443 0.45827752 4283124022
0.40500456 -0.0057136472 0.45848262 4283190063
0.40498447 -0.0050087888 0.45858771 4284242751
0.40495151 -0.0042925794 0.45879281 4284769081
0.40489268 -0.0035531577 0.459198 4284965179
0.40482095 -0.0028003082 0.45970321 4285030720
0.40476209 -0.0020564832 0.4601084 4285030720
0.40466449 -0.0012749806 0.4608137 4284965191
0.40452808 -0.00045347959 0.46181917 4284899398
0.40275109 -0.024022477 0.47173876 4281748027
0.40280899 -0.023311339 0.47124422 4280234534
0.40282762 -0.022591297 0.47104955 4280428833
0.40288556 -0.021884564 0.47055495 4282598964
0.40296972 -0.021189127 0.46986043 4282533673
0.40305388 -0.020497315 0.46916586 4282731052
0.40312502 -0.019804258 0.46857125 4282731052
0.40320927 -0.019119442 0.46787661 4282928174
0.40328047 -0.018432865 0.46728194 4282928176
0.40335166 -0.017749395 0.4666872 4283387705
0.40344915 -0.017080842 0.46589255 4283256119
0.40353355 -0.016410273 0.4651978 4283256119
0.40357864 -0.015724061 0.46480304 4283321910
0.40365002 -0.015053285 0.46420825 4282599214
0.40372139 -0.014385616 0.46361345 4282664752
0.40377969 -0.013713863 0.46311861 4283190324
0.40385112 -0.013052154 0.46252382 4283256117
0.40392262 -0.012393555 0.4619289 4283256117
0.40398097 -0.011730086 0.46143401 4283321910
0.40405253 -0.011077447 0.46083909 4283321910
0.40408468 -0.010402422 0.46054417 4283190324
0.40414315 -0.0097464658 0.46004927 4282861359
0.40420163 -0.0090931077 0.45955426 4282730027
0.4042207 -0.0084145106 0.45935929 4282729773
0.4042398 -0.007736953 0.45916438 4282729775
0.40424573 -0.0070506427 0.45906943 4282927156
0.40423855 -0.0063547995 0.4590745 4283058742
0.4042182 -0.0056486428 0.45917958 4282927156
0.40419781 -0.004941972 0.45928466 4284046403
0.40416428 -0.0042239558 0.45948976 4284507458
0.40411758 -0.0034938194 0.45979494 4284899902
0.40408406 -0.0027734637 0.46000004 4285228099
0.40402415 -0.0020288713 0.46040523 4285096513
0.40395105 -0.0012703426 0.4609105 4284899398
0.40192291 -0.024734575 0.47252977 4281943870
0.40196872 -0.024016745 0.47213525 4281022768
0.40198785 -0.023293849 0.47194064 4280890919
0.40203369 -0.022579648 0.47154605 4281679402
0.40210626 -0.021875694 0.4709515 4282337586
0.4021655 -0.021170504 0.47045696 4282599984
0.40223813 -0.020472512 0.4698624 4282928949
0.40232414 -0.019782495 0.46916777 4282993967
0.40241018 -0.019096103 0.4684732 4282927658
0.40248293 -0.018407952 0.46787852 4282992938
0.40256903 -0.01772856 0.46718389 4283387190
0.40265521 -0.01705279 0.4664892 4283321910
0.40271467 -0.016368322 0.46599442 4283190324
0.40280089 -0.01569929 0.46529973 4283256117
0.4028604 -0.015020521 0.46480495 4282599214
0.40293333 -0.014351284 0.46421015 4282795570
0.4029929 -0.01367796 0.46371537 4282861359
0.40306589 -0.01301468 0.46312052 4282927152
0.40313891 -0.012354514 0.46252567 4283124531
0.40319857 -0.011689473 0.46203083 4283256371
0.40324485 -0.011018794 0.46163595 4283322164
0.40330458 -0.01035868 0.46114099 4283190578
0.4033643 -0.0097011589 0.46064603 4282861613
0.40341067 -0.0090372153 0.46025115 4282795820
0.40343025 -0.0083568003 0.46005619 4282927152
0.40344983 -0.0076774266 0.45986128 4282729773
0.40344262 -0.0069795102 0.45986634 4282927156
0.40343538 -0.006281592 0.45987141 4282993719
0.40341476 -0.0055733696 0.45997649 4282993719
0.40340751 -0.0048751943 0.45998162 4283915076
0.40337348 -0.0041553676 0.46018672 4284178750
0.4033528 -0.0034455899 0.46029186 4284900415
0.40331873 -0.0027239509 0.46049696 4285097027
0.40094107 -0.025420161 0.47442043 4281285687
0.40108302 -0.024717715 0.47332615 4280825136
0.40114346 -0.02400111 0.47283167 4281088561
0.40119028 -0.02328353 0.47243714 4282534195
0.40123716 -0.022568023 0.47204256 4282469420
0.40129766 -0.021858674 0.47154802 4282534191
0.40135819 -0.021151915 0.47105348 4282599984
0.40141872 -0.020447746 0.47055888 4282863158
0.40150654 -0.019755898 0.46986431 4282993974
0.40160799 -0.019072795 0.46906972 4283190324
0.40168226 -0.018383078 0.4684751 4283256371
0.40175655 -0.017696468 0.46788049 4283321910
0.40184453 -0.017018864 0.4671858 4283190324
0.40191889 -0.016338732 0.46659106 4283321912
0.40197966 -0.015655287 0.4660964 4283058738
0.40205407 -0.014981113 0.46550161 4282598187
0.40212855 -0.014310049 0.46490687 4282795820
0.40220302 -0.013642091 0.46431208 4282861613
0.40226391 -0.012969788 0.46381724 4282927406
0.40233845 -0.012307787 0.46322244 4283058992
0.40239939 -0.011640925 0.46272755 4283256371
0.40246037 -0.010976654 0.46223265 4283322164
0.40252134 -0.010314971 0.46173781 4283124783
0.4025687 -0.009647131 0.46134287 4282861611
0.40260243 -0.0089723561 0.46104795 4282730025
0.40263617 -0.0082991309 0.46075308 4282795566
0.40265626 -0.0076179355 0.46055812 4282663980
0.40264902 -0.0069182049 0.46056324 4282926902
0.40264177 -0.0062184744 0.46056831 4283190074
0.40262085 -0.0055084433 0.46067345 4283058488
0.40259993 -0.0047978871 0.46077853 4284112196
0.40257901 -0.0040868167 0.46088368 4284310336
0.40255809 -0.0033752304 0.46098876 4284769599
0.40245503 -0.0025950838 0.46169406 4284769599
0.40008035 -0.025402654 0.47531664 4281416241
0.40015587 -0.024682609 0.47472227 4281153069
0.40023139 -0.023965672 0.47412789 4281877044
0.40033472 -0.023258975 0.47333348 4282272043
0.40039644 -0.02254495 0.472839 4282797869
0.40045822 -0.021833513 0.47234446 4282600236
0.40052003 -0.021124672 0.47184986 4282600236
0.40060958 -0.02042762 0.47115541 4282863156
0.40068531 -0.019729337 0.47056079 4282928179
0.40077496 -0.019039283 0.46986628 4283124785
0.40086463 -0.018352855 0.46917164 4283256371
0.40094045 -0.017664414 0.46857703 4283387703
0.40101632 -0.016979082 0.46798235 4283256117
0.40109223 -0.016296862 0.46738768 4283256121
0.40116817 -0.015617747 0.466793 4282861361
0.4012441 -0.014941743 0.46619827 4282598189
0.40133402 -0.014275778 0.46550351 4282795566
0.40141004 -0.013606254 0.46490878 4282861613
0.40147221 -0.012932381 0.46441394 4283058992
0.4015483 -0.012268811 0.46381915 4283058738
0.40159661 -0.011592411 0.46342432 4283190578
0.40165883 -0.010926312 0.46292943 4283322164
0.40172109 -0.010262804 0.46243459 4283124531
0.40176946 -0.0095931366 0.46203971 4282926893
0.40181786 -0.008925546 0.46164483 4282795307
0.40183845 -0.008241497 0.46144992 4282795055
0.40185905 -0.0075584836 0.46125495 4282663984
0.40185177 -0.0068569407 0.46126008 4282926904
0.4018445 -0.006155394 0.46126521 4283190076
0.40180939 -0.0054332465 0.46147037 4282926904
0.40180212 -0.0047311857 0.46147543 4284177989
0.40178093 -0.0040183067 0.46158057 4284375872
0.4017458 -0.0032938328 0.46178573 4284769858
0.40169668 -0.0025569778 0.46209097 4284769858
0.39915854 -0.025374055 0.47661281 4281812023
0.39923555 -0.024650624 0.47601843 4282337584
0.39934087 -0.023936912 0.47522408 4282534445
0.39943206 -0.02322378 0.47452968 4282600236
0.39950919 -0.022510456 0.47393525 4282797617
0.39958638 -0.021800239 0.47334075 4282797363
0.39967769 -0.02109747 0.4726463 4282731570
0.39975491 -0.020393729 0.4720518 4283059767
0.39983219 -0.019693099 0.47145724 4283059508
0.39992362 -0.019000694 0.47076267 4283255858
0.40001509 -0.018311916 0.47006816 4283321651
0.40009245 -0.017621126 0.46947354 4283453496
0.40018398 -0.016939342 0.46877897 4283453496
0.4002614 -0.016255032 0.46818423 4283190326
0.40035304 -0.015580244 0.4674896 4282927154
0.40043053 -0.014902409 0.46689492 4282598957
0.40050805 -0.014227679 0.46630019 4282664750
0.40059978 -0.013563259 0.46560544 4282730543
0.40066323 -0.012887562 0.46511066 4282927922
0.40074086 -0.01222216 0.46451586 4283124785
0.40080434 -0.011551905 0.46402103 4283124785
0.40086785 -0.010884235 0.46352619 4283190326
0.40093139 -0.010219159 0.46303135 4283058740
0.4009808 -0.0095479302 0.46263647 4283058740
0.40101603 -0.0088697691 0.46234161 4282991662
0.40105128 -0.0081931613 0.46204674 4282860080
0.4010582 -0.0074990708 0.46195179 4282860080
0.40106511 -0.0068054907 0.4618569 4282861109
0.40104365 -0.0060923547 0.46196204 4283124281
0.40102217 -0.0053786952 0.46206719 4282927672
0.40101489 -0.0046750791 0.46207231 4284375368
0.40097922 -0.0039498322 0.46227747 4284507206
0.40094352 -0.003223544 0.46248263 4285032780
0.40087944 -0.0024735536 0.46288788 4284835401
0.39824435 -0.025348306 0.47780883 4282337593
0.39832288 -0.024621751 0.47721452 4282666549
0.39841586 -0.023901608 0.47652018 4282731822
0.39850885 -0.023185089 0.47582585 4282862892
0.3985875 -0.022468381 0.47523141 4282928433
0.39866617 -0.021754779 0.47463697 4282994226
0.39877367 -0.021052964 0.47384256 4282862390
0.39886683 -0.020350693 0.47314811 4283125303
0.39895999 -0.019652052 0.47245365 4282993715
0.39905322 -0.018957037 0.47175914 4283322164
0.39914647 -0.01826565 0.47106463 4283256371
0.39925417 -0.017583521 0.47027004 4283322164
0.39936191 -0.016905537 0.46947551 4283453498
0.39942646 -0.016213244 0.46898085 4283125303
0.39953429 -0.015542775 0.4681862 4283059508
0.3995989 -0.014856443 0.46769154 4282598957
0.39970681 -0.014193485 0.46689683 4282664752
0.39978591 -0.013520299 0.4663021 4282664752
0.39986503 -0.012850221 0.46570736 4282927922
0.39992976 -0.012175545 0.46521258 4283059762
0.40000898 -0.011511425 0.46461779 4283124785
0.40007377 -0.010842189 0.46412295 4282927926
0.40013859 -0.010175547 0.46362811 4283058742
0.40018898 -0.0095027518 0.46323329 4283058742
0.40022501 -0.0088230316 0.46293837 4282991664
0.40026101 -0.0081448629 0.4626435 4282991666
0.40026817 -0.0074492097 0.46254867 4282860080
0.40026087 -0.0067442972 0.4625538 4282926643
0.40025356 -0.0060393848 0.46255893 4283124022
0.40021738 -0.0053138807 0.46276408 4283190074
0.40019563 -0.0045978986 0.46286923 4284374852
0.40015942 -0.0038705803 0.46307439 4284441415
0.40015212 -0.0031643771 0.46307951 4284836173
0.39718539 -0.026045321 0.47999907 4282863156
0.3972947 -0.025317058 0.47920483 4282862386
0.39743328 -0.024599019 0.47821069 4282994742
0.39752802 -0.023876265 0.47751641 4283059765
0.39759353 -0.023150025 0.47702199 4283059762
0.39768836 -0.022434007 0.47632766 4283191094
0.39776856 -0.021717539 0.47573328 4282993715
0.39786345 -0.021008518 0.47503889 4282927672
0.397973 -0.020307716 0.47424448 4283125305
0.39808264 -0.019611057 0.47345001 4283059510
0.39819229 -0.018918546 0.47265559 4283387190
0.39830199 -0.018230181 0.47186106 4283453237
0.39841175 -0.017545957 0.47106653 4283650616
0.39852154 -0.016865881 0.470272 4283848254
0.39863136 -0.016189948 0.46947742 4283980610
0.39869723 -0.015498936 0.46898276 4283980862
0.39879248 -0.014823852 0.46828812 4282664750
0.39887309 -0.014145467 0.46769345 4282730547
0.3989684 -0.013477378 0.46699876 4282730547
0.39904907 -0.012805469 0.46640402 4282993717
0.39912975 -0.012136674 0.46580923 4282993715
0.39921048 -0.011470981 0.46521449 4282993719
0.39927655 -0.010800179 0.46471965 4283059258
0.39934266 -0.010131966 0.46422482 4283124281
0.39940879 -0.0094663445 0.46372998 4283058488
0.39943087 -0.008776322 0.46353513 4282795057
0.39946765 -0.0080965906 0.46324033 4282860850
0.39947504 -0.0073993839 0.46314543 4282795057
0.39948243 -0.0067026913 0.46305054 4282926643
0.39947513 -0.0059964843 0.46305573 4283189815
0.39943838 -0.0052696913 0.46326089 4283387194
0.39940166 -0.004541859 0.46346605 4284044604
0.39937964 -0.0038238037 0.46357119 4284768845
0.39935759 -0.0031052362 0.46367639 4284768845
0.39578855 -0.028226212 0.48447692 4283125553
0.39604855 -0.027500058 0.48268336 4283060014
0.39623424 -0.026771933 0.48138946 4283256623
0.39633065 -0.02603543 0.48069531 4283322416
0.39641222 -0.025299776 0.48010099 4283256369
0.39647892 -0.024564195 0.47960669 4283257144
0.39663503 -0.023850981 0.47851259 4283125560
0.39670178 -0.023122134 0.47801822 4282927922
0.3967984 -0.022403507 0.47732389 4283125560
0.39686522 -0.021680361 0.47682947 4283059767
0.3969619 -0.020968471 0.47613508 4282993974
0.39708841 -0.020269386 0.47524077 4283125303
0.39721501 -0.01957497 0.4743464 4282993717
0.39734164 -0.018885214 0.47345197 4283387190
0.39745337 -0.018194752 0.4726575 4283716409
0.39756519 -0.017508436 0.47186303 4283913788
0.39769194 -0.016832152 0.47096848 4284045887
0.39780384 -0.016154384 0.47017395 4284243014
0.39787096 -0.015461547 0.46967936 4284243784
0.39796799 -0.014784629 0.46898472 4283453248
0.39806509 -0.014111338 0.46829003 4283256385
0.39814726 -0.013434496 0.46769536 4283124799
0.39824438 -0.012768198 0.46700066 4282993465
0.39832664 -0.01209783 0.46640593 4283125051
0.39840889 -0.011430569 0.46581113 4283322430
0.39847624 -0.010758199 0.46531636 4283059258
0.39854363 -0.010088418 0.46482158 4282993719
0.39861104 -0.0094212294 0.46432674 4282796340
0.39864856 -0.0087386444 0.46403193 4282795568
0.39867115 -0.0080483556 0.46383703 4282795568
0.39867878 -0.0073495861 0.4637422 4282663982
0.39868644 -0.0066513401 0.46364737 4283124018
0.39867911 -0.0059435777 0.46365255 4283321397
0.39865682 -0.0052255243 0.46375769 4283649594
0.39864948 -0.0045175049 0.46376282 4284241479
0.39862719 -0.0037986822 0.46386802 4284899409
0.39858991 -0.0030682646 0.46407318 4284965456
0.39471638 -0.02896516 0.48656672 4283125560
0.39489013 -0.028218422 0.48537296 4283191348
0.39509419 -0.027481897 0.48397923 4283125807
0.39526805 -0.026748111 0.48278534 4283125807
0.3954117 -0.026015511 0.48179132 4283322414
0.39550993 -0.025279768 0.4810971 4283387957
0.39562336 -0.024550686 0.48030293 4283586113
0.39570653 -0.023819162 0.47970867 4283125560
0.39582002 -0.02309785 0.47891444 4282993717
0.39588809 -0.022369251 0.47842008 4283191096
0.39598653 -0.02165138 0.47772574 4283191353
0.39608499 -0.020937139 0.47703135 4282993974
0.39621383 -0.020235701 0.47613704 4282993974
0.39632753 -0.019534081 0.47534269 4282928181
0.39645645 -0.01884171 0.47444832 4283321912
0.39658543 -0.018154005 0.47355396 4283453498
0.39671448 -0.01747096 0.47265947 4283782461
0.39679798 -0.016774924 0.47206497 4283783231
0.39692712 -0.016100431 0.47117043 4284112196
0.39704108 -0.015424196 0.4703759 4284308809
0.39713991 -0.014745446 0.46968132 4283848006
0.39723879 -0.014070321 0.46898663 4283453248
0.39733768 -0.013398828 0.46829194 4283255869
0.39742142 -0.01272352 0.46769732 4283190076
0.39752039 -0.012059018 0.46700257 4283255869
0.3976042 -0.011390189 0.46640784 4283387453
0.39767283 -0.010716246 0.46591306 4283190074
0.3977415 -0.010044901 0.46541828 4283124535
0.39777976 -0.0093586817 0.46512347 4282861363
0.39783326 -0.0086830053 0.46472865 4282861359
0.39785635 -0.0079908948 0.46453387 4282795566
0.39787945 -0.0072998237 0.46433902 4282598189
0.39788732 -0.0066000186 0.46424413 4283190324
0.39789522 -0.0059007313 0.4641493 4283256117
0.39787266 -0.0051813871 0.46425444 4283650362
0.3978653 -0.0044720732 0.46425962 4284570446
0.39785796 -0.0037627574 0.46426481 4284965202
0.3978354 -0.0030423719 0.46437001 4284964941
0.39347216 -0.030477596 0.48975009 4283454527
0.39366424 -0.029717537 0.48845649 4283388734
0.393841 -0.028962735 0.48726285 4283256891
0.39400241 -0.028212417 0.48616898 4283387707
0.39416391 -0.027467795 0.48507512 4283453496
0.39434084 -0.02673113 0.48388129 4283453496
0.39447165 -0.025993139 0.48298728 4283519028
0.39457166 -0.025254268 0.48229313 4283650364
0.39468712 -0.024522055 0.48149896 4283716670
0.39480263 -0.023793986 0.48070478 4283125305
0.39488736 -0.023062963 0.48011047 4283059510
0.39500296 -0.022342667 0.47931629 4283256889
0.39510316 -0.021622449 0.47862202 4283256891
0.39521885 -0.020910185 0.47782767 4283256894
0.39533457 -0.020202063 0.47703338 4283125308
0.39545032 -0.019498087 0.47623903 4283059515
0.39559698 -0.018808469 0.4752447 4282927924
0.39571285 -0.0181133 0.47445035 4283256889
0.39584416 -0.017427901 0.47355592 4283586109
0.39597556 -0.016747164 0.47266144 4283651902
0.39607611 -0.01605881 0.47196692 4284046403
0.39619213 -0.015380481 0.47117239 4284506184
0.39629275 -0.01469964 0.47047782 4284045637
0.39640886 -0.014029343 0.46968323 4284243016
0.39650956 -0.013356017 0.4689886 4283387707
0.39661029 -0.012686316 0.46829391 4283124281
0.39669561 -0.012012545 0.46769923 4283189822
0.39676547 -0.011333929 0.46720451 4283387455
0.39683539 -0.010657908 0.46670973 4283255356
0.39690533 -0.0099844746 0.46621495 4283321149
0.39697528 -0.0093136299 0.46572024 4282861363
0.39701432 -0.0086273998 0.46542537 4282861361
0.39703792 -0.0079334751 0.46523058 4282861361
0.39709246 -0.0072595999 0.46483576 4282663730
0.3970851 -0.0065487288 0.46484095 4282993724
0.39710873 -0.0058579128 0.4646461 4283059517
0.39710137 -0.0051475614 0.46465123 4283584832
0.39709401 -0.0044372119 0.46465641 4284702032
0.39708668 -0.0037268568 0.4646616 4284899150
0.39707932 -0.0030165035 0.46466678 4284964943
0.39263365 -0.030481774 0.49014634 4283454527
0.3927978 -0.029718211 0.48905259 4283388734
0.3929933 -0.028963298 0.48775899 4283322684
0.3931419 -0.028209921 0.48676515 4283585086
0.39329055 -0.027461722 0.48577124 4283585086
0.39343926 -0.026718708 0.48477733 4283453498
0.39357236 -0.025978362 0.48388332 4283453496
0.39368984 -0.025239911 0.48308927 4283781950
0.39382303 -0.024508633 0.4821952 4283716670
0.39392492 -0.023775442 0.48150098 4283191098
0.39402685 -0.023045879 0.48080677 4283191096
0.3941288 -0.022319943 0.48011249 4283256889
0.39423081 -0.021597631 0.47941822 4283454270
0.39434853 -0.020883271 0.47862399 4283454275
0.39448199 -0.02017764 0.47772974 4283256896
0.39458412 -0.019466989 0.47703534 4283191103
0.39471766 -0.018770168 0.47614104 4282993715
0.39485127 -0.018078009 0.47524673 4283585852
0.39496922 -0.017384892 0.47445232 4283717692
0.39510289 -0.016701801 0.47355789 4283586109
0.39522094 -0.016017234 0.47276336 4283980610
0.39533901 -0.015336812 0.47196889 4284374852
0.39544141 -0.014653876 0.47127432 4284045887
0.39555958 -0.013981489 0.47047979 4284177473
0.39566207 -0.013306068 0.46978515 4283518776
0.39576459 -0.012634275 0.46909052 4283255608
0.39585143 -0.011958418 0.46849579 4283190074
0.39593834 -0.011285668 0.46790117 4283387455
0.3960095 -0.010607818 0.46740639 4283255356
0.39608073 -0.009932559 0.46691167 4283321149
0.39613622 -0.0092511605 0.46651691 4282926389
0.39617604 -0.0085628517 0.46622211 4282926643
0.39621586 -0.0078760907 0.4659273 4282861363
0.39623994 -0.0071813818 0.46573251 4282663730
0.39626405 -0.0064877123 0.46553767 4282926902
0.39627242 -0.0057850499 0.4654429 4283125056
0.39628077 -0.005082909 0.46534806 4283519557
0.39628917 -0.0043812841 0.46525323 4284702030
0.39623454 -0.0036369748 0.46555847 4284899659
0.39194414 -0.029720131 0.48954874 4283586111
0.39211118 -0.028960943 0.488455 4283520318
0.39224643 -0.028203994 0.48756117 4283454525
0.39238173 -0.027451709 0.48666722 4283520318
0.392533 -0.026706334 0.48567337 4283388732
0.39266843 -0.025963634 0.48477942 4283322682
0.39278793 -0.02522283 0.4839853 4283454268
0.39292344 -0.024489196 0.48309129 4283585854
0.39304304 -0.02375694 0.48229718 4283256891
0.39314675 -0.023025285 0.48160297 4283256891
0.39325052 -0.022297256 0.48090875 4283454268
0.39337027 -0.021576919 0.48011452 4283585854
0.3934741 -0.020856403 0.47942024 4283256889
0.39359391 -0.020144094 0.47862601 4283256889
0.39372975 -0.01944077 0.4777317 4283520059
0.39384964 -0.018737014 0.47693741 4283782202
0.3939696 -0.018037401 0.476143 4284176960
0.39413747 -0.01735878 0.47504878 4283914047
0.3942256 -0.016656481 0.47445428 4283848254
0.39436162 -0.015975697 0.47355986 4284111680
0.3944658 -0.01528679 0.47286534 4284308544
0.39456999 -0.014601504 0.47217077 4283847995
0.39469022 -0.013926763 0.47137624 4283782202
0.39479449 -0.013248993 0.47068167 4283847993
0.3948988 -0.01257485 0.46998703 4283716920
0.39498717 -0.011896644 0.46939242 4283256121
0.39507559 -0.011221549 0.46879774 4283321147
0.39516401 -0.010549558 0.46820301 4283189563
0.39523652 -0.009872213 0.46770829 4283255356
0.39527705 -0.0091800075 0.46741354 4282926902
0.39533359 -0.0084983408 0.46701878 4282795316
0.39537415 -0.0078095049 0.46672398 4282861109
0.39539874 -0.0071127191 0.46652919 4282860857
0.39540735 -0.006407205 0.46643442 4282926650
0.39541596 -0.0057022087 0.46633965 4283125060
0.39539254 -0.0049771722 0.46644485 4283782731
0.39540115 -0.0042726956 0.46635008 4284702280
0.3952817 -0.0034823529 0.46705532 4284768577
0.39107171 -0.029720867 0.49014485 4283717438
0.39120924 -0.028957158 0.48925102 4283454523
0.39133063 -0.028196383 0.48845708 4283454525
0.39148444 -0.027443729 0.4874633 4283454525
0.3916221 -0.026694011 0.48656934 4283388732
0.391776 -0.025951458 0.4855755 4283454268
0.39189756 -0.025208561 0.48478144 4283454268
0.39201918 -0.024469808 0.48398739 4283454268
0.39215702 -0.023738481 0.48309332 4283256891
0.39227873 -0.023008276 0.48229921 4283191098
0.3924005 -0.022282217 0.48150504 4283454268
0.39252228 -0.021560302 0.48071086 4283520061
0.39262792 -0.020838212 0.48001659 4283125303
0.39273357 -0.020119753 0.47932231 4283257141
0.39287171 -0.019414591 0.47842807 4283454518
0.39299369 -0.018708998 0.47763377 4283454518
0.39311567 -0.01800755 0.47683948 4284242751
0.39323774 -0.017310247 0.47604507 4284045635
0.39337605 -0.016622961 0.4751507 4284045633
0.39348197 -0.015928073 0.47445625 4284177989
0.39360413 -0.015243206 0.47366178 4284374852
0.39371014 -0.014555831 0.47296727 4284045887
0.39381617 -0.013872083 0.47227269 4283716922
0.39393845 -0.013199132 0.47147816 4283387703
0.39402834 -0.01251547 0.47088361 4283650362
0.39413446 -0.011842603 0.47018898 4283321399
0.39422441 -0.011165421 0.4695943 4283452215
0.39429814 -0.010483136 0.46909964 4283518008
0.3943719 -0.0098034479 0.46860492 4283124020
0.39442945 -0.0091176238 0.46821022 4282926643
0.39447075 -0.0084248949 0.46791548 4282861363
0.39451206 -0.0077337176 0.46762067 4282861109
0.39453715 -0.0070345942 0.46742588 4283058238
0.39454597 -0.0063267462 0.46733117 4283124031
0.39453855 -0.0056093987 0.46733642 4283190594
0.39449862 -0.0048714988 0.46754158 4283321149
0.39028674 -0.028951949 0.49014693 4283454520
0.39042661 -0.028190546 0.4892531 4283520320
0.39058298 -0.027435794 0.48825926 4283520320
0.39072296 -0.026683977 0.48736537 4283388480
0.39087942 -0.025939327 0.48637152 4283454016
0.39101949 -0.025197096 0.48547757 4283256891
0.39114314 -0.024456508 0.48468357 4283585856
0.39128333 -0.023723345 0.4837895 4283454270
0.3914071 -0.022991303 0.48299539 4283322684
0.39151445 -0.022259613 0.48230124 4283454268
0.39163828 -0.021535603 0.48150706 4283650877
0.39174572 -0.020811424 0.48081285 4283256887
0.39186963 -0.020095445 0.48001862 4283322932
0.39199361 -0.019383613 0.47922438 4283322932
0.3921341 -0.01868102 0.47833014 4283322932
0.39225817 -0.017977737 0.47753578 4284176708
0.39238226 -0.017278599 0.47674143 4284045383
0.39248991 -0.016577736 0.47604704 4284177993
0.39261413 -0.015886627 0.47525263 4284243784
0.39273834 -0.015199665 0.47445822 4284243782
0.39284611 -0.014510199 0.4737637 4283980610
0.39295393 -0.013824359 0.47306919 4283848254
0.3930783 -0.013149317 0.47227466 4283190324
0.3931697 -0.012463568 0.4716801 4283255604
0.39326113 -0.011780925 0.47108549 4283255606
0.3933526 -0.011101393 0.47049087 4283386674
0.39344412 -0.010424968 0.46989626 4283386674
0.39351913 -0.0097431913 0.46940154 4283255088
0.39357769 -0.0090552848 0.46900684 4282926639
0.39361978 -0.0083604734 0.46871209 4282860848
0.39366183 -0.0076672155 0.46841735 4282926641
0.39368743 -0.0069660135 0.46822262 4283189824
0.39367998 -0.0062463358 0.46822786 4283124031
0.39363948 -0.0055066254 0.46843308 4283255619
0.39361551 -0.0047761537 0.46853834 4283386942
0.38956854 -0.02818992 0.48974919 4283322680
0.38967738 -0.027427901 0.48905528 4283585856
0.38985306 -0.026678469 0.48796153 4283519809
0.38997871 -0.025927236 0.4871676 4283454016
0.39012107 -0.02518291 0.48627365 4283585084
0.3902635 -0.024443245 0.4853797 4283650879
0.39037257 -0.02370169 0.4846856 4283454270
0.3904984 -0.022967298 0.48389149 4283322684
0.39062423 -0.022237051 0.48309737 4283585086
0.39075014 -0.021510947 0.48230326 4283716668
0.39087608 -0.02078899 0.48150909 4283585082
0.39100206 -0.020071177 0.48071492 4283585082
0.39111134 -0.01935268 0.48002064 4283716922
0.39125416 -0.018647989 0.47912639 4284111680
0.39141372 -0.017953314 0.47813219 4284110913
0.39153987 -0.017252598 0.47733784 4284308294
0.39163262 -0.016544294 0.47674346 4284375368
0.39174211 -0.015845224 0.47604907 4284245063
0.39186838 -0.015156167 0.4752546 4284310086
0.39197797 -0.014464613 0.47456014 4283915328
0.39210433 -0.013783585 0.47376567 4283914817
0.39219722 -0.01309238 0.47317117 4283256117
0.39230692 -0.012411704 0.4724766 4283255604
0.39239991 -0.011726974 0.47188205 4283387190
0.39249289 -0.01104535 0.47128743 4283387444
0.39258593 -0.01036684 0.47069281 4283255858
0.39266223 -0.0096829757 0.47019815 4283255856
0.3927218 -0.0089929868 0.46980345 4282861100
0.39276463 -0.0082960967 0.46950877 4282861100
0.39280745 -0.0076007582 0.46921402 4282795820
0.39281675 -0.0068879817 0.46911925 4282795820
0.39280927 -0.0061659701 0.46912456 4283190074
0.39276826 -0.0054239351 0.46932977 4283189822
0.39269364 -0.0046603195 0.46973509 4283517758
0.39263582 -0.0039051659 0.47004038 4284833605
0.39256117 -0.0031376593 0.47044569 4284767812
0.39236897 -0.0022907443 0.47155106 4285098062
0.38883546 -0.027427966 0.48945153 4283520061
0.3889631 -0.026670754 0.48865759 4283520063
0.38910776 -0.025920184 0.4877637 4283716672
0.3892355 -0.025171522 0.48696977 4283650877
0.38938025 -0.024430022 0.48607582 4283650625
0.38950807 -0.023689907 0.48528177 4283584832
0.38961896 -0.022950405 0.48458767 4283454016
0.38974687 -0.022218324 0.48379362 4283650879
0.38985783 -0.021486336 0.4830994 4283650875
0.38998583 -0.020762285 0.48230529 4283585082
0.39011386 -0.020042378 0.48151112 4283650875
0.39024195 -0.019326616 0.48071694 4283716668
0.39038706 -0.018620087 0.4798227 4284309059
0.39051521 -0.01791288 0.47902846 4284177473
0.39067739 -0.017221022 0.4780342 4284374598
0.39080566 -0.01652262 0.47723985 4284507208
0.39086595 -0.015803861 0.47684544 4284441415
0.39099431 -0.015112713 0.47605103 4284375877
0.39112267 -0.014425708 0.47525662 4283915326
0.39123407 -0.013735944 0.47456211 4283980610
0.39134553 -0.013049811 0.47386765 4283190324
0.39145702 -0.012367304 0.47317314 4283255604
0.39155152 -0.011680745 0.47257853 4283387190
0.39162904 -0.010989355 0.47208399 4283387444
0.3917236 -0.010308752 0.47148937 4283255858
0.39178416 -0.0096143484 0.47109473 4283190063
0.39186177 -0.0089307316 0.47060007 4282861098
0.39190534 -0.0082317609 0.47030532 4282729514
0.39193189 -0.0075251088 0.47011065 4282861613
0.39194143 -0.0068099983 0.47001594 4282795820
0.39193395 -0.0060856566 0.47002119 4283124535
0.39190942 -0.0053513087 0.47012645 4283190076
0.39183375 -0.0045856275 0.47053176 4283386940
0.39175805 -0.0038178787 0.47093707 4284768325
0.3916994 -0.0030588433 0.47124237 4284702532
0.39157254 -0.0022540689 0.47194773 4285228878
0.38797426 -0.027426075 0.48994762 4283520313
0.38812119 -0.026669784 0.48905379 4283454266
0.38825095 -0.02591566 0.48825985 4283716668
0.38838074 -0.025165681 0.48746592 4283716668
0.38851058 -0.024419846 0.48667192 4283650879
0.38864046 -0.023678157 0.48587793 4283650879
0.38875315 -0.022937082 0.48518389 4283716418
0.38886586 -0.022199634 0.4844898 4283650877
0.38897863 -0.021465814 0.48379564 4283650616
0.38910869 -0.020739928 0.48300153 4283650364
0.38923877 -0.020018188 0.48220736 4283650364
0.38936889 -0.019300591 0.48141319 4283781950
0.38949907 -0.01858714 0.48061895 4284308809
0.3896293 -0.017877836 0.47982472 4284441165
0.38979405 -0.017183881 0.47883052 4284637772
0.38992435 -0.016483383 0.47803622 4284638024
0.39003745 -0.015780909 0.47734183 4284703817
0.39015058 -0.015082061 0.47664744 4284769610
0.39024648 -0.0143802 0.476053 4284046657
0.39037696 -0.013695247 0.47525859 4283914567
0.39049017 -0.013007283 0.47456408 4283649594
0.3905862 -0.012315523 0.47396958 4283386420
0.39068225 -0.011626877 0.47337508 4283387192
0.39079559 -0.010949271 0.47268051 4283452985
0.39087442 -0.010258906 0.47218591 4283255604
0.39093599 -0.0095626786 0.47179127 4283058990
0.39099759 -0.0088685229 0.47139663 4282795818
0.3910419 -0.008167468 0.47110194 4282664232
0.39106897 -0.007458739 0.47090727 4282861359
0.39107874 -0.0067415554 0.47081256 4282861359
0.39105394 -0.0060053915 0.47091782 4283256121
0.3910464 -0.0052787177 0.47092313 4283321914
0.39096969 -0.0045109745 0.47132844 4283780928
0.39091027 -0.0037516952 0.47163373 4284373065
0.39085081 -0.002990853 0.47193903 4284768325
0.39079133 -0.0022284593 0.47224438 4285031497
0.38714543 -0.027428161 0.49024385 4283454520
0.38729465 -0.026671069 0.48935008 4283585082
0.38744396 -0.025918636 0.48845619 4283585082
0.38755834 -0.025165368 0.48776221 4283716155
0.38767275 -0.024415726 0.48706824 4283650366
