# .PCD v0.7 - Point Cloud Data file format
VERSION 0.7
FIELDS x y z rgb
SIZE 4 4 4 4
TYPE F F F U
COUNT 1 1 1 1
WIDTH 1045
HEIGHT 1
VIEWPOINT 0 0 0 1 0 0 0
POINTS 1045
DATA ascii
0.39930996 -0.042114988 0.52192605 4280760892
0.39939582 -0.042833619 0.5221141 4280760892
0.39948046 -0.043550573 0.52230221 4280695099
0.39963746 -0.044218175 0.52244198 4280497720
0.39971983 -0.044931971 0.5226301 4280431927
0.39980099 -0.045644104 0.52281821 4280366136
0.39988095 -0.04635454 0.52300638 4280168757
0.40003386 -0.047016449 0.52314621 4279773486
0.40011156 -0.047723733 0.52333438 4279311649
0.400188 -0.048429348 0.52352262 4279508244
0.40033787 -0.049087062 0.52366245 4279769615
0.40041208 -0.049789511 0.52385068 4282333230
0.40056002 -0.050444484 0.52399057 4282859574
0.40070704 -0.051098198 0.52413046 4284240706
0.40077788 -0.051796034 0.52431875 4285358667
0.40084755 -0.052492179 0.52450705 4285425480
0.40091598 -0.053186633 0.5246954 4285031236
0.40098321 -0.053879417 0.52488375 4284965193
0.40104926 -0.054570511 0.5250721 4285294158
0.40111405 -0.055259928 0.52526045 4285425490
0.40117764 -0.055947661 0.52544886 4285425490
0.40131634 -0.056589819 0.52558887 4285490769
0.40145409 -0.057230711 0.52572888 4285424976
0.40151435 -0.057913817 0.52591735 4285490769
0.40157342 -0.058595248 0.52610576 4285622609
0.40170819 -0.059231937 0.52624583 4286083160
0.40184203 -0.05986736 0.5263859 4286016343
0.40189773 -0.060544163 0.52657443 4285950552
0.40195227 -0.061219282 0.52676296 4285818966
0.40192807 -0.061934933 0.52699989 4285753173
0.40205765 -0.062564477 0.52714002 4285950552
0.40210855 -0.063234553 0.52732861 4286081623
0.40208024 -0.063944526 0.5275656 4285950550
0.40220666 -0.064569652 0.52770579 4286016597
0.40225393 -0.065234683 0.52789444 4285753425
0.40229994 -0.065898031 0.52808309 4285950804
0.40234479 -0.066559687 0.52827173 4286082390
0.40238839 -0.067219675 0.52846038 4286871906
0.4024308 -0.067877971 0.52864909 4287200871
0.40247199 -0.06853459 0.5288378 4286410324
0.40251195 -0.069189534 0.52902651 4286410324
0.40263009 -0.069803089 0.52916682 4286080846
0.40258831 -0.070494354 0.52940398 4286080592
0.4027043 -0.071104974 0.52954435 4286014799
0.40273958 -0.071753398 0.52973312 4285817420
0.40277365 -0.072400138 0.52992195 4285949006
0.40280652 -0.073045194 0.53011078 4286014799
0.4029184 -0.073650129 0.53025115 4285817935
0.40294901 -0.074292034 0.53043997 4285883474
0.40305892 -0.074894249 0.5305804 4285949267
0.40308726 -0.075532988 0.53076929 4285949521
0.4031952 -0.076132461 0.53090972 4285949519
0.40322125 -0.076768063 0.53109866 4285883726
0.40316495 -0.077439144 0.53133607 4286015312
0.40326971 -0.078034207 0.53147656 4286016082
0.40329215 -0.07866475 0.5316655 4286015312
0.40339494 -0.079257086 0.53180605 4285948746
0.40349683 -0.079848148 0.5319466 4285751879
0.40351593 -0.080474064 0.53213561 4285620293
0.40361586 -0.081062399 0.53227615 4285751879
0.4037149 -0.081649475 0.5324167 4285555015
0.403813 -0.082235284 0.53255731 4285621072
0.40391022 -0.082819834 0.53269792 4285423695
0.40408915 -0.083368048 0.53279001 4285292109
0.4041847 -0.083950289 0.53293061 4285488716
0.40436226 -0.084496617 0.53302276 4285357384
0.40453926 -0.085042104 0.53311491 4285028669
0.40471566 -0.085586749 0.53320712 4284897083
0.40497482 -0.08609654 0.53325081 4285291839
0.40531728 -0.086572096 0.53324598 4285291839
0.40565974 -0.087047666 0.53324115 4285226046
0.40608603 -0.087489836 0.53318787 4285226046
0.40651265 -0.087932438 0.53313452 4285291326
0.40710792 -0.088309526 0.5329842 4285093947
0.40753543 -0.088753372 0.53293085 4285423166
0.40821671 -0.089100018 0.53273201 4285751879
0.40881455 -0.089480683 0.53258163 4285556044
0.40941328 -0.089862607 0.53243124 4286083160
0.41078365 -0.090566821 0.53203338 4285688150
0.39370739 0.0088059902 0.50755477 4285953121
0.39387602 0.0079732537 0.50774258 4285624156
0.39423478 0.0073254108 0.50778508 4286083160
0.39446539 0.0065562874 0.50792444 4286083158
0.39475912 0.0058490634 0.50801539 4286017367
0.39498806 0.0050822645 0.50815487 4286148701
0.39508733 0.0041962564 0.5083912 4285951838
0.39524961 0.0033723712 0.50857913 4285951838
0.39547533 0.0026099533 0.50871861 4286346342
0.39557052 0.0017296374 0.508955 4286149476
0.39566416 0.00085142255 0.50919139 4285754718
0.39582145 3.4481287e-05 0.50937939 4285951584
0.39591223 -0.00083974004 0.50961584 4285885791
0.3960669 -0.0016531348 0.50980383 4285820252
0.39615482 -0.0025233626 0.51004034 4285688916
0.39630693 -0.0033331513 0.5102284 4285688402
0.39639199 -0.0041993856 0.51046497 4286082390
0.39654154 -0.005005613 0.51065302 4285950804
0.39662367 -0.0058678538 0.51088965 4286016597
0.39663798 -0.0067854822 0.51117468 4285951320
0.39671692 -0.0076433122 0.51141131 4285622359
0.39672774 -0.0085560828 0.51169646 4284899929
0.3968035 -0.009409517 0.51193315 4282992971
0.39687777 -0.01026082 0.51216984 4282861385
0.39701766 -0.011053607 0.51235807 4282074694
0.3970218 -0.011957124 0.51264328 4281745990
0.39695671 -0.012914166 0.512977 4281746506
0.3970246 -0.013756663 0.51321381 4281878092
0.39702332 -0.014652625 0.51349908 4281681483
0.39688444 -0.015656859 0.51388144 4281484104
0.39681119 -0.016602546 0.51421529 4281484104
0.39619517 -0.024874672 0.51712435 4281287234
0.39677125 -0.026123554 0.51725888 4280959041
0.39702368 -0.026773393 0.51735044 4281090627
0.39727551 -0.027422383 0.51744199 4281025347
0.39634931 -0.034665227 0.52016521 4279638820
0.39658949 -0.035298035 0.52025694 4288847010
0.39682907 -0.035929978 0.52034867 4290623421
0.39706802 -0.036561102 0.5204404 4287070330
0.39737818 -0.037141472 0.52048355 4282068513
0.39768803 -0.037721395 0.52052677 4282332455
0.3979255 -0.038350418 0.52061856 4282335535
0.39823461 -0.038929291 0.52066171 4283782981
0.39847097 -0.039556839 0.5207535 4290296992
0.3986342 -0.040232405 0.52089381 4280688144
0.39886922 -0.04085806 0.5209856 4280361251
0.39888507 -0.041628227 0.52122319 4280760381
0.39904541 -0.0422998 0.52136356 4280826685
0.39913169 -0.04301814 0.5215525 4280826685
0.39929008 -0.043686986 0.52169293 4280826683
0.39937407 -0.044402175 0.52188194 4280497972
0.39945686 -0.04511568 0.52207094 4280431666
0.39953843 -0.045827515 0.52226001 4279969565
0.39969271 -0.046490677 0.5224005 4279509014
0.39977205 -0.047199346 0.52258956 4279507733
0.39977592 -0.04795289 0.52282727 4279573788
0.39992702 -0.048611648 0.52296776 4280492829
0.40000272 -0.049315274 0.52315688 4282927929
0.40007716 -0.050017223 0.52334601 4283913534
0.40022528 -0.050671764 0.52348661 4284637257
0.40029746 -0.051370554 0.52367574 4285096265
0.40036845 -0.052067675 0.52386498 4285359437
0.40043825 -0.052763097 0.52405417 4285491021
0.40050679 -0.053456843 0.52424335 4285491021
0.40057415 -0.054148905 0.5244326 4285425228
0.40071601 -0.054794833 0.52457327 4285425228
0.4007811 -0.055483744 0.52476257 4285491023
0.40084496 -0.05617097 0.52495182 4285556816
0.40098381 -0.056812704 0.52509254 4285556046
0.40104544 -0.057496771 0.52528185 4285490253
0.40110582 -0.058179162 0.52547121 4285556046
0.4012416 -0.058816686 0.52561194 4285950802
0.40129977 -0.059495918 0.5258013 4286213976
0.40143359 -0.060130708 0.52594209 4286082136
0.40148944 -0.060806796 0.52613145 4285818964
0.40154409 -0.0614812 0.52632087 4285753171
0.4015975 -0.062153921 0.5265103 4285950550
0.40172726 -0.062783025 0.52665114 4285950550
0.40177843 -0.063452594 0.52684063 4286082138
0.4017505 -0.064161986 0.52707875 4286082138
0.40187711 -0.064786687 0.52721959 4285818964
0.40192461 -0.065451205 0.52740914 4285753425
0.40197092 -0.066114046 0.52759868 4285819218
0.40201604 -0.066775203 0.52778822 4286016084
0.40205991 -0.067434683 0.52797782 4286608221
0.40210259 -0.06809248 0.52816737 4286609502
0.40214407 -0.068748593 0.52835697 4286740572
0.40226337 -0.069363192 0.52849793 4286280021
0.40230256 -0.070016146 0.5286876 4285884750
0.40234053 -0.070667431 0.52887726 4285949773
0.40237731 -0.071317017 0.52906692 4285818187
0.4023332 -0.072003931 0.52930528 4285949521
0.40244722 -0.072611168 0.5294463 4285817681
0.40248036 -0.073255725 0.52963603 4285817681
0.40251231 -0.073898584 0.52982581 4285751888
0.4026233 -0.074501626 0.52996683 4285752142
0.40265292 -0.07514134 0.53015661 4285949269
0.40268141 -0.075779371 0.53034639 4285949269
0.40270862 -0.076415725 0.53053623 4285818451
0.40281552 -0.07701309 0.53067738 4285752658
0.40275943 -0.077683374 0.53091592 4286015830
0.40286425 -0.078277797 0.53105706 4285884498
0.40296811 -0.078870952 0.53119826 4286015312
0.4029896 -0.079499319 0.53138816 4286015312
0.40309152 -0.080089733 0.53152937 4285752394
0.40319252 -0.08067891 0.53167057 4285489222
0.4032926 -0.081266806 0.53181183 4285752140
0.40339178 -0.081853434 0.53195304 4285554761
0.40349007 -0.082438827 0.5320943 4285817933
0.40358743 -0.083022945 0.53223556 4285817933
0.40376645 -0.083570801 0.53232813 4285686347
0.40386218 -0.084152609 0.53246945 4285489222
0.4040398 -0.084698573 0.53256208 4285357634
0.40421683 -0.085243709 0.53265464 4285093949
0.40447646 -0.085753843 0.53269857 4284961849
0.40465242 -0.086297497 0.5327912 4285225021
0.40499473 -0.086772844 0.53278637 4285225021
0.40533704 -0.087248199 0.53278154 4285291326
0.40576309 -0.087690242 0.53272802 4285159740
0.40618944 -0.088132702 0.53267449 4285357119
0.40670016 -0.088542685 0.53257221 4285291326
0.40729573 -0.088920832 0.53242117 4285422912
0.40789217 -0.089300245 0.53227013 4285488959
0.40848956 -0.089680925 0.5321191 4285488705
0.40917248 -0.090030804 0.5319193 4286213461
0.40985665 -0.090382367 0.53171951 4286147668
0.41079694 -0.090640724 0.53137344 4285818451
0.39328521 0.0084767938 0.50702399 4286018912
0.39351749 0.0077059716 0.507164 4285689947
0.39381254 0.0069974214 0.50725543 4286018133
0.39404315 0.0062289536 0.50739551 4286018133
0.39433682 0.0055222809 0.50748694 4286017365
0.39456576 0.0047561228 0.50762701 4286082906
0.39472952 0.0039310455 0.50781584 4286082908
0.39482766 0.0030477345 0.5080533 4286148701
0.39498883 0.0022262484 0.50824213 4286347109
0.39508408 0.0013469309 0.50847965 4286018660
0.39517778 0.0004697144 0.50871718 4285623132
0.39533502 -0.00034630299 0.50890613 4285886304
0.39549106 -0.0011606514 0.50909501 4285754718
0.39564589 -0.0019733161 0.5092839 4285689179
0.39573401 -0.0028427392 0.50952154 4285688662
0.39582062 -0.0037100762 0.50975919 4285885527
0.39597154 -0.0045172721 0.50994813 4286082136
0.39605525 -0.0053806156 0.51018584 4286082136
0.39613748 -0.006241858 0.51042354 4286082136
0.39628443 -0.0070435703 0.51061261 4285885527
0.3962974 -0.0079580396 0.51089907 4285688150
0.39630851 -0.0088699609 0.51118553 4285819998
0.39638451 -0.0097225904 0.51142335 4284636505
0.39645904 -0.010573119 0.51166117 4283846989
0.396465 -0.011477873 0.51194775 4282402625
0.39653632 -0.01232399 0.51218557 4281877576
0.3964715 -0.013279885 0.51252091 4281746506
0.39653951 -0.014121369 0.51275885 4281813069
0.39653838 -0.015016273 0.51304549 4281681483
0.39653543 -0.015908629 0.51333219 4281418311
0.39646274 -0.016853586 0.51366758 4281615690
0.39659214 -0.017630935 0.51385689 4281418311
0.39558691 -0.02191259 0.51568639 4281221441
0.3955498 -0.023654044 0.51626021 4281221441
0.39566678 -0.024414137 0.51644969 4281287488
0.39592108 -0.025066137 0.51654166 4281418561
0.39617479 -0.025717288 0.51663363 4281287234
0.3964279 -0.026367605 0.5167256 4281155648
0.39661068 -0.027069643 0.51686633 4281090625
0.39679253 -0.02777043 0.51700711 4281090625
0.39593983 -0.034953341 0.51969445 4279834655
0.39625114 -0.035535097 0.51973784 4289833384
0.39649075 -0.036166713 0.51982999 4291741381
0.3967298 -0.036797464 0.5199222 4284042821
0.39711159 -0.037327677 0.51991683 4282724899
0.39734972 -0.037957162 0.52000904 4282332707
0.39765924 -0.038536415 0.52005243 4283454270
0.39789629 -0.039164431 0.5201447 4284835923
0.39813271 -0.039791621 0.52023691 4289968277
0.3983686 -0.040417954 0.52032912 4280950286
0.3985312 -0.041092053 0.52047014 4280360992
0.39862019 -0.041813262 0.52065998 4280760379
0.39878082 -0.042484611 0.52080107 4281024834
0.39886755 -0.043202654 0.52099091 4280827455
0.39902624 -0.043871284 0.52113199 4280695869
0.39911067 -0.044586174 0.52132195 4280694838
0.39919388 -0.045299381 0.52151185 4280364587
0.3992759 -0.046010926 0.52170181 4279837463
0.39935669 -0.046720773 0.52189177 4279442705
0.39943627 -0.047428936 0.52208173 4279638547
0.39951465 -0.048135415 0.52227175 4280295456
0.3995918 -0.048840225 0.52246171 4281743146
0.39966774 -0.049543343 0.52265173 4283914819
0.39974248 -0.050244778 0.52284181 4284505155
0.39989072 -0.050898902 0.52298307 4284965706
0.3999632 -0.051597185 0.52317309 4285162058
0.40003449 -0.052293792 0.52336323 4285425228
0.40010452 -0.052988708 0.52355331 4285557066
0.40017337 -0.053681955 0.52374345 4285491275
0.40024096 -0.05437351 0.52393359 4285622609
0.40038303 -0.055019006 0.52407491 4285491023
0.40044838 -0.05570741 0.52426505 4285556816
0.40051252 -0.05639413 0.52445531 4285819988
0.40057543 -0.057079174 0.52464551 4285687632
0.40063715 -0.057762533 0.52483571 4285490253
0.40077406 -0.058400884 0.52497709 4285687632
0.40083349 -0.059081085 0.52516735 4286016595
0.40096843 -0.059716702 0.52530879 4286279254
0.40110242 -0.060351059 0.52545023 4286081877
0.40115857 -0.061026633 0.52564055 4285753425
0.40113634 -0.061742812 0.52587974 4285950802
0.40126717 -0.062372752 0.52602118 4285950802
0.40131965 -0.063043289 0.52621156 4285950802
0.40137094 -0.063712135 0.52640194 4286082136
0.40149873 -0.064337865 0.52654344 4286082138
0.40146986 -0.065044791 0.52678275 4286016343
0.40151748 -0.0657086 0.52697313 4285753425
0.40164211 -0.066329919 0.52711475 4285753425
0.4016875 -0.066990569 0.52730519 4285753425
0.40173164 -0.067649543 0.52749562 4286411355
0.40177459 -0.068306834 0.52768612 4286412123
0.40181631 -0.068962447 0.52787662 4286542939
0.40193582 -0.069576606 0.5280183 4286148181
0.40189618 -0.070268616 0.52825773 4285884750
0.40201354 -0.070879839 0.52839941 4285949771
0.40197116 -0.071568049 0.52863884 4285883726
0.4020068 -0.072215252 0.52882946 4286015064
0.40204132 -0.072860762 0.52902007 4285883478
0.40207455 -0.073504597 0.52921069 4285817685
0.40210661 -0.074146748 0.5294013 4285751890
0.40221763 -0.074749157 0.5295431 4285686095
0.40224737 -0.075388148 0.52973378 4285883478
0.40227595 -0.076025471 0.52992445 4285884248
0.40230331 -0.076661095 0.53011513 4285818453
0.40232944 -0.07729505 0.53030586 4285686867
0.4024353 -0.077890292 0.53044772 4285818451
0.4024592 -0.078521095 0.53063846 4285949521
0.40256307 -0.079113618 0.53078032 4286015314
0.40266606 -0.079704873 0.53092223 4285949519
0.40276814 -0.080294862 0.53106409 4285817933
0.40286931 -0.080883592 0.53120601 4285554761
0.40296957 -0.081471071 0.53134793 4285752142
0.4030689 -0.082057267 0.53148985 4285817420
0.40316737 -0.082642227 0.53163177 4285817933
0.40334719 -0.083190769 0.53172481 4285883726
0.40344399 -0.083773404 0.53186673 4285752140
0.40362245 -0.084320068 0.53195977 4285555013
0.40371755 -0.084900387 0.53210175 4285357634
0.40389466 -0.085445158 0.53219485 4285159740
0.40415421 -0.085955016 0.53223896 4284764468
0.40441346 -0.086464435 0.53228307 4285093947
0.40467238 -0.086973444 0.53232718 4285093947
0.40501454 -0.08744859 0.53232241 4285094460
0.40544033 -0.087890491 0.53226864 4284962363
0.40595025 -0.088299796 0.53216588 4285488709
0.40637681 -0.088742748 0.53211212 4285488709
0.4069719 -0.08912091 0.53196049 4285488707
0.40773642 -0.089435533 0.53171086 4285554498
0.40841803 -0.089784458 0.53151017 4285554752
0.40910083 -0.090135053 0.53130949 4285949773
0.40970016 -0.0905191 0.53115773 4285949773
0.39273697 0.0080251992 0.50659186 4286216293
0.39303237 0.0073166043 0.50668371 4285953121
0.39332715 0.0066088289 0.50677556 4285952599
0.39362133 0.005901888 0.50686747 4286215258
0.39385107 0.0051353276 0.50700819 4285886295
0.39407986 0.0043700039 0.50714898 4285886043
0.3942436 0.0035458654 0.5073387 4285886043
0.3943418 0.0026635528 0.5075773 4286017629
0.39450294 0.0018429905 0.50776708 4286478180
0.39466286 0.0010240972 0.5079568 4286346594
0.39475685 0.00014767051 0.50819546 4285689179
0.39491418 -0.00066763163 0.50838524 4285623386
0.39500529 -0.0015400648 0.50862396 4285623386
0.39509481 -0.002410382 0.50886273 4285623382
0.39524826 -0.0032202303 0.50905257 4285755222
0.39533496 -0.004086569 0.50929135 4285952088
0.39548582 -0.0048928261 0.50948119 4286017367
0.39563546 -0.0056974292 0.50967109 4285885781
0.39571789 -0.0065578818 0.50990999 4285885781
0.39579883 -0.0074162036 0.51014882 4285951574
0.39581198 -0.0083296001 0.51043665 4286017367
0.3958897 -0.009183526 0.51067555 4286082908
0.39596596 -0.010035366 0.51091444 4285491546
0.39590716 -0.0109981 0.51125127 4284768341
0.396047 -0.011789009 0.51144135 4284241997
0.39611852 -0.012634337 0.51168031 4282598462
0.39612138 -0.013533413 0.51196826 4282207305
0.39618975 -0.014374301 0.51220727 4282142032
0.39618909 -0.015268549 0.51249534 4281747274
0.39611897 -0.016215518 0.51283228 4281615688
0.39611453 -0.017104506 0.51312035 4281747274
0.39617622 -0.017936155 0.51335949 4281221961
0.39616829 -0.018820331 0.51364762 4281287756
0.39588553 -0.01991953 0.51413155 4281352777
0.39566815 -0.020960376 0.51456666 4281484104
0.39553052 -0.024499059 0.51576859 4281418307
0.39564702 -0.025257587 0.51595891 4281746756
0.39597028 -0.02585566 0.51600236 4281549123
0.39615422 -0.026558772 0.5161438 4281549123
0.39633733 -0.027260587 0.51628524 4281418307
0.39644974 -0.028013438 0.51647568 4281286721
0.3957437 -0.035089314 0.51907754 4279768859
0.39605528 -0.035671204 0.51912117 4288123016
0.39629528 -0.036302865 0.5192138 4291939010
0.39653468 -0.03693369 0.51930642 4290031517
0.39677346 -0.037563667 0.51939911 4283648301
0.39708334 -0.038143232 0.51944274 4281938965
0.39732111 -0.038771749 0.51953536 4285826132
0.39763021 -0.039350279 0.51957905 4288721024
0.39779469 -0.040026255 0.51972073 4289310851
0.39803061 -0.04065223 0.51981342 4280226816
0.3982659 -0.041277379 0.5199061 4280427812
0.39835531 -0.041998297 0.52009684 4280431929
0.3985163 -0.042669423 0.52023858 4281288008
0.39860341 -0.043387175 0.52042937 4280827457
0.3987624 -0.044055581 0.52057111 4279839790
0.39884725 -0.044770174 0.52076191 4279640353
0.39893091 -0.04548309 0.52095276 4279836958
0.39901334 -0.046194337 0.52114356 4279835926
0.39909458 -0.046903886 0.52133441 4279704340
0.39917457 -0.047611751 0.52152532 4281543201
0.39917934 -0.048364349 0.52176523 4284043075
0.39925677 -0.04906866 0.52195615 4284176708
0.399333 -0.049771264 0.52214706 4284833355
0.39940798 -0.0504722 0.52233803 4285489999
0.39955643 -0.051125877 0.52247995 4285358413
0.39962918 -0.051823661 0.52267092 4285357900
0.3997007 -0.052519768 0.5228619 4285358413
0.399771 -0.053214177 0.52305293 4285622091
0.39984012 -0.053906918 0.52324396 4285687882
0.39990801 -0.054597959 0.523435 4285753675
0.3999747 -0.055287331 0.52362609 4285687882
0.40004015 -0.055975027 0.52381712 4285687884
0.40018028 -0.056617148 0.52395916 4285950802
0.40016747 -0.057345361 0.52419937 4285885779
0.40022933 -0.058028005 0.52439046 4285622607
0.40036622 -0.058665708 0.52453256 4285622607
0.40042579 -0.059345193 0.52472371 4285687884
0.40063733 -0.059937336 0.52481675 4286016334
0.40069479 -0.060613878 0.5250079 4286016334
0.40075099 -0.061288744 0.52519912 4285884750
0.400729 -0.062004134 0.52543944 4285951056
0.40085986 -0.062633425 0.5255816 4285753677
0.40091246 -0.063303247 0.52577287 4285753677
0.40096384 -0.063971385 0.52596414 4285819216
0.40109167 -0.064596474 0.52610636 4286016597
0.40106302 -0.06530261 0.52634674 4285819218
0.40111077 -0.065965697 0.52653807 4285818964
0.4012354 -0.066586375 0.52668029 4285950550
0.40128088 -0.067246318 0.52687168 4285885527
0.40140358 -0.067864254 0.52701396 4286017367
0.40144682 -0.068521038 0.52720535 4286083160
0.40148881 -0.069176137 0.52739674 4285819986
0.40152961 -0.069829561 0.52758819 4285950802
0.40156919 -0.070481308 0.52777964 4286082388
0.40160757 -0.071131356 0.52797109 4285687630
0.4015654 -0.071818784 0.52821165 4286015060
0.4016012 -0.072465263 0.52840316 4285949269
0.4016358 -0.073110074 0.52859467 4286015060
0.40166917 -0.073753186 0.52878618 4285883474
0.40170133 -0.074394621 0.52897775 4285817935
0.4017323 -0.075034373 0.52916932 4286016082
0.40176204 -0.075672448 0.52936089 4285752912
0.40179056 -0.076308839 0.52955252 4286016084
0.40189844 -0.076906174 0.52969497 4285621324
0.40192467 -0.077539414 0.5298866 4285423945
0.40203059 -0.078134015 0.53002912 4285686347
0.40213552 -0.078727365 0.53017163 4285949773
0.40223959 -0.079319447 0.53031421 4285883980
0.40234274 -0.079910278 0.53045672 4285752910
0.40244496 -0.080499835 0.5305993 4285686347
0.40262789 -0.081052236 0.5306927 4285554761
0.40264675 -0.081675172 0.53088444 4285818187
0.40282816 -0.082225464 0.5309779 4285751881
0.40292692 -0.082810201 0.53112054 4285883213
0.40310693 -0.083358601 0.531214 4285883726
0.40320402 -0.083941013 0.53135663 4285752140
0.40338272 -0.084487528 0.53145009 4285554761
0.40347815 -0.08506763 0.53159279 4285357382
0.40365547 -0.085612252 0.53168631 4285291843
0.40391511 -0.086122036 0.53173065 4284831288
0.40409139 -0.086665183 0.53182411 4284897083
0.40443352 -0.087140322 0.53181934 4284897083
0.40477568 -0.08761546 0.53181452 4284831810
0.40520138 -0.088057443 0.53176051 4284765245
0.40571105 -0.088466883 0.53165734 4285619781
0.40622136 -0.088877171 0.53155422 4285619781
0.4068163 -0.089255758 0.53140181 4285554500
0.40749627 -0.08960329 0.53120029 4285554498
0.40817744 -0.089952506 0.53099871 4285489472
0.40894431 -0.090271503 0.53074789 4285817933
0.39237899 0.0077580065 0.50601423 4286347886
0.39254785 0.006927669 0.50620478 4286017627
0.39284241 0.0062206686 0.50629711 4285951834
0.39313635 0.0055145174 0.50638938 4285952088
0.3934297 0.0048092008 0.50648171 4285886041
0.39359459 0.0039843172 0.50667232 4285820248
0.3937583 0.0031611025 0.50686294 4285886041
0.39392078 0.0023396015 0.50705349 4286017627
0.39408207 0.0015197396 0.50724417 4286346592
0.39417759 0.00064221025 0.50748396 4285951836
0.39433628 -0.00017406046 0.50767463 4285754459
0.39449376 -0.00098866224 0.50786531 4285688664
0.39458507 -0.0018602908 0.50810516 4285754457
0.39467487 -0.0027298331 0.50834501 4285688662
0.39476311 -0.0035972893 0.50858492 4285886295
0.39491534 -0.0044045001 0.50877571 4286017879
0.3950007 -0.0052679628 0.50901562 4285952086
0.39508459 -0.0061293095 0.50925559 4285951574
0.39516696 -0.0069885403 0.50949556 4285951574
0.39531386 -0.0077884197 0.50968635 4285951574
0.39532718 -0.0087007135 0.50997555 4286017367
0.39533865 -0.0096105039 0.51026475 4286083160
0.39541483 -0.010461122 0.51050478 4285688664
0.39548948 -0.011309639 0.51074487 4285031765
0.39556259 -0.012156069 0.51098502 4284834386
0.3955673 -0.013056368 0.51127428 4283321410
0.39577141 -0.013786808 0.51141608 4282535494
0.39570567 -0.014738292 0.51175457 4282273616
0.39577258 -0.015576079 0.51199478 4281813067
0.39577043 -0.016466945 0.51228416 4281813067
0.39576653 -0.017355278 0.5125736 4281747274
0.3958286 -0.018186361 0.51281381 4281221961
0.39588916 -0.019015327 0.51305413 4281222476
0.39581192 -0.019950837 0.51339281 4281352777
0.39551109 -0.025342911 0.51527786 4281614918
0.39569628 -0.026047051 0.5154199 4281549123
0.39588058 -0.026749924 0.515562 4281549123
0.39606398 -0.02745153 0.5157041 4281614918
0.39559597 -0.032760441 0.5176397 4281483584
0.3954474 -0.034490734 0.51826876 4280100650
0.39561826 -0.035174891 0.51841104 4279769116
0.39578819 -0.035857797 0.51855332 4283124031
0.39609957 -0.036439195 0.51859719 4287926920
0.3963393 -0.037070081 0.51869023 4289573019
0.39657849 -0.037700117 0.51878333 4288062608
0.396817 -0.038329303 0.51887643 4285171044
0.39705494 -0.03895767 0.51896954 4288461196
0.39729226 -0.039585195 0.51906264 4287671680
0.39752898 -0.040211879 0.51915574 4284112450
0.39769286 -0.040886357 0.51929814 4280885777
0.39792824 -0.041511148 0.5193913 4280561451
0.39801788 -0.042231545 0.51958293 4280299830
0.39817905 -0.042902239 0.51972532 4279772714
0.39833927 -0.043571688 0.51986778 4279509542
0.39842558 -0.044287458 0.52005947 4279640612
0.39851072 -0.045001552 0.52025115 4279507997
0.39859462 -0.045713976 0.5204429 4280164123
0.39867735 -0.046424702 0.52063465 4282792488
0.39875883 -0.047133759 0.5208264 4283384625
0.39883909 -0.047841117 0.52101815 4284569151
0.39884424 -0.048593134 0.52125919 4285227081
0.39892197 -0.049296938 0.52145106 4285227849
0.39899844 -0.049999043 0.52164286 4285228103
0.39907372 -0.050699465 0.52183473 4285556044
0.39922231 -0.05135271 0.52197731 4285556044
0.39929533 -0.052049994 0.52216917 4285490251
0.39936715 -0.052745588 0.52236104 4285490253
0.39943773 -0.053439498 0.52255297 4285621839
0.39950711 -0.054131724 0.52274489 4285950804
0.39957523 -0.054822274 0.52293682 4285819216
0.39964223 -0.055511147 0.52312881 4285687630
0.39970797 -0.056198321 0.52332079 4285819216
0.3997725 -0.056883827 0.52351278 4285950802
0.39983582 -0.057567641 0.52370483 4285885781
0.39989793 -0.058249786 0.52389681 4285885781
0.39995882 -0.058930233 0.52408886 4285688402
0.40017116 -0.059523068 0.52418232 4285688400
0.40022993 -0.060200579 0.52437443 4285885781
0.40028751 -0.060876407 0.52456653 4286082390
0.40034387 -0.061550558 0.52475864 4285818964
0.40039903 -0.062223032 0.52495074 4285818964
0.40045297 -0.062893815 0.52514291 4285687378
0.40050569 -0.063562915 0.52533507 4285753171
0.40063459 -0.064188838 0.52547795 4286016084
0.40068504 -0.064854786 0.52567011 4286081877
0.40065658 -0.065560132 0.52591169 4285884496
0.40078232 -0.066181637 0.52605456 4285818705
0.40082914 -0.066842534 0.52624679 4285884498
0.40087473 -0.067501761 0.52643907 4285950552
0.40099746 -0.068119064 0.526582 4285819736
0.40104079 -0.068775132 0.52677435 4285951320
0.40116149 -0.069389701 0.52691734 4285950804
0.40120256 -0.07004261 0.52710962 4286016597
0.40124243 -0.070693851 0.52730197 4286148183
0.40120202 -0.071382582 0.52754366 4285818964
0.40123928 -0.072030246 0.52773607 4285621585
0.40127537 -0.072676212 0.52792847 4285817681
0.40131021 -0.073320508 0.52812088 4285949519
0.40134388 -0.073963128 0.52831328 4285883726
0.4012965 -0.074642196 0.5285551 4285555013
0.40132758 -0.075281225 0.52874756 4285818955
0.40135741 -0.075918593 0.52894002 4285818955
0.40138608 -0.076554261 0.52913254 4286015562
0.40149397 -0.077150956 0.52927572 4285620291
0.40152031 -0.07778348 0.52946824 4285620291
0.40162623 -0.078377441 0.52961141 4285554498
0.40181208 -0.078933485 0.52970529 4285751877
0.40183526 -0.079561591 0.52989787 4285752390
0.40201962 -0.080115527 0.52999169 4285752394
0.40212202 -0.080704659 0.53013492 4285489220
0.40222353 -0.081292525 0.53027821 4285489220
0.40240574 -0.081843518 0.53037208 4285620293
0.40250558 -0.082429066 0.53051537 4285554498
0.40260452 -0.083013363 0.53065866 4285883467
0.40278462 -0.083561413 0.53075254 4285817674
0.40288186 -0.084143393 0.53089589 4285620295
0.40314299 -0.084654987 0.53094041 4285488457
0.40323871 -0.085234866 0.53108376 4285357384
0.40341628 -0.085779339 0.5311777 4285094210
0.40367603 -0.086289048 0.53122228 4284503347
0.40393549 -0.086798325 0.53126687 4284042292
0.4042778 -0.087273672 0.53126204 4284042292
0.40462008 -0.087749034 0.53125727 4283844926
0.40504581 -0.088191301 0.53120303 4284305212
0.40547186 -0.088633977 0.53114879 4285094462
0.4060657 -0.089011736 0.53099579 4285357634
0.40657657 -0.089423224 0.53089213 4285423427
0.40742421 -0.089706548 0.53059089 4285291839
0.40802109 -0.090088516 0.53043783 4285818185
0.40887192 -0.090376258 0.53013647 4286147150
0.40955555 -0.090729758 0.52993399 4285884498
0.39170599 0.0071850419 0.50568378 4286347636
0.39212719 0.0066001564 0.50567782 4285886558
0.39242166 0.0058937222 0.50577056 4285754972
0.39277899 0.0052486956 0.50581402 4285951834
0.39300874 0.0044833869 0.50595611 4286017627
0.39310998 0.0035990775 0.50619698 4285820502
0.39333761 0.0028367341 0.50633913 4285821015
0.39350021 0.0020159185 0.50653064 4285886808
0.3935973 0.0011373013 0.50677156 4286215260
0.39375734 0.00032004714 0.50696313 4285951834
0.39391616 -0.00049550831 0.5071547 4285886041
0.39400905 -0.0013682544 0.50739563 4285754455
0.39410043 -0.0022388995 0.50763661 4285754455
0.39419028 -0.0031074584 0.50787759 4285688916
0.39434379 -0.0039156377 0.50806928 4285688916
0.39443079 -0.0047801882 0.50831032 4285820500
0.39458174 -0.0055848062 0.50850201 4285952086
0.39466584 -0.0064453781 0.50874305 4286017367
0.39468268 -0.0073612183 0.50903356 4286017367
0.39476362 -0.0082173496 0.50927466 4286017367
0.39477694 -0.0091283768 0.50956523 4286148953
0.39485469 -0.0099800974 0.50980639 4286082906
0.3949309 -0.010829732 0.51004755 4285820248
0.39500564 -0.01167725 0.51028877 4285426003
0.39514554 -0.012466535 0.51048064 4285426003
0.39521736 -0.01331006 0.51072186 4285097810
0.39535469 -0.014095753 0.51091373 4283980365
0.39535654 -0.014990792 0.51120442 4283059534
0.39535654 -0.015883327 0.51149511 4282535504
0.39528731 -0.016828418 0.51183528 4281878860
0.3954187 -0.017605901 0.51202726 4281747274
0.39548117 -0.018436402 0.5122686 4281221961
0.39554211 -0.019264787 0.51251 4281222474
0.39539742 -0.020253822 0.5128997 4281418057
0.39559126 -0.020969287 0.51304233 4281548873
0.39506894 -0.023962691 0.51426095 4281352525
0.39518797 -0.024722949 0.51445311 4281418059
0.39530575 -0.025481537 0.51464522 4281746506
0.39542234 -0.026238441 0.51483738 4281615690
0.39560694 -0.026941091 0.5149802 4281484104
0.39579067 -0.027642474 0.51512295 4281484104
0.3959735 -0.02834259 0.5152657 4281484104
0.39595634 -0.030847549 0.51608968 4281549123
0.3957133 -0.031848773 0.51652914 4281746502
0.39535999 -0.033738121 0.51730937 4280824886
0.39539155 -0.034525722 0.51755118 4280166443
0.39556316 -0.035210297 0.51769412 4279572507
0.39566296 -0.035943866 0.51788652 4282202927
0.39583257 -0.036625698 0.51802951 4283650373
0.39614379 -0.03720659 0.51807356 4290033823
0.39631191 -0.037886322 0.51821655 4288064657
0.39647913 -0.038564801 0.51835954 4288000660
0.3967171 -0.039192796 0.51845312 4288853905
0.39695448 -0.039819963 0.5185467 4287340666
0.39719129 -0.040446274 0.51864028 4280426509
0.39735532 -0.041120335 0.51878333 4281149726
0.39744616 -0.041841507 0.51897585 4280693290
0.39760822 -0.042512819 0.51911891 4280233265
0.39784199 -0.043134943 0.51921254 4279640612
0.39792964 -0.043851681 0.51940513 4279377440
0.39808899 -0.044519208 0.51954824 4279706146
0.39817438 -0.045232795 0.51974088 4280033056
0.39825857 -0.045944706 0.51993346 4281477671
0.39834154 -0.046654925 0.5201261 4284239934
0.39842331 -0.047363468 0.52031875 4284108348
0.39850384 -0.048070341 0.52051145 4285095241
0.39850938 -0.048821777 0.52075362 4285621839
0.39858735 -0.04952506 0.52094632 4285556816
0.39866412 -0.050226673 0.52113909 4285491021
0.39881393 -0.050880954 0.52128232 4285491021
0.39888841 -0.051579401 0.52147508 4285491021
0.39896172 -0.052276187 0.5216679 4285491021
0.39903378 -0.052971266 0.52186066 4285491021
0.39910465 -0.053664677 0.52205348 4285491023
0.39917427 -0.054356396 0.5222463 4286017367
0.39916757 -0.055090807 0.52248865 4285885781
0.39923465 -0.05577895 0.52268153 4285622609
0.39937598 -0.056421474 0.52282488 4285688402
0.39936516 -0.057150207 0.5230673 4285819988
0.39942861 -0.057833314 0.52326024 4285885781
0.39949083 -0.058514737 0.52345318 4285885527
0.39955187 -0.059194475 0.52364612 4285622355
0.39976409 -0.059786737 0.52374005 4285819734
0.39982301 -0.060463533 0.52393299 4285951322
0.39988071 -0.061138645 0.52412599 4285951322
0.39993715 -0.06181208 0.52431905 4285688150
0.39999244 -0.062483832 0.52451205 4285818966
0.40004647 -0.0631539 0.52470511 4285753173
0.40009934 -0.063822284 0.52489817 4285753175
0.40022823 -0.064447567 0.5250417 4286016345
0.40020138 -0.065154016 0.52528435 4286213722
0.40025061 -0.065817356 0.52547747 4285950802
0.40037632 -0.06643822 0.52562106 4285687632
0.40042326 -0.067098409 0.52581424 4285753425
0.40054703 -0.067716539 0.52595782 4286016343
0.4005917 -0.068373568 0.526151 4285818964
0.4007135 -0.068988979 0.52629465 4286081623
0.40083441 -0.0696031 0.5264383 4286081877
0.4007971 -0.070295051 0.52668107 4286016597
0.40083706 -0.070945561 0.52687436 4286082390
0.40087584 -0.071594402 0.5270676 4285950804
0.40091339 -0.07224156 0.5272609 4285621839
0.4008705 -0.072925717 0.52750373 4285621326
0.40090543 -0.073569298 0.52769709 4285818703
0.40093923 -0.074211195 0.52789038 4285818703
0.40089208 -0.074889474 0.52813333 4286016082
0.40092328 -0.075527795 0.52832669 4285884750
0.40095326 -0.076164439 0.52852011 4285884750
0.40098202 -0.076799393 0.52871346 4285949769
0.40108991 -0.077395439 0.52885735 4285817924
0.40111643 -0.078027248 0.52905077 4285752131
0.40130293 -0.07858377 0.52914506 4285554752
0.40140808 -0.079176039 0.52928895 4285620545
0.40159321 -0.079730675 0.52938324 4285686599
0.40161565 -0.080356807 0.52957672 4285752394
0.40179929 -0.080909334 0.52967107 4285555013
0.40190095 -0.081496768 0.52981496 4285489220
0.40208322 -0.082047395 0.52990931 4285620545
0.40226489 -0.082597196 0.53000367 4285488959
0.40236413 -0.083181262 0.53014761 4286014537
0.40262645 -0.083694264 0.53019238 4285751367
0.40272418 -0.084276229 0.53033638 4285751367
0.40290326 -0.084822446 0.53043079 4285422664
0.40308177 -0.085367829 0.53052515 4285028419
0.40317708 -0.085946433 0.53066915 4284896831
0.40343696 -0.086456068 0.53071398 4284371509
0.40369651 -0.08696527 0.5307588 4284042544
0.40412182 -0.087407187 0.53070432 4283976751
0.4044643 -0.087882757 0.53069949 4283844661
0.40489006 -0.088325292 0.53064507 4284108346
0.40539965 -0.088735454 0.530541 4284766780
0.40599349 -0.089113861 0.53038728 4285029952
0.406672 -0.089461133 0.53018397 4285358402
0.40726781 -0.089842275 0.53003025 4285292609
0.40803272 -0.090160742 0.52977717 4285687371
0.40871486 -0.090513073 0.5295738 4286082129
0.40948266 -0.090835534 0.52932072 4285884498
0.40949094 -0.091442108 0.52951443 4285555792
0.39158073 0.0061511099 0.50525093 4285755742
0.39187479 0.0054456741 0.50534415 4285624156
0.39229506 0.0048620403 0.50533819 4285952088
0.39246112 0.0040373206 0.5055306 4286017881
0.39268965 0.0032743663 0.50567341 4286017627
0.39291731 0.0025126636 0.50581622 4286149726
0.39301601 0.001632899 0.50605828 4286149726
0.39317739 0.00081470609 0.50625068 4286083933
0.39333755 -1.8030405e-06 0.50644314 4285886041
0.39349645 -0.00081665814 0.50663567 4285886295
0.39358959 -0.0016886145 0.50687772 4285820500
0.3936812 -0.0025584698 0.50711983 4285557328
0.39377126 -0.0034262389 0.50736195 4285623634
0.39385983 -0.0042918921 0.50760412 4285426255
0.39394689 -0.0051554292 0.50784624 4285688914
0.39403245 -0.0060168803 0.50808847 4285819986
0.39411649 -0.0068762004 0.5083307 4285754709
0.39419901 -0.0077334642 0.50857294 4285886295
0.39421418 -0.0086457133 0.50886476 4285886295
0.39429355 -0.0094985366 0.50910699 4285952088
0.39437133 -0.010349289 0.50934935 4286083160
0.39451396 -0.01114139 0.50954205 4285951574
0.39458889 -0.011988133 0.5097844 4286017881
0.3947289 -0.012776688 0.5099771 4285820502
0.39486772 -0.013563558 0.51016986 4285164118
0.39493841 -0.014404401 0.51041228 4284967512
0.39500761 -0.015243158 0.51065469 4285099100
0.39500812 -0.016135007 0.51094675 4283717462
0.39507413 -0.016969353 0.51118922 4282271303
0.39513862 -0.017801568 0.51143169 4282271303
0.39506632 -0.018740892 0.51177347 4282009674
0.3950597 -0.019622877 0.51206565 4281681481
0.39505127 -0.020502329 0.51235783 4281681481
0.39504099 -0.021379277 0.51265007 4281615690
0.3949607 -0.022307456 0.51299191 4281221445
0.39487827 -0.023232684 0.51333386 4281287238
0.39493084 -0.024048284 0.51357651 4281485135
0.39498186 -0.024861798 0.51381916 4281287756
0.39516905 -0.025567383 0.51396257 4281615951
0.39535534 -0.026271701 0.51410598 4281615951
0.3954716 -0.027027264 0.51429904 4281681744
0.39551735 -0.027833417 0.5145418 4281550156
0.39570045 -0.02853331 0.51468527 4281485133
0.39574346 -0.029335693 0.5149281 4281551693
0.39578497 -0.030135959 0.51517087 4281616203
0.39561522 -0.031088442 0.51556265 4281681481
0.39544302 -0.032037571 0.51595455 4281681481
0.39533865 -0.032932326 0.51629674 4281614916
0.39537287 -0.033722505 0.51653969 4280825140
0.39540559 -0.034510568 0.51678258 4280298029
0.39543676 -0.035296559 0.51702559 4279310616
0.39553729 -0.036030218 0.51721883 4281086765
0.39570755 -0.036712259 0.51736248 4281744695
0.39587688 -0.037393019 0.51750612 4281811249
0.39604533 -0.038072541 0.51764983 4283061316
0.39621288 -0.038750798 0.51779348 4282861884
0.39645106 -0.039378643 0.51788753 4281677353
0.39661694 -0.04005459 0.51803118 4281677353
0.39685377 -0.040680543 0.51812524 4280757028
0.39701799 -0.041354172 0.51826894 4280560683
0.39710909 -0.042074814 0.51846242 4280494892
0.39727134 -0.042745702 0.51860613 4279836962
0.39743266 -0.043415338 0.51874989 4279902755
0.39759308 -0.044083714 0.51889372 4280758064
0.39775258 -0.04475081 0.51903749 4283059783
0.39783823 -0.04546389 0.51923096 4284438606
0.39792269 -0.046175301 0.5194245 4284898382
0.39800596 -0.046885014 0.51961803 4285161806
0.39801461 -0.047639653 0.51986134 4285161806
0.3981688 -0.048299395 0.52000523 4285227597
0.39824843 -0.049004078 0.52019882 4285688148
0.39825296 -0.04975304 0.52044213 4285687378
0.39833 -0.05045414 0.52063572 4285556562
0.39847997 -0.05110801 0.52077967 4285556562
0.39855474 -0.051805951 0.52097332 4285490769
0.39862829 -0.052502215 0.52116704 4285885527
0.39870065 -0.053196795 0.52136075 4285425490
0.39869702 -0.05393441 0.52160418 4285622609
0.39876679 -0.054625414 0.5217979 4285885779
0.39883533 -0.055314742 0.52199167 4286017365
0.39882746 -0.056046471 0.52223516 4285885779
0.39896882 -0.056688353 0.52237922 4285819986
0.39895824 -0.05741629 0.52262276 4285819986
0.3990218 -0.058098689 0.52281654 4285688400
0.39908415 -0.058779389 0.52301037 4285819986
0.39929724 -0.059372343 0.52310479 4285885779
0.39935744 -0.060050108 0.52329862 4286017365
0.39941648 -0.060726181 0.52349252 4285820240
0.39947426 -0.061400585 0.52368641 4285819986
0.39953089 -0.062073305 0.5238803 4285951574
0.39958626 -0.062744342 0.52407426 4286082138
0.39956355 -0.063455462 0.52431798 4286082138
0.3996934 -0.064081371 0.52446216 4286016093
0.39974517 -0.064747348 0.52465618 4285951324
0.39979571 -0.065411657 0.52485019 4286082908
0.39992249 -0.066033356 0.52499443 4285885781
0.39997077 -0.066694506 0.52518845 4285819218
0.40001786 -0.067353979 0.52538252 4285687632
0.40014163 -0.067971468 0.52552682 4286081877
0.40018642 -0.06862779 0.52572089 4286081877
0.40030822 -0.069242544 0.5258652 4286213463
0.40042913 -0.069856033 0.52600956 4286476887
0.40039206 -0.070547193 0.52625346 4286213974
0.40051085 -0.071157739 0.52639782 4286148181
0.40047103 -0.071845107 0.52664179 4286016849
0.4005087 -0.072491549 0.52683598 4285687369
0.40054518 -0.0731363 0.52703017 4285687369
0.40050113 -0.07381779 0.52727419 4285753162
0.40053499 -0.074458972 0.52746844 4285687371
0.40056768 -0.07509847 0.52766269 4285884750
0.4005194 -0.075774059 0.52790672 4285818703
0.40054953 -0.076409981 0.52810103 4285818703
0.40065846 -0.077006869 0.52824551 4285687371
0.40068626 -0.077639639 0.52843988 4285949769
0.40079325 -0.078233793 0.52858436 4286212941
0.40097985 -0.078789957 0.52867913 4285555263
0.40108514 -0.079381801 0.52882367 4285489472
0.40118957 -0.079972371 0.52896821 4285752394
0.40129304 -0.080561697 0.52911282 4285817933
0.40147677 -0.08111386 0.52920759 4285686601
0.40165985 -0.081665188 0.52930236 4285686601
0.40184236 -0.082215667 0.52939719 4285686597
0.40194267 -0.082800582 0.52954179 4285620293
0.40204209 -0.083384216 0.52968645 4285883465
0.40222245 -0.083931759 0.52978122 4285685572
0.40240222 -0.084478468 0.52987611 4285685572
0.40266356 -0.084989913 0.52992111 4285422916
0.40275991 -0.085569344 0.53006577 4284896833
0.40293789 -0.086113527 0.53016061 4284765247
0.4032805 -0.086589307 0.53015578 4284173362
0.40354031 -0.087098651 0.53020084 4283975981
0.40388274 -0.087574214 0.53019601 4283910188
0.40430829 -0.088016614 0.53014135 4283844397
0.4047341 -0.088459447 0.5300867 4283910706
0.40532702 -0.088837236 0.52993232 4284634431
0.40592083 -0.089216277 0.52977794 4284766017
0.40651554 -0.089596584 0.52962351 4284831808
0.40727884 -0.089913949 0.52936941 4285029954
0.40787569 -0.090297207 0.52921498 4285556044
0.40881002 -0.090554982 0.52886111 4285819216
0.40949357 -0.090910129 0.52865678 4285688402
0.41000944 -0.091329478 0.52855217 4285687630
0.41077971 -0.091656521 0.5282979 4285950802
0.39139193 0.0050588548 0.5048697 4285558876
0.39174849 0.0044154376 0.50491357 4286084187
0.39204121 0.0037122518 0.50500727 4286215260
0.39220619 0.0028899461 0.50520056 4285952347
0.3924337 0.002129063 0.50534403 4286149728
0.39266029 0.0013694763 0.50548762 4286215521
0.39275789 0.00049242377 0.50573075 4286149728
0.39298233 -0.00026424229 0.50587428 4285886041
0.39307719 -0.0011375248 0.50611746 4285820248
0.39317054 -0.0020086765 0.50636071 4285886295
0.39326239 -0.0028777421 0.50660396 4285755222
0.39335269 -0.0037447065 0.5068472 4285755222
0.39337653 -0.0046676695 0.50714028 4285295439
0.39346367 -0.0055302083 0.50738358 4285623634
0.39354926 -0.006390661 0.50762689 4285688914
0.39369881 -0.0071915388 0.50782043 4285688916
0.39371598 -0.0081052631 0.50811362 4285820502
0.39379704 -0.0089593828 0.50835699 4285820502
0.39387661 -0.0098114163 0.50860041 4285886295
0.39395463 -0.010661364 0.50884384 4285951574
0.39409739 -0.011452779 0.50903744 4285951572
0.39423889 -0.012242511 0.50923109 4286017879
0.39437914 -0.013030574 0.50942469 4285820500
0.3945182 -0.013816953 0.5096184 4285360732
0.3945893 -0.014657199 0.50986189 4285164382
0.39465886 -0.01549536 0.51010543 4285164636
0.39465988 -0.016386598 0.51039886 4284506713
0.39465904 -0.017275259 0.5106923 4284243806
0.39465636 -0.018161431 0.51098573 4282730567
0.39478695 -0.018936038 0.51117957 4282272069
0.39464563 -0.019926205 0.51157278 4282140485
0.39477319 -0.020696595 0.51176655 4282140746
0.39469558 -0.021626979 0.51210999 4281746506
0.39461583 -0.022554427 0.51245344 4281418311
0.39467058 -0.023372009 0.51269722 4281615690
0.39465538 -0.024240702 0.51299083 4281615949
0.39477551 -0.025000811 0.51318479 4281483852
0.3948257 -0.02581206 0.51342863 4281877840
0.39501214 -0.026515946 0.51357269 4281615438
0.39512873 -0.027270973 0.51376665 4281747024
0.3951748 -0.028076559 0.51401055 4281747535
0.39528877 -0.028828025 0.51420456 4281550926
0.39533198 -0.029629618 0.51444852 4281551180
0.3953737 -0.030429095 0.51469243 4281681483
0.39534411 -0.031277835 0.51498628 4281747274
0.39524269 -0.032175228 0.51533008 4281615688
0.39513922 -0.033069655 0.51567382 4281484102
0.39517412 -0.03385967 0.51591784 4280825654
0.39520752 -0.034647584 0.51616192 4280561455
0.39523938 -0.035433397 0.516406 4279179030
0.39534044 -0.036167011 0.51660019 4280955439
0.39551121 -0.036849022 0.51674449 4281481783
0.39568102 -0.037529781 0.51688886 4281680445
0.39577878 -0.038258761 0.51708305 4281482806
0.39594662 -0.038936794 0.51722741 4281875509
0.39611357 -0.039613552 0.51737177 4281677360
0.39635122 -0.040240213 0.51746625 4281085223
0.3965165 -0.040914655 0.51761067 4280625961
0.39660895 -0.041636273 0.51780498 4280231720
0.39677227 -0.04230798 0.51794934 4280297511
0.39686245 -0.043026455 0.51814371 4280165145
0.39702374 -0.04369545 0.5182882 4281940534
0.39718419 -0.044363171 0.51843262 4283651152
0.39734372 -0.045029625 0.5185771 4283125060
0.39742953 -0.045741998 0.51877153 4284702030
0.3975141 -0.046452679 0.51896596 4285226829
0.39759743 -0.047161698 0.51916039 4285621585
0.39767957 -0.047869012 0.51935488 4285555792
0.39776054 -0.048574641 0.51954931 4285489999
0.39784026 -0.049278609 0.5197438 4285687632
0.39791879 -0.049980886 0.51993835 4285556046
0.39799607 -0.050681472 0.5201329 4285556816
0.39814624 -0.051334895 0.5202775 4285622355
0.39822125 -0.052032344 0.52047205 4285490769
0.3982951 -0.052728102 0.5206666 4285951320
0.3982932 -0.053467035 0.52091116 4285556816
0.39836448 -0.054159209 0.52110577 4285622609
0.39835972 -0.054894149 0.52135038 4285885779
0.39842838 -0.055582754 0.52154505 4286083412
0.39849585 -0.05626969 0.52173972 4285951826
0.39848685 -0.05699873 0.52198434 4285688654
0.39855176 -0.05768209 0.52217907 4285885779
0.39861542 -0.058363765 0.5223738 4285688400
0.39867789 -0.05904375 0.52256852 4285688402
0.39881501 -0.059679106 0.5227133 4285951572
0.39887521 -0.060355939 0.52290809 4286017365
0.39893419 -0.061031088 0.52310288 4285622861
0.3990683 -0.061662234 0.52324772 4285951572
0.39912501 -0.062334232 0.52344251 4285950804
0.39910388 -0.063046463 0.52368736 4286082140
0.39915803 -0.063714892 0.52388221 4286082140
0.39921099 -0.064381637 0.52407706 4285950302
0.3992627 -0.065046698 0.52427197 4285950300
0.39939043 -0.065669008 0.52441692 4286213976
0.39943987 -0.066330925 0.52461183 4285951056
0.39948812 -0.06699115 0.52480674 4285950802
0.39961284 -0.067609251 0.5249517 4285753423
0.3996588 -0.068266332 0.52514666 4286081877
0.39978153 -0.068881705 0.52529168 4286081877
0.3999815 -0.069456011 0.52538669 4286147670
0.40002429 -0.070108667 0.52558172 4286542426
0.40006584 -0.070759654 0.52577674 4286213461
0.40010625 -0.071408942 0.52597177 4286213461
0.40014538 -0.072056554 0.52616686 4286081875
0.40010446 -0.07274124 0.52641195 4285818185
0.400141 -0.073385283 0.52660704 4285818185
0.40009719 -0.074065976 0.52685219 4285687369
0.4001312 -0.074706443 0.52704734 4285687369
0.40016401 -0.075345218 0.52724248 4285753162
0.4001956 -0.075982325 0.52743769 4285753164
0.40014619 -0.076655239 0.5276829 4285621324
0.40025514 -0.077251479 0.52782804 4285817933
0.4002831 -0.077883542 0.5280233 4286015051
0.40047032 -0.078440189 0.52811849 4286015301
0.40057659 -0.079032645 0.52826369 4285620543
0.40076244 -0.0795874 0.52835888 4285686597
0.40086702 -0.080177546 0.52850413 4285883980
0.4009707 -0.080766432 0.52864939 4285883726
0.40115446 -0.081318244 0.52874458 4285752140
0.40133762 -0.081869215 0.52883983 4285686347
0.40152013 -0.082419336 0.52893507 4285686601
0.40170211 -0.08296863 0.52903032 4285620295
0.40180182 -0.083552048 0.52917564 4285948746
0.4020642 -0.084064685 0.52922082 4285685574
0.40216237 -0.084646001 0.5293662 4285685574
0.40242383 -0.085157372 0.52941144 4285422662
0.40260273 -0.085702449 0.52950668 4284962626
0.40278107 -0.086246707 0.52960199 4284501821
0.4030413 -0.086756393 0.52964723 4284107569
0.40338391 -0.087232165 0.52964246 4283910190
0.40380931 -0.087674648 0.52958757 4283844397
0.40423504 -0.088117555 0.52953267 4283778352
0.40474421 -0.088528007 0.52942771 4283779383
0.40525395 -0.088939294 0.52932274 4284437315
0.40593117 -0.089286536 0.52911758 4284634694
0.40652603 -0.0896677 0.52896249 4284700483
0.40720555 -0.090018094 0.52875733 4284898114
0.40788627 -0.090370171 0.52855211 4285161288
0.40865222 -0.090692326 0.52829683 4285753425
0.40941969 -0.091016576 0.52804154 4285818964
0.41001999 -0.091405302 0.52788639 4285621837
0.39113951 0.0039090812 0.50454074 4286019164
0.39155841 0.0033273548 0.50453484 4286149980
0.39178687 0.0025658756 0.50467902 4286083935
0.39201435 0.0018056482 0.50482321 4285951836
0.39224097 0.0010466874 0.50496739 4286215008
0.39240271 0.0002297163 0.50516164 4286280801
0.39249918 -0.00064466894 0.50540596 4285951836
0.39265835 -0.0014580786 0.50560021 4285820252
0.39275193 -0.0023284405 0.50584459 4285820763
0.39277941 -0.0032551736 0.50613898 4285820763
0.3929345 -0.004062891 0.50633335 4285754970
0.39295867 -0.0049850047 0.5066278 4285229394
0.39304602 -0.0058467537 0.50687218 4285426003
0.39313191 -0.0067064017 0.50711668 4285491796
0.39315093 -0.0076213628 0.50741118 4285623382
0.39323357 -0.0084766001 0.50765562 4285623382
0.39331472 -0.0093297362 0.50790018 4285820248
0.39339435 -0.010180786 0.50814474 4285820502
0.39353842 -0.010973155 0.50833917 4285754709
0.39368123 -0.011763871 0.50853372 4285688662
0.39382285 -0.012552887 0.50872827 4285755740
0.39396325 -0.013340235 0.50892282 4285624154
0.39416897 -0.014070168 0.5090673 4285558876
0.39424044 -0.014909849 0.50931191 4285624669
