# .PCD v0.7 - Point Cloud Data file format
VERSION 0.7
FIELDS x y z rgb
SIZE 4 4 4 4
TYPE F F F U
COUNT 1 1 1 1
WIDTH 1051
HEIGHT 1
VIEWPOINT 0 0 0 1 0 0 0
POINTS 1051
DATA ascii
0.41061249 0.020477459 0.53190607 4285949510
0.41079414 0.021198202 0.53182256 4286015049
0.41088545 0.021896802 0.53178263 4286211914
0.41088653 0.022572488 0.53178608 4286146121
0.41097784 0.023271859 0.53174609 4286343502
0.41106921 0.023971763 0.53170609 4286211916
0.41107026 0.024647955 0.53170961 4286211914
0.41125184 0.025373098 0.53162622 4286014789
0.41134322 0.026074547 0.53158623 4286080582
0.41134429 0.026751522 0.53158969 4286080834
0.4114356 0.027453747 0.53154975 4286080834
0.41152698 0.028156493 0.53150976 4286540361
0.41152799 0.028833989 0.53151327 4286540361
0.41161934 0.029537503 0.53147334 4286211137
0.41171071 0.030241553 0.53143334 4285948215
0.41171175 0.03091957 0.53143686 4286145342
0.41189343 0.03165118 0.53135347 4286342721
0.41189444 0.03232972 0.53135699 4286276928
0.41207606 0.033062894 0.5312736 4286540100
0.41216743 0.033769522 0.53123361 4286539848
0.4121685 0.034448836 0.53123713 4286539600
0.41235015 0.035184335 0.53115374 4286538578
0.41235119 0.035864163 0.53115726 4286472785
0.41253287 0.036601227 0.53107387 4287064407
0.41262418 0.037310448 0.53103393 4287196506
0.40445811 -0.084224761 0.53498638 4285757025
0.40445912 -0.083567992 0.53498971 4285229648
0.40446013 -0.082911223 0.53499317 4285163855
0.40437078 -0.082237214 0.53504002 4285425742
0.40446216 -0.081597686 0.53499997 4284834118
0.40446317 -0.080940917 0.53500336 4284768325
0.40446419 -0.080284148 0.53500676 4285030984
0.40437487 -0.079611182 0.53505361 4285030984
0.40437588 -0.078954667 0.53505701 4285227849
0.40437689 -0.078298166 0.53506041 4285358665
0.40437794 -0.077641651 0.5350638 4285228103
0.40437895 -0.076985143 0.5350672 4285228615
0.40437996 -0.076328628 0.5350706 4285097029
0.40438098 -0.07567212 0.535074 4285031751
0.40447235 -0.075029999 0.535034 4284965958
0.40447336 -0.07437323 0.5350374 4284965958
0.40447438 -0.073716462 0.5350408 4284965443
0.40447539 -0.073059693 0.53504419 4285031236
0.40456676 -0.072416283 0.53500414 4285229126
0.40456781 -0.071759254 0.53500754 4285294921
0.40456882 -0.071102232 0.53501093 4285294921
0.40456983 -0.070445195 0.53501433 4285163335
0.40457088 -0.069788173 0.53501773 4284965954
0.40457189 -0.069131151 0.53502119 4285032001
0.4045729 -0.068474121 0.53502458 4285163333
0.40466428 -0.067828633 0.53498453 4285031238
0.40466529 -0.067171343 0.53498793 4285097031
0.4046663 -0.06651406 0.53499132 4284899652
0.40475771 -0.065867536 0.53495133 4284964931
0.40475872 -0.065209992 0.53495473 4285030720
0.4048501 -0.064562693 0.53491467 4285293376
0.40485114 -0.063904889 0.53491807 4285161790
0.40494251 -0.063256808 0.53487808 4285228099
0.40494353 -0.06259875 0.53488147 4285030984
0.40494454 -0.061940685 0.53488487 4284964939
0.40503591 -0.061291568 0.53484488 4284965193
0.40512729 -0.060641937 0.53480488 4285030986
0.40521872 -0.059991784 0.53476483 4285030986
0.40521973 -0.059332944 0.53476822 4285030984
0.40522075 -0.058674105 0.53477168 4284965443
0.40522176 -0.058015261 0.53477508 4284833855
0.4052228 -0.057356417 0.53477848 4284833855
0.40522382 -0.056697577 0.53478193 4284965954
0.40522486 -0.056038737 0.53478533 4284834370
0.40522587 -0.055379897 0.53478873 4284834370
0.40522689 -0.054721057 0.53479213 4284702784
0.4052279 -0.054062214 0.53479558 4285031238
0.40522891 -0.053403374 0.53479898 4285096777
0.40522993 -0.05274453 0.53480238 4285097031
0.40523097 -0.05208569 0.53480577 4285031751
0.40523198 -0.05142685 0.53480923 4285031751
0.40523303 -0.05076801 0.53481263 4284307261
0.40523404 -0.050109167 0.53481603 4282925610
0.40514463 -0.049446039 0.53486288 4281282847
0.40505531 -0.048783425 0.53490967 4280033559
0.40478522 -0.048113797 0.53504324 4279704594
0.40469581 -0.04745274 0.53509009 4279180564
0.40460646 -0.046792202 0.53513688 4279246357
0.40442675 -0.046129193 0.53522706 4279114520
0.40433735 -0.045469947 0.53527391 4279180315
0.404248 -0.044811226 0.5353207 4279180315
0.40406826 -0.044150803 0.53541088 4279049243
0.40397888 -0.043493375 0.53545761 4279049243
0.40397993 -0.04283816 0.53546107 4279180061
0.40389055 -0.04218151 0.5355078 4279114782
0.40389156 -0.041526552 0.5355112 4279048989
0.40380222 -0.040870681 0.53555799 4279048989
0.40380323 -0.040215984 0.53556138 4278917925
0.40380424 -0.039561287 0.53556478 4279048991
0.40380526 -0.038906593 0.53556818 4279180315
0.40389663 -0.03825178 0.53552818 4279180315
0.40398806 -0.037596446 0.53548819 4279049241
0.40407944 -0.036940597 0.53544819 4279311899
0.40417087 -0.036284231 0.5354082 4279048991
0.40435261 -0.035626192 0.53532487 4279114784
0.4045344 -0.034967117 0.53524154 4279180577
0.40471619 -0.034307003 0.53515822 4279245854
0.40489799 -0.033645853 0.53507483 4279311647
0.40517014 -0.032981481 0.53494817 4279245854
0.40535197 -0.032318003 0.53486484 4279245854
0.40562415 -0.031650778 0.53473812 4279246106
0.40580598 -0.030984966 0.53465486 4279245595
0.40598774 -0.030318119 0.53457153 4279179030
0.40616953 -0.029650234 0.53448826 4279048212
0.40644175 -0.028977569 0.5343616 4278916626
0.40671396 -0.028303351 0.53423494 4278850585
0.40707654 -0.027623314 0.53406495 4278718997
0.40734875 -0.026945729 0.53393829 4278586893
0.40771133 -0.026261806 0.5337683 4278586893
0.40816432 -0.025570773 0.53355503 4278586893
0.40861732 -0.024877148 0.53334171 4278586380
0.40897992 -0.024186488 0.53317177 4278586895
0.40943292 -0.02348794 0.53295845 4278586895
0.40979552 -0.022792878 0.53278852 4278521618
0.40997738 -0.022108413 0.53270531 4278719249
0.41006878 -0.021429507 0.53266549 4278718477
0.41016024 -0.020750077 0.53262562 4278850063
0.41025168 -0.020070137 0.53258574 4278850063
0.41025269 -0.019397045 0.53258926 4278850835
0.41034418 -0.01871632 0.53254938 4278653971
0.4103452 -0.018042972 0.5325529 4278916628
0.41034627 -0.017369624 0.53255635 4279047442
0.4104377 -0.016687864 0.53251654 4279047442
0.41052914 -0.016005592 0.53247666 4278914575
0.41062057 -0.015322797 0.53243685 4278718999
0.410712 -0.014639484 0.53239697 4278719251
0.41080344 -0.013955655 0.53235716 4278587665
0.41089487 -0.013271308 0.53231728 4278587665
0.41089594 -0.012596406 0.5323208 4278587161
0.41089696 -0.011921501 0.53232431 4278717964
0.41089803 -0.011246596 0.53232777 4278586631
0.41089907 -0.01057169 0.53233129 4278586631
0.41080973 -0.0099077839 0.53237814 4278586380
0.41072035 -0.0092443973 0.53242493 4278652173
0.410631 -0.0085815266 0.53247178 4278652422
0.41045123 -0.0079309475 0.5325619 4278652424
0.41018111 -0.0072934441 0.53269529 4278718217
0.40991092 -0.0066574998 0.53282875 4279112203
0.40964073 -0.0060231015 0.5329622 4279243019
0.40928018 -0.0054030716 0.53313893 4278981389
0.40900999 -0.0047720484 0.53327233 4278916626
0.40873984 -0.0041425675 0.53340572 4279047695
0.40846962 -0.0035146549 0.53353912 4279047695
0.40819946 -0.0028882846 0.53367251 4279572756
0.4079293 -0.0022634752 0.53380591 4279507480
0.40783989 -0.0016114898 0.53385264 4279639319
0.40766013 -0.00097464398 0.5339427 4279573786
0.40757075 -0.00032395497 0.53398949 4279639579
0.40757179 0.0003413707 0.53399289 4279639583
0.40748239 0.0009912774 0.53403968 4279639583
0.4074834 0.0016563423 0.53404307 4279836962
0.40748444 0.002321396 0.53404653 4279771167
0.40748549 0.0029864572 0.53404999 4279771167
0.4074865 0.0036515184 0.53405344 4279508765
0.40757796 0.0043332763 0.53401357 4279640353
0.407579 0.0049985945 0.53401703 4279640353
0.40767044 0.0056811273 0.53397721 4279640099
0.40767145 0.0063467063 0.53398061 4279508513
0.40776291 0.0070300177 0.53394079 4279508767
0.40776396 0.0076958574 0.53394425 4279640353
0.40785539 0.0083799437 0.53390443 4279508765
0.40794683 0.0090645552 0.53386456 4279640351
0.40803826 0.0097496808 0.53382474 4279640351
0.40812975 0.01043532 0.53378493 4279771167
0.40840197 0.011160061 0.5336585 4279836958
0.40849343 0.011847258 0.53361869 4279903004
0.40867531 0.012554783 0.5335356 4279968797
0.40885717 0.013263345 0.53345251 4280428835
0.40894863 0.013952617 0.53341269 4280756255
0.4092209 0.014683571 0.53328633 4284897864
0.40940279 0.015395243 0.5332033 4285620293
0.40967506 0.016129047 0.53307694 4285817672
0.40994734 0.016864404 0.53295064 4286342732
0.41021967 0.017601326 0.53282428 4286343500
0.41040152 0.018317919 0.53274125 4286080328
0.4106738 0.019057684 0.53261495 4285948742
0.41085571 0.019776605 0.53253192 4285817924
0.41103759 0.020496562 0.53244889 4285883717
0.41112906 0.021194644 0.53240913 4286015049
0.41122052 0.021893244 0.53236938 4285949256
0.41131198 0.022592358 0.53232956 4285817670
0.41140348 0.023291994 0.53228986 4286146123
0.41149491 0.023992147 0.53225011 4286080332
0.4115864 0.024692807 0.53221035 4286343504
0.41167787 0.025394004 0.53217059 4286080328
0.41176933 0.0260957 0.53213084 4286211914
0.41186082 0.026797939 0.53209108 4286212168
0.41186184 0.027475435 0.5320946 4286146373
0.41195333 0.028178427 0.5320549 4286605641
0.41204482 0.028881956 0.53201514 4286539848
0.41204587 0.029559974 0.53201866 4286407746
0.41213733 0.030264262 0.53197891 4286211133
0.41213837 0.030942541 0.53198242 4286211137
0.4122299 0.031647604 0.53194273 4286342721
0.41232133 0.032353204 0.53190297 4286211135
0.41241279 0.033059318 0.53186327 4286276928
0.41259471 0.03379352 0.5317803 4286539848
0.41259575 0.034473088 0.53178382 4286539600
0.41268724 0.035180759 0.53174412 4286735957
0.41277874 0.035888936 0.53170443 4286472785
0.41287023 0.03659765 0.53166467 4286867030
0.41296166 0.037306856 0.53162497 4287195995
0.41305318 0.038016599 0.53158528 4286802779
0.40478379 -0.084228218 0.53555667 4285625964
0.40496576 -0.083606981 0.53547359 4285493083
0.40487629 -0.082932189 0.53552026 4285229911
0.40487731 -0.08227516 0.53552365 4285426005
0.40487832 -0.08161813 0.53552705 4284834120
0.40496981 -0.080977827 0.53548723 4284833605
0.40488037 -0.080304079 0.53553385 4285162056
0.40488139 -0.079647049 0.53553724 4285096263
0.40479189 -0.078974076 0.53558391 4285227849
0.40470243 -0.078301623 0.53563052 4285162056
0.40470344 -0.077645108 0.53563392 4285096777
0.40479496 -0.07700377 0.53559411 4285228363
0.40479597 -0.076346993 0.5355975 4285228363
0.40479699 -0.075690232 0.5356009 4285228363
0.404798 -0.075033464 0.5356043 4285228363
0.40488952 -0.074390829 0.53556448 4285096777
0.40489054 -0.073733807 0.53556788 4284965191
0.40489155 -0.07307677 0.53557128 4284965191
0.40489259 -0.072419748 0.53557467 4285228363
0.40489361 -0.071762711 0.53557813 4285294156
0.40489462 -0.071105689 0.53558153 4285228615
0.40489566 -0.070448659 0.53558493 4285294408
0.40489668 -0.069791637 0.53558832 4285096513
0.40489769 -0.069134608 0.53559172 4285228099
0.40498918 -0.06848938 0.53555191 4285097029
0.4049902 -0.067832097 0.5355553 4285491275
0.40508175 -0.067186095 0.53551549 4285425482
0.40508276 -0.066528551 0.53551888 4285228363
0.40508378 -0.065871 0.53552228 4284965191
0.40517527 -0.065223962 0.53548253 4285031236
0.40526679 -0.064576402 0.53544271 4285228353
0.40535831 -0.063928328 0.53540289 4285359939
0.40535933 -0.063270003 0.53540635 4285359939
0.40536034 -0.062611684 0.53540975 4285425482
0.40545183 -0.061962571 0.53536993 4284964425
0.40545285 -0.061303988 0.53537333 4285030472
0.4055444 -0.060654096 0.53533357 4285096265
0.40554541 -0.059995256 0.53533697 4285096263
0.40563694 -0.05934459 0.53529721 4285162056
0.40563795 -0.058685489 0.53530061 4285162056
0.40563899 -0.058026388 0.53530401 4285096263
0.40564001 -0.057367288 0.53530747 4284899648
0.40564102 -0.056708187 0.53531086 4284965441
0.40564203 -0.056049086 0.53531426 4285031236
0.40564305 -0.055389985 0.53531766 4285031238
0.40555358 -0.054724529 0.53536427 4284965445
0.4056451 -0.054071784 0.53532451 4285228617
0.40564612 -0.053412687 0.53532791 4284899652
0.40564716 -0.052753586 0.53533137 4284965445
0.40555766 -0.052089162 0.53537792 4285031238
0.40555871 -0.051430319 0.53538132 4285031238
0.40555972 -0.050771479 0.53538477 4283978036
0.40556073 -0.050112639 0.53538817 4282662951
0.40547121 -0.049449507 0.53543478 4280757530
0.40529126 -0.048782866 0.53552455 4279705364
0.40511125 -0.048117261 0.53561425 4279573778
0.40493125 -0.047452692 0.53570402 4279180311
0.40484175 -0.04679241 0.53575063 4279246104
0.40475228 -0.04613265 0.53579718 4279114522
0.40466279 -0.045473404 0.53584379 4279180315
0.40457332 -0.04481468 0.53589034 4279246108
0.40439329 -0.044154257 0.53598005 4279049243
0.40430379 -0.043496825 0.5360266 4278983966
0.4043048 -0.042841613 0.53603005 4278918177
0.40421534 -0.04218496 0.53607661 4278983970
0.40421635 -0.041530002 0.53608 4278918177
0.40421736 -0.040875047 0.53608334 4278852384
0.40412787 -0.040219434 0.53612989 4278917925
0.40412888 -0.039564736 0.53613329 4278918177
0.40412989 -0.038910039 0.53613669 4279114782
0.40422142 -0.03825523 0.53609693 4279114782
0.40440345 -0.037599523 0.53601402 4279048989
0.404495 -0.036943417 0.53597426 4279311899
0.40467703 -0.0362859 0.53589135 4279180315
0.40485907 -0.035627343 0.53580844 4279245856
0.4050411 -0.034967754 0.53572559 4279377442
0.40522316 -0.034307126 0.53564268 4279311134
0.4054957 -0.033643533 0.53551668 4279245854
0.40567777 -0.032980576 0.53543377 4279311901
0.40595037 -0.032314129 0.53530777 4279311901
0.4061324 -0.031648841 0.53522491 4279180315
0.40631443 -0.030982515 0.53514206 4279245595
0.40649652 -0.03031515 0.53505921 4279310618
0.40667856 -0.029646751 0.53497636 4278916628
0.40704167 -0.02896983 0.53480721 4278850835
0.40731424 -0.028294839 0.53468126 4278718481
0.40767735 -0.027614029 0.53451216 4278718227
0.40804046 -0.02693115 0.53434306 4278521100
0.40831304 -0.026250977 0.53421712 4278521100
0.40876669 -0.025559172 0.53400493 4278586895
0.4091298 -0.024870073 0.53383589 4278586893
0.40949294 -0.0241789 0.53366685 4278521872
0.40976554 -0.023491476 0.53354096 4278456079
0.41003817 -0.022802489 0.53341508 4278587665
0.41022021 -0.022118291 0.53333229 4278785042
0.41031182 -0.021439642 0.53329265 4278915860
0.41040334 -0.020760477 0.53325301 4278850065
0.41049492 -0.02008079 0.53321338 4278915858
0.41049597 -0.019407958 0.53321683 4278851096
0.41049701 -0.018735126 0.53322035 4278719512
0.41049805 -0.018062294 0.53322381 4279113235
0.41058961 -0.01738132 0.53318423 4279112724
0.41068119 -0.016699819 0.53314459 4279112724
0.41068223 -0.016026471 0.53314805 4279112472
0.41077381 -0.015344195 0.53310847 4278982171
0.41086537 -0.014661403 0.53306884 4278850587
0.41095692 -0.013978094 0.5330292 4278850587
0.41104847 -0.013294265 0.53298962 4278915610
0.41114008 -0.012609918 0.53294998 4278850585
0.41123164 -0.011925055 0.53291041 4278915343
0.41123271 -0.011250149 0.53291392 4278849033
0.41123372 -0.010575244 0.53291738 4278783240
0.4112348 -0.0099003408 0.5329209 4278520587
0.4111453 -0.0092366915 0.53296745 4278717196
0.4110558 -0.0085735619 0.53301406 4278717194
0.41096634 -0.0079109482 0.53306067 4278782987
0.41069579 -0.0072729215 0.53319341 4278782987
0.41042522 -0.0066364557 0.53332621 4279112205
0.4101547 -0.0060015321 0.53345895 4279112205
0.40988412 -0.0053681694 0.53359169 4278981136
0.40952304 -0.0047494285 0.53376752 4278981653
0.40925246 -0.0041194372 0.53390026 4279046933
0.40898192 -0.0034909919 0.534033 4279178519
0.40871131 -0.0028641075 0.53416568 4279506193
0.40844077 -0.0022387728 0.53429836 4279441689
0.40826076 -0.0016006306 0.53438801 4279573526
0.4080807 -0.00096352398 0.53447759 4279507997
0.40799117 -0.00031257421 0.53452414 4279573790
0.4079017 0.0003378652 0.53457069 4279639333
0.40790272 0.0010031797 0.53457415 4279640101
0.40790376 0.0016685016 0.53457755 4279508513
0.4079048 0.0023338161 0.53458101 4279639583
0.40781528 0.0029829554 0.53462756 4279771169
0.40790683 0.0036644563 0.53458792 4279640353
0.40790787 0.0043297708 0.53459138 4279640353
0.40790892 0.004995089 0.53459477 4279705892
0.40800047 0.0056776218 0.5345552 4279508515
0.40800148 0.0063432008 0.53455865 4279508515
0.40809309 0.0070265122 0.53451902 4279640099
0.40809411 0.0076923519 0.53452247 4279640353
0.40818566 0.0083764344 0.53448284 4279442972
0.40827727 0.0090610459 0.53444326 4279640351
0.40836883 0.0097461678 0.53440362 4279640351
0.40846041 0.010431811 0.53436404 4279771167
0.40873307 0.011156544 0.53423834 4279639579
0.40882462 0.011843741 0.5341987 4279902751
0.40900674 0.012551263 0.53411609 4280034337
0.40918887 0.013259821 0.53403342 4280297249
0.40928048 0.013949089 0.53399384 4280756001
0.40955314 0.014680043 0.53386819 4283910717
0.4098258 0.015412547 0.53374249 4285357382
0.41009849 0.016146615 0.53361684 4285554761
0.41028059 0.016860865 0.53353423 4285882953
0.41055328 0.017597783 0.53340858 4286211144
0.41073543 0.018314373 0.53332597 4285948994
0.41100812 0.01905413 0.53320038 4285948994
0.41128078 0.019795448 0.53307474 4286146627
0.41137239 0.020493008 0.53303516 4285949510
0.41155452 0.021214008 0.53295261 4286081096
0.41164613 0.021912854 0.53291309 4286146375
0.41173774 0.022612236 0.53287351 4286146375
0.41191983 0.023335811 0.53279102 4286080330
0.41201147 0.024036486 0.53275144 4286474320
0.41210306 0.024737667 0.53271192 4286474318
0.4121041 0.025414903 0.53271544 4286474316
0.41219571 0.026116874 0.53267592 4286671695
0.41219676 0.02679437 0.53267944 4286276937
0.41228837 0.027497102 0.53263992 4286277191
0.41237998 0.028200377 0.5326004 4286538819
0.41238102 0.028878387 0.53260392 4286407233
0.41247261 0.029582415 0.5325644 4286407233
0.41256422 0.030286971 0.53252488 4286539330
0.41256529 0.030965503 0.5325284 4286473537
0.41265684 0.031670835 0.53248894 4286473539
0.41265792 0.032349627 0.53249246 4286341953
0.41293061 0.033110369 0.53236693 4286341953
0.41284114 0.033762362 0.53241342 4286408516
0.41311383 0.03452519 0.53228796 4286342469
0.41302437 0.035177175 0.53233445 4286407240
0.41320652 0.03591371 0.53225195 4286473033
0.41320759 0.036594067 0.53225547 4286604110
0.41329917 0.037303273 0.53221601 4286801496
0.41339082 0.038013015 0.53217655 4286736988
0.41339186 0.038693871 0.53218007 4286606172
0.40538234 -0.083628207 0.53600132 4285560167
0.40538335 -0.082970664 0.53600472 4285296995
0.40538436 -0.082313113 0.53600812 4285230684
0.40538538 -0.081655569 0.53601158 4285033302
0.40538639 -0.080998018 0.53601497 4285228876
0.4053874 -0.080340475 0.53601837 4284899650
0.40529782 -0.079666719 0.5360648 4284965443
0.40520823 -0.078993484 0.53611124 4285228615
0.40520924 -0.078336462 0.53611463 4285228617
0.4051196 -0.077663995 0.53616107 4284965958
0.40521127 -0.077022403 0.53612143 4285228617
0.40521228 -0.076365367 0.53612483 4285228617
0.4052133 -0.075708345 0.53612822 4285228617
0.40521431 -0.075051315 0.53613162 4285097031
0.40521532 -0.074394286 0.53613508 4285097031
0.40521634 -0.073737264 0.53613847 4285096517
0.40521735 -0.073080227 0.53614187 4285030724
0.40530899 -0.072436571 0.53610229 4285228103
0.40531003 -0.071779281 0.53610569 4285228363
0.40531105 -0.071121991 0.53610909 4285097029
0.40531206 -0.0704647 0.53611249 4285097029
0.40531307 -0.069807418 0.53611588 4285227329
0.40531409 -0.069150127 0.53611928 4285490503
0.40540576 -0.068504646 0.5360797 4285228101
0.40540677 -0.067847103 0.5360831 4285491273
0.40540779 -0.067189559 0.5360865 4285359687
0.4054994 -0.066543035 0.53604692 4285425480
0.40550044 -0.065885231 0.53605032 4285162310
0.40559208 -0.065237939 0.53601074 4285359687
0.4055931 -0.064579874 0.5360142 4285359939
0.40568474 -0.063931793 0.53597462 4285425732
0.40577638 -0.063283205 0.53593504 4285359685
0.40586805 -0.062634096 0.53589547 4285162308
0.40586907 -0.061975256 0.53589886 4284767300
0.40587008 -0.061316412 0.53590226 4285161286
0.40596172 -0.060666263 0.53586274 4285292872
0.40596274 -0.060007162 0.53586614 4285227079
0.40596378 -0.059348062 0.53586954 4285292872
0.40596479 -0.058688961 0.535873 4285292872
0.40596581 -0.05802986 0.53587639 4285227079
0.40596682 -0.05737076 0.53587979 4284899650
0.40596783 -0.056711659 0.53588319 4284899650
0.40596884 -0.056052558 0.53588665 4285031238
0.40596989 -0.055393457 0.53589004 4285294410
0.4059709 -0.054734357 0.53589344 4285228617
0.40597194 -0.054075256 0.5358969 4285359689
0.40597296 -0.053416159 0.53590029 4284768066
0.40597397 -0.052757058 0.53590369 4285031238
0.40588439 -0.05209263 0.53595006 4285031238
0.4058854 -0.05143379 0.53595346 4284899652
0.40588641 -0.050774947 0.53595692 4283649071
0.40588742 -0.050116107 0.53596032 4282465572
0.40579778 -0.049452975 0.53600669 4280429083
0.40561756 -0.048786331 0.53609598 4279639319
0.40543732 -0.048120722 0.53618526 4279507733
0.40525705 -0.047456153 0.53627461 4279180313
0.40516743 -0.046795867 0.53632098 4279246106
0.40507782 -0.046136107 0.5363673 4279180315
0.4049882 -0.045476861 0.53641367 4279049243
0.40489858 -0.044818133 0.53645998 4279115036
0.404809 -0.044159926 0.5365063 4279114782
0.40471935 -0.043502234 0.53655267 4278983966
0.40462971 -0.042845063 0.53659904 4278918175
0.40463072 -0.042189848 0.53660238 4278983970
0.40463173 -0.041534636 0.53660578 4278918177
0.40463278 -0.040879421 0.53660917 4278918175
0.40454316 -0.040223543 0.53665555 4278917923
0.40454417 -0.039568588 0.53665888 4279048993
0.40463582 -0.038913779 0.53661937 4279048991
0.40472746 -0.038258448 0.53657985 4279048991
0.40481913 -0.037602603 0.53654027 4279114782
0.4050014 -0.036945604 0.53645784 4279311899
0.40509307 -0.036288463 0.53641832 4279245593
0.405366 -0.035628501 0.53629297 4279245341
0.40554833 -0.034968395 0.53621054 4279442720
0.40564001 -0.034308922 0.53617096 4279311388
0.40600359 -0.033643145 0.53600276 4279246108
0.40609527 -0.032981858 0.53596324 4279311901
0.4063682 -0.032315161 0.53583789 4279246108
0.40655053 -0.031649616 0.53575546 4279180315
0.40682346 -0.030980067 0.53563017 4279245595
0.40700579 -0.030312188 0.53554773 4279047962
0.40727875 -0.02963979 0.53542244 4278916628
0.40773302 -0.028958356 0.53521132 4278785042
0.40800598 -0.028282331 0.53508604 4278652686
0.4083696 -0.027600493 0.53491783 4278652175
0.40864259 -0.026921101 0.53479254 4278455307
0.40900621 -0.026235376 0.5346244 4278455307
0.40936986 -0.025547577 0.53445625 4278652173
0.40964282 -0.024863005 0.53433102 4278586893
0.4099158 -0.024176877 0.53420579 4278587665
0.41027945 -0.023483379 0.53403765 4278587665
0.41046178 -0.022799956 0.53395534 4278587411
0.41055346 -0.02212183 0.53391588 4278850835
0.41055453 -0.021449775 0.53391939 4278785044
0.4106462 -0.020770868 0.53388 4278785044
0.41073787 -0.020091446 0.53384054 4278785044
0.41064829 -0.019426242 0.53388691 4278916889
0.41073996 -0.018746298 0.53384757 4278785305
0.41074103 -0.018073725 0.53385103 4279179028
0.41074204 -0.017401155 0.53385448 4279178517
0.41083378 -0.016720176 0.53381509 4279112724
0.41083482 -0.016047344 0.5338186 4279112987
0.41092652 -0.015365593 0.5337792 4278916891
0.41101822 -0.014683316 0.53373981 4278850848
0.41120058 -0.013991086 0.53365749 4278785055
0.4112016 -0.013317216 0.53366101 4278981149
0.41138393 -0.012623431 0.53357875 4278981399
0.41147566 -0.011938829 0.53353935 4278981389
0.41156736 -0.011253703 0.53349996 4278784010
0.4115684 -0.010578798 0.53350347 4278718217
0.41156945 -0.0099038947 0.53350699 4278651405
0.41157049 -0.0092289913 0.53351045 4278651405
0.41157153 -0.0085540861 0.53351396 4278848010
0.41139126 -0.0079027284 0.53360319 4278717194
0.41121101 -0.0072524063 0.53369242 4278717194
0.41094005 -0.0066154115 0.5338245 4279046159
0.41066915 -0.0059799701 0.53395659 4279112205
0.41039819 -0.0053460822 0.53408867 4278981140
0.41003659 -0.0047268197 0.53426361 4278915860
0.4097656 -0.0040963069 0.53439569 4278980886
0.4094947 -0.00346734 0.53452772 4279178265
0.40922374 -0.0028399304 0.53465974 4279375124
0.40895277 -0.0022140816 0.53479183 4279375898
0.4087725 -0.0015754104 0.53488094 4279573526
0.40859219 -0.00093778595 0.5349701 4279507995
0.40841192 -0.0003012009 0.53505927 4279573788
0.40841293 0.00036464259 0.53506273 4279639331
0.40832329 0.0010150746 0.53510904 4279640101
0.4083243 0.0016806535 0.5351125 4279508513
0.40823472 0.0023303144 0.53515875 4279639583
0.40823573 0.0029956326 0.53516221 4279771169
0.40823674 0.0036609545 0.53516567 4279640353
0.40823779 0.004326269 0.53516912 4279640353
0.40823883 0.0049915873 0.53517258 4279640099
0.4083305 0.0056741163 0.53513318 4279640101
0.40842223 0.0063571669 0.53509378 4279508515
0.4085139 0.0070407316 0.53505439 4279640101
0.40851495 0.0077068321 0.53505784 4279640099
0.40869731 0.0084094293 0.53497559 4279442974
0.40869835 0.009076044 0.53497905 4279640353
0.40879005 0.0097614303 0.53493965 4279640351
0.40888175 0.010447323 0.53490031 4279771167
0.40906411 0.011153027 0.53481811 4279771167
0.4092465 0.011859767 0.53473592 4279902751
0.40933821 0.012547743 0.53469658 4279968544
0.4095206 0.013256297 0.53461432 4280296996
0.40970296 0.013965886 0.53453219 4280690210
0.40988535 0.014676515 0.53444999 4283583038
0.4101584 0.015409011 0.534325 4285160775
0.4104315 0.01614308 0.53420001 4285358154
0.41070455 0.016878691 0.53407502 4285751627
0.4109776 0.017615858 0.53395003 4286014539
0.41125065 0.01835458 0.5338251 4286080582
0.41152376 0.019094858 0.53370011 4286146375
0.41170615 0.01981429 0.53361797 4286081094
0.41179785 0.020512104 0.53357869 4286081094
0.41198024 0.021233354 0.53349656 4286343752
0.412072 0.021932472 0.53345722 4286211650
0.41225436 0.022655532 0.53337514 4286211650
0.41234612 0.023355942 0.5333358 4286211398
0.41243783 0.024056863 0.53329653 4286539598
0.41243887 0.024734106 0.53330004 4286605391
0.4125306 0.025435809 0.53326076 4286408012
0.41262233 0.026138026 0.53322148 4286342219
0.41262338 0.026815783 0.533225 4286408012
0.41271514 0.027518783 0.53318566 4286408010
0.41280687 0.028222296 0.53314638 4286342469
0.41280788 0.028900575 0.5331499 4286145090
0.41289964 0.029604871 0.53311062 4286276676
0.41290069 0.030283403 0.53311414 4286408262
0.41299242 0.030988473 0.53307486 4286408516
0.41299346 0.031667259 0.53307837 4286473285
0.41317588 0.032400172 0.5329963 4286341699
0.41326761 0.033106793 0.53295708 4286473539
0.41335934 0.033813942 0.5329178 4286539332
0.41345108 0.034521606 0.53287852 4286407746
0.41354284 0.035229784 0.53283924 4286407492
0.41345319 0.035881769 0.53288555 4286539078
0.41363561 0.036619086 0.53280354 4286342469
0.41363668 0.037299689 0.53280705 4286276941
0.41372842 0.038009431 0.53276777 4286343250
0.41372949 0.038690288 0.53277135 4286475352
0.41382122 0.039400805 0.53273207 4286409559
0.40598059 -0.083684959 0.53644395 4285955960
0.40607232 -0.083044142 0.53640461 4285232237
0.40598261 -0.082368314 0.5364508 4285362013
0.40589291 -0.081693001 0.536497 4285296472
0.40598467 -0.081051663 0.5364576 4285361234
0.40589494 -0.080376878 0.53650379 4285031238
0.40589598 -0.079718813 0.53650725 4285031238
0.40562475 -0.079012901 0.53663898 4285228617
0.40562576 -0.07835561 0.53664243 4285163337
0.40562677 -0.07769832 0.53664583 4284900165
0.40553707 -0.077025861 0.53669202 4284834370
0.40553808 -0.076368831 0.53669536 4284965956
0.4055391 -0.075711802 0.53669882 4285097027
0.40554011 -0.07505478 0.53670222 4285031236
0.40554112 -0.07439775 0.53670561 4285097031
0.40563291 -0.073754609 0.53666627 4285030724
0.40563393 -0.073097318 0.53666967 4285030724
0.40563494 -0.072440028 0.53667307 4285096515
0.40572673 -0.071795836 0.53663367 4285031236
0.40572774 -0.0711383 0.53663707 4284965443
0.40572876 -0.070480749 0.53664047 4285031236
0.40572977 -0.069823205 0.53664386 4285162308
0.40573078 -0.069165662 0.53664732 4285556298
0.4057318 -0.068508118 0.53665072 4285359435
0.40573281 -0.067850567 0.53665411 4285425228
0.4058246 -0.067204304 0.53661478 4285359435
0.40582561 -0.0665465 0.53661817 4285425480
0.40591738 -0.065899462 0.53657877 4285359687
0.40591842 -0.065241396 0.53658223 4285425994
0.40601015 -0.064593583 0.53654289 4285492300
0.40610194 -0.063945249 0.53650355 4285163335
0.40619373 -0.063296407 0.53646421 4285097029
0.40619475 -0.062637568 0.53646761 4284899650
0.40619576 -0.061978724 0.53647101 4284899138
0.40628752 -0.061328836 0.53643167 4285161540
0.40628856 -0.060669735 0.53643507 4285227333
0.40638036 -0.060019068 0.53639579 4285161540
0.40638137 -0.059359714 0.53639919 4285161286
0.40638238 -0.058700353 0.53640258 4285228103
0.4063834 -0.058040991 0.53640598 4285162310
0.40638441 -0.05738163 0.53640944 4285228617
0.40638545 -0.056722276 0.53641284 4284900165
0.40638646 -0.056062914 0.53641623 4285031751
0.40638751 -0.055403553 0.53641969 4285294410
0.40638852 -0.054744195 0.53642309 4285425996
0.40638953 -0.054084834 0.53642648 4285557068
0.40639055 -0.053425476 0.53642988 4285228099
0.40630078 -0.05276053 0.53647608 4285031234
0.4063018 -0.05210143 0.53647947 4284965954
0.40621209 -0.051437259 0.53652561 4284702782
0.4062131 -0.050778419 0.53652906 4283320879
0.40621412 -0.050119579 0.53653246 4281479706
0.40612435 -0.049456444 0.5365786 4280164640
0.40585312 -0.048785765 0.5367102 4279507484
0.40576339 -0.048124187 0.53675628 4279441691
0.40558288 -0.04745961 0.53684515 4279310618
0.40549308 -0.046799328 0.53689128 4279246108
0.40540338 -0.046139564 0.53693742 4279180315
0.40531361 -0.045480318 0.53698355 4279049243
0.40522388 -0.04482159 0.53702962 4279049243
0.40522489 -0.0441656 0.53703308 4278984220
0.40513515 -0.043507647 0.53707916 4278918173
0.40504539 -0.042850215 0.53712529 4278918173
0.4050464 -0.042194743 0.53712869 4278983196
0.40504742 -0.041539267 0.53713208 4278983196
0.40495765 -0.040882871 0.53717816 4279048989
0.40495867 -0.040227655 0.53718156 4279049243
0.40505046 -0.03957285 0.53714228 4278983450
0.40505147 -0.038917374 0.53714561 4279114268
0.40514326 -0.03826179 0.53710634 4279180061
0.40523505 -0.037605684 0.53706706 4279180315
0.40541762 -0.036948431 0.53698504 4279377177
0.40560019 -0.036290139 0.53690302 4279311384
0.40578276 -0.035630815 0.53682101 4279311388
0.4059653 -0.034970451 0.53673905 4279442974
0.40623862 -0.034307383 0.53661436 4279180315
0.40633041 -0.033646617 0.53657508 4279246108
0.40660375 -0.03298096 0.53645039 4279246108
0.4068771 -0.032313749 0.53632575 4279180315
0.40705967 -0.031647686 0.5362438 4279114522
0.40733302 -0.030977625 0.53611916 4279180061
0.40760636 -0.030306008 0.53599453 4279112985
0.40797049 -0.029629357 0.53582722 4278981399
0.40833461 -0.028950633 0.53565991 4278719251
0.40869874 -0.028269837 0.5354926 4278586380
0.40906289 -0.027586967 0.53532529 4278586380
0.40942699 -0.026902024 0.53515804 4278520587
0.40970039 -0.026219785 0.53503346 4278586380
0.40997374 -0.025535993 0.53490889 4278717968
0.41024712 -0.024850648 0.53478432 4278717968
0.41042972 -0.0241693 0.53470242 4278587411
0.41070312 -0.023481101 0.53457791 4278521618
0.41079491 -0.022803493 0.53453869 4278718999
0.41079596 -0.022131698 0.5345422 4278784790
0.41088778 -0.021453314 0.53450298 4278784790
0.41088879 -0.020781258 0.5345065 4278850585
0.41079909 -0.020116311 0.53455263 4278850585
0.41089088 -0.019437151 0.53451347 4278785821
0.41089192 -0.018765096 0.53451693 4278785821
0.41089296 -0.01809304 0.53452039 4279048465
0.41089401 -0.017420989 0.5345239 4279178517
0.41098586 -0.016740529 0.53448468 4279178517
0.4109869 -0.016068215 0.5344882 4278982169
0.41107869 -0.01538698 0.53444904 4278982682
0.41117054 -0.014705226 0.53440982 4278850594
0.41126233 -0.014022954 0.53437066 4278981403
0.41144496 -0.013330465 0.53428888 4279047196
0.41153681 -0.012646899 0.53424966 4279243542
0.41171938 -0.0119526 0.53416789 4279047182
0.41181123 -0.011267737 0.53412873 4278914826
0.41190308 -0.010582354 0.53408957 4278914826
0.4119041 -0.0099074505 0.53409302 4278782989
0.41199595 -0.0092212893 0.53405392 4278651153
0.41190618 -0.0085576419 0.53410006 4278651401
0.41190726 -0.0078827385 0.53410351 4278651654
0.41172671 -0.0072318949 0.53419232 4278717447
0.41145539 -0.0065943748 0.53432375 4278848780
0.41118407 -0.0059584156 0.53445512 4279046161
0.41091275 -0.0053240061 0.53458655 4278980886
0.41064143 -0.0046911538 0.53471792 4278981653
0.4102793 -0.0040731803 0.53489196 4278915860
0.41000795 -0.0034436956 0.53502333 4279178519
0.40973663 -0.0028157607 0.5351547 4279113237
0.40955609 -0.0021752827 0.53524345 4279112985
0.40928474 -0.0015502088 0.53537482 4279376409
0.40910423 -0.00091205165 0.53546351 4279507993
0.40901443 -0.00026006624 0.53550959 4279573786
0.4089247 0.00039141253 0.53555566 4279639579
0.40883493 0.0010423623 0.53560174 4279640349
0.40874517 0.0016928054 0.53564781 4279639579
0.40874621 0.0023586415 0.53565127 4279640349
0.40865642 0.0030083023 0.53569734 4279640349
0.40874827 0.0036903173 0.53565818 4279508767
0.40874928 0.0043561496 0.53566164 4279640353
0.40865952 0.0050050355 0.53570771 4279508515
0.40875137 0.0056878254 0.53566849 4279442722
0.40875238 0.0063536614 0.53567195 4279508515
0.40884423 0.0070372224 0.53563285 4279640101
0.40893602 0.0077213161 0.53559363 4279640099
0.40911868 0.0084241703 0.53551185 4279508767
0.4092105 0.0091095492 0.53547275 4279640353
0.40921152 0.0097766817 0.53547621 4279639583
0.40939415 0.01048186 0.53539443 4279836962
0.409486 0.011168793 0.53535527 4279836962
0.40966862 0.01187579 0.53527355 4279836960
0.40976048 0.012564026 0.53523439 4279836960
0.4099431 0.013272837 0.53515267 4280230433
0.41012573 0.01398268 0.5350709 4280427042
0.41030836 0.014693562 0.53498918 4282005548
0.41067261 0.015447158 0.53482229 4285095243
0.41094607 0.016181733 0.53469795 4285161036
0.4111287 0.016896501 0.53461629 4285883215
0.41140217 0.017633934 0.53449196 4285883215
0.41167563 0.018372901 0.53436768 4286278484
0.41194907 0.019113436 0.5342434 4286278484
0.41213173 0.019833125 0.53416175 4285883980
0.41231436 0.020553853 0.53408003 4286344014
0.41240627 0.02125271 0.53404093 4286343236
0.41258889 0.021975249 0.53395927 4286145857
0.41268075 0.022675402 0.53392023 4286211650
0.4127726 0.023376063 0.53388113 4286342469
0.41277367 0.024053302 0.53388464 4286539850
0.41286552 0.024754744 0.53384554 4286539596
0.41295737 0.0254567 0.5338065 4286408012
0.41295841 0.026134457 0.53381002 4286342219
0.41305029 0.026837204 0.53377092 4286408012
0.41314214 0.027540449 0.53373188 4286539596
0.41314319 0.02821872 0.53373539 4286408264
0.41323507 0.028922763 0.53369635 4286210885
0.41323611 0.029601295 0.53369987 4286276678
0.41332793 0.030306105 0.53366083 4286408264
0.41332901 0.030984897 0.53366435 4286408262
0.41351169 0.031717282 0.53358269 4286342471
0.41360354 0.032423642 0.53354365 4286210885
0.41360459 0.033103209 0.53354716 4286342469
0.41369647 0.033810366 0.53350812 4286473285
0.41378832 0.034518022 0.53346908 4286473287
0.4138802 0.0352262 0.53343004 4286407494
0.41397205 0.035934899 0.53339106 4286670666
0.41397309 0.036615502 0.53339458 4286277189
0.414065 0.037324976 0.53335553 4286146375
0.41406605 0.03800584 0.53335905 4285949258
0.41406709 0.038686696 0.53336257 4286409818
0.41415894 0.039397221 0.53332353 4286409818
0.40658066 -0.083082616 0.53689134 4285365117
0.4064908 -0.082406275 0.53693736 4285428063
0.40649185 -0.081747428 0.53694075 4285296472
0.40649286 -0.081088588 0.53694415 4285492566
0.40640301 -0.080413274 0.53699017 4285163083
0.40631315 -0.079738483 0.53703612 4285031497
0.4062233 -0.07906422 0.53708208 4285031497
0.40604258 -0.078374758 0.53717059 4285163083
0.40595269 -0.077701785 0.5372166 4284899911
0.40595374 -0.077044502 0.53722 4284834372
0.40595475 -0.076387212 0.5372234 4284900165
0.40586489 -0.075715266 0.53726935 4285097029
0.40586591 -0.075058237 0.53727275 4285030984
0.40586692 -0.074401215 0.53727615 4285096777
0.40595883 -0.073758066 0.53723705 4285030984
0.40595984 -0.073100775 0.53724045 4285030984
0.40605175 -0.072456852 0.53720129 4284965445
0.40605277 -0.071799301 0.53720468 4285031238
0.40605378 -0.071141765 0.53720808 4284965443
0.40605479 -0.070484214 0.53721148 4284965443
0.40605581 -0.069826663 0.53721488 4285162308
0.40605685 -0.069169119 0.53721833 4285491275
0.40614873 -0.068523377 0.53717917 4285425228
0.40614974 -0.067865573 0.53718257 4285425228
0.40624166 -0.067219056 0.53714347 4285359435
0.40624267 -0.066560999 0.53714687 4285425480
0.40624368 -0.065902933 0.53715026 4285425478
0.4062447 -0.065244868 0.53715366 4285425992
0.40642747 -0.064607307 0.537072 4285360712
0.40651941 -0.063958719 0.5370329 4285229126
0.40652043 -0.063299879 0.5370363 4285031234
0.40661231 -0.062650502 0.5369972 4284965441
0.40661335 -0.061991408 0.53700066 4285031236
0.40661436 -0.061332308 0.53700405 4285556298
0.40661538 -0.060673207 0.53700745 4285227333
0.40670729 -0.060022544 0.53696835 4285096265
0.4067083 -0.059363186 0.53697175 4285096265
0.40670934 -0.058703825 0.53697515 4285096777
0.40671039 -0.058044463 0.5369786 4285030984
0.40680227 -0.057392508 0.5369395 4285294408
0.40680328 -0.056732889 0.5369429 4284965956
0.40680432 -0.056073271 0.5369463 4285163335
0.40680534 -0.055413652 0.53694975 4285163335
0.40680635 -0.054754034 0.53695315 4285294921
0.4067165 -0.054088309 0.53699911 4285425994
0.40671751 -0.053428948 0.5370025 4285228615
0.40671855 -0.05276959 0.5370059 4285097027
0.40662867 -0.052104902 0.53705186 4284965441
0.40662968 -0.051445801 0.53705525 4284570683
0.4065398 -0.050781891 0.53710115 4283255340
0.40654081 -0.050123047 0.53710461 4281413400
0.40636006 -0.04945562 0.537193 4280164640
0.40617931 -0.048789229 0.53728139 4279638300
0.40608943 -0.048127651 0.53732729 4279572507
0.40590867 -0.047463074 0.53741574 4279310618
0.40581876 -0.046802789 0.53746164 4279311388
0.40581977 -0.04614602 0.53746504 4279049243
0.40572995 -0.045486514 0.53751093 4278918427
0.40564007 -0.044827525 0.53755683 4278918427
0.40564108 -0.044171274 0.53756022 4278984220
0.4055512 -0.043513063 0.53760612 4278918173
0.40555221 -0.04285707 0.53760952 4279114782
0.40546232 -0.042199638 0.53765541 4279114520
0.40546334 -0.041543905 0.53765881 4279114520
0.40546438 -0.040888172 0.53766221 4279114268
0.40546539 -0.040232439 0.53766561 4279180315
0.40555727 -0.039577115 0.5376265 4279180315
0.40555829 -0.038921122 0.5376299 4278982936
0.4056502 -0.03826502 0.53759086 4279114522
0.40574214 -0.037608396 0.53755176 4279246106
0.40592498 -0.036950629 0.53747022 4279377177
0.40610778 -0.036291823 0.53738862 4279311384
0.40629059 -0.035631981 0.53730708 4279245591
0.4065643 -0.034969699 0.53718311 4279377181
0.40665621 -0.03430919 0.53714406 4279311388
0.40683904 -0.033646237 0.53706253 4279311388
0.40702188 -0.032982253 0.53698099 4279311901
0.40729558 -0.032314785 0.53685701 4279180315
0.40756935 -0.031645764 0.53673303 4278982684
0.40793395 -0.030972227 0.53656662 4279114270
0.40829861 -0.030296618 0.5364002 4279047192
0.40866321 -0.029618934 0.53623378 4278915606
0.40902787 -0.02893918 0.53606737 4278587411
0.40948343 -0.028253354 0.53585851 4278783759
0.40984809 -0.027569193 0.53569216 4278520587
0.41012186 -0.026887478 0.53556824 4278520585
0.41030467 -0.026208984 0.53548682 4278520585
0.41057843 -0.025524419 0.5353629 4278717968
0.4106704 -0.024848882 0.53532392 4278717968
0.41094413 -0.024161726 0.5352 4278587411
0.4110361 -0.023484638 0.53516108 4278587411
0.41103715 -0.0228131 0.53516454 4278718999
0.41103816 -0.022141568 0.53516799 4278850585
0.41103923 -0.021470031 0.53517151 4278850583
0.41104025 -0.020798493 0.53517497 4278982169
0.41104132 -0.020126956 0.53517842 4279112726
0.41104233 -0.019455422 0.53518194 4279245341
0.41104338 -0.018783884 0.5351854 4279180315
0.41104442 -0.018112347 0.53518891 4278982419
0.41113636 -0.017432671 0.53514993 4279113237
0.4111374 -0.016760875 0.53515339 4279179030
0.41122934 -0.016080419 0.53511447 4278982171
0.41123039 -0.015408365 0.53511792 4278982169
0.41132236 -0.014727129 0.535079 4278850587
0.41150522 -0.014035935 0.53499758 4279112472
0.41159716 -0.013353409 0.53495866 4279178265
0.41178006 -0.012660407 0.5348773 4279309335
0.411872 -0.011976581 0.53483832 4279046929
0.41205484 -0.011281764 0.53475702 4279243019
0.41214681 -0.010596642 0.53471804 4279243019
0.41223878 -0.0099110045 0.53467911 4279045909
0.41233075 -0.009224847 0.53464019 4278520339
0.41233182 -0.0085496847 0.53464371 4278651401
0.41233283 -0.0078745205 0.53464723 4278651654
0.41215205 -0.0072234161 0.53473556 4278651654
0.41188034 -0.0065856315 0.53486627 4278782987
0.41169956 -0.0059368648 0.53495461 4278914575
0.41142783 -0.0053019375 0.53508532 4279046163
0.41115612 -0.0046685599 0.53521603 4278981653
0.41097534 -0.0040234141 0.53530437 4278915860
0.4106127 -0.0034064725 0.53547746 4278981651
0.41034096 -0.002777759 0.53560817 4279113237
0.41006929 -0.0021505952 0.53573883 4279113237
0.40988845 -0.0015106313 0.53582716 4279310616
0.40970767 -0.00087170675 0.53591537 4279507993
0.40952682 -0.00023381785 0.53600371 4279507993
0.40943697 0.00041817874 0.53604954 4279639832
0.40934706 0.0010696538 0.53609538 4279837211
0.40925717 0.001720611 0.53614128 4279639832
0.40925822 0.0023869686 0.53614467 4279640602
0.4091683 0.0030371472 0.53619057 4279640602
0.40916935 0.003703244 0.53619397 4279443487
0.40917039 0.0043693371 0.53619742 4279574819
0.4091714 0.0050354302 0.53620088 4279442720
0.40926337 0.0057187416 0.53616196 4279508513
0.40926439 0.0063850954 0.53616542 4279640099
0.40926546 0.0070514493 0.53616887 4279770915
0.40944833 0.0077537857 0.53608751 4279770915
0.4095403 0.0084389001 0.53604859 4279573788
0.40963224 0.0091245361 0.53600967 4279771167
0.40972418 0.0098106898 0.53597075 4279639581
0.40981615 0.010497365 0.53593183 4279836962
0.40990812 0.011184562 0.5358929 4279771169
0.41009104 0.011891816 0.5358116 4279639581
0.41018298 0.012580305 0.53577268 4279836960
0.41027495 0.013269313 0.53573382 4280033824
0.41045782 0.013979152 0.53565252 4280033824
0.41073167 0.014710616 0.53552884 4281018144
0.4110055 0.015443623 0.53540522 4284898632
0.41127932 0.016178194 0.5352816 4284767046
0.41155314 0.016914319 0.53515792 4285620293
0.41191792 0.017673619 0.53499198 4285554502
0.41210082 0.018391222 0.53491074 4285949521
0.41237468 0.019132018 0.53478712 4286015314
0.4125576 0.019851968 0.53470588 4285751375
0.41274053 0.020572945 0.53462464 4286145101
0.4129234 0.021294963 0.53454345 4285947461
0.41301543 0.021994859 0.53450459 4286210883
0.4131074 0.022695262 0.53446573 4286408262
0.41319937 0.02339619 0.53442687 4286408516
0.41320041 0.024073686 0.53443038 4286408516
0.41329241 0.024775382 0.53439158 4286343236
0.41338438 0.025477607 0.53435272 4286343236
0.41338545 0.026155625 0.53435624 4286079551
0.41347742 0.026858609 0.53431737 4286539848
0.41347846 0.02753688 0.53432089 4286539848
0.41357046 0.028240655 0.53428209 4286539850
0.41357154 0.028919186 0.53428555 4286342471
0.41366351 0.029623743 0.53424674 4286408264
0.41366452 0.030302528 0.53425026 4286473287
0.41384748 0.031034399 0.53416908 4286407494
0.41384852 0.031713706 0.53417259 4286407242
0.41394052 0.032420065 0.53413379 4286407242
0.41403252 0.033126954 0.53409499 4286538826
0.41403359 0.033806782 0.53409851 4286538313
0.41412556 0.034514438 0.5340597 4286472520
0.41421756 0.035222616 0.5340209 4286407240
0.41430956 0.035931315 0.53398204 4286670412
0.4143106 0.036611918 0.53398561 4286474570
0.4144026 0.037321392 0.53394681 4286277443
0.41431272 0.037973125 0.53399265 4286014017
0.41440472 0.038683113 0.53395385 4286342748
0.41440576 0.039363984 0.53395736 4286803299
0.41449776 0.040074755 0.53391856 4286343262
0.40709051 -0.082461484 0.53738242 4285101170
0.40690953 -0.081767887 0.53747058 4285361763
0.40691054 -0.081108794 0.53747398 4285295450
0.4068206 -0.08043322 0.53751969 4285229396
0.40673059 -0.07975816 0.53756547 4285097810
0.40654963 -0.079067677 0.53765357 4285032015
0.40636864 -0.07837823 0.5377416 4285031245
0.40636969 -0.077720687 0.537745 4284834120
0.40627968 -0.077047959 0.53779078 4284965193
0.4062807 -0.076390669 0.53779417 4284965193
0.40628171 -0.075733386 0.53779757 4285030986
0.40628272 -0.075076096 0.53780103 4285030736
0.40628374 -0.074418813 0.53780442 4285030736
0.40628475 -0.073761523 0.53780782 4285096011
0.40637678 -0.07311786 0.53776884 4285030218
0.40637779 -0.072460316 0.5377723 4285227331
0.40637884 -0.071802765 0.5377757 4285162308
0.40637985 -0.071145222 0.53777909 4285227331
0.40638089 -0.070487678 0.53778249 4285227331
0.40647286 -0.069842458 0.53774357 4285228101
0.4064739 -0.069184646 0.53774703 4285359689
0.40647492 -0.068526842 0.53775042 4285425482
0.40656695 -0.067880586 0.5377115 4285359689
0.40656799 -0.067222521 0.5377149 4285359689
0.406569 -0.066564463 0.5377183 4285162306
0.40657002 -0.065906398 0.53772175 4285425984
0.40675303 -0.065269351 0.53764051 4285557316
0.40675405 -0.064610772 0.53764391 4285360453
0.40684611 -0.063962184 0.53760505 4285294660
0.40684712 -0.063303344 0.53760844 4285031488
0.40693915 -0.062653974 0.53756958 4285031488
0.40694016 -0.06199488 0.53757298 4285294406
0.40694118 -0.06133578 0.53757638 4285491535
0.40703323 -0.060685374 0.53753752 4285294156
0.40703428 -0.060026016 0.53754091 4285425744
0.40703529 -0.059366658 0.53754437 4285228365
0.40712732 -0.058715217 0.53750545 4284965191
0.40712833 -0.058055598 0.53750885 4284833605
0.40712935 -0.05739598 0.5375123 4285228867
0.40713036 -0.056736365 0.5375157 4285229117
0.40713137 -0.056076743 0.5375191 4285228865
0.40713242 -0.055417128 0.53752255 4284965954
0.40713343 -0.054757506 0.53752595 4284965954
0.40713447 -0.054097887 0.53752935 4285294408
0.40713549 -0.053438269 0.53753281 4285294408
0.40704548 -0.052773062 0.53757852 4285228615
0.4070465 -0.052113704 0.53758192 4285031234
0.40695649 -0.051449269 0.53762764 4284768062
0.40686649 -0.050785359 0.53767329 4283189032
0.40686753 -0.050126519 0.53767669 4280952851
0.40668648 -0.049459089 0.53776467 4280033054
0.4065055 -0.048792694 0.53785264 4279572507
0.40632445 -0.048127338 0.53794062 4279638300
0.40623447 -0.047466531 0.53798628 4279375896
0.40614444 -0.046806246 0.53803194 4279311388
0.40614545 -0.046149477 0.53803539 4279180315
0.40605545 -0.045489971 0.53808105 4279048991
0.40605649 -0.044833463 0.53808445 4279048991
0.40596646 -0.044174731 0.5381301 4278983968
0.40596747 -0.04351848 0.5381335 4278918175
0.40596852 -0.042862229 0.5381369 4279114782
0.40596953 -0.042205978 0.5381403 4279180315
0.40597054 -0.041549727 0.53814369 4279114522
0.40597156 -0.040893476 0.53814709 4279245591
0.4059726 -0.040237226 0.53815055 4279245591
0.40606463 -0.039581385 0.53811163 4279245593
0.40606564 -0.038924877 0.53811502 4278982686
0.40615767 -0.038268257 0.53807622 4279114272
0.40624976 -0.037611116 0.53803736 4279114782
0.40643281 -0.036952835 0.53795624 4279246106
0.40661588 -0.03629351 0.53787518 4279114520
0.40679896 -0.035633154 0.53779405 4279114520
0.406982 -0.034971762 0.53771299 4279311899
0.40716511 -0.034309331 0.53763187 4279245595
0.40734819 -0.033645865 0.53755081 4279245595
0.40753126 -0.032981362 0.53746974 4279311388
0.40780538 -0.032313384 0.53734648 4279245595
0.40817052 -0.031641148 0.5371809 4279047966
0.40862671 -0.030963877 0.53697312 4279047962
0.40899187 -0.030287236 0.53680766 4278981399
0.40944806 -0.029605046 0.53659987 4278849813
0.40981323 -0.028924 0.53643441 4278521872
0.41026938 -0.028236886 0.53622669 4278652173
0.41054356 -0.027555691 0.53610343 4278454794
0.41081768 -0.026872944 0.53598022 4278520587
0.41100079 -0.026193414 0.53589922 4278652424
0.41118389 -0.025512848 0.53581822 4278915343
0.41127598 -0.02483654 0.53577948 4278718481
0.41136807 -0.024159711 0.53574073 4278587411
0.41136909 -0.023488175 0.53574419 4278587411
0.41137016 -0.022816638 0.53574771 4278719510
0.41137117 -0.022145104 0.53575116 4279047192
0.41137221 -0.021473566 0.53575468 4279046931
0.41128218 -0.020808877 0.53580034 4279309333
0.41128325 -0.020137601 0.53580385 4279309333
0.41128427 -0.019466324 0.53580731 4279310616
0.41119429 -0.018802667 0.53585303 4279179800
0.41128635 -0.018123768 0.53581429 4279048212
0.4112874 -0.017452491 0.53581774 4279179032
0.41137952 -0.016772812 0.535779 4279310618
0.41138053 -0.016101275 0.53578246 4278982169
0.41147262 -0.015420819 0.53574377 4279048216
0.41156468 -0.014739849 0.53570503 4278850585
0.4116568 -0.014058355 0.53566629 4279047446
0.4118399 -0.013366649 0.53558534 4279179032
0.41202301 -0.012673909 0.53550446 4279178519
0.41220617 -0.011980129 0.53542352 4278981649
