# .PCD v0.7 - Point Cloud Data file format
VERSION 0.7
FIELDS x y z rgb
SIZE 4 4 4 4
TYPE F F F U
COUNT 1 1 1 1
WIDTH 1052
HEIGHT 1
VIEWPOINT 0 0 0 1 0 0 0
POINTS 1052
DATA ascii
0.41135299 0.026491873 0.51106739 4280298784
0.41189715 0.026946217 0.51096517 4280298532
0.37833631 -0.032991081 0.50577331 4283261525
0.37861282 -0.032330677 0.50588632 4282732351
0.37888873 -0.031671122 0.50599933 4282731840
0.37910074 -0.030955777 0.5061661 4282600252
0.37937528 -0.030298099 0.50627899 4282732092
0.37958562 -0.029585049 0.50644577 4282863678
0.37979507 -0.028873265 0.50661242 4282928701
0.38000357 -0.028162718 0.50677907 4282928699
0.38027519 -0.027509004 0.50689203 4283126078
0.38054615 -0.026856109 0.50700498 4283257148
0.38081652 -0.026204064 0.50711787 4283388734
0.38102183 -0.025497898 0.50728452 4283257146
0.3813554 -0.024902463 0.50734365 4283454523
0.38155916 -0.024198383 0.5075103 4283191351
0.38176197 -0.023495555 0.5076769 4283257141
0.382029 -0.022848114 0.50778979 4283454520
0.3822301 -0.022147566 0.50795639 4283257398
0.3824957 -0.021501973 0.50806922 4283191605
0.38269517 -0.02080375 0.50823575 4283125812
0.382828 -0.020053506 0.50845599 4283060017
0.38302547 -0.019357979 0.50862253 4283257396
0.383288 -0.018716559 0.50873536 4283257650
0.38348377 -0.018023327 0.50890183 4283126062
0.38367859 -0.017331362 0.50906837 4283257648
0.38387251 -0.016640633 0.50923485 4283257650
0.38406551 -0.015951172 0.50940132 4283191603
0.38432437 -0.015314773 0.50951409 4283125810
0.38451567 -0.014627591 0.50968051 4282863408
0.38463897 -0.013890266 0.50990069 4282928685
0.38482827 -0.013205796 0.51006711 4283060271
0.3849493 -0.012471616 0.51028717 4283060017
0.3851366 -0.011789843 0.51045358 4283060017
0.38532299 -0.011109337 0.51062 4283059765
0.38544059 -0.010379732 0.51084006 4282731054
0.385625 -0.0097019672 0.51100636 4282730279
0.38587663 -0.0090753585 0.51111901 4283059240
0.38605934 -0.0083998591 0.51128536 4283256619
0.38630956 -0.0077751353 0.51139802 4283190826
0.38649058 -0.0071019307 0.51156431 4283190828
0.38667065 -0.0064299852 0.51173061 4283190576
0.38678092 -0.0057103932 0.51195061 4283124785
0.38688993 -0.004992485 0.51217049 4283190326
0.38706696 -0.0043247044 0.51233679 4283256119
0.38724303 -0.0036581755 0.51250303 4283190324
0.38741821 -0.0029929057 0.51266921 4283059762
0.38759249 -0.0023288801 0.51283544 4282993969
0.38776582 -0.0016661063 0.51300168 4283256887
0.38800824 -0.001052022 0.51311421 4283256887
0.38817987 -0.00039154291 0.51328039 4282927406
0.38842088 0.00022064894 0.51339287 4283059762
0.3886613 0.00083202869 0.5135054 4282928949
0.38883048 0.0014891624 0.51367152 4282863156
0.3890695 0.0020986646 0.51378405 4282797617
0.38923699 0.0027535111 0.51395011 4282929203
0.38940358 0.0034070984 0.51411629 4283389236
0.38964045 0.0040136799 0.5142287 4283586356
0.38980532 0.0046649724 0.51439476 4283257393
0.38996929 0.0053150207 0.51456088 4283322416
0.39020401 0.0059186816 0.51467329 4283322416
0.39043811 0.0065215006 0.51478571 4283256623
0.39059961 0.0071681961 0.51495177 4283322416
0.39076018 0.0078136548 0.51511776 4283256621
0.39091986 0.0084578618 0.51528382 4283190830
0.39107859 0.0091008171 0.51544982 4283388209
0.39130902 0.0096986294 0.51556218 4283322416
0.39146608 0.01033929 0.51572818 4283190830
0.39162219 0.010978691 0.51589411 4282927404
0.39185047 0.011573583 0.51600647 4283190830
0.3920781 0.012167647 0.51611882 4282927658
0.39230514 0.01276087 0.51623112 4283256623
0.39253157 0.013353258 0.51634341 4283256110
0.39275739 0.013944812 0.51645577 4282796070
0.39313024 0.014451101 0.51646084 4282664484
0.39342916 0.014999397 0.51651955 4282664484
0.39365357 0.015589073 0.51663184 4282664484
0.39395168 0.016136326 0.51669049 4282796072
0.39432395 0.016641781 0.51669556 4282861611
0.39462161 0.017188407 0.51675421 4282665004
0.39491895 0.01773461 0.51681292 4282664752
0.39521599 0.018280402 0.51687157 4282533166
0.3955878 0.018785231 0.51687664 4282598959
0.39588439 0.019330397 0.51693529 4283124533
0.39618063 0.019875146 0.51699394 4283124533
0.3964766 0.020419486 0.51705259 4283256891
0.39684793 0.020923689 0.51705766 4283256891
0.39721927 0.021427885 0.51706272 4283059517
0.40596724 0.019770928 0.51199365 4282468148
0.40658298 0.020179555 0.5118382 4282336562
0.40712291 0.020627692 0.51173633 4282138665
0.40758651 0.021114707 0.51168805 4282006829
0.40797335 0.021639973 0.5116933 4281612589
0.408283 0.022202872 0.51175213 4281480233
0.40866971 0.022727937 0.51175743 4280295959
0.40897888 0.023290209 0.51181626 4279243538
0.40928772 0.023852065 0.51187509 4278849563
0.40967411 0.024376705 0.51188034 4278981401
0.40998253 0.024937935 0.51193917 4279047192
0.41036877 0.025462374 0.51194441 4279310364
0.41075501 0.025986806 0.51194966 4279639070
0.41121969 0.026475281 0.51190138 4279442970
0.41176328 0.026928425 0.51179957 4279903774
0.41238624 0.027346857 0.51164424 4280430118
0.41301012 0.027766541 0.51148891 4280693290
0.37891981 -0.033481762 0.50609416 4283456848
0.37919688 -0.032820165 0.50620675 4282666812
0.37947333 -0.032159403 0.50631928 4282862908
0.37968585 -0.031442776 0.50648534 4282797113
0.37989742 -0.030727416 0.5066514 4282731320
0.38004446 -0.029957041 0.50687099 4282928699
0.38031784 -0.029300451 0.50698346 4282928953
0.38052666 -0.028588831 0.50714952 4282994746
0.38079864 -0.027934119 0.50726199 4283060539
0.38094151 -0.027169377 0.50748146 4283257146
0.38114756 -0.026461512 0.50764751 4283454525
0.38141727 -0.025809929 0.50775993 4283454523
0.38168639 -0.025159195 0.50787234 4283520316
0.38195485 -0.024509281 0.50798482 4283257144
0.38215768 -0.023805797 0.50815076 4283125812
0.38235956 -0.02310358 0.5083167 4283257398
0.38262588 -0.022456586 0.50842911 4283257398
0.38282612 -0.021756664 0.50859499 4282994996
0.38302541 -0.021057978 0.50876093 4282994996
0.38322377 -0.020360559 0.50892675 4282994996
0.38342124 -0.019664392 0.50909263 4283126582
0.38361776 -0.018969476 0.50925851 4283126580
0.38381338 -0.018275797 0.50942433 4283061041
0.38400805 -0.017583385 0.50959015 4283257393
0.38420182 -0.01689221 0.50975597 4283191603
0.38439465 -0.016202301 0.50992179 4283191603
0.38465345 -0.015565529 0.51003408 4283125810
0.3848446 -0.014877915 0.51019984 4282928685
0.38496765 -0.014140069 0.51041907 4282928685
0.38515681 -0.013455167 0.51058483 4283060017
0.38534504 -0.012771517 0.51075053 4283060017
0.38546473 -0.012038261 0.51096976 4282994224
0.38565093 -0.011357307 0.51113546 4283059765
0.38576829 -0.010627195 0.51135463 4282730802
0.38595253 -0.009948954 0.51152033 4282730025
0.38620412 -0.0093219727 0.5116325 4283059242
0.38638669 -0.0086460561 0.51179814 4283256621
0.38656831 -0.0079713687 0.51196384 4283125035
0.38681775 -0.007347323 0.51207602 4283190828
0.38699767 -0.0066749454 0.5122416 4283256369
0.38710767 -0.0059548318 0.51246071 4283124785
0.38721639 -0.0052363873 0.5126797 4283190326
0.3873933 -0.004568167 0.51284528 4283124533
0.38756922 -0.0039011985 0.51301086 4283190324
0.38774425 -0.0032354817 0.51317644 4283059762
0.38791832 -0.0025710166 0.51334196 4282993969
0.3880915 -0.0019077957 0.51350749 4283191094
0.38833386 -0.0012933463 0.5136196 4283256887
0.38850534 -0.00063242763 0.51378512 4282927406
0.38874632 -1.9870698e-05 0.51389718 4283190578
0.38898671 0.00059186667 0.51400924 4283125301
0.38915572 0.0012494475 0.5141747 4282993972
0.3893947 0.0018593147 0.51428676 4282862640
0.38956201 0.0025146008 0.51445222 4283060019
0.38972843 0.0031686351 0.51461762 4283520563
0.38996527 0.0037755817 0.51472962 4283914549
0.39012998 0.0044273213 0.51489508 4283454002
0.39036542 0.0050323829 0.51500702 4283387696
0.39052844 0.0056818277 0.51517248 4283387696
0.39069057 0.0063300207 0.51533782 4283256371
0.39099598 0.006887354 0.51539636 4283256371
0.39115655 0.0075334609 0.51556176 4283190576
0.39124382 0.0082226992 0.51578051 4283322162
0.39140236 0.0088661015 0.51594579 4283453748
0.39163274 0.0094642788 0.51605773 4283387955
0.39178962 0.010105379 0.51622307 4283256623
0.39194563 0.010745227 0.51638836 4283059244
0.39217383 0.011340484 0.51650023 4283190830
0.39232811 0.011978038 0.51666552 4283125035
0.39255494 0.012571417 0.5167774 4283190828
0.39278117 0.013163961 0.51688921 4283190828
0.39300677 0.013755672 0.51700109 4282861863
0.39330572 0.014304258 0.51705956 4282730277
0.39360434 0.014852419 0.51711804 4282861861
0.39390266 0.015400171 0.51717651 4282861861
0.39412624 0.015989169 0.51728833 4282730275
0.39442381 0.016535871 0.51734674 4282796072
0.39472109 0.017082155 0.51740521 4282795566
0.39501798 0.017628029 0.51746368 4282730547
0.39538965 0.018132649 0.51746869 4282598961
0.39568612 0.01867789 0.51752716 4282664752
0.39598227 0.019222729 0.51758558 4283124533
0.39627814 0.019767135 0.51764399 4283058740
0.3966493 0.02027113 0.51764905 4283123770
0.39686894 0.020854704 0.51776081 4283189563
0.39716387 0.021397866 0.51781923 4283059008
0.39745849 0.021940596 0.51787764 4282730298
0.40761417 0.02103284 0.51241386 4282270251
0.40807778 0.021519572 0.51236582 4282072620
0.40846431 0.022044428 0.51237106 4281415462
0.40877336 0.022606775 0.51242971 4281349669
0.40900451 0.023205988 0.51254159 4279573008
0.40931281 0.023767307 0.51260018 4278915345
0.40954286 0.024365067 0.51271212 4278981140
0.41000658 0.024851993 0.51266402 4279112726
0.41031414 0.025412269 0.51272261 4279112726
0.41085654 0.025863379 0.51262122 4279441691
0.41116393 0.026423424 0.51267982 4279574039
0.41178581 0.026839763 0.51252514 4279509016
0.41232979 0.027292952 0.51242375 4280167459
0.41303235 0.027676158 0.51221579 4280299045
0.41381532 0.028025821 0.51195449 4280299043
0.4145205 0.02841258 0.51174653 4280364836
0.37928891 -0.034694433 0.50625181 4283394145
0.37944135 -0.033915833 0.50647056 4283651397
0.37971884 -0.033253238 0.50658268 4283059512
0.3799957 -0.032591492 0.50669479 4282993719
0.38020849 -0.031873792 0.5068602 4283059510
0.38042039 -0.031157374 0.5070256 4282993717
0.38063139 -0.030442178 0.50719094 4282993974
0.38084143 -0.029728249 0.50735635 4283059765
0.38098651 -0.028959662 0.50757498 4283322680
0.38119453 -0.028248429 0.50774032 4283388730
0.38140166 -0.027538478 0.50790566 4283388730
0.38154334 -0.026774436 0.50812423 4283520316
0.38181317 -0.026122272 0.50823629 4283454520
0.38208234 -0.025470957 0.50834823 4283454523
0.38235092 -0.024820477 0.50846022 4283322934
0.38255376 -0.024116352 0.50862551 4283191600
0.38275567 -0.023413479 0.50879079 4283257393
0.38295665 -0.022711873 0.50895602 4283126064
0.38322228 -0.022065356 0.50906795 4283126064
0.3834216 -0.021366 0.50923318 4282929201
0.38361996 -0.02066794 0.5093984 4283126328
0.38381743 -0.019971117 0.50956357 4283257914
0.38401395 -0.019275546 0.50972879 4283060535
0.38420954 -0.018581226 0.50989389 4283060019
0.38440424 -0.017888159 0.51005912 4283125812
0.38453132 -0.01714395 0.51027751 4283125560
0.38472402 -0.016453609 0.51044261 4283125560
0.38498276 -0.015816465 0.51055443 4283059767
0.38510662 -0.015076652 0.51077282 4283125812
0.38536382 -0.014441594 0.51088464 4282994224
0.385553 -0.013756037 0.51104975 4282929203
0.38567364 -0.01302059 0.51126808 4282928179
0.38579303 -0.012286812 0.51148635 4282928179
0.38597912 -0.011605442 0.5116514 4283059765
0.38616431 -0.010925308 0.51181638 4282927924
0.38628033 -0.01019612 0.51203465 4282796338
0.38653183 -0.0095687807 0.51214647 4282993969
0.38671422 -0.0088924021 0.5123114 4283125555
0.38689569 -0.0082172751 0.51247638 4283059762
0.38714507 -0.0075928643 0.51258814 4283190578
0.38732487 -0.0069200322 0.51275307 4283058992
0.38750371 -0.0062484592 0.512918 4283124018
0.38761237 -0.0055292845 0.51313615 4283189811
0.38778925 -0.0048604161 0.51330107 4283124018
0.38796517 -0.0041927993 0.513466 4283059244
0.3881402 -0.0035264269 0.51363087 4283125035
0.38824439 -0.002813302 0.51384896 4283191600
0.38841742 -0.002149649 0.51401383 4283059762
0.38865972 -0.0015348345 0.51412547 4283125555
0.38883105 -0.00087346882 0.51429027 4282993969
0.38907197 -0.0002605319 0.51440191 4283124785
0.38931227 0.00035155565 0.51451349 4283321910
0.38948113 0.0010095835 0.51467836 4283124531
0.38972008 0.0016198084 0.51478994 4282993715
0.38988727 0.0022755414 0.51495469 4283125301
0.39005351 0.0029300153 0.51511943 4283191346
0.39029029 0.0035373196 0.51523101 4283585586
0.39045486 0.0041895062 0.51539576 4283453998
0.39069027 0.0047949329 0.51550734 4283387694
0.39085311 0.0054448247 0.51567203 4283321901
0.39101511 0.0060934573 0.51583672 4283321397
0.39132053 0.0066510886 0.51589507 4283387703
0.39148095 0.0072976276 0.51605976 4283191348
0.39164045 0.0079429224 0.51622444 4283387957
0.39172637 0.008631222 0.5164423 4283453750
0.39195669 0.0092297718 0.51655376 4283387955
0.39211345 0.0098713115 0.51671839 4283256623
0.39226925 0.010511599 0.51688302 4283125037
0.39249742 0.011107221 0.51699448 4283190828
0.39265153 0.011745222 0.51715904 4283190828
0.39287832 0.012338966 0.51727051 4283190828
0.39310449 0.012931868 0.51738191 4283190315
0.39333004 0.013523951 0.51749331 4282992938
0.39362901 0.014072821 0.51755154 4283059242
0.39385352 0.014663436 0.51766294 4283191598
0.39407736 0.015253216 0.51777434 4283191598
0.39437515 0.015800416 0.51783258 4282665254
0.39459795 0.016388737 0.51794392 4282598691
0.3948949 0.016934894 0.51800215 4282730277
0.39519161 0.017480634 0.51806033 4282861613
0.39556307 0.017985046 0.51806545 4282861613
0.3958593 0.018530168 0.51812363 4282927406
0.39615521 0.019074857 0.5181818 4282927406
0.39637524 0.01965943 0.51829314 4282795820
0.3967461 0.020163 0.51829821 4282729777
0.39704108 0.020706445 0.51835644 4282927156
0.39733577 0.021249473 0.51841462 4282795316
0.39755398 0.021831535 0.5185259 4282796086
0.39784789 0.02237352 0.51858407 4282993465
0.40902954 0.023122258 0.51326561 4281348892
0.40925938 0.023720175 0.51337707 4280888339
0.4095667 0.024280295 0.51343542 4279769613
0.40995187 0.024803266 0.51344067 4279046929
0.41041535 0.025289729 0.51339287 4278981136
0.41080064 0.025812909 0.51339811 4279046931
0.41142195 0.026227735 0.51324403 4279113488
0.41196534 0.026679732 0.51314312 4279375896
0.41250932 0.027132571 0.51304221 4279310867
0.41321218 0.027515255 0.51283514 4279442453
0.41383699 0.027934894 0.51268113 4279838494
0.41462153 0.028285637 0.51242101 4280167457
0.41532809 0.028673321 0.51221395 4280496676
0.41603583 0.029062688 0.51200694 4280562469
0.41666496 0.029488161 0.51185298 4280364577
0.3799637 -0.0343505 0.50684875 4283519809
0.38030487 -0.033744186 0.50690734 4283256891
0.38051891 -0.033024192 0.50707209 4283059512
0.38066846 -0.032248601 0.50728989 4283191096
0.38094419 -0.031587943 0.50740159 4283322682
0.38109162 -0.030815259 0.50761938 4283059765
0.38130182 -0.03010048 0.50778401 4283256887
0.38144696 -0.029330924 0.5080018 4283322934
0.38159084 -0.028563038 0.50821954 4283454520
0.38179797 -0.027852446 0.50838423 4283454520
0.3820042 -0.027143076 0.50854886 4283586106
0.38220945 -0.026434943 0.50871348 4283322934
0.3824138 -0.025728092 0.50887811 4283454266
0.38268235 -0.025077239 0.50898963 4283191348
0.38295025 -0.02442722 0.50910115 4283125805
0.38308677 -0.023669362 0.50931883 4283191598
0.38335311 -0.02302143 0.50943035 4283191598
0.38355321 -0.022320405 0.50959492 4283191857
0.38381818 -0.02167435 0.50970638 4282994226
0.38401657 -0.020975634 0.50987089 4283191351
0.38414785 -0.020224854 0.5100885 4283257144
0.38427791 -0.019475758 0.51030606 4282993972
0.3844732 -0.0187812 0.51047051 4283125301
0.38473421 -0.018140569 0.51058197 4283191094
0.38486105 -0.017395839 0.51079947 4283125560
0.38505358 -0.016705036 0.51096392 4283125560
0.38531226 -0.016067535 0.51107538 4283125560
0.38543588 -0.0153272 0.51129282 4283191351
0.38569304 -0.0146918 0.51140416 4282929203
0.38588202 -0.014005795 0.51156861 4282929203
0.3860701 -0.013321042 0.511733 4282862386
0.38612157 -0.012535542 0.51200342 4282928179
0.38630748 -0.01185371 0.51216781 4283059508
0.38649249 -0.011173129 0.51233214 4282927922
0.38667658 -0.010493815 0.51249647 4282993715
0.38685971 -0.0098157227 0.5126608 4283059508
0.38704199 -0.009138912 0.51282513 4283125301
0.38729209 -0.008513093 0.51293641 4283125301
0.38747263 -0.0078385621 0.51310074 4283059508
0.38765222 -0.007165283 0.51326501 4283058738
0.38783094 -0.0064932629 0.51342928 4282992432
0.38793933 -0.0057735667 0.51364648 4283124533
0.38811606 -0.0051042661 0.51381075 4283124533
0.38829187 -0.0044362023 0.51397496 4283058990
0.38846672 -0.0037693977 0.51413918 4283060012
0.38864064 -0.0031038374 0.51430339 4283191600
0.38874352 -0.0023916513 0.51452059 4283059760
0.38898578 -0.0017764717 0.51463175 4282928428
0.38915694 -0.0011146665 0.5147959 4282994221
0.38939783 -0.00050136447 0.51490712 4283256623
0.38963807 0.00011108816 0.51501822 4283453489
0.38980681 0.00076955557 0.51518238 4283190063
0.39004567 0.0013801455 0.51529354 4283190065
0.39021268 0.0020363182 0.51545763 4283321651
0.39045018 0.0026450306 0.51556873 4283190576
0.39061552 0.0032989085 0.51573288 4283322416
0.39077991 0.0039515346 0.51589692 4283388209
0.39101529 0.0045573264 0.51600802 4283256623
0.39117801 0.0052076578 0.51617205 4283256623
0.39133981 0.0058567375 0.51633608 4283256371
0.39157298 0.0064596087 0.51644719 4283322164
0.39180559 0.0070616305 0.51655823 4283322164
0.39196491 0.0077073723 0.51672226 4283453750
0.39212334 0.0083518624 0.51688623 4283387957
0.39228082 0.0089951009 0.51705021 4283387955
0.39243743 0.0096370876 0.51721418 4283322416
0.39259309 0.010277823 0.51737815 4283190828
0.39274782 0.010917306 0.51754206 4283256621
0.39297515 0.01151225 0.51765305 4283256369
0.39320189 0.012106359 0.51776403 4283124783
0.39335418 0.012742497 0.51792794 4283058990
0.39357954 0.013334729 0.51803887 4282927404
0.3938784 0.01388368 0.51809692 4283125037
0.39417699 0.014432207 0.51815492 4283257393
0.39440081 0.015022352 0.51826584 4283191600
0.39462399 0.015611663 0.51837683 4282928426
0.39484662 0.01620014 0.51848769 4282861348
0.39506856 0.016787782 0.51859862 4282861348
0.395365 0.017333403 0.51865661 4282795555
0.39566109 0.017878592 0.51871461 4282927141
0.39595687 0.018423371 0.5187726 4282927145
0.39617687 0.019008301 0.51888347 4282926891
0.39654762 0.01951167 0.51888853 4282795818
0.39676666 0.020095341 0.5189994 4282795820
0.39706108 0.020638242 0.51905733 4282795820
0.3973552 0.021180719 0.51911533 4282663980
0.39772528 0.021683246 0.51912034 4282729773
0.39794251 0.022264428 0.5192312 4282664750
0.39815909 0.022844769 0.51934206 4282796590
0.39860535 0.023307562 0.51929414 4282796590
0.39889807 0.023848161 0.51935208 4282863408
0.39926755 0.024349861 0.51935714 4282665259
0.40928316 0.023636416 0.5140993 4281547550
0.40958989 0.024196014 0.51415741 4281349653
0.40997458 0.024718359 0.51416266 4281151515
0.41035926 0.025240704 0.5141679 4280493585
0.41082257 0.025726654 0.51412028 4279439625
0.41144368 0.026140645 0.51396692 4279243021
0.41198683 0.026591852 0.51386642 4279308563
0.41268867 0.026972353 0.51366019 4279047180
0.41331255 0.027390085 0.51350689 4279112973
0.41401675 0.027773708 0.51330072 4279180049
0.41472214 0.028159 0.51309454 4279246609
0.41542879 0.028545961 0.51288843 4279443736
0.41613662 0.028934605 0.51268232 4280035873
0.41684574 0.029324904 0.51247621 4280233250
0.41747594 0.029751182 0.5123229 4280495393
0.41818732 0.030144617 0.51211685 4280561186
0.38033405 -0.035566732 0.50701177 4283390535
0.38048691 -0.034785822 0.50722873 4283191355
0.38082856 -0.034178615 0.50728714 4283387705
0.38097942 -0.033400387 0.50750411 4283387705
0.38119268 -0.03268078 0.50766814 4283650877
0.38140503 -0.03196241 0.50783217 4283650877
0.38161647 -0.031245321 0.5079962 4283322680
0.38169876 -0.030416861 0.50826597 4283454520
0.38190803 -0.029702663 0.50843 4283454520
0.38205197 -0.028933868 0.50864685 4283585334
0.38225925 -0.028222382 0.50881082 4283651127
0.38240087 -0.027456686 0.5090276 4283585336
0.38260615 -0.026747942 0.50919157 4283257141
0.38281053 -0.02604042 0.50935555 4283454520
0.38301396 -0.02533415 0.50951946 4283059760
0.38328183 -0.024683774 0.50963056 4283190830
0.38348356 -0.023979813 0.50979447 4283388209
0.3836844 -0.023277089 0.50995839 4283323186
0.38395011 -0.022629634 0.51006943 4283454772
0.38414925 -0.021929219 0.51023328 4283125812
0.38434744 -0.021230042 0.5103972 4282928179
0.38454473 -0.020532131 0.51056099 4283125558
0.3846747 -0.019782305 0.51077771 4282993715
0.38480341 -0.019034132 0.51099432 4283191094
0.38499767 -0.018340379 0.51115811 4283191094
0.38519096 -0.017647892 0.5113219 4283322680
0.38538331 -0.016956642 0.5114857 4283191605
0.38557482 -0.016266659 0.51164949 4283454777
0.38576534 -0.015577927 0.51181322 4283191605
0.38595498 -0.014890447 0.51197696 4283060017
0.38621128 -0.014255702 0.51208794 4283060017
0.38639921 -0.013570517 0.51225162 4282928176
0.38651827 -0.012835503 0.5124681 4282993969
0.38663608 -0.012102157 0.51268458 4283190578
0.38682091 -0.011421114 0.51284832 4282928176
0.38700485 -0.010741338 0.51301199 4282928176
0.38718787 -0.010062844 0.51317561 4282994226
0.38743865 -0.009435609 0.51328647 4282994226
0.38761997 -0.0087593943 0.51345015 4283125558
0.38780037 -0.0080844164 0.51361376 4282993715
0.38797987 -0.0074106976 0.51377738 4282928176
0.38815841 -0.0067382455 0.51394093 4282796590
0.38826656 -0.0060180351 0.5141573 4282927922
0.38844308 -0.0053482577 0.51432085 4282993715
0.38861874 -0.0046797693 0.51448441 4282796590
0.38879344 -0.0040125176 0.51464796 4282994226
0.38896722 -0.0033465177 0.51481152 4282993967
0.38906983 -0.00263381 0.51502776 4282993967
0.38931203 -0.0020182654 0.51513851 4282993967
0.38948306 -0.0013560206 0.515302 4282993967
0.38972387 -0.0007423535 0.51541275 4283190830
0.38996407 -0.00012952089 0.51552343 4283256110
0.39013267 0.0005293712 0.51568693 4283255340
0.39037144 0.0011403263 0.51579762 4283256110
0.39053833 0.0017969459 0.51596105 4283321903
0.39077577 0.0024060234 0.51607174 4283255856
0.39094096 0.0030603409 0.51623511 4283388209
0.391177 0.0036675408 0.5163458 4283322416
0.39134049 0.0043195635 0.51650918 4283256623
0.3915031 0.0049703419 0.51667255 4283256623
0.39173698 0.0055746213 0.51678318 4283322162
0.39189786 0.0062230974 0.51694655 4283322162
0.39213037 0.0068254843 0.51705718 4283387955
0.39228958 0.0074716732 0.5172205 4283650614
0.39244783 0.0081166029 0.51738381 4283453235
0.39260519 0.0087602884 0.51754713 4283519028
0.39276165 0.0094027147 0.51771039 4283387696
0.39291713 0.010043889 0.5178737 4283256108
0.3931452 0.010640234 0.51798427 4283322414
0.39329901 0.011279121 0.51814747 4283256369
0.3934519 0.011916749 0.51831073 4283124783
0.39367783 0.01251018 0.51842129 4283124783
0.39390314 0.01310277 0.5185318 4282861611
0.39412779 0.01369454 0.51864231 4282927404
0.39442629 0.014243141 0.51870006 4283257139
0.39464986 0.01483345 0.51881057 4283125553
0.39487284 0.015422918 0.51892102 4282928426
0.39509526 0.016011544 0.51903152 4283124520
0.39531702 0.016599342 0.51914197 4283255336
0.39553815 0.017186314 0.51925242 4283123750
0.39575869 0.017772451 0.51936287 4282926371
0.39605409 0.01831688 0.51942062 4282926373
0.39634919 0.018860899 0.51947838 4282992168
0.396644 0.019404501 0.51953614 4283057709
0.39693844 0.019947685 0.51959383 4282861100
0.39723262 0.020490453 0.51965153 4282861100
0.39760274 0.020992979 0.5196566 4282663721
0.39774364 0.021614343 0.51981974 4282664234
0.39811328 0.022116244 0.51982474 4282730025
0.3983295 0.022696532 0.51993513 4282730795
0.39862201 0.023237005 0.51999283 4282665002
0.39891416 0.023777053 0.52005053 4282928683
0.39936036 0.024239562 0.5200029 4282862890
0.39972955 0.024740845 0.52000791 4282994478
0.40009874 0.02524212 0.52001297 4282797363
0.41007507 0.024597004 0.51483059 4281676054
0.41053802 0.025082245 0.5147832 4281676054
0.41100127 0.025567912 0.51473582 4281017624
0.41154367 0.026017725 0.5146358 4279505418
0.41224474 0.026396245 0.51443046 4279374350
0.41286784 0.02681227 0.51427776 4279112457
0.41357121 0.027193934 0.51407248 4279112457
0.4142758 0.027577236 0.5138672 4279113738
0.4149816 0.027962223 0.51366198 4279179531
0.41560888 0.028383903 0.51350933 4279376409
0.41631699 0.028772011 0.51330411 4279639581
0.41694623 0.029196396 0.51315153 4280101151
0.4174962 0.029656425 0.51305157 4280363807
0.41820756 0.030048922 0.51284641 4280692772
0.41892013 0.030443072 0.51264119 4280561956
0.41939181 0.030940205 0.51259392 4280364577
0.38051462 -0.03661342 0.50733632 4283193674
0.38073158 -0.03588815 0.50749975 4283127881
0.38094762 -0.035164133 0.50766319 4283126848
0.38116276 -0.034441352 0.50782663 4283389504
0.38150412 -0.033834279 0.50788474 4283257146
0.38165396 -0.033056587 0.50810081 4283191351
0.38180256 -0.032280564 0.50831681 4283388730
0.38201398 -0.03156282 0.50848019 4283257144
0.38216028 -0.030789942 0.50869614 4283454520
0.38236973 -0.03007488 0.50885952 4283520313
0.3825137 -0.02930513 0.50907546 4283322934
0.38265646 -0.02853705 0.50929141 4283322934
0.38286281 -0.027826175 0.50945467 4283191348
0.38306826 -0.027116537 0.50961798 4283191348
0.38320762 -0.026353061 0.50983387 4283257141
0.38341105 -0.02564612 0.50999713 4283125555
0.38361359 -0.024940476 0.51016039 4283059760
0.38388079 -0.024290562 0.51027101 4283322932
0.38401586 -0.023532912 0.51048684 4283388730
0.38428152 -0.022885084 0.51059747 4283257144
0.38448048 -0.022184223 0.51076066 4283257144
0.38467857 -0.021484628 0.51092386 4282994744
0.38487571 -0.020786256 0.51108706 4282928951
0.38500541 -0.020035908 0.51130283 4282994744
0.38513386 -0.019287229 0.51151854 4283125558
0.38532797 -0.018593028 0.51168168 4283191094
0.38552111 -0.017900094 0.51184481 4283454266
0.38564616 -0.017156005 0.51206052 4283257393
0.38590461 -0.016517997 0.51217103 4283520565
0.38609499 -0.015828788 0.51233411 4283257393
0.38628447 -0.015140876 0.51249719 4283125812
0.38654074 -0.014505774 0.51260769 4283060017
0.38672853 -0.013820142 0.51277071 4282928431
0.38691533 -0.013135761 0.51293373 4282928431
0.38703308 -0.012401685 0.51314932 4283060019
0.38714957 -0.011669278 0.51336491 4282928431
0.38740185 -0.011039585 0.51347536 4282928431
0.38758487 -0.01036042 0.51363832 4282928431
0.38776693 -0.0096824914 0.51380134 4282862638
0.3879481 -0.0090058446 0.5139643 4283059769
0.38812834 -0.0083304346 0.51412725 4282927672
0.38830766 -0.0076562688 0.51429015 4283059512
0.38848606 -0.0069833547 0.51445305 4282927922
0.38866353 -0.0063117146 0.51461601 4282927922
0.38877034 -0.0055924356 0.51483142 4283059508
0.38894582 -0.0049234927 0.51499432 4282730802
0.38912037 -0.004255794 0.51515722 4282862386
0.389294 -0.0035893545 0.51532006 4283059765
0.3894667 -0.0029241592 0.5154829 4283059762
0.38963851 -0.002260223 0.51564574 4282993969
0.38980937 -0.0015975311 0.51580858 4282993969
0.39005014 -0.00098349899 0.51591885 4283059762
0.39029029 -0.00037030131 0.51602912 4283124785
0.3904587 0.00028903782 0.5161919 4283124270
0.39069748 0.00090035796 0.51630211 4283124524
0.3909356 0.0015108436 0.51641238 4283124524
0.39110154 0.0021668524 0.5165751 4283255856
0.39126658 0.0028216168 0.51673788 4283322162
0.39150262 0.0034291819 0.51684809 4283322416
0.391738 0.0040359125 0.5169583 4283322416
0.39190054 0.0046873391 0.51712096 4283190830
0.39206219 0.0053375065 0.51728368 4283322416
0.39222294 0.0059864298 0.5174464 4283454002
0.3924554 0.0065891966 0.51755655 4283453489
0.39268726 0.0071911141 0.5176667 4283321903
0.39284551 0.0078366995 0.5178293 4283190317
0.39292973 0.0085253119 0.51804447 4283584305
0.39308602 0.0091681778 0.51820707 4283518512
0.39324138 0.0098097995 0.51836967 4283321903
0.39346939 0.010406516 0.51847982 4283387442
0.39362305 0.011045836 0.51864243 4283321649
0.39377576 0.011683911 0.51880497 4283255856
0.39400166 0.012277707 0.51891506 4283256369
0.39422691 0.012870662 0.51902509 4283124783
0.39437717 0.013505399 0.51918763 4283124270
0.39467555 0.014054082 0.51924521 4283387955
0.39489895 0.014644541 0.51935524 4283387955
0.39512172 0.015234165 0.51946527 4283256623
0.39534393 0.015822947 0.5195753 4283190315
0.39556548 0.016410902 0.51968533 4283256106
0.3957864 0.016998038 0.5197953 4283190313
0.39600676 0.017584324 0.51990533 4283124520
0.39622647 0.018169768 0.5200153 4282729762
0.39644557 0.018754385 0.52012527 4282728481
0.39673993 0.019297644 0.52018279 4282860328
0.39711004 0.019800179 0.52018785 4283123502
0.39740396 0.020342812 0.52024531 4283123502
0.39769757 0.020885035 0.52030283 4282663721
0.39783785 0.021506205 0.52046525 4282663721
0.39828384 0.021968216 0.52041781 4282730027
0.3984229 0.022587717 0.52058023 4282795818
0.39879197 0.023088798 0.52058524 4282664232
0.39908385 0.023628719 0.52064276 4282730279
0.3993755 0.024168223 0.52070022 4282994217
0.39966679 0.024707317 0.52075768 4283060269
0.4001905 0.0251313 0.52065778 4283323959
0.40063709 0.025594153 0.52061039 4283258166
0.40123978 0.025981799 0.5204581 4283127098
0.40877259 0.024437852 0.51617408 4283520568
0.40986115 0.024623871 0.51570737 4283322414
0.41040194 0.025071017 0.51560777 4282399779
0.41102213 0.025482446 0.51545572 4281939228
0.41172221 0.025858775 0.51525128 4281546271
0.4123444 0.026272923 0.51509929 4280888600
0.41304678 0.026652373 0.51489484 4279112705
0.41382983 0.026997775 0.51463807 4279046912
0.41453481 0.027380772 0.51443368 4279112707
0.41524106 0.027765438 0.5142293 4279178500
0.41594851 0.02815178 0.51402497 4279243789
0.41657716 0.02857469 0.51387304 4279375375
0.41720673 0.028998837 0.51372117 4279442192
0.41775686 0.029458709 0.51362169 4279442192
0.41838816 0.029885143 0.51346976 4279837463
0.41910094 0.030278787 0.51326549 4280035871
0.41957265 0.030775644 0.5132184 4280233250
0.42012554 0.031239271 0.51311898 4280365090
0.42067909 0.031703725 0.5130195 4280299297
0.38078642 -0.036819547 0.50793064 4282996547
0.38106632 -0.03615196 0.50804102 4282996547
0.38134557 -0.035485208 0.50815135 4283126078
0.38156068 -0.034761786 0.50831413 4283389504
0.38190228 -0.034154192 0.50837207 4283257144
0.382052 -0.0333758 0.50858718 4283191351
0.38226449 -0.03265591 0.5087499 4283388730
0.38247609 -0.031937286 0.50891262 4283257398
0.38262242 -0.031163469 0.50912774 4283454518
0.38276756 -0.030391321 0.50934279 4283454518
0.38297606 -0.029676884 0.50950545 4283256887
0.38311887 -0.02890785 0.5097205 4283256887
0.38326046 -0.028140515 0.5099355 4283191094
0.38346589 -0.027430221 0.5100981 4283191094
0.38360518 -0.026666015 0.51031309 4283256887
0.38374323 -0.025903448 0.51052809 4283125555
0.38394558 -0.025197327 0.51069069 4283191605
0.38421273 -0.02454707 0.51080084 4283257398
0.38441336 -0.023843259 0.51096344 4283454523
0.38461316 -0.023140699 0.51112598 4283388732
0.38487813 -0.022493348 0.51123613 4283126330
0.38507617 -0.021793097 0.51139867 4283126330
0.38520688 -0.021040544 0.51161349 4282994744
0.38533631 -0.020289674 0.51182836 4283126328
0.38546452 -0.019540459 0.51204324 4283191351
0.38565844 -0.018845841 0.51220572 4283322680
0.38585144 -0.01815246 0.51236814 4283454520
0.38604349 -0.017460331 0.51253057 4283257141
0.38616726 -0.016717181 0.51274538 4283454518
0.3864249 -0.016079843 0.51285541 4283257139
0.38661414 -0.015391454 0.51301783 4283191346
0.38680255 -0.014704347 0.51318026 4283060271
0.38705802 -0.01406993 0.51329029 4282994478
0.3872447 -0.013385102 0.51345259 4282928685
0.38743049 -0.012701541 0.51361495 4283125810
0.38754687 -0.011968389 0.51382965 4282994224
0.3877306 -0.01128751 0.51399195 4282928431
0.38791347 -0.010607913 0.51415431 4282928433
0.38809544 -0.0099295676 0.51431656 4282731054
0.3882764 -0.0092524439 0.51447886 4282927929
0.38845652 -0.0085766017 0.51464117 4282861884
0.38863567 -0.0079019889 0.51480341 4282993722
0.38881391 -0.0072286427 0.51496565 4282862388
0.38899124 -0.0065565407 0.5151279 4282928179
0.38916764 -0.0058857054 0.51529014 4283059765
0.38927311 -0.0051673651 0.51550466 4282730802
0.38944751 -0.0044992268 0.51566684 4282862388
0.38962099 -0.0038323402 0.51582909 4283059765
0.38979355 -0.0031667054 0.51599121 4283059508
0.38996518 -0.0025023222 0.5161534 4282993715
0.39020666 -0.0018868893 0.51626325 4283059762
0.39037663 -0.0012248009 0.51642537 4283125303
0.39061671 -0.00061123818 0.51653516 4283124533
0.39085621 1.4901161e-06 0.51664501 4283190578
0.3910237 0.00066022575 0.51680708 4283058992
0.39126176 0.0012710765 0.51691687 4282927658
0.39142758 0.0019275323 0.517079 4283124783
0.3916643 0.0025365055 0.51718879 4283322162
0.39190039 0.0031446442 0.51729852 4283322416
0.39206374 0.0037977621 0.51746058 4283190830
0.39222616 0.0044496283 0.51762259 4283125037
0.39238763 0.0051002428 0.5177846 4283322416
0.3926208 0.0057044178 0.51789439 4283322416
0.39278063 0.0063527375 0.51805633 4283256110
0.39301243 0.0069550201 0.51816607 4283124524
0.39317054 0.0076010451 0.51832807 4282992938
0.39332774 0.0082458258 0.51849002 4283452719
0.393484 0.0088893473 0.51865196 4283518512
0.39363939 0.0095316172 0.51881391 4283452719
0.39379376 0.010172635 0.51897585 4283387444
0.3939473 0.010812394 0.51913774 4283321651
0.39417386 0.011407599 0.51924735 4283387444
0.39432567 0.012045071 0.5194093 4283322162
0.39455089 0.012638398 0.51951885 4283190576
0.394701 0.013273567 0.51968074 4283124270
0.39499944 0.013822541 0.51973808 4283387694
0.39522278 0.014413364 0.51984769 4283519280
0.39544553 0.015003353 0.51995724 4283387694
0.39559257 0.015634358 0.52011907 4283190313
0.39581394 0.016222462 0.52022862 4283256106
0.39603466 0.016809747 0.52033818 4283124520
0.39625478 0.017396197 0.52044773 4283124520
0.3964743 0.017981797 0.52055728 4282729764
0.3966932 0.018566571 0.52066684 4282860580
0.39698747 0.019109905 0.52072412 4282860582
0.39720529 0.019693226 0.52083361 4282926121
0.39749879 0.020235524 0.52089089 4282991914
0.39771551 0.020817369 0.52100039 4282860328
0.39816147 0.021279097 0.52095324 4282663721
0.39837748 0.021859899 0.52106273 4282729260
0.39859283 0.022439875 0.52117217 4282795566
0.39888465 0.022979878 0.52122945 4282466853
0.39925337 0.023480535 0.52123445 4282664232
0.39962208 0.023981191 0.52123952 4282927656
0.39991328 0.024520352 0.52129674 4282994219
0.40020418 0.025059104 0.52135396 4283191603
0.40065044 0.025521249 0.52130675 4283388982
0.40117496 0.025945917 0.52120739 4283258686
0.401622 0.026409104 0.52116019 4283586879
0.40238249 0.026722826 0.52090418 4283915328
0.4086242 0.025133356 0.51726013 4283454000
0.41018608 0.025097415 0.51648229 4282466340
0.41104239 0.02539745 0.51617432 4282466340
0.41174245 0.02577284 0.51597077 4281480733
0.41236448 0.026186109 0.51581943 4281152540
0.41314617 0.026528627 0.51556373 4282007849
0.4139294 0.026873216 0.51530802 4280494610
0.41479385 0.027184308 0.51500016 4279244545
0.41542068 0.027604058 0.51484889 4279178498
0.41620839 0.027954698 0.51459324 4279177996
0.41683733 0.028377369 0.51444203 4279243789
0.41746721 0.028801277 0.51429081 4279309836
0.41801757 0.029260993 0.51419175 4279113227
0.41856855 0.029721543 0.51409268 4279442705
0.41920087 0.030148804 0.51394153 4279771418
0.41975319 0.030611224 0.51384246 4279968797
0.42030621 0.031074494 0.51374346 4280364577
0.42085978 0.031538583 0.51364446 4280167198
0.42141396 0.032003522 0.51354545 4280758563
0.42188725 0.032502383 0.51349866 4280758563
0.38124776 -0.037200257 0.50836843 4283192891
0.38146457 -0.036473915 0.50853056 4282995514
0.38174394 -0.035806581 0.50864041 4283257916
0.38202268 -0.035140097 0.50875032 4283454525
0.38230085 -0.034474432 0.50886023 4283191351
0.38251442 -0.033752441 0.5090223 4283257144
0.38272709 -0.033031732 0.50918436 4283257144
0.38287455 -0.032255501 0.50939858 4283257144
0.38308519 -0.031537488 0.50956059 4283191857
0.38323039 -0.030764401 0.50977474 4283257393
0.3833743 -0.029992983 0.5099889 4283256889
0.38358188 -0.029279128 0.51015091 4283191096
0.38372353 -0.028510839 0.51036507 4283256637
0.38386393 -0.027744204 0.51057917 4283256891
0.38406843 -0.027034551 0.51074111 4283125560
0.38420653 -0.026271045 0.51095521 4283257144
0.38434339 -0.025509208 0.51116925 4283257144
0.38454485 -0.024803728 0.51133114 4283454523
0.38481131 -0.024153918 0.51144087 4283323709
0.38494498 -0.023396462 0.51165491 4283323709
0.38520989 -0.022748753 0.51176465 4283323709
0.38540781 -0.022048041 0.51192647 4283126328
0.3856048 -0.021348596 0.5120883 4283060535
0.38573414 -0.020596996 0.51230228 4283126580
0.38586223 -0.019847065 0.5125162 4283257396
0.38605615 -0.019151777 0.51267803 4283454777
0.38618195 -0.018404976 0.51289195 4283454777
0.38637388 -0.017712399 0.51305372 4283257398
0.38649738 -0.016968727 0.51326758 4283257141
0.38675493 -0.016331017 0.51337719 4283257141
0.38694412 -0.015642211 0.51353896 4283125553
0.38713232 -0.014954656 0.5137006 4283126064
0.38738775 -0.014319867 0.51381022 4282994478
0.38764253 -0.013685912 0.51391983 4283191857
0.38775986 -0.012950584 0.51413363 4283191857
0.38787597 -0.012216911 0.51434737 4283060017
0.38805962 -0.01153563 0.51450908 4282994224
0.38824233 -0.01085557 0.51467067 4283060019
0.3884241 -0.010176748 0.51483232 4282862640
0.38860494 -0.009499222 0.51499391 4282993976
0.38878489 -0.0088229179 0.51515555 4282862138
0.38896388 -0.0081478655 0.51531714 4282993722
0.38914198 -0.0074740797 0.51547873 4282928179
0.38931915 -0.0068015456 0.51564026 4282993972
0.38949537 -0.0061302409 0.51580185 4282993972
0.38960057 -0.0054113865 0.51601547 4282928433
0.38977486 -0.0047428235 0.516177 4282993969
0.38994819 -0.0040754899 0.51633847 4283191348
0.39012057 -0.0034094155 0.5165 4283059760
0.39036277 -0.002792567 0.51660943 4283125553
0.39053351 -0.0021287873 0.5167709 4283059760
0.39077431 -0.0015138164 0.51688027 4283190324
0.39094332 -0.00085233152 0.51704174 4283124535
0.39118275 -0.00023923814 0.51715112 4283256371
0.39142159 0.00037300587 0.51726043 4283124785
0.39158815 0.0010311604 0.51742184 4283190830
0.39182556 0.0016415343 0.51753122 4283190578
0.39199042 0.002297394 0.51769263 4283190578
0.39222649 0.0029058903 0.51780194 4283322162
0.39238968 0.0035594553 0.51796329 4283256623
0.39255193 0.0042117685 0.5181247 4283190830
0.39278585 0.0048173442 0.51823395 4283256623
0.39294642 0.0054673627 0.5183953 4283256623
0.39310607 0.006116122 0.51855659 4283255338
0.39333782 0.0067187846 0.51866591 4283123754
0.39349577 0.0073652416 0.5188272 4283057961
0.3936528 0.0080104545 0.51898849 4283452206
0.3938089 0.0086544156 0.51914978 4283650098
0.39396411 0.0092971325 0.51931101 4283584305
0.3941184 0.0099385977 0.5194723 4283124020
0.39427173 0.010578796 0.51963353 4283190328
0.39449829 0.011174366 0.51974273 4283256121
0.39464992 0.011812285 0.51990396 4283256117
0.39487508 0.012405977 0.52001309 4283124785
0.39502507 0.013041586 0.52017426 4283124524
0.39524883 0.0136334 0.52028346 4283386922
0.39554682 0.014182031 0.52034056 4283452715
0.39569449 0.014814526 0.52050173 4283387176
0.3959164 0.01540383 0.52061087 4283255336
0.39606237 0.016034022 0.52077198 4283255336
0.39628291 0.01662147 0.52088112 4283057959
0.39642721 0.017249368 0.52104223 4283123752
0.39664638 0.017834917 0.5211513 4282861352
0.39686489 0.018419638 0.52126038 4283057961
0.39715892 0.018962845 0.52131748 4283123500
0.39737636 0.019546106 0.5214265 4282925869
0.39766961 0.020088278 0.52148354 4282925869
0.39788601 0.020670071 0.52159262 4282794283
0.39825517 0.021171346 0.52159762 4282663467
0.39847064 0.021751896 0.5217067 4282663467
0.39876252 0.022292182 0.52176368 4282795820
0.39905405 0.022832066 0.52182072 4282401314
0.39942265 0.023332506 0.52182579 4282467107
0.39963627 0.023910552 0.52193475 4282664482
0.40008217 0.024371989 0.52188778 4282796070
0.40029499 0.024948992 0.5219968 4282927404
0.40066311 0.025448814 0.5220018 4283059767
0.40110931 0.025910661 0.52195483 4283191353
0.40155584 0.026372939 0.52190793 4283651904
0.40192425 0.026873171 0.52191293 4283652156
0.40244979 0.027298734 0.52181399 4283586354
0.41168284 0.025723867 0.51674086 4282468402
0.41238391 0.026099786 0.51653826 4281679402
0.41324514 0.0264052 0.51623166 4282006822
0.41410822 0.026713103 0.51592517 4281743650
0.41489333 0.027059183 0.5156706 4281545751
0.41560012 0.027442813 0.515468 4280427788
0.41630808 0.027828112 0.51526546 4279439623
0.41693699 0.028250135 0.5151149 4279505416
0.4175669 0.028673396 0.51496434 4279243273
0.41819769 0.0290979 0.51481378 4278784262
0.41874874 0.029558085 0.51471519 4279113488
0.4193812 0.029984906 0.51456463 4279244561
0.41993362 0.030446976 0.51446605 4279441940
0.42048663 0.030909866 0.51436752 4279573776
0.4210403 0.031373605 0.51426893 4279704592
0.42159453 0.031838171 0.51417041 4280034327
0.42206776 0.032336734 0.5141238 4280363292
0.42270488 0.032769814 0.51397336 4280692770
0.38158315 -0.037464917 0.50891149 4283126580
0.38179979 -0.036738098 0.5090729 4283388984
0.38214272 -0.036128283 0.50913042 4283388984
0.38242155 -0.035461217 0.50923991 4283388984
0.38269979 -0.034794986 0.50934935 4283257398
0.38291341 -0.03407234 0.5095107 4283191605
0.38312608 -0.033350974 0.50967211 4283257398
0.3833378 -0.032630831 0.50983346 4283191605
0.38348407 -0.03185536 0.51004678 4283126064
0.38369381 -0.031137928 0.51020813 4283191600
0.38383776 -0.030365556 0.5104214 4283125305
0.38398057 -0.029594883 0.51063466 4283191098
0.38418722 -0.028881639 0.51079595 4283190846
0.38426238 -0.028058514 0.51106107 4283322430
0.38446689 -0.027348205 0.51122236 4283256891
0.38460487 -0.02658397 0.51143557 4283388730
0.38474166 -0.025821403 0.51164871 4283257144
0.38494307 -0.025115266 0.51180995 4283454523
0.38514364 -0.024410367 0.51197118 4283454523
0.38534319 -0.023706704 0.51213241 4283454523
0.38554189 -0.023004308 0.51229358 4283323707
0.38573962 -0.022303179 0.51245475 4283126328
0.38593644 -0.021603256 0.51261592 4283060535
0.38613236 -0.02090463 0.51277709 4283388982
0.38626039 -0.02015397 0.51299012 4283322932
0.38638717 -0.019404978 0.51320314 4283520313
0.38657999 -0.018710494 0.51336426 4283454777
0.38677192 -0.018017277 0.51352537 4283388984
0.3868953 -0.017272875 0.51373833 4283257141
0.38715297 -0.016634598 0.51384753 4283125555
0.38734213 -0.015945137 0.51400858 4283059762
0.38753033 -0.015256912 0.51416963 4283060017
0.38778585 -0.014621571 0.51427877 4283125810
0.38797238 -0.01393564 0.51443982 4283191603
0.38815799 -0.013250977 0.51460075 4283126064
0.38827401 -0.012516588 0.51481366 4283060017
0.38838881 -0.011783853 0.51502657 4283059760
0.38857138 -0.011103362 0.5151875 4282928433
0.388753 -0.010424137 0.51534849 4282928433
0.38893366 -0.0097461194 0.51550943 4282993974
0.38904405 -0.0090194643 0.51572222 4282927672
0.38922271 -0.0083441883 0.51588315 4282993719
0.38940051 -0.0076701567 0.51604408 4282928179
0.38957739 -0.0069973916 0.51620495 4282993972
0.38982335 -0.0063749626 0.51631397 4282993972
0.38992831 -0.0056555867 0.5165267 4282993969
0.39017275 -0.0050352514 0.51663566 4282993967
0.39034611 -0.0043672696 0.51679653 4283125807
0.39051849 -0.0037005395 0.5169574 4283125037
0.39068997 -0.0030350685 0.51711822 4283256623
0.39093149 -0.0024186894 0.51722717 4283125037
0.3911013 -0.0017555058 0.51738793 4283058992
0.39134145 -0.0011410043 0.51749688 4283124533
0.39158094 -0.00052734464 0.51760578 4283322164
0.39174831 0.00013250113 0.51776654 4283190578
0.39198643 0.00074427575 0.51787543 4283190576
0.39215207 0.0014018267 0.51803619 4283190324
0.39238885 0.0020117313 0.51814508 4283124531
0.39255279 0.0026669875 0.51830578 4283322164
0.39271584 0.003320992 0.51846647 4283190576
0.39287794 0.0039737448 0.51862717 4283256369
0.3931118 0.0045796931 0.518736 4283322416
0.39327222 0.0052301437 0.5188967 4283190830
0.39343169 0.00587935 0.51905733 4283321131
0.39359027 0.0065273046 0.51921797 4283123752
0.39382121 0.0071292743 0.51932681 4283057959
0.39397812 0.0077749342 0.51948738 4283386924
0.39413404 0.0084193423 0.51964802 4283584305
0.39428908 0.0090624988 0.51980865 4283518512
0.39444321 0.0097043961 0.51996922 4282927152
0.39467043 0.010301374 0.52007794 4282927154
0.3948229 0.010940984 0.52023852 4283190326
0.39497441 0.011579335 0.52039903 4283256117
0.39519948 0.012173392 0.52050781 4283124531
0.39534932 0.012809448 0.52066827 4282992684
0.39549819 0.01344426 0.52082884 4283321131
0.39579612 0.013992973 0.52088571 4283518510
0.39601856 0.014583483 0.52099442 4283321131
0.39616519 0.015215158 0.52115488 4283123750
0.39638627 0.015803784 0.52126354 4283057957
0.39653116 0.016433179 0.521424 4282992168
0.39675087 0.017019935 0.52153265 4283057961
0.3968941 0.017647028 0.52169305 4283057707
0.39711243 0.018231899 0.52180171 4283057961
0.39740634 0.018775187 0.52185851 4282992684
0.39754725 0.019399151 0.52201897 4282795055
0.3978402 0.019941188 0.52207577 4282663467
0.39805627 0.02052293 0.52218437 4282531881
0.39834851 0.021063924 0.52224118 4282861100
0.39864039 0.021604501 0.52229798 4282795307
0.39893201 0.022144653 0.52235478 4282664234
0.3992233 0.022684395 0.52241158 4282598441
0.39951429 0.02322372 0.52246839 4282401062
0.39980495 0.023762628 0.52252519 4282598439
0.40017307 0.024262443 0.5225302 4282598439
0.40038544 0.024839178 0.52263874 4282795820
0.40083128 0.025300331 0.52259195 4282730295
0.40112105 0.025837988 0.52264875 4282730295
0.40148884 0.026337385 0.52265376 4283125051
0.40177816 0.026874423 0.52271056 4283191098
0.40222445 0.027336195 0.52266377 4283585336
0.40274984 0.027761184 0.52256531 4283782715
0.41569927 0.027317271 0.51613843 4281938963
0.41624695 0.027772501 0.51604021 4282465572
0.4168756 0.028193459 0.51589036 4281610263
0.4175052 0.028615639 0.51574039 4280623888
0.41805506 0.02907379 0.51564229 4279439623
0.41876709 0.029463798 0.51544064 4279243538
0.41931847 0.029924035 0.51534253 4279309335
0.41995162 0.03035102 0.51519263 4279243542
0.42058563 0.030779272 0.51504284 4279440648
0.42122057 0.031208768 0.514893 4279374855
0.42177486 0.031672969 0.51479495 4279703570
0.42224807 0.032171257 0.51474851 4279769363
0.4229672 0.032570854 0.51454705 4279967764
0.42352349 0.033037767 0.51444894 4280363290
0.38191873 -0.03772971 0.50945497 4283191603
0.38219875 -0.037060603 0.50956404 4283388982
0.38247818 -0.036392331 0.509673 4283388982
0.38269314 -0.035667181 0.50983381 4283257396
0.3830992 -0.035115838 0.5098393 4283125810
0.38324863 -0.034335241 0.51005179 4283191605
0.38346112 -0.033613414 0.51021248 4283388984
0.38367271 -0.032892853 0.51037318 4283257398
0.38388336 -0.032173514 0.51053387 4282994224
0.38409308 -0.031455457 0.5106945 4283257141
0.3843019 -0.030738652 0.5108552 4283125305
0.38437963 -0.029910952 0.51111925 4283191098
0.38458627 -0.029197067 0.51127988 4283125308
0.38472664 -0.028428763 0.51149225 4283256637
0.38486576 -0.027662158 0.5117045 4283256637
0.38500366 -0.026897207 0.51191682 4283257144
0.38507444 -0.02607891 0.51218081 4283257144
0.38527572 -0.025372297 0.51234138 4283257144
0.38547611 -0.024666965 0.5125019 4283257144
0.38574186 -0.024017259 0.51261073 4283322934
0.38587406 -0.023260027 0.51282299 4283323186
0.38607165 -0.022558436 0.51298344 4283257396
0.3863351 -0.02191186 0.51309228 4283191603
0.38653103 -0.021212578 0.51325274 4283323186
0.38665891 -0.020461187 0.51346493 4283191600
0.38678557 -0.019711465 0.51367706 4283454518
0.38697842 -0.01901634 0.51383746 4283388984
0.38717037 -0.018322468 0.51399791 4283191605
0.38729364 -0.017577335 0.51420999 4283125812
0.38748354 -0.016886175 0.51437044 4283060019
0.38767254 -0.016196266 0.51453078 4283125555
0.38792878 -0.015559494 0.5146395 4283060019
0.38811606 -0.014871895 0.51479983 4283125812
0.38830248 -0.014185533 0.51496023 4283191605
0.38848791 -0.013500422 0.51512057 4282994224
0.38860369 -0.012765527 0.51533258 4282993967
0.38871822 -0.01203227 0.51554453 4283256369
0.38883153 -0.011300683 0.51575649 4282993967
0.38901284 -0.01062122 0.51591676 4282928174
0.38919324 -0.0099429786 0.51607704 4283059508
0.38930315 -0.0092160106 0.51628894 4283058740
0.38955128 -0.0085902959 0.51639754 4283190324
0.38965905 -0.0078662336 0.51660943 4283059762
0.38990557 -0.0072426051 0.51671803 4283125807
0.39008135 -0.0065706521 0.51687819 4283060014
0.39032653 -0.0059489012 0.51698673 4282994221
0.39043015 -0.0052304715 0.51719856 4282994221
0.39067379 -0.0046108067 0.5173071 4283060012
0.39084601 -0.003943637 0.51746726 4282928426
