# .PCD v0.7 - Point Cloud Data file format
VERSION 0.7
FIELDS x y z rgb
SIZE 4 4 4 4
TYPE F F F U
COUNT 1 1 1 1
WIDTH 1055
HEIGHT 1
VIEWPOINT 0 0 0 1 0 0 0
POINTS 1055
DATA ascii
0.48553538 -0.0032995641 0.55181932 4279573524
0.48618513 -0.0038201511 0.55188382 4279704594
0.48682636 -0.0044430792 0.55196887 4279901203
0.48745984 -0.0051685274 0.55207449 4279901201
0.48807675 -0.0060986876 0.55222118 4279901201
0.48872489 -0.0067237914 0.55230623 4279836178
0.48939303 -0.0071452558 0.55235028 4279705360
0.49003589 -0.0078736544 0.5524559 4279705360
0.49070674 -0.0082959831 0.55249995 4279705364
0.49137861 -0.0087186396 0.552544 4279705364
0.49205145 -0.0091415644 0.55258805 4279639317
0.49270195 -0.0098724067 0.55269372 4279705110
0.49333987 -0.010809213 0.55284047 4279903256
0.49387926 -0.013184607 0.55327487 4279771670
0.49442902 -0.015563339 0.55370927 4284177996
0.49494165 -0.018665165 0.55428755 4285291337
0.49548775 -0.021462619 0.55480433 4285357130
0.49619728 -0.021792203 0.55482793 4285881679
0.49682865 -0.023461848 0.55511868 4285750861
0.49753076 -0.023999065 0.55518341 4285751113
0.49825102 -0.024227053 0.55518651 4285882699
0.4989872 -0.024145126 0.55512798 4286475352
0.42311567 0.047741264 0.54605621 4285491537
0.42375946 0.04764244 0.54603815 4285359951
0.42440277 0.047543794 0.54602009 4285162308
0.42500916 0.047351837 0.54602265 4284569149
0.42565176 0.04725343 0.54600459 4284240184
0.42625791 0.047061563 0.54600722 4284569401
0.42686403 0.046869695 0.54600984 4284700987
0.42743474 0.046584055 0.54603308 4284174391
0.42797074 0.046204433 0.54607707 4284108600
0.42854267 0.045918405 0.54610038 4284437052
0.42908043 0.045538217 0.54614437 4284371772
0.42958468 0.04506363 0.54620904 4284634944
0.43009043 0.044588596 0.54627371 4284766530
0.43059763 0.044113085 0.54633838 4284569669
0.43110633 0.043637097 0.54640305 4284372804
0.43161654 0.043160647 0.54646778 4284175425
0.43209499 0.042589247 0.54655313 4283978046
0.4326084 0.042111784 0.54661787 4283649079
0.43312329 0.041633844 0.5466826 4283715124
0.43363965 0.041155443 0.54674733 4283649331
0.43415749 0.040676564 0.54681206 4283517745
0.43467683 0.040197223 0.54687679 4283715124
0.43519762 0.039717391 0.54694152 4284108346
0.43571991 0.039237112 0.54700625 4284371772
0.43624371 0.038756371 0.54707098 4284437565
0.43673795 0.038179964 0.54715645 4284305979
0.43723419 0.037602946 0.54724193 4284108346
0.4377324 0.037025318 0.5473274 4284108346
0.4382326 0.036447033 0.54741293 4284239932
0.43873477 0.035868138 0.5474984 4284239923
0.43923891 0.035288602 0.54758388 4284502064
0.43974501 0.03470844 0.54766941 4284239673
0.44025311 0.034127697 0.54775494 4284305466
0.44076318 0.033546284 0.54784048 4284502845
0.44127524 0.032964259 0.54792601 4284700737
0.44181779 0.032477573 0.54799086 4284438333
0.44233352 0.031894356 0.54807639 4284504380
0.44285125 0.031310543 0.54816192 4284241208
0.44337097 0.030726105 0.54824752 4284306231
0.44389263 0.030141026 0.54833311 4284437052
0.44444358 0.029651657 0.54839796 4284567614
0.444996 0.029161856 0.54846287 4284567614
0.44557673 0.028768048 0.54850703 4284174393
0.44613186 0.028277382 0.54857188 4284175161
0.44666219 0.027689561 0.54865754 4284043575
0.44724661 0.027294606 0.5487017 4284043575
0.44783199 0.026899308 0.54874587 4283846198
0.44841838 0.026503742 0.5487901 4283846198
0.44903108 0.026204824 0.54881352 4283714612
0.44964427 0.025905758 0.54883701 4282925106
0.45028275 0.025703639 0.54883975 4280753937
0.45094585 0.025598705 0.54882181 4280031245
0.45160842 0.02549395 0.54880381 4279769617
0.45227051 0.025389373 0.54878581 4279507995
0.45293212 0.025284916 0.54876781 4279179032
0.45359322 0.025180668 0.5487498 4279179032
0.45425382 0.025076538 0.5487318 4279310618
0.45493704 0.02507025 0.54869312 4279375894
0.45559639 0.024966538 0.54867512 4279376397
0.45625529 0.024862945 0.54865712 4279244308
0.45691365 0.024759501 0.54863912 4279441687
0.45752734 0.024460286 0.5486626 4279376409
0.45807594 0.023866683 0.54874825 4279376407
0.46543026 0.012614965 0.55055076 4279573275
0.46568891 0.010223418 0.55101019 4279902240
0.46656722 0.011205226 0.55076396 4280165414
0.46717474 0.010697961 0.55082911 4279969318
0.46778375 0.010190248 0.55089426 4280035622
0.46841139 0.009781599 0.55093861 4280101415
0.46902308 0.0092729926 0.55100375 4279771165
0.4696196 0.0086642206 0.55108964 4279704859
0.47023451 0.0081546307 0.55115479 4279375894
0.47083473 0.0075446963 0.55124068 4279178515
0.47143695 0.006934166 0.55132663 4279178517
0.47204113 0.0063229501 0.55141252 4279177495
0.47264728 0.0057111382 0.55149847 4279112724
0.4732554 0.0050986707 0.55158442 4279112973
0.47385058 0.0043853521 0.55169117 4279047180
0.4744629 0.0037716031 0.55177712 4279243791
0.47507721 0.0031572282 0.55186313 4279243540
0.47570768 0.0026426613 0.55192834 4279309335
0.47632569 0.0020270944 0.55201435 4279375128
0.47697309 0.0016122162 0.55205876 4279243791
0.47760803 0.0010962486 0.55212402 4279571981
0.47827086 0.0007814765 0.55214769 4279506188
0.47893417 0.00046649575 0.55217135 4279309836
0.47959802 0.0001514256 0.55219507 4279573008
0.4802748 -6.2793493e-05 0.55219799 4279769613
0.48093936 -0.00037819147 0.55222166 4279900942
0.48158047 -0.00089606643 0.55228692 4279769610
0.48225823 -0.0011106133 0.55228984 4279901453
0.48291305 -0.0015278757 0.55233431 4280098832
0.48356885 -0.0019454062 0.55237883 4280164373
0.48420364 -0.002566278 0.55246484 4279836950
0.48486191 -0.0029846132 0.55250937 4279639571
0.48547918 -0.0038099289 0.55263704 4279639571
0.48610967 -0.0045344234 0.55274391 4279966996
0.4867326 -0.0053615272 0.55287158 4280227341
0.48736829 -0.0060876906 0.55297852 4282989867
0.48804447 -0.0064067245 0.55300224 4281871386
0.48861927 -0.0078484714 0.55325472 4282070051
0.489209 -0.0091899931 0.55348641 4282464807
0.48976913 -0.010942042 0.55380136 4280426768
0.49051553 -0.010548443 0.55367953 4280295182
0.49121764 -0.010665685 0.5536617 4280426520
0.49175072 -0.012934119 0.55408072 4280360725
0.49235591 -0.014385521 0.55433333 4280491530
0.49278629 -0.018301249 0.55508518 4282925871
0.4933801 -0.02016899 0.55542105 4283713842
0.49468654 -0.022472233 0.55580169 4285028165
0.49535295 -0.023523122 0.55597121 4285750093
0.49604222 -0.024266183 0.55607837 4285750093
0.49675816 -0.024597824 0.55610228 4285750861
0.49747461 -0.024929583 0.55612618 4285883213
0.49820819 -0.024951816 0.55608767 4285949006
0.49893549 -0.025077075 0.55606997 4286344277
0.49967748 -0.024892002 0.5559898 4286213461
0.42371923 0.047547311 0.54669535 4285360212
0.42432609 0.047355205 0.54669797 4285031238
0.42496943 0.047256544 0.54667968 4284437563
0.42557606 0.047064513 0.54668224 4284305714
0.42618269 0.046872497 0.54668486 4284634933
0.42675364 0.046586797 0.54670841 4284766519
0.42736053 0.046394691 0.54671103 4284240438
0.42789704 0.04601489 0.54675549 4284371772
0.42843449 0.045634791 0.54680002 4284371772
0.42893827 0.045160353 0.54686546 4283977784
0.42947799 0.044779554 0.54690999 4284438335
0.42998445 0.044304267 0.54697543 4284635460
0.43042448 0.043640032 0.54708278 4284569671
0.43093443 0.043163672 0.54714823 4284438595
0.4314124 0.042592421 0.54723465 4284307009
0.43195873 0.042209506 0.54727924 4283978044
0.43244016 0.041637167 0.54736567 4283846712
0.43295628 0.04115884 0.54743117 4283978036
0.43347389 0.040680051 0.54749668 4283780657
0.43396074 0.040105984 0.5475831 4283714610
0.43448153 0.039626166 0.54764867 4283715126
0.43500382 0.039145887 0.54771417 4283714358
0.43555909 0.038760155 0.54775876 4284371772
0.43605286 0.038183898 0.54784524 4284371772
0.43654859 0.037607029 0.54793173 4284371772
0.43704629 0.037029549 0.54801828 4284108346
0.43754598 0.036451429 0.54810476 4284108346
0.43807793 0.03596811 0.54817033 4284239932
0.43858129 0.035388798 0.54825687 4284174130
0.43908668 0.034808874 0.54834342 4284239921
0.43956453 0.034132689 0.54845095 4284239671
0.44004482 0.033455744 0.54855847 4284305464
0.44055659 0.032873794 0.54864502 4284502843
0.44109914 0.032387063 0.54871064 4284634431
0.44161463 0.031803966 0.54879725 4284569151
0.44213212 0.031220213 0.54888386 4284569151
0.44262353 0.030539721 0.54899144 4284305977
0.44317299 0.030050829 0.54905707 4284371507
0.44369638 0.029465213 0.54914367 4284371257
0.44427636 0.029071659 0.54918838 4284436798
0.44480324 0.028484941 0.54927498 4284371005
0.44535884 0.027994111 0.54934067 4284239932
0.44591597 0.027502775 0.54940635 4284240956
0.44650087 0.027107656 0.54945105 4284109116
0.4470607 0.0266155 0.54951674 4284043323
0.44764784 0.026219666 0.54956144 4283977530
0.44823593 0.025823534 0.54960614 4283714612
0.44882506 0.025427073 0.54965085 4283648819
0.44949037 0.025321484 0.54963261 4282859828
0.45013034 0.025118887 0.54963541 4281149210
0.45079488 0.025013536 0.54961717 4280097038
0.45145896 0.024908334 0.54959893 4279703565
0.45214662 0.024900615 0.54955971 4279573273
0.45283329 0.024893254 0.54952043 4279375896
0.45349538 0.024788648 0.54950219 4279375896
0.4541803 0.024781793 0.54946297 4279441691
0.45484117 0.024677575 0.54944474 4279375894
0.45545584 0.024378061 0.54946846 4279573008
0.45607099 0.02407831 0.54949218 4279375894
0.4567537 0.0240722 0.54945296 4279441687
0.45739123 0.023870379 0.5494557 4279376411
0.46563083 0.0099236667 0.55176914 4279836447
0.46625921 0.0095147789 0.55181402 4279836447
0.46711814 0.010397762 0.55158573 4279771685
0.46776271 0.010088742 0.55160958 4279838245
0.46837342 0.0095804632 0.5516755 4279772452
0.46895176 0.0088724494 0.55178344 4279508763
0.46958262 0.0084627867 0.55182832 4279574039
0.47018161 0.0078532398 0.55191529 4279375377
0.47078258 0.007243067 0.55200225 4279309584
0.47138551 0.0066322684 0.55208921 4279309333
0.47199041 0.006020844 0.55217618 4279112472
0.47262818 0.0056090057 0.55222112 4279112726
0.47323656 0.0049964786 0.55230808 4279046929
0.47383195 0.0042831004 0.55241609 4279112722
0.47442985 0.0035688877 0.55252415 4279440147
0.47504461 0.0029543638 0.55261117 4279178519
0.47567558 0.0024396181 0.55267715 4279178778
0.4762941 0.0018239319 0.55276418 4279112985
0.47694197 0.001408875 0.55280918 4279244310
0.47759086 0.00099352002 0.55285412 4279506961
0.47824073 0.00057783723 0.55289912 4279507213
0.47891751 0.00036358833 0.55290204 4279507465
0.47958159 4.8369169e-05 0.552926 4279639051
0.48024613 -0.0002669394 0.55294991 4279835660
0.48089898 -0.00068360567 0.55299491 4279901201
0.48155278 -0.0011005402 0.55303991 4279901203
0.4822076 -0.0015177727 0.55308491 4280098582
0.48285189 -0.0020366609 0.55315095 4280098578
0.48350894 -0.0024546087 0.55319595 4280295700
0.48414496 -0.0030759275 0.5532831 4280098580
0.48479372 -0.0035962164 0.55334914 4279836950
0.48539147 -0.0046253502 0.5535205 4279507985
0.48601368 -0.0054521859 0.55364972 4282006824
0.48659885 -0.0066872835 0.55386317 4283251747
0.48772693 -0.0097740293 0.55441642 4284040495
0.48838395 -0.010401964 0.55450362 4283582004
0.48902494 -0.01123476 0.5546329 4283975731
0.4896864 -0.011864066 0.55472016 4282330391
0.4902817 -0.01331237 0.55497581 4283448872
0.49077535 -0.016093314 0.55550528 4284371257
0.4912653 -0.019083023 0.55607688 4283778602
0.49192417 -0.020026505 0.55622733 4284041774
0.49259406 -0.02086845 0.55635679 4284896568
0.49323046 -0.022224754 0.55659157 4284963394
0.49391454 -0.022966236 0.55669993 4285159490
0.49461466 -0.023502827 0.55676627 4285356869
0.4953163 -0.024039835 0.55683255 4285619781
0.49601939 -0.024577409 0.55689883 4285685322
0.49673605 -0.024909228 0.55692303 4286080592
0.49745324 -0.025241196 0.55694717 4286213463
0.49818203 -0.025366932 0.55692923 4286279256
0.49891561 -0.025389194 0.55689019 4286345049
0.49964315 -0.025514483 0.55687225 4286476633
0.4242861 0.047259986 0.54735571 4284834134
0.42489323 0.047067806 0.54735833 4284766796
0.42553654 0.046969146 0.54733974 4284898114
0.42614344 0.046777055 0.54734236 4284502575
0.42671463 0.04649125 0.54736614 4284568368
0.42728633 0.046205312 0.54738998 4284569403
0.42782331 0.045825347 0.54743499 4284504128
0.42836127 0.04544507 0.54747999 4284504126
0.42886552 0.044970512 0.54754627 4284306747
0.42937127 0.044495448 0.54761249 4284438333
0.42984426 0.043925777 0.54769993 4284438335
0.43028527 0.04326123 0.54780859 4284437831
0.4307625 0.042690232 0.54789603 4284372806
0.43127516 0.042212993 0.54796231 4284307013
0.43172285 0.04154633 0.54807097 4284240702
0.43223894 0.041068017 0.54813725 4284305979
0.43275654 0.040589198 0.54820353 4284305977
0.43327561 0.040109918 0.54826981 4284240184
0.43376395 0.039535418 0.54835731 4284108598
0.43428624 0.039055124 0.54842365 4284109630
0.43480998 0.038574353 0.54848993 4284307009
0.43533525 0.038093135 0.54855627 4284109630
0.43586197 0.037611455 0.54862255 4284307263
0.4363592 0.037034094 0.54871011 4284044091
0.43688911 0.036551371 0.54877645 4283977530
0.43739006 0.035972878 0.54886401 4283976760
0.43789294 0.03539373 0.54895157 4284239932
0.43842784 0.034909472 0.54901791 4284108598
0.43890464 0.03423357 0.54912674 4284108852
0.43938398 0.033556923 0.54923558 4284108600
0.43986577 0.032879472 0.54934442 4284174393
0.44037902 0.032297045 0.54943204 4284567866
0.44092304 0.031809896 0.54949844 4284567868
0.4414115 0.031130344 0.54960728 4284700224
0.44193068 0.030546039 0.5496949 4284700224
0.44245186 0.029961124 0.54978257 4284437050
0.44297498 0.029375553 0.54987025 4284371507
0.44350013 0.028789401 0.54995787 4284305718
0.44405454 0.028298944 0.55002433 4284239673
0.44461042 0.027808011 0.55009079 4284371259
0.44516778 0.027316645 0.55015725 4284240956
0.4457266 0.026824757 0.55022371 4284240702
0.44628692 0.026332438 0.55029017 4284174911
0.4468748 0.025936365 0.55033541 4284109118
0.44746363 0.025539994 0.55038065 4284043323
0.44805348 0.025143325 0.55042589 4284043577
0.44866964 0.024843305 0.55044985 4283780405
0.44931135 0.024640173 0.55045259 4282990647
0.45000273 0.024631321 0.55041289 4281674787
0.45066851 0.024525523 0.55039442 4280227854
0.45135814 0.024517208 0.55035466 4279703563
0.4520227 0.024411827 0.55033618 4279703824
0.4527106 0.024404079 0.55029643 4279572503
0.45335034 0.024201572 0.55029917 4279506710
0.45401341 0.024096668 0.55028069 4279441691
0.454676 0.023991913 0.55026215 4279441689
0.45531526 0.023789585 0.55026495 4279572756
0.4559319 0.023489416 0.55028892 4279637526
0.46507341 0.010726869 0.55233532 4279705112
0.46571797 0.010417849 0.55235946 4279573273
0.46638092 0.010208011 0.55236232 4279704859
0.46681428 0.0087059736 0.55264175 4279639579
0.46763718 0.009390384 0.5524531 4279443485
0.46826679 0.0089811385 0.55249852 4279443485
0.4689143 0.0086711645 0.55252266 4279377179
0.46949562 0.0079622269 0.55263191 4279442453
0.47009584 0.0073522925 0.55271989 4279375375
0.47071421 0.0068415701 0.55278665 4279309582
0.47131813 0.0062304437 0.55287462 4279375124
0.47193971 0.0057187378 0.55294138 4279178519
0.47256276 0.0052065551 0.55300808 4279113239
0.47315693 0.0044935644 0.55311739 4279047442
0.4737685 0.003880024 0.55320543 4279047442
0.47436735 0.0031655133 0.55331481 4279505940
0.47498313 0.0025506318 0.55340284 4279375126
0.47561508 0.0020356476 0.5534696 4279244058
0.47624853 0.0015201271 0.55353642 4279112472
0.47688344 0.0010042191 0.55360317 4279244308
0.47754678 0.00068923831 0.55362737 4279506961
0.4782106 0.00037416816 0.55365157 4279507213
0.47886193 -4.2021275e-05 0.55369711 4279573258
0.47953969 -0.00025656819 0.55370003 4279704844
0.48019254 -0.00067320466 0.55374551 4279835406
0.48084635 -0.0010901392 0.55379105 4279901203
0.48150116 -0.0015073717 0.55383658 4279900949
0.48216867 -0.0018236339 0.55386078 4279966742
0.48281372 -0.0023427904 0.5539276 4280098578
0.48342654 -0.0031666756 0.55405837 4280164114
0.48408628 -0.0035854876 0.55410391 4280098580
0.48470402 -0.0044110119 0.55423468 4279703820
0.48530376 -0.005440712 0.55440807 4283256642
0.4858869 -0.0066751838 0.55462408 4282664486
0.48644501 -0.0082167089 0.55490404 4283712294
0.48699 -0.0099640489 0.55522668 4283646501
0.487609 -0.010999858 0.55540013 4283777575
0.4881115 -0.013363689 0.55585068 4283778352
0.48862439 -0.015730768 0.5563013 4284106804
0.48920906 -0.017385662 0.55660272 4284369976
0.48985174 -0.018429011 0.55677634 4284567353
0.49051493 -0.01926887 0.5569073 4284305716
0.49117309 -0.020212114 0.55705959 4285028154
0.49181134 -0.02146402 0.55727583 4284699189
0.49249971 -0.022101879 0.55736423 4285159480
0.49319008 -0.022740364 0.55745256 4285225796
0.49388948 -0.023276716 0.55751967 4285225798
0.49459034 -0.023813516 0.55758673 4285423177
0.49529269 -0.024350822 0.55765378 4285554502
0.49600282 -0.024785548 0.55769956 4285751629
0.49672002 -0.025117576 0.557724 4286344277
0.49744347 -0.025346607 0.5577271 4286213463
0.49817249 -0.025472343 0.55770886 4286213463
0.49889573 -0.025701284 0.55771202 4286279002
0.42546085 0.046780229 0.54801923 4285226827
0.42606825 0.046587974 0.54802185 4284503347
0.42663991 0.046302021 0.54804587 4284503347
0.42721209 0.046015918 0.54806995 4284635196
0.42778477 0.045729652 0.54809403 4284569921
0.42828804 0.045255363 0.54816103 4284504380
0.42875808 0.044686645 0.54824948 4284504380
0.42923009 0.044117272 0.548338 4284504126
0.42966986 0.043453112 0.54844791 4284504128
0.43007815 0.042693943 0.54857934 4284306497
0.43055683 0.042122468 0.54866785 4284503876
0.43103749 0.041550368 0.54875636 4284438083
0.43152013 0.040977627 0.54884487 4284503874
0.43200475 0.040404275 0.54893345 4284634944
0.43252406 0.039924935 0.5490005 4284569149
0.43304485 0.039445102 0.54906756 4284305977
0.43356714 0.038964808 0.54913461 4284371770
0.4340589 0.038389176 0.54922318 4284438335
0.43458441 0.037907869 0.5492903 4284438849
0.43514287 0.037521109 0.5493359 4284373056
0.43567109 0.037038967 0.54940301 4284373056
0.43620077 0.036556333 0.54947013 4284109884
0.43670118 0.03597796 0.5495587 4283977530
0.4372341 0.035494298 0.54962587 4284174139
0.43773824 0.034914792 0.54971445 4284239932
0.43824434 0.034334615 0.54980308 4284174393
0.43872264 0.033658281 0.54991317 4284108598
0.43920341 0.032981113 0.55002332 4284239932
0.43971595 0.032398954 0.55011195 4284174139
0.44023043 0.03181614 0.55020064 4284371005
0.44071814 0.031136811 0.55031079 4284436798
0.44123682 0.03055267 0.55039942 4284633661
0.4417575 0.029967889 0.55048811 4284633661
0.44225213 0.029286385 0.55059832 4284633659
0.44277701 0.028700277 0.55068702 4284634679
0.44333139 0.028209835 0.55075425 4284437050
0.44388726 0.027718917 0.55082142 4284502843
0.44444463 0.027227506 0.55088866 4284305466
0.44497666 0.026639134 0.55097741 4284437565
0.44553721 0.02614674 0.55104464 4284371772
0.44612557 0.025750518 0.55109042 4284305727
0.44671494 0.025353998 0.5511362 4284371520
0.44730526 0.02495712 0.55118191 4284109118
0.44789657 0.024560004 0.55122769 4284240702
0.44848889 0.024162531 0.55127347 4283845944
0.44913232 0.023958862 0.55127621 4283780151
0.44980061 0.023852289 0.55125749 4282596143
0.45046836 0.023745924 0.55123878 4280491026
0.45113564 0.023639679 0.55122 4279703817
0.45182651 0.023630977 0.55117977 4279573008
0.45249256 0.023525119 0.55116105 4279573008
0.45313454 0.023321927 0.55116379 4279572503
0.45379984 0.023216337 0.55114502 4279506714
0.45446464 0.023110867 0.5511263 4279441687
0.45508325 0.022810072 0.55115056 4279441940
0.45572495 0.022606939 0.5511533 4279376147
0.4562549 0.021914244 0.55126363 4279769365
0.45678732 0.021220773 0.55137396 4279310366
0.46431381 0.010439187 0.55313522 4279704340
0.46499616 0.010328203 0.55311656 4279770133
0.46564171 0.010018885 0.55314094 4279770135
0.46630564 0.0098087192 0.5531438 4279770135
0.46695194 0.0094991326 0.55316818 4279639319
0.46756387 0.0089904666 0.55323565 4279311637
0.46821165 0.008680433 0.55326003 4279377430
0.46884298 0.0082706213 0.55330598 4279376660
0.46944195 0.0076610744 0.55339503 4279507733
0.47001004 0.0068512857 0.55352712 4279244559
0.47061345 0.0062403679 0.55361617 4279244559
0.4712348 0.0057286918 0.55368364 4279376399
0.47185761 0.0052165687 0.55375117 4279506963
0.47246647 0.0046038926 0.55384022 4279178517
0.4730773 0.0039905906 0.55392933 4279310614
0.47369009 0.0033766925 0.55401838 4279179028
0.47431958 0.0028624237 0.55408591 4279506963
0.47492164 0.0021468997 0.5541966 4279506963
0.47555459 0.0016316175 0.55426413 4279506710
0.47617504 0.0010152459 0.55435324 4279375124
0.4768112 0.00049892068 0.55442083 4279572756
0.4774892 0.00028428435 0.55442375 4279769365
0.4781408 -0.00013193488 0.55446976 4279835410
0.47883227 -0.00024586916 0.55445111 4279704590
0.47949782 -0.00056150556 0.55447561 4279770383
0.48015141 -0.00097835064 0.55452162 4279770385
0.48080593 -0.0013955235 0.55456764 4279967261
0.4814615 -0.0018129945 0.55461371 4279704342
0.48212975 -0.0021295249 0.55463821 4279770135
0.48277554 -0.0026489496 0.5547058 4279836180
0.48338908 -0.0034730732 0.55483812 4280098580
0.4840166 -0.0041966736 0.55494887 4280164371
0.48462504 -0.0051241815 0.55510277 4279966992
0.48518449 -0.0065611303 0.55536449 4283979581
0.48571911 -0.008305192 0.55569094 4283846698
0.48623112 -0.010357082 0.55608213 4283646755
0.48682031 -0.011698425 0.5563224 4283186204
0.48730081 -0.014265329 0.55682153 4284238124
0.48782048 -0.01652959 0.55725598 4284238126
0.48844019 -0.017775625 0.55747473 4284501298
0.48909989 -0.018614382 0.55760723 4285093185
0.48977965 -0.019249529 0.55769664 4285159238
0.49041998 -0.020397097 0.55789387 4284832058
0.49108082 -0.021341175 0.55804801 4284897851
0.49176848 -0.021978855 0.55813742 4285028921
0.49245811 -0.022617102 0.55822682 4285488191
0.4931497 -0.023255974 0.55831623 4285619779
0.49385735 -0.023689955 0.55836248 4285488457
0.49455923 -0.024227083 0.55843031 4285620043
0.49526909 -0.024661779 0.55847663 4285883980
0.49597996 -0.025096774 0.55852288 4286015564
0.49670392 -0.025325924 0.55852604 4286542426
0.49742791 -0.025555104 0.55852914 4286804315
0.49815187 -0.025784254 0.55853224 4286277971
0.49887583 -0.026013434 0.55853534 4285750343
0.4265652 0.046112791 0.54872668 4284438595
0.42717332 0.045920298 0.5487293 4284569919
0.42767584 0.045446247 0.54879707 4284767298
0.42814487 0.044877827 0.54888654 4284504380
0.4286159 0.044308767 0.54897606 4284635966
0.42901999 0.043550923 0.54910904 4284635966
0.42946124 0.042886287 0.54922026 4284635714
0.42987099 0.042126641 0.54935324 4284373056
0.43035117 0.041554704 0.54944277 4284307263
0.43079981 0.040887713 0.54955411 4284438595
0.43128419 0.040314451 0.54964364 4284963648
0.43180349 0.039835095 0.54971147 4284766782
0.43229157 0.039260641 0.54980105 4284569151
0.43281406 0.038780257 0.54986894 4284569151
0.43333808 0.038299412 0.54993677 4284700222
0.43386358 0.037818119 0.55000466 4284766015
0.43439054 0.03733632 0.55007255 4284767300
0.4349505 0.036949128 0.55011868 4285096265
0.43548018 0.036466449 0.55018657 4284636226
0.43601134 0.035983369 0.55025446 4284504642
0.436544 0.035499796 0.55032235 4284043839
0.43704763 0.034920409 0.550412 4284109632
0.43752298 0.034244999 0.5505234 4284043839
0.43806082 0.033759773 0.55059135 4284174911
0.43854058 0.033082947 0.55070275 4284043323
0.43905237 0.032500982 0.55079246 4284306495
0.43953684 0.031822681 0.55090386 4284109116
0.44002381 0.031143591 0.55101532 4284371772
0.44054198 0.030559599 0.55110502 4284437052
0.44106218 0.029974967 0.55119473 4284502075
0.44155604 0.029293701 0.55130619 4284502075
0.44208041 0.028707743 0.55139595 4284698939
0.44260675 0.028121203 0.55148566 4284503093
0.44316262 0.027630255 0.55155367 4284371511
0.44369268 0.027042493 0.55164343 4284437304
0.44425178 0.026550561 0.55171144 4284239673
0.44481233 0.026058167 0.55177945 4284305979
0.44537437 0.025565267 0.55184752 4284305725
0.44596422 0.025168598 0.55189377 4284305727
0.44652897 0.024674833 0.55196184 4284371520
0.44712102 0.024277449 0.55200809 4284109118
0.44771409 0.023879737 0.55205441 4284240704
0.44833344 0.023578733 0.55207896 4283977534
0.44892821 0.023180455 0.55212522 4283845948
0.44959846 0.023073316 0.55210626 4282793006
0.45026821 0.022966295 0.55208725 4280622864
0.45091313 0.02276215 0.55209005 4279769608
0.45160621 0.022752732 0.55204928 4279638547
0.45229834 0.022743642 0.55200851 4279572754
0.45301306 0.022832364 0.55194598 4279638296
0.45365626 0.022628754 0.55194873 4279506712
0.45429945 0.022425175 0.55195153 4279441687
0.45485124 0.021830529 0.55204135 4279507733
0.45531458 0.020843953 0.55221832 4279441940
0.45578188 0.019856095 0.55239528 4279703572
0.45627525 0.018965006 0.55255049 4279376411
0.46358955 0.010350317 0.55389416 4279638801
0.46425423 0.010139912 0.55389702 4279638547
0.46490049 0.0098303556 0.55392164 4279770133
0.46551096 0.0093221366 0.55398989 4279704340
0.46619454 0.0092107654 0.55397099 4279900949
0.46661267 0.0076085329 0.55427897 4279704340
0.46750799 0.0086900294 0.55399847 4279442451
0.46810499 0.0080810785 0.55408853 4279508244
0.46872088 0.0075711608 0.55415678 4279376147
0.46932158 0.0069610476 0.55424684 4279441938
0.46990782 0.0062505603 0.55435872 4279244559
0.47051272 0.0056390762 0.55444878 4279376145
0.47111958 0.0050270259 0.55453891 4279244811
0.4717755 0.0047144294 0.55456358 4279506963
0.47240102 0.004201442 0.55463189 4279375894
0.47301283 0.003587842 0.55472201 4279507480
0.47361165 0.0028733015 0.55483395 4279310614
0.47424239 0.002358675 0.55490226 4279506963
0.47486013 0.0017431676 0.55499238 4279703572
0.47550824 0.0013280511 0.55503893 4279703572
0.47612944 0.00071147084 0.55512905 4279703572
0.47676635 0.00019487739 0.55519742 4279704340
0.47741818 -0.00022143126 0.55524397 4279835158
0.47809744 -0.00043645501 0.55524689 4279966742
0.47877669 -0.00065147877 0.55524981 4279835156
0.47944322 -0.00096741319 0.55527455 4279966994
0.48011026 -0.0012835264 0.55529928 4279901201
0.4807044 -0.0022065639 0.55545491 4279967263
0.48142183 -0.0021186769 0.55539238 4279704091
0.4820556 -0.0027392507 0.55548263 4279835677
0.48269141 -0.0033604503 0.55557281 4279835926
0.48332915 -0.0039823353 0.55566305 4279967764
0.48394686 -0.0048077703 0.55579692 4280230164
0.48452458 -0.0060405433 0.55601811 4279966992
0.48505473 -0.0077832341 0.55634844 4283847477
0.48556152 -0.0098334551 0.55674428 4284110124
0.48611721 -0.011479229 0.55705285 4284437300
0.48653346 -0.014655679 0.55768889 4283845163
0.48707816 -0.016612947 0.55806303 4284041261
0.48772392 -0.017552286 0.5582189 4284172847
0.48836413 -0.018594891 0.55839658 4284501812
0.48902583 -0.019434273 0.55853063 4285291076
0.48966491 -0.020581484 0.55873024 4285421896
0.49034157 -0.021320611 0.55884248 4285290812
0.49102873 -0.021958113 0.5589329 4285225019
0.49172562 -0.022493631 0.55900151 4285291064
0.49241647 -0.023132294 0.55909199 4285619779
0.49312389 -0.023566216 0.55913877 4285816390
0.49381819 -0.024205953 0.55922925 4286013515
0.49453488 -0.024537772 0.55925417 4286145101
0.49523896 -0.025075644 0.55932283 4286212691
0.49596339 -0.025304973 0.55932593 4286278736
0.49668181 -0.025637358 0.55935091 4286542680
0.4974007 -0.025969923 0.55937588 4285553482
0.49813122 -0.026096165 0.55935711 4284237622
0.42789686 0.044218481 0.54968005 4284766782
0.42826548 0.043366849 0.54983658 4284832575
0.42901307 0.041660324 0.55014962 4285030220
0.42959589 0.041370854 0.55017424 4284767562
0.43004429 0.040703967 0.55028677 4284833355
0.43052864 0.040130675 0.55037737 4284964425
0.43101498 0.039556757 0.55046803 4284898116
0.43153626 0.03907679 0.55053663 4285096265
0.43205905 0.038596332 0.5506053 4285096265
0.43261576 0.038210124 0.55065191 4284701253
0.43314126 0.037728801 0.55072057 4284897866
0.43366823 0.037247032 0.55078924 4285160523
0.43422842 0.036859706 0.55083591 4285226827
0.4347581 0.036377087 0.55090457 4285292620
0.43528926 0.035893992 0.55097324 4285030218
0.43582189 0.035410389 0.5510419 4284767560
0.43632528 0.034831077 0.55113262 4284701253
0.43683064 0.034251168 0.55122328 4284569667
0.43733796 0.033670604 0.551314 4284503874
0.43784726 0.033089414 0.55140471 4284503874
0.43832877 0.032412067 0.55151743 4284306495
0.43881273 0.0317339 0.55163014 4284240702
0.43932846 0.031150684 0.55172086 4284371518
0.43984616 0.030566841 0.55181164 4284568897
0.44033706 0.029886499 0.55192435 4284634431
0.44085896 0.02930133 0.55201513 4284502075
0.44138283 0.028715521 0.5521059 4284567868
0.44190869 0.028129131 0.55219668 4284568120
0.44240871 0.027445868 0.55230945 4284503093
0.44296631 0.026954398 0.55237824 4284108600
0.4435254 0.026462466 0.55244702 4284371772
0.44411302 0.026066482 0.55249381 4284371520
0.44467479 0.025573671 0.55256265 4284305727
0.44521153 0.024983823 0.55265343 4284305727
0.44577652 0.024489999 0.55272228 4284371520
0.446343 0.023995697 0.55279112 4284437311
0.44693679 0.023597747 0.55283791 4284174911
0.44753155 0.023199499 0.55288476 4284174911
0.44812733 0.022800922 0.55293155 4284043327
0.44872409 0.022402078 0.5529784 4283845948
0.44937146 0.022197157 0.55298114 4283056428
0.44999427 0.021894991 0.55300599 4282334238
0.45066625 0.021787316 0.55298674 4279835660
0.45196104 0.021377444 0.55299228 4279507213
0.45282078 0.022050232 0.55279684 4279638547
0.4534426 0.021748394 0.55282164 4279506714
0.45397252 0.021055698 0.55293459 4279506712
0.45439065 0.01987341 0.55315769 4279572505
0.45494935 0.019276619 0.55324858 4279638296
0.4555324 0.018777072 0.55331749 4279704089
0.45598423 0.017689109 0.55351859 4279572505
0.45635307 0.016207486 0.55380785 4279572505
0.46217895 0.010373682 0.55467379 4279573006
0.46278718 0.009866178 0.55474281 4279507211
0.4635292 0.01005128 0.55465746 4279573778
0.46412 0.0094442964 0.55474854 4279573524
0.46474963 0.0090350509 0.5547955 4279573524
0.46539837 0.0087246597 0.55482042 4279573524
0.4660297 0.0083148479 0.55486739 4279638801
0.46673268 0.0083023012 0.55482614 4279638801
0.467365 0.0078921616 0.55487317 4279638801
0.46796396 0.0072825849 0.55496424 4279376660
0.46859875 0.0068717003 0.55501121 4279508244
0.46921784 0.0063607395 0.55508029 4279507731
0.4697727 0.0054501593 0.55523753 4279376145
0.47039574 0.0049380064 0.55530661 4279441938
0.47102028 0.004425317 0.5553757 4279769617
0.47164631 0.0039121509 0.55544478 4279769363
0.47225836 0.0032984614 0.55553591 4279507733
0.47284201 0.0024837852 0.55567122 4279507733
0.47347343 0.0019688904 0.5557403 4279441938
0.47413579 0.0016542971 0.55576527 4279441938
0.47478414 0.0012390316 0.55581236 4279637779
0.4754051 0.00062251091 0.55590355 4279900694
0.47605592 0.00020653009 0.55595058 4279834901
0.4767352 -8.4936619e-06 0.5559535 4279901203
0.47738752 -0.00042492151 0.55600059 4279901203
0.47805405 -0.00074091554 0.55602556 4280032532
0.47870809 -0.0011579692 0.55607265 4279966739
0.47941405 -0.0011714101 0.55603141 4279966739
0.48005661 -0.0016897619 0.55610055 4280032532
0.48066396 -0.0025119781 0.55623597 4279770135
0.48131025 -0.003031522 0.55630511 4279704342
0.48200494 -0.0031464398 0.55628598 4279835928
0.48266467 -0.0035652816 0.55633307 4279967514
0.48325792 -0.0045929849 0.55651265 4280033305
0.48384416 -0.0057234764 0.55671436 4281282852
0.48440257 -0.0071601272 0.55698228 4280230164
0.48494589 -0.0088019967 0.55729443 4282136605
0.48547566 -0.010649562 0.5576508 4283779883
0.48584318 -0.014230579 0.55838263 4284372020
0.48635387 -0.016492069 0.5588274 4285291839
0.48696008 -0.017838866 0.55907345 4285225796
0.48759955 -0.018881232 0.55925322 4285028165
0.48824295 -0.019924819 0.55943304 4285028165
0.48889908 -0.020867437 0.55959076 4285356617
0.48958424 -0.021504313 0.55968219 4285685574
0.49028796 -0.021937042 0.55972952 4285620029
0.49097657 -0.022574991 0.55982095 4285488443
0.49167496 -0.023111016 0.55989039 4285751615
0.4923673 -0.023750156 0.55998188 4285751367
0.49308348 -0.024081796 0.56000704 4286145353
0.4937931 -0.024516404 0.56005436 4286211146
0.49450374 -0.024951369 0.56010169 4286540111
0.49522185 -0.025283694 0.5601269 4286805082
0.49594054 -0.025616169 0.56015211 4286213976
0.49666572 -0.025845706 0.56015527 4284831810
0.49739093 -0.026075274 0.56015837 4284175677
0.49811056 -0.026408017 0.56018358 4284965193
0.42973742 0.039853215 0.55113548 4285292622
0.430224 0.039279208 0.55122709 4285358413
0.43077898 0.038893551 0.5512743 4285029702
0.43133497 0.038507566 0.55132145 4285096011
0.43189198 0.038121268 0.55136859 4284964425
0.43241745 0.037639976 0.55143803 4285029448
0.43297663 0.037252963 0.55148524 4285095243
0.43350485 0.036770806 0.55155468 4285226829
0.43403453 0.036288172 0.55162412 4285226827
0.43459719 0.035900086 0.55167127 4285292620
0.43509832 0.035321459 0.551763 4285030734
0.43560144 0.034742236 0.55185473 4284833866
0.43613732 0.03425765 0.55192417 4284636228
0.43664414 0.033677235 0.5520159 4284504642
0.43715292 0.033096209 0.55210769 4284635714
0.4376637 0.032514572 0.55219942 4284635714
0.43811691 0.031741157 0.55233568 4284503874
0.43863213 0.03115809 0.55242747 4284109116
0.43914935 0.030574381 0.55251926 4284437311
0.43963948 0.029894292 0.55263329 4284437311
0.44016087 0.029309258 0.55272508 4284633407
0.44068426 0.028723642 0.55281687 4284567614
0.44120961 0.028137386 0.55290872 4284567868
0.44170892 0.027454376 0.5530228 4284568120
0.44226623 0.026962951 0.55309236 4284503347
0.44282508 0.026471108 0.55316192 4284108852
0.44335806 0.025882393 0.55325377 4284437817
0.44392014 0.025389522 0.55332333 4284437313
0.44451043 0.024992675 0.55337065 4284437313
0.44502208 0.024305761 0.5534848 4284371520
0.4455888 0.02381137 0.55355442 4284371520
0.44615701 0.023316532 0.55362403 4284437311
0.44672671 0.022821248 0.55369365 4284240702
0.44729787 0.022325456 0.55376327 4284174909
0.44789585 0.021926165 0.5538106 4284043325
0.44849485 0.021526605 0.55385792 4283977532
0.44911963 0.021223813 0.55388302 4283254059
0.4497695 0.021018118 0.55388582 4282663201
0.45041937 0.020812422 0.55388862 4280756251
0.45102105 0.020411968 0.553936 4279835149
0.45162371 0.020011216 0.55398333 4279573008
0.45292541 0.019599169 0.55398893 4279506712
0.45353007 0.019197822 0.55403632 4279506712
0.45411286 0.018698335 0.554106 4279506712
0.45465192 0.018002778 0.55422026 4279704091
0.45508164 0.016816825 0.55444598 4279638296
0.45551631 0.015629292 0.55467176 4279440147
0.45945147 0.010918885 0.55542749 4279572756
0.46009776 0.010609329 0.55545264 4279638296
0.46074453 0.010299623 0.5554778 4279638801
0.46147037 0.010384828 0.55541378 4279704594
0.46205893 0.0097785294 0.55550587 4279573004
0.46274525 0.0096663237 0.55548644 4279573004
0.46337435 0.0092571676 0.55553389 4279573776
0.46400443 0.0088477433 0.55558139 4279573776
0.46450666 0.0077438056 0.55578506 4279441938
0.46528575 0.0081271529 0.55565405 4279507985
0.46579316 0.007021606 0.55585772 4279507985
0.46662301 0.0077038705 0.55565983 4279638801
0.46718714 0.0068953335 0.55579656 4279638801
0.46777141 0.006185472 0.555911 4279376660
0.46840888 0.0057736933 0.55595851 4279442451
0.46903071 0.0052618384 0.55602837 4279442451
0.46967044 0.0048494041 0.55607587 4279376147
0.47029495 0.0043366849 0.55614573 4279441940
0.47095287 0.0040234923 0.556171 4279704340
0.47147 0.0028098226 0.55639708 4279769363
0.47211567 0.0023954511 0.55644464 4279507482
0.47276232 0.0019808114 0.55649221 4279441689
0.47343984 0.0017663538 0.55649507 4279507733
0.47408795 0.0013512075 0.55654263 4279638547
0.47472262 0.00083529949 0.55661255 4279637526
0.47535875 0.00031900406 0.55668247 4279835158
0.47599638 -0.00019782782 0.55675238 4279769365
0.47667661 -0.0004131496 0.5567553 4279835410
0.47732994 -0.00082993507 0.55680287 4279835410
0.47799745 -0.0011462569 0.55682814 4280032278
0.47867844 -0.0013618171 0.55683106 4279966485
0.47932124 -0.0018802285 0.55690098 4279769882
0.47997802 -0.0022981167 0.5569486 4279769882
0.48061129 -0.0029185712 0.55704087 4279770133
0.48125854 -0.0034384131 0.55711085 4279704594
0.48189557 -0.0040600002 0.55720311 4279836180
0.48256901 -0.0043781698 0.55722839 4279967766
0.48317546 -0.0053050816 0.55738771 4280296477
0.4837414 -0.0066391528 0.55763644 4283982689
0.4850513 -0.014823258 0.55929881 4284239932
0.48556903 -0.016981989 0.55972642 4285029448
0.48616451 -0.018430382 0.55999762 4285161023
0.48680395 -0.019472748 0.56017947 4285291843
0.48744732 -0.020516366 0.56036133 4285423429
0.48814881 -0.02094838 0.56040913 4285357382
0.48885128 -0.021380723 0.56045693 4285422916
0.48952913 -0.022120267 0.56057179 4285619777
0.49023432 -0.022553474 0.56061959 4285620031
0.49093246 -0.023089439 0.56068975 4285883203
0.49163207 -0.023625851 0.5607599 4285883717
0.49234071 -0.02406013 0.56080776 4286014801
0.49305764 -0.024392098 0.56083322 4286409559
0.49376094 -0.024929702 0.56090343 4286672467
0.49447256 -0.025364935 0.56095129 4286540881
0.49519825 -0.025594652 0.56095439 4285555531
0.49591765 -0.025927335 0.56097984 4285032019
0.49664357 -0.026157111 0.560983 4284967509
0.49736372 -0.026490092 0.56100845 4284967509
0.42953169 0.039285392 0.55192131 4285555029
0.4300532 0.038805351 0.55199146 4285490001
0.43060943 0.038419291 0.55203915 4285226831
0.43113369 0.037938356 0.55210936 4285161808
0.43169212 0.037551597 0.55215704 4285030222
0.43225157 0.037164524 0.55220473 4285029448
0.43277979 0.036682367 0.55227494 4285161034
0.43330944 0.036199704 0.55234516 4285292874
0.4338406 0.035716593 0.55241543 4285556046
0.43434176 0.035137981 0.55250818 4285621839
0.43490738 0.034748942 0.55255586 4285424976
0.43541196 0.034169227 0.55264866 4285096525
0.4359493 0.033684179 0.55271888 4285030984
0.4364576 0.033103302 0.55281168 4284899398
0.43696788 0.032521814 0.55290443 4284701759
0.43745011 0.031844184 0.55301976 4284964931
0.43793482 0.031165779 0.5531351 4284635966
0.43845153 0.030582249 0.5532279 4284570173
0.43894094 0.029902384 0.55334324 4284306749
0.43946183 0.029317513 0.5534361 4284306495
0.43998471 0.028732046 0.5535289 4284437052
0.44048101 0.028049946 0.5536443 4284371259
0.44100809 0.027463153 0.55373716 4284633146
0.44156519 0.026971817 0.5538075 4284765497
0.44206816 0.026287645 0.55392289 4284568370
0.44262871 0.025795221 0.55399323 4284370739
0.44319075 0.025302321 0.55406356 4284502325
0.44372723 0.024712563 0.55415648 4284436798
0.44429246 0.024218619 0.55422688 4284371518
0.44485918 0.023724288 0.55429721 4284437311
0.44540107 0.023132741 0.55439013 4284371518
0.44594494 0.022540629 0.55448306 4284438081
0.44654244 0.022141546 0.55453092 4284240702
0.44708976 0.021548301 0.5546239 4284305725
0.44768971 0.021148413 0.55467176 4284174139
0.44826558 0.020651132 0.55474216 4284240186
0.44889259 0.020347655 0.55476755 4283649333
0.44949549 0.019946814 0.55481541 4283517747
0.45014808 0.019740224 0.55481821 4282531129
0.45077658 0.01943633 0.55484354 4281346855
0.45142943 0.01922968 0.55484641 4279769882
0.45203504 0.018827975 0.55489427 4279573526
0.45266503 0.018523574 0.5549196 4279441940
0.4533186 0.018316686 0.55492246 4279572503
0.45390359 0.017816514 0.55499291 4279506710
0.45437706 0.016826719 0.55517614 4280426787
0.45489916 0.016031474 0.55531424 4281282345
0.45546848 0.015431285 0.55540729 4283386951
0.45601788 0.01473242 0.55552292 4283584330
0.45654815 0.013934612 0.55566108 4283057457
0.45712414 0.013332307 0.55575413 4283057444
0.45765984 0.012532771 0.55589229 4284240702
0.45821941 0.011830688 0.55600792 4279964160
0.4587608 0.011029333 0.55614614 4279637004
0.45940706 0.010719806 0.5561716 4279506963
0.46003368 0.010311425 0.55621958 4279638296
0.4606812 0.010001481 0.55624503 4279573008
0.46132919 0.0096913576 0.55627042 4279638801
0.46193892 0.009183377 0.55634099 4279573004
0.46260753 0.0089717209 0.55634391 4279507211
0.46327618 0.0087600946 0.55634677 4279704590
0.46390751 0.0083502829 0.55639476 4279704590
0.46453983 0.0079401433 0.5564428 4279507985
0.46517313 0.0075296462 0.55649078 4279507983
0.4657895 0.0070195794 0.55656141 4279638799
0.46640736 0.006509006 0.55663198 4279638799
0.46702668 0.0059980154 0.55670261 4279638799
0.46766466 0.0055860579 0.55675066 4279573526
0.46828672 0.005074203 0.55682123 4279442453
0.46892697 0.0046615601 0.55686933 4279442453
0.46953529 0.0040489733 0.55696249 4279376660
0.47017798 0.0036355555 0.55701059 4279441940
0.47082165 0.0032218099 0.55705863 4279769363
0.47138783 0.0023076236 0.55721962 4279638801
0.47205019 0.0019930005 0.55724508 4279507480
0.47269779 0.001578033 0.55729318 4279507480
0.47334641 0.0011627078 0.55734128 4279573273
0.47399601 0.00074711442 0.55738932 4279573524
0.47464663 0.00033119321 0.55743742 4279638296
0.4752982 -8.508563e-05 0.55748552 4279638296
0.47595075 -0.00050163269 0.55753362 4279704342
0.47660431 -0.00091850758 0.55758172 4279704594
0.47729927 -0.0010334551 0.55756211 4279835158
0.47794083 -0.0015515089 0.5576328 4279900951
0.47862279 -0.0017673969 0.55763572 4279900951
0.47922841 -0.002589047 0.55777419 4279704859
0.47989938 -0.0029064715 0.55779976 4279704859
0.48054639 -0.003426224 0.55787045 4279639317
0.48416096 -0.016329736 0.56042254 4284702811
0.48472944 -0.017979562 0.56074202 4284373846
0.4853549 -0.019122481 0.56094855 4285030222
0.48598483 -0.020266831 0.56115508 4285226818
0.48668581 -0.020698696 0.56120336 4285357634
0.48737851 -0.021232963 0.56127429 4285489220
0.48808169 -0.021665543 0.56132263 4285555015
0.4887771 -0.022200644 0.56139356 4285357123
0.48948255 -0.02263394 0.5614419 4285619777
0.49018067 -0.023169875 0.56151283 4285883203
0.49088833 -0.023603857 0.56156117 4286146375
0.49159697 -0.024038196 0.56160951 4285949771
0.49230659 -0.024472803 0.56165785 4286409818
0.4930172 -0.024907738 0.56170619 4286540891
0.49374288 -0.025137424 0.56170934 4286475865
0.49445498 -0.025572836 0.56175768 4286410072
0.49517462 -0.025905579 0.56178343 4284569931
0.49590105 -0.026135534 0.56178653 4284506709
0.49662748 -0.026365489 0.56178963 4284508503
0.49734813 -0.026698619 0.56181544 4284705882
0.42877042 0.039103404 0.55266201 4285096277
0.42932594 0.038717613 0.55271024 4285489749
0.42988241 0.038331464 0.5527584 4285227347
0.43043989 0.037945002 0.55280662 4285161808
0.43099833 0.037558243 0.55285484 4285161808
0.43155777 0.03717117 0.55290306 4285161808
0.43208572 0.036689088 0.55297405 4284767046
0.43264738 0.036301285 0.55302227 4285030472
0.43317804 0.035818309 0.55309331 4285227849
0.43371019 0.0353349 0.5531643 4285162056
0.4341808 0.03466095 0.55328083 4285425228
0.4347164 0.034176439 0.55335188 4285490253
0.43522248 0.033596262 0.5534457 4285292622
0.43579206 0.033205986 0.55349392 4285292620
0.43621004 0.032338709 0.5536561 4285161034
0.43672228 0.03175658 0.55374992 4285227079
0.43723652 0.03117381 0.55384374 4285096515
0.43772295 0.030494869 0.55396038 4284767550
0.43824136 0.029910773 0.5540542 4284767550
0.43876177 0.029326096 0.55414808 4284438587
0.43928415 0.028740764 0.55424196 4284175163
0.4397797 0.028058916 0.5543586 4284371772
0.44030631 0.027472258 0.55445254 4284371772
0.44083485 0.026884943 0.55454642 4284437304
0.44136536 0.026297033 0.55464029 4284765497
0.44192564 0.025804698 0.55471146 4284568370
0.44243234 0.025119334 0.55482817 4284568370
0.44299608 0.024625897 0.55489933 4284436530
0.44356135 0.024132013 0.55497044 4284437052
0.44410124 0.023541093 0.55506438 4284371772
0.44464314 0.022949576 0.55515838 4284306749
0.44516069 0.022260785 0.55527514 4284306749
0.44573283 0.021764725 0.55534631 4284438335
0.4463065 0.021268159 0.55541748 4284240702
0.44685602 0.020674229 0.55551147 4284239932
0.44745821 0.020273626 0.55555987 4284174139
0.44803631 0.019775659 0.5556311 4284240186
0.4486407 0.019374341 0.5556795 4283846198
0.44924608 0.018972725 0.5557279 4283714358
0.44982812 0.018473506 0.55579913 4283450948
0.45045984 0.018168539 0.55582476 4281542951
0.451092 0.017863423 0.55585039 4280163866
0.45177191 0.017753214 0.55583042 4279704342
0.45242792 0.017545551 0.55583322 4279507733
0.45303777 0.017142534 0.55588168 4279507733
0.45360288 0.016543627 0.55597574 4279441687
0.45416996 0.015944183 0.55606979 4282925873
0.45476139 0.015441984 0.55614102 4283187764
0.45533216 0.014841318 0.55623513 4282464555
0.45588306 0.014141977 0.55635202 4282530348
0.45645806 0.01353997 0.55644614 4285618757
0.45701364 0.012839139 0.55656302 4284500013
0.45757169 0.012137502 0.55667996 4284700472
0.45813224 0.011435121 0.55679691 4280292352
0.45873651 0.010928869 0.55686826 4279833100
0.45934224 0.010422111 0.55693954 4279375896
0.45996961 0.010013551 0.55698806 4279441687
0.46057808 0.0095059574 0.55705941 4279441687
0.46126661 0.0093930066 0.55703944 4279638549
0.46185765 0.0087859631 0.55713362 4279638801
0.46252728 0.0085739791 0.55713654 4279703820
0.4631969 0.008362025 0.5571394 4279573008
0.46381056 0.0078527629 0.55721074 4279704594
0.46440727 0.0072439313 0.55730492 4279573524
0.46504229 0.0068329275 0.5573535 4279573524
0.46566039 0.0063222647 0.55742484 4279638801
0.46627998 0.0058111548 0.55749625 4279769617
0.46690106 0.005299598 0.55756766 4279835410
0.46754077 0.004887104 0.55761617 4279507480
0.46816456 0.0043746829 0.55768758 4279507995
0.4687064 0.0033631921 0.55787319 4279442453
0.46935081 0.002949208 0.55792177 4279442453
0.46998003 0.0024350584 0.55799317 4279507731
0.47065854 0.0022203028 0.55799609 4279638801
0.47135276 0.0021055043 0.55797619 4279638801
0.47198468 0.0015905201 0.55804765 4279573524
0.4726485 0.0012753904 0.5580734 4279573524
0.47329786 0.00085985661 0.55812198 4279507733
0.47394818 0.0004440248 0.55817062 4279704594
0.47461396 0.00012823939 0.55819637 4279704342
0.47523761 -0.00048914552 0.55829066 4279704342
0.47590515 -0.00080540776 0.55831647 4279835926
0.47654572 -0.0013231635 0.55838794 4279770133
0.47721469 -0.0016399324 0.55841374 4279704340
0.47791064 -0.0017552078 0.55839378 4279770133
0.47855419 -0.002273947 0.5584653 4279704340
0.47921196 -0.0026921332 0.55851394 4279836696
0.47983325 -0.0034137368 0.55863112 4279836696
0.48383135 -0.019483626 0.56187814 4285227601
0.48449981 -0.02022016 0.56199551 4285161808
0.48520079 -0.020652026 0.56204438 4285357384
0.48591253 -0.020982355 0.56207031 4285291841
0.4865962 -0.021618754 0.5621649 4285554498
0.4873004 -0.022051603 0.56221372 4285554498
0.48800555 -0.022484809 0.56226259 4285488707
0.48871171 -0.022918344 0.56231141 4285488707
0.48942742 -0.023249894 0.5623374 4285751627
0.49013531 -0.023683965 0.56238627 4286080842
0.49084419 -0.024118334 0.56243515 4286409807
0.49156183 -0.024450511 0.56246114 4286344529
0.49227244 -0.024885446 0.56251001 4286279515
0.49299133 -0.02521795 0.562536 4286937197
0.49371073 -0.025550693 0.56256199 4287529334
0.4944306 -0.025883526 0.56258798 4286809207
0.49515098 -0.026216596 0.56261402 4283521619
0.49588448 -0.026343733 0.56259423 4283720016
0.49661139 -0.026573837 0.56259739 4284245590
0.42912015 0.038149774 0.55350226 4285163101
0.42964464 0.037668779 0.55357403 4285096275
0.43027031 0.037470743 0.55357671 4285359187
0.43083 0.037083581 0.55362546 4285227601
0.4314234 0.036790729 0.55365115 4285096015
0.43195233 0.036308318 0.55372292 4285359187
0.43245047 0.035730645 0.55381775 4285359187
0.43298262 0.035247222 0.55388951 4285227597
0.43351623 0.034763291 0.55396134 4285030218
0.43401986 0.034183919 0.55405611 4285490251
0.43455666 0.033698991 0.55412793 4285556814
0.43500197 0.032928079 0.55426884 4285293904
0.43551174 0.032346725 0.55436373 4285228111
0.43605399 0.031860083 0.55443555 4285030734
0.43653721 0.03118214 0.55455345 4285359437
0.43702289 0.030503437 0.55467135 4285096517
0.43751103 0.029823929 0.5547893 4285096517
0.4380312 0.029239297 0.5548842 4285030724
0.43852404 0.028558314 0.55500215 4284701759
0.43907741 0.02806817 0.55507398 4284767552
0.43960348 0.02748166 0.55516893 4284504128
0.44010299 0.026798561 0.55528688 4284240956
0.44066155 0.026306748 0.55535883 4284437817
0.44119358 0.025718361 0.55545378 4284635192
0.44169974 0.025033146 0.55557173 4284634161
0.44223595 0.024443477 0.55566674 4284502575
0.44280142 0.023949444 0.55573863 4284567857
0.44336841 0.023454994 0.55581057 4284502327
0.44391003 0.022863567 0.55590558 4284371770
0.44442707 0.022174925 0.55602366 4284109622
0.44497293 0.021582127 0.55611867 4284109622
0.44552073 0.020988762 0.55621368 4284372024
0.44609636 0.0204916 0.55628562 4284305725
0.44664785 0.019896984 0.55638069 4284239932
0.4472267 0.019398808 0.55645263 4283976760
0.44780698 0.018900126 0.55652463 4284305979
0.44841361 0.018498123 0.55657357 4284239932
