# .PCD v0.7 - Point Cloud Data file format
VERSION 0.7
FIELDS x y z rgb
SIZE 4 4 4 4
TYPE F F F U
COUNT 1 1 1 1
WIDTH 1071
HEIGHT 1
VIEWPOINT 0 0 0 1 0 0 0
POINTS 1071
DATA ascii
0.46988156 0.059290066 0.54596978 4279571729
0.47030857 0.058944166 0.54592824 4279571729
0.47073656 0.058597937 0.5458867 4279440400
0.47116557 0.058251411 0.54584515 4279375377
0.47163689 0.057996199 0.54582554 4279703315
0.47206759 0.057649121 0.545784 4279638549
0.47241759 0.057118103 0.54569858 4279770135
0.42945486 0.064949498 0.54483652 4279638298
0.43016192 0.065038487 0.54490429 4279309081
0.4308081 0.065042034 0.54495025 4279243288
0.43139422 0.064959899 0.54497445 4279505683
0.43197978 0.064877942 0.54499865 4279308812
0.43256488 0.06479612 0.54502285 4279112203
0.43314949 0.064714462 0.54504704 4278914826
0.43373361 0.064632952 0.54507124 4278849033
0.43437511 0.064637989 0.5451172 4278914049
0.43495798 0.064556897 0.5451414 4278782722
0.43548298 0.064389423 0.54514378 4278848515
0.43606514 0.064308539 0.54516798 4278848258
0.43670368 0.064314529 0.54521394 4278914051
0.43722793 0.064147279 0.54521632 4278979592
0.43775219 0.063980043 0.54521877 4278783240
0.43833262 0.063899726 0.54524291 4278783240
0.43891251 0.063819557 0.54526711 4278717194
0.43938065 0.063565403 0.54524773 4278782987
0.43996006 0.063485369 0.54527193 4278717447
0.44053897 0.063405544 0.54529607 4278914056
0.44111741 0.063325852 0.54532027 4278913797
0.44164068 0.063158914 0.54532266 4278782468
0.44216394 0.062991992 0.5453251 4278848261
0.44274139 0.062912628 0.54534924 4278913805
0.44326442 0.06274578 0.54535168 4278914056
0.44384113 0.062666625 0.54537582 4278979592
0.44441736 0.062587664 0.54539996 4278782468
0.46030414 0.066011786 0.54721481 4278718215
0.46080667 0.065851465 0.54721713 4278784008
0.46130919 0.065691143 0.54721946 4279045383
0.46185875 0.065620661 0.54724348 4279111430
0.46226752 0.065280586 0.54720235 4279045642
0.46267724 0.064940184 0.54716122 4279177228
0.46313423 0.064689562 0.54714185 4279243021
0.46359172 0.06443876 0.54712242 4278914826
0.46404973 0.064187825 0.54710305 4279046412
0.46446267 0.063846424 0.54706198 4279243273
0.46487659 0.063504681 0.54702085 4279309066
0.46533656 0.063253105 0.54700148 4279112203
0.46575221 0.06291081 0.54696035 4279242768
0.46616885 0.062568203 0.54691929 4279374354
0.46663079 0.062316015 0.54689991 4279308555
0.4670051 0.061882079 0.54683715 4279440141
0.46742472 0.061538532 0.54679608 4279440395
0.46780175 0.061103716 0.54673332 4279440395
0.46813694 0.060577422 0.54664886 4279505936
0.46847409 0.060050488 0.5465644 4279440143
0.46889889 0.059705302 0.54652333 4279571729
0.46932468 0.059359789 0.54648226 4279506191
0.4697091 0.058922619 0.54641956 4279505934
0.47013709 0.058576405 0.54637849 4279571727
0.47064975 0.05841285 0.54638088 4279440398
0.47103766 0.057974592 0.54631817 4279375377
0.47134435 0.057352543 0.54621208 4279769108
0.47181788 0.05709663 0.54619277 4279769108
0.42992026 0.064693004 0.54537183 4279967265
0.43074551 0.064953953 0.54548186 4279506460
0.43133184 0.064871758 0.54550582 4279702292
0.43197656 0.064875782 0.54555124 4279440143
0.43250304 0.064707831 0.54555368 4279178250
0.43308789 0.064626083 0.54557765 4279178250
0.43373036 0.064630806 0.54562306 4279112457
0.43437189 0.064635843 0.54566854 4278980099
0.4350124 0.064641207 0.54571396 4278980099
0.43565193 0.06464687 0.54575938 4278848515
0.43623334 0.064566255 0.54578328 4278848515
0.43681425 0.064485759 0.54580724 4278848515
0.43733799 0.064318672 0.54580963 4278979590
0.43791819 0.064238444 0.54583353 4278914054
0.43849784 0.06415835 0.54585743 4278717445
0.43902111 0.063991427 0.54585987 4278717447
0.43960005 0.063911587 0.54588377 4278783240
0.44012308 0.063744739 0.54588622 4278848010
0.44064608 0.06357789 0.5458886 4278848263
0.44116911 0.063411042 0.54589099 4278848261
0.44169214 0.063244194 0.54589343 4278848263
0.44226959 0.063164815 0.54591733 4278782470
0.44284654 0.063085601 0.54594123 4278914056
0.44331515 0.062831268 0.54592216 4278848010
0.44394529 0.062839925 0.54596752 4278848010
0.44446757 0.062673315 0.5459699 4278848010
0.4448835 0.062330946 0.54592937 4278848010
0.45809591 0.066293821 0.54764718 4279374857
0.45869642 0.066311926 0.54769242 4279177228
0.45915121 0.066061988 0.54767329 4279045642
0.45960647 0.065811917 0.54765415 4278849031
0.46020553 0.065830499 0.54769939 4278784010
0.46075606 0.065759718 0.54772317 4278915596
0.46125883 0.065599322 0.54772544 4279110925
0.46171463 0.065349087 0.54770631 4279177226
0.46217087 0.065098673 0.54768717 4279177226
0.46262762 0.06484814 0.54766804 4279177226
0.46303856 0.064507335 0.54762745 4279243019
0.46345055 0.064166248 0.54758686 4279177228
0.46390927 0.063915059 0.54756773 4279112205
0.46432292 0.06357339 0.54752713 4279243021
0.46478289 0.063321829 0.547508 4279308814
0.46519831 0.062979609 0.54746747 4279308814
0.46561471 0.062637091 0.54742688 4279374350
0.46607664 0.062384889 0.54740775 4279308814
0.46649477 0.062041804 0.54736722 4279308814
0.46686983 0.061607629 0.54730523 4279308812
0.46729016 0.061263829 0.54726464 4279374857
0.46766794 0.060828805 0.54720265 4279309064
0.46800387 0.060302258 0.54711926 4279374607
0.4684279 0.059957296 0.54707873 4279374607
0.46881011 0.059520841 0.54701674 4279440400
0.46919379 0.059083909 0.54695475 4279440400
0.46957898 0.0586465 0.54689282 4279440147
0.47009188 0.05848287 0.54689521 4279505940
0.47047925 0.058044776 0.54683328 4279440400
0.47082654 0.057514608 0.54674989 4279506193
0.4306829 0.064865902 0.54601401 4279900441
0.43132859 0.064869612 0.54605895 4279899411
0.43191445 0.064787552 0.54608262 4279505936
0.43255842 0.064791813 0.54612756 4279178250
0.43314302 0.064710155 0.54615122 4279374859
0.43372715 0.064628646 0.54617488 4279309066
0.43436867 0.064633697 0.54621983 4279045894
0.43506682 0.064725518 0.54628599 4278980099
0.43564871 0.064644724 0.54630965 4278979847
0.43628725 0.064650699 0.54635459 4278914054
0.43686792 0.064570323 0.54637825 4278914054
0.43744808 0.06449008 0.54640186 4278914054
0.43802774 0.064410001 0.54642552 4278848261
0.43860692 0.064330086 0.54644918 4278717445
0.43912971 0.064163312 0.54645157 4278717447
0.43970814 0.064083636 0.54647523 4278717447
0.44017529 0.063829765 0.5464564 4278848010
0.44069806 0.063662991 0.54645884 4278848263
0.44127575 0.063583553 0.54648244 4278848261
0.44179827 0.063416854 0.54648489 4278848010
0.44232082 0.063250154 0.54648727 4278848010
0.44284335 0.06308347 0.54648972 4278913803
0.44341981 0.063004404 0.54651332 4278848010
0.44394207 0.062837794 0.5465157 4278913805
0.44451782 0.062758982 0.54653937 4278848012
0.44503987 0.062592447 0.54654175 4278848012
0.44550896 0.06233795 0.54652297 4278651652
0.45693803 0.066345602 0.54810739 4279045640
0.45749128 0.066273957 0.54813093 4279440648
0.45809281 0.066291749 0.54817569 4279309062
0.45859632 0.066131115 0.54817802 4279177228
0.45914811 0.066059932 0.54820156 4279045640
0.45965138 0.065899387 0.54820383 4278849285
0.46015465 0.065738827 0.54820615 4278914826
0.46065795 0.065578282 0.54820848 4279046412
0.46116123 0.065417722 0.5482108 4279110927
0.46161747 0.065167338 0.54819191 4279177228
0.46207422 0.064916775 0.54817307 4279177226
0.46253148 0.064666063 0.54815418 4279177226
0.46294293 0.064325124 0.54811406 4279243019
0.46340141 0.06407401 0.54809523 4279243019
0.46381459 0.063732505 0.54805517 4279243019
0.46418321 0.063300386 0.5479939 4279308814
0.4646892 0.063138962 0.54799622 4279243021
0.46506006 0.062706128 0.54793501 4279374350
0.4654772 0.062363356 0.54789495 4279374350
0.4658953 0.062020287 0.5478549 4279308561
0.46631441 0.06167689 0.54781485 4279308561
0.4667345 0.061333179 0.54777479 4279308814
0.46715558 0.060989171 0.5477348 4279309066
0.4675341 0.060553879 0.54767358 4279309064
0.46791407 0.060118124 0.54761237 4279309064
0.46829554 0.059681892 0.54755121 4279243791
0.46867847 0.059245199 0.54749 4279374607
0.46906292 0.058808014 0.54742885 4279440400
0.4695335 0.05855307 0.54741001 4279440400
0.46996248 0.058206528 0.54737002 4279506193
0.43062031 0.064777821 0.54654664 4284110665
0.43132538 0.064867452 0.54661208 4280819991
0.43191123 0.064785391 0.54663551 4280096018
0.4325552 0.064789653 0.54667991 4279834383
0.4331398 0.064707994 0.54670334 4279506441
0.43378204 0.064712808 0.54674774 4279374855
0.43442333 0.064717934 0.54679215 4279309066
0.4350636 0.064723372 0.54683656 4279177480
0.43576026 0.06481564 0.54690194 4279112205
0.43639833 0.064821795 0.54694629 4278981641
0.4369216 0.064654857 0.54694873 4278718469
0.43755817 0.064661488 0.54699308 4278980101
0.43808097 0.064494714 0.54699552 4278914308
0.43865988 0.064414889 0.54701889 4278914308
0.4391824 0.064248189 0.54702133 4278848515
0.43976063 0.064168572 0.54704469 4278848515
0.44022748 0.063914791 0.5470261 4278848261
0.44080517 0.063835353 0.54704952 4278848263
0.44132745 0.063668728 0.54705191 4278848263
0.44184974 0.063502118 0.54705429 4278848012
0.44237202 0.063335493 0.54705673 4278913805
0.44294849 0.063256457 0.5470801 4278913803
0.44347054 0.063089922 0.54708254 4278848263
0.44404626 0.063011095 0.54710591 4278913803
0.4446215 0.062932432 0.54712927 4278848010
0.44519621 0.062853917 0.54715264 4278848010
0.44577047 0.062775582 0.547176 4278651652
0.44613343 0.062345266 0.5471155 4278651652
0.45406023 0.066526681 0.54847842 4279111426
0.45461646 0.066454083 0.54850167 4278979847
0.45522219 0.066470534 0.54854596 4278979847
0.45572743 0.066309363 0.54854828 4279111178
0.45633167 0.06632629 0.54859251 4279176979
0.45693493 0.066343531 0.54863673 4279045642
0.45739019 0.066093475 0.54861808 4279243273
0.4579922 0.066111103 0.5486623 4279177480
0.45849621 0.065950304 0.54866463 4279177228
0.45900023 0.065789521 0.54866695 4279045640
0.45955229 0.065718263 0.5486902 4279045894
0.46005604 0.065557554 0.54869252 4279046412
0.46055982 0.06539683 0.54869485 4279046412
0.46101633 0.065146372 0.54867625 4279176977
0.46152034 0.064985573 0.54867858 4279111952
0.46197757 0.064734861 0.54865992 4278914573
0.46238878 0.064393997 0.5486204 4279046159
0.46284726 0.064142898 0.54860175 4279177745
0.46321416 0.0637113 0.54854131 4279177998
0.46362832 0.063369483 0.54850173 4279112205
0.4640435 0.063027352 0.54846221 4279243021
0.46445963 0.062684909 0.54842269 4279243021
0.46487677 0.062342137 0.54838312 4279308561
0.46529487 0.061999068 0.5483436 4279374099
0.46571398 0.06165567 0.54830408 4279374097
0.46613407 0.061311975 0.54826456 4279374097
0.46651107 0.060877144 0.54820412 4279308814
0.46697721 0.060623601 0.54818559 4279177996
0.46740025 0.060278952 0.54814607 4279112455
0.46778098 0.059842959 0.54808563 4279178248
0.46816316 0.059406489 0.54802525 4279046929
0.46858966 0.059060737 0.54798573 4279308814
0.46905977 0.058805913 0.5479672 4279440141
0.46944568 0.058368295 0.54790682 4279440141
0.43067181 0.06391941 0.54693711 4285031513
0.43184912 0.064697176 0.54716766 4285293917
0.43249333 0.064701363 0.54721153 4282398510
0.43313658 0.064705849 0.5472554 4280358149
0.43377882 0.064710662 0.54729933 4280621321
0.43442011 0.064715788 0.54734319 4279898893
0.43511802 0.064807683 0.54740781 4279702545
0.43581444 0.064900056 0.54747242 4279440398
0.43639511 0.064819649 0.54749554 4279374859
0.43703219 0.064826116 0.54753941 4279309066
0.43761161 0.064746127 0.54756254 4279177480
0.43824697 0.064753145 0.54760641 4279177478
0.43876898 0.06458661 0.54760879 4279111428
0.43934694 0.064507082 0.54763192 4279045642
0.43981308 0.064253539 0.54761362 4278979849
0.44033509 0.064087003 0.547616 4278979847
0.44085714 0.063920468 0.54761845 4278914054
0.44143409 0.063841254 0.54764158 4278914056
0.44195589 0.063674793 0.54764396 4278848263
0.4424777 0.063508332 0.54764634 4278914056
0.44305366 0.06342943 0.54766947 4278783240
0.4435752 0.063263059 0.54767185 4278783240
0.44420412 0.063272119 0.54771572 4278782987
0.44477862 0.063193694 0.54773885 4278782737
0.44540581 0.063203305 0.54778266 4278782737
0.44592613 0.063037321 0.54778504 4278717194
0.45279026 0.066404507 0.54890132 4279045383
0.45339894 0.066420034 0.54894507 4279111176
0.45395616 0.066347122 0.54896808 4279243016
0.45456311 0.066363186 0.54901183 4279242764
0.4551191 0.066290662 0.54903489 4279111178
0.45567459 0.066218317 0.5490579 4279242511
0.45622957 0.066146106 0.54908091 4279242768
0.45678407 0.066074073 0.54910392 4279045642
0.4572891 0.065912962 0.54910624 4279243021
0.45789158 0.065930456 0.54914999 4279243021
0.45839614 0.065769508 0.54915231 4279046161
0.45885235 0.065519109 0.5491339 4278914826
0.45940512 0.065447614 0.54915696 4278914824
0.45986187 0.065197051 0.54913855 4279112203
0.46041417 0.065125734 0.54916155 4279177226
0.46082413 0.064785242 0.54912251 4279045640
0.46132916 0.064624146 0.54912484 4279046412
0.46178737 0.064373106 0.54910648 4279046412
0.46219957 0.064031914 0.5490675 4279046412
0.46256644 0.063600332 0.54900777 4279243021
0.46298087 0.063258424 0.54896873 4279308814
0.46335047 0.062825978 0.54890907 4279243021
0.46376711 0.062483355 0.54887003 4279308814
0.46423 0.062230825 0.54885173 4279177228
0.46464837 0.061887681 0.54881269 4279308561
0.46506771 0.06154421 0.54877371 4279242768
0.4655326 0.061291054 0.54875541 4279308561
0.46595371 0.060947031 0.54871637 4279308561
0.46637577 0.060602695 0.54867738 4279308557
0.46684262 0.060348913 0.54865909 4279177996
0.46726641 0.060004011 0.5486201 4279112457
0.46756122 0.059385732 0.54851913 4279178250
0.46798772 0.05903998 0.54848015 4279177747
0.46850088 0.058876276 0.54848254 4279374607
0.43143374 0.064092547 0.54757738 4285755238
0.43231422 0.064440757 0.54770273 4285689445
0.4330166 0.064531252 0.54776657 4282660650
0.4336012 0.064449593 0.54778945 4282068513
0.43435898 0.064627245 0.5478738 4280753435
0.43644905 0.064904138 0.54806525 4279506188
0.43725657 0.06517078 0.54817003 4279374602
0.43777835 0.065004319 0.54817241 4279308809
0.43835655 0.064924717 0.5481953 4279308555
0.43893427 0.064845264 0.54821813 4279308809
0.43945557 0.064678952 0.54822057 4279242764
0.43997687 0.064512655 0.54822296 4279111178
0.44044274 0.064259186 0.5482049 4279045642
0.44096428 0.064092815 0.54820728 4278979847
0.44148582 0.063926429 0.54820973 4279045385
0.44200736 0.063760057 0.54821211 4279045385
0.4425289 0.063593671 0.5482145 4279045385
0.44315881 0.063602433 0.54825783 4278979849
0.44367987 0.06343621 0.54826021 4278783240
0.44430831 0.063445434 0.54830354 4278782991
0.4449892 0.063542753 0.54836726 4278717714
0.44561541 0.063552678 0.54841059 4278717714
0.44629359 0.063650891 0.54847431 4278652171
0.44733921 0.064365819 0.5486812 4278849033
0.45212626 0.066298708 0.54937011 4279177478
0.45268518 0.06622526 0.54939288 4279111178
0.4532944 0.066240624 0.54943609 4279308555
0.45385209 0.066167548 0.54945886 4279242764
0.45445955 0.066183463 0.54950207 4279308557
0.45501602 0.06611079 0.54952484 4279242764
0.45552224 0.065949291 0.54952717 4279242770
0.45607799 0.065876856 0.54954994 4279242768
0.45658398 0.065715447 0.54955226 4279177228
0.45713899 0.065643236 0.54957503 4279243021
0.45769349 0.065571204 0.5495978 4279243021
0.45815048 0.065320551 0.54957968 4279046161
0.45865622 0.065159217 0.549582 4279046412
0.45920998 0.065087423 0.54960477 4279177226
0.45966771 0.064836532 0.54958665 4279177226
0.46007842 0.064495817 0.54954815 4279177226
0.46049011 0.064154789 0.54950964 4279045640
0.46104386 0.06408298 0.54953241 4279046410
0.46145681 0.06374155 0.54949391 4279046412
0.46187073 0.063399807 0.5494554 4279046412
0.46228564 0.063057736 0.5494169 4279243021
0.46274754 0.062805533 0.54939878 4279308814
0.46311837 0.062372684 0.54933989 4279243019
0.46353626 0.06202969 0.54930139 4279308812
0.4639551 0.061686367 0.54926294 4279177228
0.46441999 0.061433211 0.54924482 4279243021
0.46493018 0.06127046 0.54924721 4279243021
0.46535125 0.060926422 0.5492087 4279243021
0.46577331 0.060582101 0.54917026 4279308814
0.46610823 0.060055852 0.54909098 4279243021
0.46653277 0.059710711 0.54905254 4279308812
0.46700186 0.059456214 0.54903448 4279112457
0.44060579 0.064518571 0.54881293 4279243021
0.44107142 0.064265177 0.54879516 4279177228
0.44159245 0.064098954 0.54879755 4279242764
0.44211352 0.063932747 0.54879993 4279111176
0.44263458 0.063766509 0.54880232 4279308555
0.44320983 0.063687861 0.54882491 4279308304
0.44378453 0.063609362 0.54884756 4278914826
0.44446617 0.063706458 0.5489105 4279046159
0.44514632 0.06380403 0.5489735 4279111952
0.44587821 0.063989967 0.54905665 4279046159
0.44671401 0.064352438 0.54918021 4278914573
0.44754684 0.064715847 0.54930371 4279046412
0.4484292 0.065168336 0.54944742 4279112203
0.45202067 0.066119611 0.54986292 4279112457
0.45258012 0.066046 0.54988539 4279112205
0.45324051 0.066149876 0.54994833 4279374607
0.45379847 0.066076741 0.54997081 4279242768
0.45435596 0.06600374 0.54999334 4279242768
0.45491293 0.065930918 0.55001587 4279242768
0.4554694 0.065858245 0.55003834 4279242770
0.45597589 0.065696672 0.55004072 4279111952
0.45648238 0.065535098 0.55004305 4279046412
0.45703787 0.065462723 0.55006552 4279112205
0.45749533 0.065211937 0.5500477 4279111952
0.45795333 0.064960986 0.55002987 4279046159
0.45846009 0.064799339 0.5500322 4279046412
0.45896679 0.064637676 0.55003452 4279177226
0.45923468 0.06402795 0.54993606 4279177226
0.45969513 0.063776225 0.54991817 4279177226
0.46020335 0.063614085 0.54992056 4279177226
0.46061748 0.063272268 0.54988253 4279177226
0.46112621 0.063109979 0.54988492 4279177226
0.46158838 0.062857702 0.54986709 4279046410
0.46200478 0.062515154 0.54982913 4279243019
0.46251422 0.062352642 0.54983145 4279243021
0.46293208 0.062009633 0.54979348 4279243021
0.46335092 0.06166631 0.54975551 4279308814
0.46381605 0.06141308 0.54973769 4279046159
0.46428171 0.061159685 0.54971987 4279046412
0.46474782 0.060906142 0.54970211 4279112203
0.46512532 0.060471162 0.54964399 4279046410
0.46559292 0.060217142 0.54962617 4279308812
0.4659729 0.059781358 0.54956812 4279308812
0.46644196 0.059526891 0.54955029 4279309066
0.46686798 0.059181273 0.54951239 4279178250
0.44216502 0.064018011 0.54936677 4279045642
0.44315243 0.063598156 0.54935163 4279242770
0.44383532 0.063694865 0.54941386 4279046159
0.44451669 0.06379205 0.54947609 4279111952
0.44525003 0.06397751 0.54955822 4279308814
0.44608784 0.064339355 0.54968017 4279177228
0.4468697 0.064614192 0.54978222 4279177228
0.44764912 0.064889818 0.54988426 4279177228
0.45058689 0.065735117 0.55023253 4279046410
0.45130321 0.065926015 0.55031455 4279112203
0.45196635 0.066029027 0.55037665 4279177996
0.45247504 0.065866739 0.55037904 4279112205
0.45318669 0.066059127 0.55046105 4279374354
0.4536944 0.065897167 0.55046338 4279308561
0.45430261 0.065912843 0.55050558 4279308561
0.45480984 0.065751031 0.5505079 4279177747
0.45536679 0.065678194 0.55053014 4279111956
0.45582429 0.065427408 0.55051255 4279112205
0.45633152 0.065265596 0.55051494 4279046412
0.45683873 0.065103784 0.55051726 4279112205
0.45729721 0.06485267 0.55049968 4279111954
0.45809576 0.065227047 0.55062145 4279046159
0.45860174 0.065065622 0.55062383 4279046412
0.45905972 0.064814672 0.55060625 4279046410
0.45918381 0.063936263 0.55044931 4278914824
0.45940685 0.063235998 0.55033219 4279177226
0.46005839 0.063342705 0.55039424 4279177226
0.46033221 0.062731087 0.55029708 4279177226
0.4608424 0.062568337 0.55029941 4279177226
0.46139914 0.062495574 0.5503217 4279177226
0.46181649 0.062152728 0.55028421 4279045640
0.46223485 0.06180957 0.55024678 4279243019
0.46265417 0.061466098 0.55020934 4279308814
0.46307451 0.061122298 0.55017191 4279308814
0.46358642 0.060958982 0.55017424 4279046159
0.46400821 0.06061472 0.5501368 4279046412
0.46447581 0.0603607 0.55011928 4279112203
0.46498847 0.06019716 0.55012167 4279046410
0.46545684 0.059942886 0.55010408 4279177996
0.46583754 0.059506893 0.5500468 4279308812
0.44169593 0.064269364 0.54993075 4279439890
0.4421618 0.06401588 0.54991347 4279374099
0.44268262 0.063849732 0.54991585 4279439892
0.4432576 0.063771158 0.5499379 4279374354
0.4438321 0.063692734 0.54996002 4279243540
0.44462091 0.06396538 0.55006075 4279243542
0.44535375 0.064151004 0.55014187 4279440400
0.44619107 0.064513013 0.55026233 4279242768
0.44697246 0.064788014 0.55036306 4279308561
0.44775137 0.065063789 0.5504638 4279243021
0.44842291 0.065164134 0.55052519 4279178250
0.45058376 0.06573303 0.55076826 4279177998
0.45119715 0.065747052 0.55080998 4279243791
0.45191199 0.065938428 0.55089098 4279308814
0.45247191 0.065864652 0.55091298 4279308812
0.45313284 0.065968379 0.55097431 4279439890
0.4536913 0.065895081 0.5509963 4279308561
0.45419902 0.06573312 0.55099863 4279374354
0.45475674 0.065660045 0.55102062 4279177745
0.45526421 0.065498158 0.55102301 4279111954
0.45572215 0.065247208 0.55100566 4279112205
0.45657468 0.065709233 0.55114561 4279046412
0.45708066 0.065547809 0.55114794 4279177998
0.45748913 0.065207794 0.55111098 4279111956
0.45794711 0.064956844 0.55109364 4279046161
0.45850211 0.064884633 0.55111563 4279045389
0.45891255 0.064543992 0.55107868 4279046159
0.459324 0.064203024 0.55104166 4279046159
0.4591186 0.062695757 0.5507493 4278914824
0.45953521 0.062353134 0.55071235 4279045640
0.45990577 0.061920345 0.55065578 4279177226
0.4606989 0.062296465 0.550776 4279243019
0.46116331 0.062043473 0.55075872 4279243019
0.4616282 0.061790302 0.55074143 4279177228
0.46209356 0.061536983 0.55072415 4279176975
0.46251363 0.061193272 0.55068719 4279242768
0.4629347 0.060849234 0.5506503 4279243021
0.46340206 0.060595274 0.55063301 4279177228
0.4638699 0.060341194 0.55061573 4279046412
0.46424863 0.059905797 0.55055922 4278981641
0.46480709 0.059832513 0.55058122 4278981641
0.44048536 0.06433782 0.55041403 4281213986
0.44106182 0.064258784 0.5504359 4280228376
0.44163781 0.064179882 0.55045772 4279966236
0.4422133 0.06410116 0.55047953 4279833882
0.44267941 0.063847601 0.55046248 4279833882
0.44325441 0.063769028 0.5504843 4279440149
0.44393679 0.0638659 0.55054498 4279309333
0.44461769 0.063963249 0.5506056 4279309081
0.44540405 0.064236686 0.55070508 4279440147
0.44618791 0.064510897 0.55080456 4279374354
0.44691634 0.064697951 0.5508846 4279374354
0.44780093 0.065149724 0.55102289 4279177998
0.44852465 0.065338254 0.55110288 4279244043
0.44935089 0.065703824 0.55122173 4279179028
0.44996625 0.065717235 0.55126286 4278981900
0.45052889 0.065642595 0.55128461 4279178768
0.45114252 0.065656543 0.5513258 4279178768
0.45185763 0.065847844 0.55140579 4279177745
0.45236683 0.065685406 0.55140811 4279374607
0.45307899 0.065877631 0.5514881 4279439890
0.45358717 0.065715507 0.55149043 4279308561
0.45414564 0.065642193 0.55151218 4279440147
0.45470363 0.065569073 0.55153394 4279308561
0.45546007 0.065852016 0.55163324 4279111954
0.45596656 0.065690443 0.55163556 4279112205
0.45647305 0.06552887 0.55163789 4279046410
0.45693052 0.065278083 0.55162084 4279112203
0.45738852 0.065027118 0.55160379 4279111956
0.45721629 0.06361407 0.55133462 4279046161
0.45763019 0.063272327 0.5512982 4279045389
0.45809311 0.063019812 0.55128115 4279176975
0.45850873 0.062677503 0.55124474 4278914573
0.4588303 0.062155485 0.55116951 4278914824
0.45943749 0.062171489 0.55121064 4279045640
0.4599967 0.062097952 0.5512324 4279177226
0.46032149 0.061574921 0.55115724 4279243019
0.46092746 0.061591312 0.55119836 4279177226
0.4612084 0.060977429 0.55110377 4279176975
0.46176809 0.060903728 0.55112553 4279176975
0.46218991 0.060559452 0.55108917 4279242768
0.44100344 0.064169392 0.55096364 4282530882
0.44157967 0.064090431 0.55098522 4281216312
0.44215542 0.064011618 0.55100673 4281019701
0.44273067 0.06393297 0.55102831 4280559150
0.4433054 0.063854471 0.55104989 4280033828
0.44393361 0.063863784 0.5510906 4279968033
0.44461453 0.063961133 0.55115044 4279967514
0.4454543 0.064322382 0.5512678 4279703319
0.45047402 0.065552145 0.5518015 4279376145
0.45103645 0.06547758 0.55182302 4279244559
0.45205781 0.065151751 0.55182773 4279440400
0.45277143 0.065343529 0.55190665 4279440147
0.45328113 0.065180928 0.55190903 4279374354
0.45384106 0.065107152 0.55193049 4279374354
0.45430052 0.064855725 0.55191368 4279374605
0.45471072 0.064515159 0.5518778 4279243791
0.45517141 0.064263329 0.55186099 4279112203
0.45568186 0.064100489 0.55186331 4279112203
0.45575118 0.063134655 0.55169344 4279112203
0.45655644 0.063506931 0.55181062 4279111952
0.45701909 0.063254476 0.55179381 4279046412
0.45748225 0.063001871 0.55177706 4279046412
0.45789787 0.062659562 0.55174118 4279112205
0.45845783 0.062585786 0.55176264 4278915596
0.45854199 0.061615229 0.55159283 4279046410
0.45900881 0.061361432 0.55157608 4279242762
0.4595232 0.06119734 0.55157846 4279111176
0.44335639 0.063939914 0.55161494 4280364076
0.45087886 0.065210193 0.55230236 4279375124
0.45144153 0.065135553 0.55232364 4279309582
0.4519527 0.06497249 0.55232596 4279375375
0.45236242 0.064632073 0.55229056 4279440400
0.453235 0.064039111 0.55223864 4279374607
0.45369741 0.063786745 0.55222213 4279374607
0.45416033 0.0635342 0.55220556 4279243791
0.45501977 0.06399405 0.55234009 4279177996
0.45513687 0.063117832 0.55219144 4279177996
0.45560101 0.0628649 0.55217493 4279112205
0.45606565 0.062611818 0.55215842 4279243021
0.45653078 0.062358573 0.5521419 4279046410
0.45699641 0.062105179 0.55212539 4279046410
0.4576546 0.06220977 0.5521844 4279046664
0.45792913 0.061597899 0.55209237 4278915596
0.45839623 0.061344028 0.55207586 4278915596
0.45886382 0.061090007 0.55205935 4279177226
0.45942599 0.061015517 0.55208063 4279045640
0.45266894 0.064111724 0.55275548 4279374605
0.45303088 0.063681692 0.55270195 4279374607
0.45359427 0.063606828 0.55272299 4279374354
0.45400792 0.063265145 0.55268806 4279243789
0.45447206 0.063012213 0.55267185 4279243789
0.45498595 0.062848285 0.55267417 4279177996
0.45545083 0.062595129 0.55265796 4279112205
0.45596498 0.062431112 0.55266029 4279243019
0.45643058 0.062177703 0.55264407 4279046410
0.45741135 0.061759979 0.55263019 4279046664
0.45820296 0.060983136 0.55254185 4278915343
0.4587661 0.060908347 0.55256283 4279046159
0.45241332 0.063665867 0.55320179 4279506445
0.45287699 0.063413098 0.55318576 4279505934
0.45339113 0.063249081 0.55318815 4279505685
0.45380574 0.062907085 0.55315375 4279374607
0.45432037 0.062742919 0.55315614 4279244043
0.454835 0.062578738 0.55315852 4279244043
0.45534962 0.062414557 0.55316091 4279046410
0.45581549 0.062161073 0.55314487 4279308555
0.45642743 0.062175587 0.55318397 4279177226
0.45694181 0.062011495 0.55318636 4279045640
0.4574562 0.061847404 0.55318874 4279177480
0.45416868 0.062473595 0.55364203 4279374605
0.45468408 0.062309191 0.55364442 4279244041
0.45524845 0.062233999 0.55366486 4279046664
0.45576358 0.062069669 0.55366725 4279308809
0.45618165 0.061726585 0.55363339 4279177480
0.45669729 0.061562091 0.55363578 4279177480
0.44555539 0.04095991 0.55608225 4278849033
0.44622388 0.040956408 0.55611533 4279177228
0.44679576 0.040773973 0.55611801 4279045642
0.44741523 0.040681228 0.55613589 4278979849
0.44803417 0.040588677 0.55615371 4278979849
0.44851148 0.040226638 0.55612588 4278914056
0.44497949 0.041140169 0.55668038 4278979849
0.44564849 0.041136518 0.55671299 4278979847
0.44626841 0.041043624 0.55673063 4279177226
0.44688785 0.040950894 0.55674827 4279177228
0.44745928 0.040768608 0.55675089 4278979849
0.44807798 0.040676117 0.55676848 4278979849
0.4486962 0.040583789 0.55678612 4278913803
0.4492203 0.040311694 0.55677378 4279045391
0.44974488 0.04003948 0.55676138 4279045642
0.44507307 0.041316614 0.55731064 4279045385
0.44564497 0.041134179 0.55731326 4279241992
0.44626492 0.041041285 0.55733067 4279243016
0.44688436 0.040948555 0.55734801 4279242768
0.44750333 0.040855989 0.55736536 4278914575
0.44812179 0.040763572 0.5573827 4278848782
0.44873974 0.040671319 0.55740011 4278848780
0.44931042 0.040489256 0.55740273 4279045389
0.4498345 0.040217191 0.55739063 4279045642
0.45035911 0.039944947 0.55737853 4278979849
0.45079201 0.03949219 0.55733699 4278914056
0.44506955 0.041314274 0.55791092 4279571211
0.44564146 0.041131839 0.55791354 4279767307
0.44630945 0.041128501 0.55794513 4279374598
0.44688085 0.040946215 0.55794775 4279308814
0.44749981 0.040853649 0.55796486 4278914575
0.44811827 0.040761232 0.55798197 4278914575
0.44868916 0.04057911 0.55798459 4279045389
0.44926009 0.040396988 0.55798721 4279045389
0.44987756 0.040304884 0.55800432 4279045389
0.4504019 0.04003273 0.55799246 4278979849
0.45092675 0.039760411 0.55798066 4279045642
0.4513604 0.039307415 0.55793989 4278914826
0.44434777 0.041226417 0.55846596 4279770385
0.44501752 0.041222543 0.55849701 4279836178
0.44568622 0.041218966 0.55852807 4279703565
0.44630593 0.041126162 0.55854487 4279506188
0.44687733 0.040943891 0.55854756 4279374356
0.44749629 0.04085131 0.55856436 4278914573
0.44811475 0.040758908 0.55858123 4278914573
0.44877979 0.040756524 0.55861223 4278914573
0.4492566 0.040394649 0.55858648 4278914573
0.44987404 0.040302545 0.55860329 4278979596
0.45035207 0.039940268 0.55857754 4279045642
0.45092323 0.039758071 0.55858016 4279177228
0.45140272 0.039395332 0.55855441 4279177228
0.45188323 0.039032295 0.55852866 4279046664
0.445014 0.041220203 0.55909753 4281282852
0.4456827 0.041216627 0.55912811 4280756510
0.44630241 0.041123822 0.55914468 4279769363
0.44687384 0.040941536 0.5591473 4279439890
0.44754034 0.04093869 0.55917782 4279046159
0.44811127 0.040756568 0.55918044 4278914573
0.44872922 0.0406643 0.55919701 4279046159
0.44929987 0.040482253 0.55919969 4279046161
0.44982398 0.040210187 0.55918837 4278914573
0.4503949 0.040028051 0.55919099 4279046412
0.45087364 0.03966555 0.55916572 4279046412
0.45144504 0.039483264 0.55916834 4279177996
0.45197088 0.039210632 0.55915707 4279243271
0.44501048 0.041217864 0.5596981 4281479206
0.44567922 0.041214287 0.55972809 4280953632
0.4462989 0.041121483 0.55974442 4279966739
0.44687033 0.040939212 0.5597471 4279505936
0.44753683 0.040936351 0.55977708 4279111952
0.44810775 0.040754229 0.5597797 4278914573
0.44877279 0.040751845 0.55980968 4278914575
0.44929639 0.040479913 0.55979866 4279046163
0.44986704 0.040297866 0.55980128 4278914573
0.45034507 0.039935604 0.55977654 4279046412
0.45087016 0.039663211 0.55976552 4279046412
0.45139569 0.039390653 0.55975443 4279177996
0.45192176 0.039117947 0.5597434 4279309064
0.45244834 0.038845092 0.55973232 4279178246
0.4456757 0.041211948 0.56032813 4281083165
0.44634348 0.041208699 0.56035763 4280097553
0.44691461 0.041026503 0.56036025 4279702543
0.44748577 0.040844291 0.56036288 4279177998
0.44815156 0.040841684 0.56039238 4279046412
0.44876927 0.04074952 0.56040841 4278914575
0.4492929 0.040477589 0.56039762 4279111954
0.44981697 0.040205508 0.56038684 4279046159
0.4503879 0.040023386 0.56038946 4279112203
0.45086664 0.039660871 0.56036526 4279046410
0.45143804 0.039478585 0.56036788 4279112203
0.45196384 0.039205953 0.56035709 4279178248
0.45253551 0.039023578 0.56035972 4279244039
0.44633996 0.04120636 0.56095713 4280097555
0.44695893 0.041113809 0.56097293 4279702543
0.44752985 0.040931687 0.56097555 4279308814
0.44814807 0.040839344 0.56099135 4279243021
0.44876578 0.040747181 0.56100714 4278914573
0.44928938 0.040475249 0.56099665 4279111954
0.44981349 0.040203169 0.5609861 4279112205
0.45038438 0.040021047 0.56098872 4279112457
0.45086312 0.039658532 0.560965 4279046664
0.45143452 0.039476246 0.56096768 4279178250
0.45196033 0.039203614 0.56095713 4279243271
0.45248663 0.038930818 0.56094658 4279309832
0.44695541 0.041111469 0.56157219 4279703064
0.44752634 0.040929347 0.56157482 4279374607
0.44814456 0.040837005 0.56159037 4279308814
0.4487623 0.040744841 0.56160587 4278914573
0.44928586 0.04047291 0.56159562 4279111952
0.44980997 0.04020083 0.56158531 4279112203
0.45038086 0.040018708 0.56158799 4279112455
0.45085961 0.039656192 0.5615648 4279046662
0.45143104 0.039473906 0.56156743 4279178250
0.45200241 0.03929162 0.56157005 4279178250
0.45252848 0.039018899 0.5615598 4279309836
0.45296484 0.038565025 0.56152374 4278981387
0.44690409 0.041019484 0.56215876 4279703321
0.44752282 0.040927008 0.56217408 4279440147
0.44809374 0.040744886 0.5621767 4279308561
0.44871169 0.040652618 0.56219196 4278914573
0.44923556 0.040380627 0.56218195 4279112205
0.44975987 0.040108457 0.56217194 4279112203
0.45037737 0.040016368 0.56218719 4279112457
0.45090219 0.039744049 0.56217718 4279046664
0.45142752 0.039471567 0.56216717 4279243789
0.45199892 0.039289281 0.56216979 4279177996
0.45252496 0.03901656 0.56215978 4279244561
0.44613719 0.040841103 0.56270605 4280032532
0.44680494 0.040837854 0.56273347 4279768857
0.44747174 0.040834934 0.56276095 4279440149
0.4480429 0.040652737 0.56276357 4279308563
0.44866115 0.040560424 0.56277859 4278914573
0.44918522 0.040288329 0.56276882 4279111952
0.44975638 0.040106118 0.56277144 4279243019
0.45032752 0.039923906 0.56277406 4279112457
0.4508065 0.039561316 0.56275195 4279046664
0.45137817 0.039378956 0.56275457 4279243791
0.45194981 0.039196581 0.56275719 4279243789
0.45247611 0.0389238 0.56274742 4279375894
0.44608563 0.040749192 0.56329447 4280164118
0.44675362 0.040745884 0.56332141 4279769106
0.44742066 0.040742889 0.56334829 4279440400
0.44803941 0.040650398 0.56336308 4279374607
0.44861054 0.040468186 0.5633657 4279111952
0.44913489 0.040196031 0.56335616 4279112205
0.44965971 0.039923698 0.56334668 4279308812
0.45032403 0.039921567 0.56337357 4279243273
0.45080298 0.039558977 0.56335193 4279243273
0.45142049 0.039466888 0.56336671 4279243789
0.45190072 0.039103895 0.56334507 4279243789
0.45242727 0.038831025 0.5633356 4279506710
0.44546139 0.04083997 0.56388074 4281017876
0.44613016 0.040836424 0.56390715 4280229909
0.44675013 0.040743545 0.56392169 4279834899
0.44732201 0.040561095 0.56392431 4279440400
0.44794124 0.040468454 0.5639388 4279374607
0.44855997 0.040375978 0.56395334 4279177998
0.44908452 0.040103719 0.5639441 4279177998
0.44965619 0.039921358 0.56394672 4279308814
0.45027417 0.03982912 0.56396121 4279308812
0.45079949 0.039556637 0.56395197 4279243019
0.45137113 0.039374262 0.56395459 4279374605
0.4518972 0.039101556 0.56394535 4279374605
0.44540957 0.040748119 0.56447017 4281150230
0.4460786 0.040744498 0.5644961 4280295700
0.44665098 0.0405619 0.56449872 4280032278
0.44727093 0.040469036 0.56451297 4279375124
0.44784307 0.040286511 0.56451559 4279309331
0.44841522 0.040104002 0.56451821 4279243538
0.44903421 0.040011436 0.56453246 4279506193
0.44965267 0.039919019 0.5645467 4279374607
0.45022434 0.039736658 0.56454939 4279506193
0.45074987 0.039464101 0.56454039 4279308814
0.45132178 0.039281666 0.56454301 4279440400
0.44535774 0.040656298 0.56506014 4281610009
0.44597894 0.040563017 0.56507415 4280559131
0.44659963 0.040469915 0.56508815 4279967261
0.44721985 0.040376961 0.56510216 4279572507
0.44783956 0.040284172 0.56511617 4279375128
0.4484117 0.040101647 0.56511879 4279440147
0.4490307 0.040009081 0.5651328 4279703313
0.4496026 0.039826646 0.56513542 4279637779
0.45017448 0.039644197 0.56513804 4279506193
0.45070028 0.039371565 0.56512934 4279374607
0.45127243 0.039189041 0.56513196 4279374605
0.44530588 0.040564448 0.56565064 4281873185
0.44597542 0.040560678 0.5656755 4280559133
0.44654828 0.040377915 0.56567812 4279967261
0.44716877 0.040284902 0.56569183 4279638300
0.44774139 0.040102214 0.56569451 4279506714
0.4483611 0.040009424 0.56570822 4279505683
0.44898033 0.039916784 0.56572193 4279505934
0.44955248 0.039734274 0.56572461 4279703572
0.45012462 0.03955175 0.56572723 4279506193
0.45069677 0.039369226 0.56572986 4279374607
0.45122308 0.039096415 0.56572139 4279374605
0.44530237 0.040562108 0.56625247 4282268461
0.44592384 0.040468767 0.56626594 4281481003
0.44654477 0.040375575 0.56627941 4279902491
0.44711769 0.040192813 0.56628209 4279639066
0.44769055 0.040010065 0.56628472 4279507480
0.44831052 0.039917201 0.56629819 4279505683
0.44888315 0.039734513 0.56630081 4279505934
0.44950238 0.039641872 0.56631428 4279703570
0.45007479 0.039459273 0.56631696 4279572756
0.45064718 0.039276674 0.56631958 4279375377
0.45117372 0.039003804 0.56631136 4279243791
0.44520223 0.040380791 0.56683314 4282596143
0.44582415 0.040287286 0.56684637 4281678382
0.44644561 0.04019393 0.5668596 4280100122
0.44706658 0.040100753 0.56687284 4279770135
0.4476397 0.039917916 0.56687546 4279704342
0.44821283 0.039735079 0.56687808 4279571729
0.44883281 0.0396422 0.56689131 4279571727
0.44940567 0.039459437 0.56689394 4279703570
0.44997856 0.039276689 0.56689656 4279506710
0.45059755 0.039184138 0.56690979 4279375124
0.45107847 0.038820893 0.56689131 4279243540
0.44515038 0.040288955 0.56742519 4283121453
0.44577259 0.040195361 0.56743813 4282859574
0.44634646 0.040012285 0.56744081 4280624924
0.4469679 0.039918944 0.56745374 4280230168
0.44758886 0.039825752 0.56746674 4279901203
0.44816223 0.039642841 0.56746936 4279703315
0.44873559 0.039459929 0.56747198 4279571981
0.44935557 0.039367065 0.56748497 4279703824
0.4499287 0.039184228 0.5674876 4279769363
0.45050183 0.03900139 0.56749022 4279637777
0.45102912 0.038728267 0.56748253 4279374607
0.4456729 0.040013865 0.56802034 4283318580
0.44629508 0.0399203 0.5680331 4281084196
0.44686919 0.03973715 0.56803572 4280558879
0.44749066 0.039643794 0.56804842 4280098328
0.44806454 0.039460734 0.5680511 4279703572
0.44868523 0.039367616 0.5680638 4279571981
0.44925886 0.039184615 0.56806642 4279703567
0.44987884 0.039091751 0.56807911 4279769617
0.4504061 0.038818628 0.56807172 4279703824
0.45097974 0.038635641 0.56807435 4279440400
0.4461959 0.03973864 0.56861609 4281413161
0.44677052 0.039555326 0.56861871 4280558881
0.44734514 0.039372027 0.5686214 4280164123
0.44796681 0.039278597 0.56863379 4279769112
0.44858804 0.039185345 0.56864625 4279571727
0.44916216 0.039002195 0.56864893 4279703567
0.44978261 0.038909167 0.56866133 4279835410
0.45031041 0.038635895 0.56865418 4279703824
0.45083866 0.038362443 0.56864703 4279375377
0.44609672 0.03955698 0.5692001 4282266924
0.44667181 0.039373517 0.56920278 4280624674
0.44724691 0.039190039 0.5692054 4280361502
0.44782203 0.039006576 0.56920809 4279900698
0.44844398 0.038913071 0.56922024 4279637779
0.44901884 0.038729683 0.56922293 4279638031
0.44964004 0.038636431 0.56923509 4279638031
0.45021465 0.038453132 0.56923777 4279703567
0.44599751 0.039375305 0.56978518 4283056694
0.4466207 0.039281413 0.56979716 4280688146
0.44719607 0.039097875 0.56979978 4280427295
0.4477714 0.038914323 0.56980246 4279834905
0.44834676 0.038730785 0.56980509 4279703315
0.44896871 0.038637295 0.56981701 4279703567
0.44954383 0.038453832 0.56981969 4279703567
0.45011893 0.038270354 0.56982231 4279703567
0.44585049 0.039103985 0.57036227 4290163367
0.4464744 0.039009869 0.57037395 4282860344
0.44705051 0.038826093 0.57037663 4280754980
0.44762659 0.038642317 0.57037926 4279900698
0.44820267 0.038458526 0.57038194 4279768855
0.44882536 0.038364783 0.57039362 4279571729
0.4494012 0.038181081 0.57039624 4279440143
0.44997707 0.03799738 0.57039893 4279571729
0.4463281 0.038738295 0.57095236 4283978057
0.44690493 0.038554281 0.57095504 4281148960
0.44748175 0.038370267 0.57095766 4280032027
0.44805861 0.038186252 0.57096034 4279834648
0.44868204 0.038092285 0.57097173 4279505683
0.44925863 0.037908345 0.57097441 4279439890
0.44974297 0.037543997 0.57095957 4279505936
0.44608659 0.038287252 0.57151526 4284307022
0.44675934 0.038282484 0.57153493 4283319350
0.44738403 0.038188115 0.57154614 4280822046
0.44791451 0.037913978 0.5715403 4280032280
0.44858527 0.037909821 0.57155997 4279505683
0.44911602 0.037635595 0.57155412 4279439890
0.4471921 0.03782618 0.57211912 4283716938
0.44781727 0.037731662 0.57213002 4280624423
0.44834873 0.037457198 0.57212442 4279571478
0.44892704 0.037272707 0.5721271 4279505685
0.44998902 0.024220228 0.57435232 4279308814
0.45055383 0.023935124 0.57434821 4279177998
0.45116225 0.023741037 0.57435101 4279572503
0.45172778 0.023455709 0.5743469 4279506710
0.45229375 0.023170218 0.57434273 4285952619
0.44981068 0.023853734 0.57496399 4279177998
0.45046329 0.023750484 0.57497346 4279177998
0.45102903 0.023465067 0.57496959 4279375377
0.45159531 0.023179501 0.57496572 4279572756
0.4522047 0.022985086 0.57496858 4281214240
0.45277172 0.022699267 0.5749647 4288123268
0.44967601 0.023578227 0.57558417 4279112205
0.4503293 0.023474738 0.57559335 4279112203
0.45089582 0.023189083 0.57558978 4279309584
0.45146281 0.022903264 0.57558614 4279506963
0.45207298 0.022708625 0.575589 4280884507
0.45268312 0.022513971 0.5755918 4288781198
0.44954127 0.023302704 0.57620585 4279112205
0.45015192 0.023107901 0.57620865 4279177996
0.45076257 0.022913098 0.57621145 4279375377
0.45137322 0.022718281 0.57621431 4279506963
0.45198387 0.022523478 0.57621711 4281279781
0.45263696 0.022420079 0.57622606 4288321167
0.44945022 0.023118198 0.57683504 4279047180
0.45006138 0.022923246 0.57683784 4279047180
0.45067251 0.022728279 0.57684064 4279309331
0.45132658 0.022624567 0.57684934 4279375124
0.45193747 0.022429675 0.57685214 4280228376
0.45254835 0.022234797 0.576855 4281739550
0.46419176 0.015038073 0.72573984 4282464303
0.46480882 0.014841229 0.7257427 4282201131
0.46357089 0.015232399 0.7263847 4280823845
0.46418798 0.015035555 0.72638756 4282464303
0.46480504 0.014838696 0.72639042 4282201131
0.46418417 0.015033022 0.72703528 4282464303
0.46480125 0.014836177 0.72703809 4282201131
0.46541831 0.014639318 0.72704095 4282135090
0.46603537 0.014442474 0.72704375 4282858813
0.46356332 0.015227348 0.72768009 4280823845
0.46418041 0.015030503 0.72768295 4282069545
0.46487164 0.015020534 0.72757679 4282201131
0.46541452 0.0146368 0.72768867 4282135090
0.46603158 0.01443994 0.72769147 4282858813
0.46664864 0.014243096 0.72769433 4283517254
0.46355954 0.015224829 0.72832781 4280823845
0.4641766 0.01502797 0.72833067 4282069545
0.46486789 0.015018016 0.72822398 4282201131
0.46548444 0.014821321 0.72822684 4282135090
0.46610102 0.014624625 0.72822964 4282858813
0.46668124 0.014334261 0.72828728 4283517254
0.46729803 0.014137477 0.72829008 4284109910
0.467879 0.013846859 0.72834772 4284835943
0.46849605 0.01365 0.72835052 4284115039
0.46359333 0.015315592 0.72892046 4280823845
0.46417281 0.015025452 0.72897834 4282069545
0.464827 0.014922053 0.72892618 4282201131
0.46548066 0.014818802 0.72887397 4282135090
0.46609724 0.014622107 0.72887683 4282858813
0.46671379 0.014425412 0.72887969 4283517254
0.46733037 0.014228716 0.72888255 4284109910
0.46791106 0.013938189 0.72894037 4284835943
0.46852791 0.013741404 0.72894323 4284115039
0.46355197 0.015219778 0.7296232 4280823845
0.46420637 0.015116304 0.72957075 4282464303
0.46482319 0.014919519 0.72957361 4282201131
0.46547687 0.014816269 0.72952116 4282135090
0.46613005 0.014713198 0.72946876 4282858813
0.46671003 0.014422894 0.72952688 4283517254
0.46732658 0.014226198 0.72952968 4284109910
0.46794316 0.014029503 0.72953254 4284835943
0.46855974 0.013832808 0.72953534 4284115039
0.45988485 0.01649119 0.73019832 4279966742
0.46050167 0.01629442 0.73020113 4279570708
0.46111849 0.016097635 0.73020399 4280361001
0.46169698 0.015807807 0.7302624 4280427562
0.46354818 0.015217245 0.73027086 4280823845
0.46416524 0.0150204 0.73027372 4282069545
0.4648194 0.014917001 0.73022103 4282201131
0.46547309 0.014813751 0.73016834 4282135090
0.46608967 0.014617056 0.7301712 4282858813
0.46670622 0.01442036 0.73017401 4283517254
0.4673228 0.014223665 0.73017687 4284109910
0.46793938 0.01402697 0.73017973 4284835943
0.45946088 0.01714915 0.730564 4280164121
0.46007648 0.016952768 0.7305668 4279966742
0.46065322 0.016663492 0.73062545 4279570708
0.46123046 0.016374052 0.73068404 4280361001
0.46184656 0.016177505 0.7306869 4280427562
0.46238643 0.015794694 0.73080134 4280889648
0.46292731 0.015411571 0.73091573 4280823855
0.46358198 0.015308022 0.7308628 4280823845
0.4641988 0.015111253 0.73086566 4282464303
0.46481562 0.014914483 0.73086846 4282201131
0.4654693 0.014811233 0.73081553 4282135090
0.46608588 0.014614537 0.73081839 4282858813
0.46670246 0.014417842 0.73082119 4283517254
0.46731901 0.014221147 0.73082405 4284109910
0.45923728 0.018269658 0.73064685 4281017374
0.45977175 0.017888576 0.73076177 4280164121
0.46030718 0.017507181 0.73087668 4279702294
0.46084362 0.017125472 0.7309916 4279570708
0.46141964 0.016836435 0.73105049 4280361001
0.46195778 0.016454175 0.73116541 4280427562
0.46249694 0.016071603 0.73128033 4280889648
0.46303707 0.015688702 0.7313953 4280823855
0.4636158 0.015398785 0.73145419 4280823845
0.46423239 0.01520209 0.731457 4282464303
0.46484894 0.015005395 0.73145986 4282201131
0.46546552 0.014808699 0.73146272 4282135090
0.4660821 0.014612004 0.73146558 4282858813
0.46669865 0.014415309 0.73146838 4283517254
0.45897883 0.019296035 0.7307809 4282134824
0.45951056 0.018915817 0.73089635 4280688409
0.46008262 0.018628016 0.73095542 4280164121
0.46057701 0.018154427 0.73112714 4279702294
0.46111169 0.017773271 0.7312426 4279570708
0.46164739 0.017391801 0.73135805 4280361001
0.46218407 0.017010018 0.73147345 4280427562
0.46272174 0.016627908 0.7315889 4280889648
0.46318468 0.016059056 0.73181695 4280823855
0.46372482 0.015676156 0.7319324 4280823845
0.46430331 0.015386313 0.73199153 4282464303
0.46488225 0.015096337 0.73205072 4282201131
0.46546173 0.014806181 0.7321099 4282135090
0.46604168 0.014515877 0.73216903 4282858813
0.45856452 0.019950956 0.73113656 4284902241
0.45917422 0.019756466 0.7311393 4282134824
0.45978385 0.019561976 0.73114216 4280688409
0.46031487 0.019181982 0.73125809 4280164121
0.46088591 0.018894523 0.73131746 4279702294
0.46137983 0.018421084 0.73148996 4279570708
0.46187517 0.017947182 0.73166245 4280361001
0.46241036 0.017565861 0.73177838 4280427562
0.46287036 0.016997948 0.7320075 4280889648
0.46337017 0.016522616 0.73218 4280823855
0.46387145 0.016046822 0.73235255 4280823845
0.46437424 0.015570551 0.73252511 4282464303
0.4649156 0.015187263 0.73264104 4282201131
0.46545795 0.014803648 0.73275703 4282135090
0.4593696 0.020216912 0.7314952 4282134824
0.45993844 0.019930154 0.73155481 4280688409
0.46054709 0.019735977 0.73155761 4280164121
0.4610776 0.019356146 0.73167408 4279702294
0.4616091 0.018976003 0.73179054 4279570708
0.46214157 0.018595546 0.73190695 4280361001
0.46263671 0.018121734 0.73208022 4280624941
0.46313328 0.017647415 0.73225355 4280889648
0.46359351 0.017079413 0.73248363 4280955431
0.46405572 0.0165108 0.73271382 4280823845
0.46448252 0.01584816 0.73300076 4282464303
0.46491182 0.015184745 0.73328775 4282201131
0.4583506 0.021064773 0.73184288 4286941824
0.45895779 0.020871073 0.73184562 4282792754
0.45956498 0.020677373 0.73184842 4282134824
0.46017218 0.020483673 0.73185122 4280688409
0.46074003 0.020197228 0.73191112 4280164121
0.46130839 0.019910604 0.73197097 4279702294
0.46183839 0.019530937 0.73208797 4279834657
0.46236938 0.019150957 0.73220491 4280361001
0.46290135 0.018770665 0.73232186 4280624941
0.46335813 0.01820375 0.73255301 4280889648
0.46381688 0.01763624 0.73278415 4280955431
0.46420237 0.016881466 0.7331295 4280823845
0.46455348 0.016032398 0.73353195 4282464303
0.45786139 0.021533072 0.73230535 4287466889
0.45850819 0.021432012 0.73225081 4286941824
0.45911437 0.021238625 0.73225361 4282792754
0.45972058 0.021045238 0.73225641 4282134824
0.46032679 0.020851851 0.73225921 4280688409
0.460933 0.020658463 0.73226202 4280164121
0.46150011 0.020372272 0.7323221 4279702294
0.46206772 0.020085901 0.73238224 4279834657
0.46263582 0.019799367 0.73244238 4280361001
0.46316606 0.019419611 0.73255992 4280624941
0.4636592 0.018946394 0.73273468 4280889648
0.4640024 0.018099844 0.73313892 4280955431
0.45676798 0.022194102 0.73276359 4287729810
0.45745534 0.02218543 0.73265117 4287926417
0.45806053 0.021992356 0.73265398 4287466889
0.45866576 0.021799281 0.73265678 4286941824
0.4592309 0.0215137 0.73271716 4282792754
0.45987618 0.021413133 0.73266232 4282134824
0.46048141 0.021220058 0.73266512 4280688409
0.46112597 0.021119758 0.73261029 4279966742
0.46169186 0.020833924 0.73267066 4279702294
0.46225822 0.020547941 0.7327311 4279834657
0.4627865 0.020168826 0.73284906 4280361001
