# .PCD v0.7 - Point Cloud Data file format
VERSION 0.7
FIELDS x y z rgb
SIZE 4 4 4 4
TYPE F F F U
COUNT 1 1 1 1
WIDTH 1070
HEIGHT 1
VIEWPOINT 0 0 0 1 0 0 0
POINTS 1070
DATA ascii
0.4620378 0.06576778 0.52631855 4279246108
0.46245807 0.065808326 0.52636129 4279311388
0.46287888 0.065849021 0.52640402 4279640353
0.4632678 0.065977469 0.52640843 4279442974
0.46365672 0.066105902 0.52641279 4279311388
0.46407849 0.06614691 0.52645558 4279245854
0.46446767 0.066275433 0.52645993 4279377440
0.46489018 0.066316709 0.52650273 4279114270
0.46524602 0.066532493 0.52646875 4279245856
0.46563518 0.066661015 0.5264731 4279179802
0.46789655 0.066523388 0.52684069 4278850067
0.46849972 0.066132963 0.52707553 4278915860
0.4688926 0.066262707 0.52707994 4278850067
0.46928546 0.066392452 0.52708435 4278849813
0.46964228 0.066608563 0.52705038 4278982682
0.4700349 0.066738233 0.52705479 4278982682
0.47039098 0.066954091 0.52702081 4279180061
0.47078335 0.067083672 0.52702522 4279311647
0.4711017 0.067385361 0.5269528 4279311901
0.47145629 0.067600742 0.52691877 4279377440
0.47181043 0.067815959 0.52688479 4279377440
0.47212628 0.068116829 0.52681231 4279507743
0.47247916 0.068331644 0.52677828 4279770915
0.47283158 0.068546295 0.52674425 4279573536
0.47318348 0.068760768 0.52671021 4279507997
0.47349614 0.069060579 0.52663773 4279573788
0.47384682 0.069274664 0.52660364 4279573788
0.474197 0.069488585 0.5265696 4279573273
0.47450721 0.069787592 0.52649707 4279704859
0.47481644 0.070086256 0.52642453 4279377179
0.47516465 0.070299521 0.52639043 4279246108
0.47547215 0.070597619 0.52631789 4279180575
0.47581914 0.070810482 0.5262838 4279376159
0.47612494 0.071108028 0.52621126 4279441950
0.47651166 0.071235731 0.52621561 4279573536
0.47685716 0.071448103 0.52618146 4279771685
0.47720218 0.071660325 0.52614737 4279837480
0.47758839 0.071787879 0.52615172 4279903786
0.47797459 0.071915418 0.52615607 4280166958
0.47836083 0.072042972 0.52616042 4280166958
0.47874707 0.072170526 0.52616477 4280429619
0.47913328 0.07229808 0.52616912 4281218365
0.47951949 0.072425634 0.52617347 4281482305
0.47990572 0.072553173 0.52617782 4284905590
0.43484378 0.064165726 0.52357632 4278981653
0.4351989 0.064381152 0.52354211 4278915860
0.43556914 0.064503416 0.52354628 4278849813
0.4359552 0.064532772 0.52358884 4278981649
0.43632567 0.064655125 0.52359301 4278981649
0.43669614 0.064777479 0.52359718 4278981136
0.43706661 0.064899832 0.52360135 4278850833
0.43745393 0.06492959 0.52364397 4278981649
0.43782464 0.065052032 0.52364814 4278981653
0.43821266 0.065082043 0.52369076 4278981653
0.43858364 0.065204561 0.52369493 4279046929
0.43899018 0.065142557 0.52377599 4278916109
0.43936163 0.065265223 0.52378017 4278981649
0.43976969 0.065203711 0.52386123 4278916626
0.44016016 0.065234527 0.52390385 4278850833
0.44055113 0.065265521 0.52394652 4278916628
0.44096163 0.065204799 0.52402759 4279047446
0.44135383 0.065236211 0.52407026 4278981653
0.44174653 0.065267757 0.52411294 4279047446
0.44215947 0.065207869 0.52419406 4278916630
0.4425534 0.065239802 0.52423674 4278916630
0.44296807 0.065180495 0.52431786 4278916628
0.44336322 0.065212846 0.52436054 4278916628
0.44375888 0.065245375 0.52440321 4278916376
0.44417602 0.065186873 0.5244844 4278916376
0.4445729 0.065219805 0.52452707 4278982171
0.44497025 0.065252915 0.52456981 4279047964
0.44536811 0.06528616 0.52461255 4278982169
0.44576648 0.065319583 0.52465522 4279048216
0.44614309 0.065443963 0.52465951 4278982169
0.4465422 0.065477625 0.52470225 4278916889
0.44694179 0.06551145 0.52474499 4278916889
0.44734186 0.065545455 0.52478772 4279310616
0.44774243 0.065579593 0.52483046 4279310616
0.44814348 0.065613911 0.5248732 4279310614
0.44856873 0.065558076 0.5249545 4279310614
0.44897103 0.065592796 0.52499723 4279048214
0.44937381 0.065627694 0.52504003 4278982934
0.4497771 0.065662742 0.52508283 4279114268
0.45020553 0.065607965 0.52516407 4279114268
0.45061004 0.065643415 0.52520686 4279180061
0.45101503 0.065679029 0.52524966 4279246108
0.45142052 0.065714806 0.52529246 4279311897
0.45185217 0.065661088 0.52537382 4279246104
0.45225888 0.065697268 0.52541661 4279180311
0.45263994 0.065823108 0.5254209 4279443223
0.45304739 0.065859526 0.52546376 4279377177
0.45342869 0.065985456 0.52546805 4279245844
0.45383689 0.066022128 0.52551091 4279442970
0.45427272 0.065969795 0.52559227 4279508763
0.45468214 0.066006884 0.52563512 4279376157
0.45509207 0.066044122 0.52567798 4279310614
0.45553035 0.065992594 0.5257594 4279376409
0.4559415 0.066030234 0.52580225 4279442202
0.4563815 0.065979272 0.52588367 4279376409
0.45679387 0.066017345 0.52592653 4279376411
0.45726448 0.065878347 0.52604657 4279376411
0.45770743 0.065828353 0.52612799 4279310618
0.4581514 0.065778688 0.52620947 4279376411
0.45859632 0.065729365 0.52629095 4279245595
0.45904222 0.065680355 0.52637243 4279376411
0.45948911 0.065631658 0.52645397 4279179032
0.45990667 0.065671429 0.52649689 4279376411
0.4603247 0.065711334 0.52653986 4279179548
0.46077406 0.065663487 0.52662134 4279246108
0.46119332 0.065703794 0.52666432 4279246108
0.46158177 0.065832078 0.52666873 4279180313
0.46200177 0.065872654 0.5267117 4279246106
0.46242225 0.065913394 0.52675468 4279311388
0.46281117 0.066041842 0.52675903 4279640353
0.46320012 0.06617029 0.52676344 4279442974
0.46362159 0.066211328 0.52680641 4279311388
0.46401078 0.06633985 0.52681077 4279311388
0.46436691 0.066555619 0.52677655 4279377181
0.46475583 0.066684067 0.52678096 4279179548
0.46893075 0.066198245 0.52755445 4278850067
0.46925285 0.066500902 0.52748162 4278915606
0.46960995 0.066716969 0.5274474 4279114268
0.47000283 0.066846713 0.52745181 4279114268
0.47035921 0.067062542 0.5274176 4279180061
0.47075182 0.067192212 0.52742201 4279311647
0.47107047 0.067493707 0.52734917 4279311901
0.47142538 0.067709059 0.5273149 4279311647
0.47177979 0.067924246 0.52728069 4279376927
0.47209597 0.068224952 0.52720779 4279507743
0.47244915 0.068439722 0.52717352 4279573538
0.47280183 0.068654329 0.52713925 4279507745
0.47315404 0.068868786 0.52710497 4279507743
0.47346705 0.069168404 0.52703208 4279573790
0.473818 0.069382459 0.5269978 4279507995
0.47416848 0.069596335 0.52696347 4279507480
0.47447902 0.069895178 0.52689052 4279639066
0.47482824 0.070108652 0.52685624 4279377179
0.47513708 0.070406914 0.52678323 4279180313
0.47548509 0.070619971 0.5267489 4279115036
0.47579217 0.070917666 0.52667594 4279311134
0.47613898 0.07113032 0.52664161 4279442204
0.47648525 0.071342826 0.52660728 4279573790
0.47683105 0.071555167 0.52657294 4279902755
0.47721776 0.071682885 0.52657729 4279771685
0.47760448 0.071810603 0.52658165 4279903786
0.47794929 0.072022602 0.52654731 4280166958
0.47833577 0.072150245 0.52655166 4280166958
0.47872224 0.072277874 0.52655602 4280692021
0.47915134 0.07232146 0.52659905 4281020984
0.47953805 0.072449163 0.52660346 4281219385
0.47992477 0.07257688 0.52660781 4285233785
0.43483946 0.063977271 0.52406895 4278981651
0.43519562 0.064192906 0.52403456 4278915858
0.43555132 0.064408377 0.52400011 4278915347
0.43592229 0.064530879 0.52400428 4278981649
0.43629324 0.064653397 0.52400845 4278981649
0.43666422 0.064775914 0.52401263 4278916109
0.43705171 0.06480588 0.52405548 4278850833
0.43742293 0.064928487 0.52405965 4278915858
0.43779415 0.065051079 0.52406383 4278850835
0.43818262 0.065081358 0.52410668 4278785042
0.43857157 0.065111831 0.52414948 4278981389
0.43896103 0.065142438 0.52419233 4278916109
0.43935099 0.065173209 0.52423519 4278981649
0.43974143 0.065204158 0.52427804 4278981649
0.44015086 0.065143362 0.52435958 4278850835
0.44054252 0.065174729 0.52440244 4278850583
0.44093469 0.065206245 0.52444535 4279047192
0.44132733 0.06523791 0.52448821 4278981399
0.44173995 0.065178171 0.52456981 4278981399
0.44215354 0.065118775 0.52465141 4278981399
0.44254819 0.06515108 0.52469426 4278850837
0.44294327 0.06518358 0.52473718 4278916630
0.44335935 0.065124989 0.52481878 4278916630
0.44375569 0.06515789 0.52486169 4278916376
0.44415253 0.065190941 0.52490467 4278916376
0.44454986 0.065224156 0.52494758 4278982171
0.44494769 0.065257534 0.52499056 4278982171
0.445346 0.065291092 0.52503347 4278982171
0.44574481 0.065324783 0.52507645 4278982169
0.44612193 0.065449327 0.52508068 4278982169
0.44654387 0.065392688 0.52516234 4278982169
0.4469215 0.065517396 0.52516663 4278916376
0.44732201 0.065551668 0.52520961 4279376411
0.44772303 0.065586105 0.52525258 4279310616
0.44812456 0.065620705 0.52529556 4279310867
0.44852656 0.06565547 0.52533853 4279310867
0.44895294 0.065600291 0.52542025 4279179798
0.44935617 0.065635443 0.52546328 4279180313
0.4497599 0.065670803 0.52550626 4279114522
0.45018876 0.065616414 0.52558804 4278982936
0.45059371 0.065652162 0.52563107 4279245595
0.45099914 0.065688044 0.5256741 4279377181
0.45140508 0.06572412 0.52571714 4279311386
0.45181152 0.065760344 0.52576017 4279311384
0.45221844 0.065796718 0.52580321 4279245591
0.45259973 0.065922648 0.5258075 4279377430
0.4530074 0.065959275 0.52585053 4279377177
0.45341554 0.065996096 0.52589357 4279245591
0.45382419 0.066033036 0.52593666 4279311384
0.45423335 0.066070154 0.52597976 4279706144
0.45464295 0.066107437 0.52602279 4279311134
0.45505309 0.066144869 0.52606589 4279310616
0.45549154 0.066093668 0.52614772 4279310618
0.45590287 0.066131517 0.52619082 4279376411
0.45634305 0.066080898 0.52627271 4279375896
0.45681277 0.065942019 0.52639341 4279245595
0.45725515 0.065892115 0.52647531 4279245593
0.45766947 0.065930948 0.5265184 4279179800
0.45814288 0.065793291 0.5266391 4279376409
0.45855865 0.0658326 0.52668226 4279376409
0.45903453 0.065695748 0.52680302 4279572507
0.45945179 0.065735564 0.52684617 4279506714
0.45986953 0.065775514 0.52688932 4279441439
0.46031833 0.065727741 0.52697134 4279179802
0.4607065 0.065855935 0.52697569 4279245591
0.46112573 0.065896377 0.5270189 4279179798
0.46151417 0.066024661 0.52702326 4279442200
0.46196565 0.065977767 0.52710527 4279376407
0.46235457 0.066106215 0.52710962 4279376411
0.46277553 0.066147223 0.52715284 4279573790
0.46316469 0.066275746 0.52715725 4279507997
0.46358639 0.066317007 0.52720046 4279442204
0.46922013 0.066609591 0.5278793 4279047446
0.46957755 0.066825613 0.52784485 4279114522
0.46997064 0.066955447 0.52784926 4279245606
0.47032732 0.067171231 0.52781487 4279180065
0.47068349 0.067386851 0.52778041 4279245858
0.47103918 0.067602322 0.52774596 4279311647
0.47139436 0.067817613 0.52771151 4279311388
0.47171164 0.068118408 0.52763814 4279442204
0.4720656 0.068333298 0.52760369 4279507484
0.47241905 0.068548039 0.52756917 4279245345
0.47277203 0.068762615 0.52753472 4279311138
0.47308609 0.069062337 0.52746135 4279311136
0.47343785 0.069276482 0.52742684 4279442722
0.4737891 0.069490492 0.52739233 4279377181
0.47413987 0.069704339 0.52735782 4279376407
0.47445074 0.070003003 0.52728444 4279442200
0.47480026 0.070216447 0.52724993 4279377181
0.4751493 0.070429713 0.52721536 4279180315
0.47545773 0.070727572 0.52714193 4279048989
0.47580552 0.07094042 0.52710742 4279311388
0.47615284 0.071153119 0.52707285 4279508765
0.47649968 0.071365669 0.52703828 4279771937
0.47684601 0.071578041 0.52700377 4279771937
0.4772332 0.071705922 0.52700812 4279771685
0.47757882 0.071918055 0.52697355 4280099880
0.47796577 0.072045848 0.5269779 4280428845
0.47835273 0.07217364 0.52698225 4280494638
0.47869733 0.07238546 0.52694768 4280954678
0.47908404 0.072513178 0.52695203 4281481020
0.47951359 0.072557032 0.52699536 4283917925
0.43517679 0.064098462 0.52448994 4278915858
0.43554872 0.064221293 0.52449411 4278981140
0.43592069 0.064344138 0.52449834 4278981649
0.43627664 0.064559564 0.52446365 4278981649
0.43664837 0.06468232 0.52446783 4278916109
0.43702006 0.064805076 0.524472 4278916109
0.43739179 0.064927831 0.52447623 4278785044
0.43776348 0.065050587 0.5244804 4278850835
0.4381524 0.065081164 0.5245235 4278785042
0.43854183 0.065111905 0.52456653 4278981389
0.43893173 0.06514281 0.52460963 4278916109
0.43934008 0.065081939 0.52469158 4278981902
0.43973121 0.065113261 0.52473468 4278981902
0.44014129 0.065052956 0.52481669 4278981651
0.44051495 0.065176353 0.52482086 4278981399
0.44092649 0.06511654 0.52490288 4278981399
0.44131985 0.065148577 0.52494597 4279047192
0.44171369 0.065180793 0.52498913 4278981399
0.4421277 0.065121785 0.52507114 4278981399
0.44252276 0.065154403 0.5251143 4278981653
0.44291833 0.065187171 0.52515745 4278916630
0.44333482 0.065128982 0.52523947 4278850837
0.44373161 0.065162152 0.52528268 4278916378
0.44412887 0.065195501 0.52532583 4278916376
0.4445478 0.065138116 0.52540791 4278982171
0.44494632 0.065171883 0.52545106 4278982171
0.44534534 0.065205783 0.52549428 4279047962
0.44572294 0.06533049 0.52549851 4278982423
0.44612271 0.065364644 0.52554172 4278982423
0.44650054 0.065489426 0.52554595 4278982423
0.44690102 0.065523833 0.52558917 4278916630
0.44730201 0.065558374 0.52563238 4279376411
0.44770348 0.065593109 0.52567559 4279179030
0.44810542 0.065627992 0.52571881 4279244561
0.44850788 0.06566304 0.52576202 4279376147
0.44893467 0.065608278 0.52584416 4279179798
0.44933838 0.065643713 0.52588743 4279311386
0.44974256 0.065679327 0.52593064 4279245593
0.45014721 0.065715119 0.52597392 4279048214
0.45055237 0.065751046 0.52601713 4279179548
0.45095801 0.065787151 0.5260604 4279376927
0.45136416 0.065823421 0.52610368 4279442202
0.45179635 0.065770417 0.52618593 4279442200
0.45217791 0.065896422 0.52619022 4279442200
0.45258552 0.065933198 0.52623349 4279245591
0.45299363 0.065970108 0.52627677 4279377181
0.45340225 0.066007182 0.52632004 4279179800
0.45381135 0.06604442 0.52636331 4279245593
0.45422092 0.066081822 0.52640665 4279442972
0.454631 0.066119388 0.52644998 4279376411
0.45506912 0.066068336 0.52653223 4279179030
0.4555082 0.066017643 0.52661455 4279310616
0.45600438 0.065790027 0.52677488 4279179802
0.45636109 0.066005707 0.52674025 4279179800
0.45674583 0.066132769 0.5267446 4279179802
0.45721692 0.065994754 0.52686596 4279245593
0.45766044 0.065945506 0.52694827 4279179800
0.4581342 0.065808371 0.52706969 4279442202
0.45857996 0.065759853 0.52715206 4279376409
0.45902666 0.065711647 0.52723449 4279441437
0.45944437 0.065751731 0.52727789 4279375644
0.45986259 0.065791994 0.52732128 4279375907
0.46028125 0.065832391 0.52736467 4279179548
0.4606697 0.065960675 0.52736902 4279048212
0.46108913 0.066001326 0.52741247 4279179798
0.46150905 0.066042155 0.52745587 4279441940
0.46189797 0.066170588 0.52746028 4279376407
0.46918735 0.066718504 0.5282774 4279179030
0.46954504 0.066934511 0.52824277 4279245341
0.4699384 0.067064419 0.52824718 4279179559
0.47029537 0.067280158 0.52821255 4279114020
0.47065181 0.067495748 0.52817786 4279179813
0.47100779 0.067711174 0.52814317 4279311136
0.47132611 0.068012029 0.52806938 4279311388
0.47168088 0.068227053 0.52803469 4279311388
0.47203511 0.068441913 0.528 4279245341
0.47238886 0.068656594 0.52796531 4279180065
0.47270399 0.068956405 0.52789152 4279245858
0.47305652 0.069170699 0.52785683 4279245856
0.47340858 0.069384828 0.52782208 4279311647
0.47376013 0.069598764 0.52778733 4279245595
0.47411117 0.069812566 0.52775264 4279376409
0.47442237 0.070111081 0.52767879 4279442202
0.47477219 0.070324466 0.52764404 4279245593
0.4751215 0.070537716 0.52760929 4279114520
0.47547036 0.070750773 0.52757454 4279179802
0.47577834 0.07104823 0.52750063 4279507230
0.47616655 0.07117644 0.52750498 4279638816
0.47651392 0.07138899 0.52747023 4279968546
0.47686076 0.071601406 0.52743548 4279771937
0.47720715 0.071813673 0.52740067 4279837478
0.47759461 0.071941629 0.52740502 4280100134
0.47794023 0.072153643 0.52737027 4280494892
0.47832745 0.072281525 0.52737463 4280692271
0.47871464 0.072409391 0.52737898 4281152822
0.47910184 0.072537273 0.52738333 4281152568
0.47953185 0.072581425 0.5274269 4285430648
0.43515766 0.064004734 0.52494669 4278915858
0.43553036 0.064127818 0.52495086 4278915858
0.43588734 0.064343452 0.52491599 4278981649
0.43624386 0.064558908 0.52488112 4278981649
0.43661606 0.064681828 0.5248853 4278981649
0.43698826 0.064804748 0.52488947 4278915856
0.43737713 0.064835459 0.5249328 4278915860
0.43774956 0.064958453 0.52493697 4278785042
0.4381392 0.064989403 0.52498031 4278785042
0.43852931 0.065020502 0.52502358 4278981902
0.4389199 0.065051794 0.52506691 4278916107
0.43932891 0.0649914 0.52514935 4278981900
0.43972072 0.06502308 0.52519262 4278981900
0.44011307 0.065054908 0.52523601 4278981651
0.44050586 0.065086901 0.52527928 4278981401
0.44091809 0.06502758 0.52536178 4279047192
0.4413121 0.065059975 0.52540511 4279047192
0.44170666 0.065092564 0.5254485 4278981399
0.44210169 0.065125287 0.52549183 4278981399
0.44251707 0.065067023 0.52557433 4279047192
0.44291332 0.065100148 0.52561772 4278981399
0.44331008 0.065133452 0.52566111 4279047446
0.44372794 0.065075994 0.5257436 4278916378
0.44412592 0.065109715 0.525787 4278916630
0.44452441 0.06514357 0.52583039 4278982423
0.44492337 0.065177605 0.52587384 4278982423
0.44532281 0.065211803 0.52591723 4278982421
0.44572276 0.06524615 0.52596062 4278982421
0.44610113 0.065371096 0.52596492 4278982423
0.44650179 0.065405697 0.52600831 4279048216
0.4468804 0.065530732 0.5260126 4278982423
0.44728184 0.065565586 0.52605605 4279310366
0.44766065 0.065690696 0.52606028 4279179030
0.44806284 0.065725788 0.52610373 4279375894
0.4484655 0.06576103 0.52614719 4279375894
0.44886863 0.065796465 0.52619064 4279310614
0.44929633 0.065742239 0.52627325 4279442202
0.44970071 0.065778062 0.52631676 4279310616
0.45013013 0.065724418 0.52639937 4279113237
0.45051092 0.065850183 0.52640367 4279310364
0.45094183 0.065797016 0.5264864 4279507743
0.45134842 0.065833569 0.52652985 4279507995
0.45175549 0.0658703 0.52657336 4279507995
0.45213729 0.065996394 0.52657765 4279507995
0.45257115 0.06594421 0.52666038 4279179800
0.45300597 0.065892354 0.52674305 4279311134
0.45341527 0.0659298 0.52678663 4279179800
0.45382506 0.065967411 0.52683014 4279245593
0.45423535 0.066005155 0.52687365 4279377179
0.45464611 0.066043094 0.52691722 4279245341
0.45505738 0.066081211 0.52696073 4279179032
0.45558015 0.065765202 0.52716118 4279310618
0.45602137 0.065715447 0.52724397 4279047962
0.45679283 0.065970227 0.52725267 4279245595
0.45720729 0.066009387 0.52729625 4279179798
0.45765123 0.065960541 0.52737904 4279179798
0.45818383 0.065647781 0.52757961 4279376409
0.45854205 0.065863818 0.52754474 4279376409
0.45898893 0.06581594 0.52762759 4279441437
0.45946676 0.065680578 0.52774972 4279375644
0.45985544 0.065808937 0.52775407 4279310368
0.46027458 0.065849632 0.5277977 4279179548
0.4606635 0.06597808 0.52780211 4279048212
0.46108338 0.066019014 0.52784574 4279179798
0.46150374 0.066060111 0.52788937 4279310867
0.46183029 0.066363409 0.52781522 4279310616
0.46954834 0.066957757 0.52868038 4279376411
0.46990606 0.06717363 0.52864552 4279179811
0.4702633 0.067389339 0.52861065 4279179813
0.47058344 0.067690521 0.52853644 4279179813
0.47093946 0.067905813 0.52850151 4279245858
0.471295 0.068120956 0.52846664 4279441952
0.47165 0.068335935 0.52843171 4279441950
0.47200456 0.068550751 0.52839684 4279376157
0.47235858 0.068765402 0.52836192 4279441950
0.47267407 0.069065049 0.52828765 4279245858
0.47302687 0.069279298 0.52825272 4279180063
0.47337919 0.069493383 0.52821779 4279245341
0.47373104 0.069707319 0.5281828 4279245593
0.47408238 0.069921046 0.52814788 4279376409
0.47443321 0.07013464 0.52811289 4279442202
0.47474402 0.070432752 0.52803862 4279245593
0.47509363 0.070645943 0.52800363 4279245593
0.47544277 0.07085897 0.52796865 4279310618
0.47579139 0.071071833 0.52793366 4279573536
0.47613955 0.071284533 0.52789867 4279573536
0.47648716 0.071497083 0.52786368 4279968548
0.47687536 0.071625292 0.52786809 4279902755
0.47722229 0.071837574 0.5278331 4279903271
0.47756869 0.072049692 0.52779806 4280100904
0.47795641 0.072177738 0.52780247 4280494892
0.47834408 0.072305769 0.52780682 4280889650
0.47868955 0.072517589 0.52777177 4281219385
0.47911948 0.072561845 0.52781558 4283126612
0.43476486 0.063788429 0.52540058 4278981653
0.43512312 0.064004347 0.52536547 4278981653
0.4354963 0.064127594 0.52536964 4278915860
0.43585384 0.064343244 0.52533454 4278981653
0.43622679 0.064466402 0.52533877 4278850835
0.43659973 0.064589575 0.52534294 4278915858
0.43697265 0.064712733 0.52534717 4278915858
0.43734559 0.064835906 0.52535141 4278785044
0.43773541 0.064867064 0.52539492 4278785044
0.43810859 0.064990312 0.52539909 4278785044
0.43851653 0.064929843 0.52548194 4278981649
0.43890783 0.064961478 0.52552551 4278981902
0.43929961 0.064993262 0.52556908 4278981902
0.4396919 0.065025225 0.52561259 4278916109
0.44010302 0.064965814 0.5256955 4278981651
0.44049653 0.06499818 0.52573907 4278981399
0.44089052 0.065030739 0.52578264 4279047446
0.44128501 0.065063417 0.52582622 4279047446
0.44168001 0.065096274 0.52586985 4279047446
0.44209507 0.065038145 0.52595276 4278981653
0.44249129 0.065071419 0.52599639 4279047446
0.44288799 0.065104842 0.52603996 4279047446
0.4432852 0.065138415 0.52608359 4278981653
0.44370347 0.065081373 0.52616656 4278850583
0.4441019 0.065115362 0.52621019 4278981649
0.4445008 0.065149516 0.52625382 4278982419
0.44490021 0.065183818 0.52629745 4278982419
0.44530013 0.0652183 0.52634108 4279179030
0.44570053 0.065252945 0.52638471 4279375896
0.44610143 0.065287754 0.5264284 4278982423
0.4465028 0.065322712 0.52647203 4278982423
0.44688213 0.065447986 0.52647632 4278982423
0.44726148 0.06557326 0.52648062 4279112474
0.44766384 0.065608576 0.52652425 4279244312
0.44804341 0.065733925 0.52652854 4279375124
0.44844651 0.065769449 0.52657223 4279506710
0.44882634 0.065894887 0.52657652 4279441691
0.44925421 0.065841019 0.52665961 4279441689
0.44965878 0.06587702 0.5267033 4279376409
0.45006385 0.065913215 0.52674699 4279179030
0.45046943 0.065949559 0.52679068 4279178780
0.45087549 0.065986067 0.52683443 4279442204
0.45130727 0.065933496 0.52691752 4279507480
0.45171455 0.065970406 0.52696127 4279442200
0.45212233 0.06600748 0.52700502 4279442200
0.45255658 0.065955713 0.52708817 4279179032
0.45296559 0.06599319 0.52713192 4279245595
0.4533751 0.066030845 0.52717566 4279048216
0.45381182 0.065979883 0.52725881 4279179802
0.4542495 0.065929249 0.52734202 4279180315
0.4547154 0.06579034 0.52746469 4279179802
0.45521024 0.065563411 0.52762681 4279179802
0.45562392 0.065602422 0.52767062 4279179802
0.45772865 0.065711945 0.52792913 4279179800
0.45811635 0.065839991 0.52793348 4279375896
0.45859233 0.06570442 0.52805626 4279179800
0.45901042 0.065744907 0.52810007 4279311386
0.45948887 0.065610141 0.52822292 4279245593
0.4598783 0.065738752 0.52822727 4278982423
0.46032855 0.065692246 0.52831066 4279179800
0.46071845 0.065821022 0.52831501 4279179028
0.46110839 0.065949783 0.52831942 4279310614
0.4691571 0.066851258 0.52911454 4279375896
0.46951562 0.067067266 0.52907944 4279441689
0.46987364 0.067283079 0.52904433 4279310366
0.47019485 0.067584366 0.52896971 4279179552
0.47058821 0.067714274 0.52897412 4279047966
0.47090796 0.068015039 0.52889943 4279245345
0.47126377 0.068230137 0.52886432 4279376159
0.47161907 0.068445072 0.52882922 4279376161
0.4719739 0.068659842 0.52879405 4279310364
0.47232825 0.068874463 0.52875894 4279441950
0.47264403 0.069173932 0.5286842 4279245345
0.47299713 0.069388151 0.52864909 4279179550
0.47334975 0.069602191 0.52861392 4279180315
0.47366309 0.06990087 0.52853918 4279179800
0.4740535 0.070029795 0.52854359 4279376409
0.47440463 0.070243329 0.52850837 4279376409
0.47475529 0.070456728 0.5284732 4279179550
0.47510543 0.070669964 0.52843803 4279245343
0.47545511 0.070883036 0.52840281 4279376157
0.47576401 0.071180239 0.52832806 4279770917
0.47615293 0.071308687 0.52833241 4279770917
0.47650111 0.071521267 0.52829719 4279836708
0.47684881 0.071733683 0.52826202 4279968548
0.47719601 0.07194595 0.52822679 4280034341
0.47758418 0.072074145 0.52823114 4280428845
0.47797239 0.072202355 0.5282355 4280560431
0.4783186 0.072414264 0.52820027 4280824886
0.47874877 0.072458744 0.52824426 4281746242
0.43472961 0.063788489 0.52582043 4278981651
0.43508843 0.064004436 0.52578515 4278915858
0.43546209 0.064127848 0.52578938 4278981653
0.43582016 0.064343542 0.52575403 4278981653
0.43619359 0.064466879 0.52575827 4278850835
0.43656701 0.064590201 0.52576244 4278785044
0.43694046 0.064713523 0.52576667 4278785044
0.43733048 0.064744875 0.52581042 4278785044
0.43770415 0.064868286 0.52581459 4278785044
0.43809491 0.064899877 0.5258584 4278785044
0.43848616 0.064931631 0.52590215 4278850835
0.43889549 0.064871907 0.52598548 4278850833
0.43928796 0.064904049 0.52602929 4278916626
0.43968093 0.064936385 0.52607304 4278916109
0.44007441 0.064968899 0.52611685 4278981651
0.44048694 0.064910203 0.52620023 4278981399
0.44088164 0.064943105 0.52624404 4278981651
0.44127682 0.064976156 0.52628785 4279047444
0.4416725 0.06500937 0.52633166 4278981651
0.44206867 0.065042764 0.52637547 4278850837
0.44246534 0.065076292 0.52641928 4279047446
0.44286248 0.065110013 0.52646315 4279047446
0.44328043 0.06505312 0.5265466 4278850837
0.4436788 0.065087244 0.52659041 4278850583
0.4440777 0.065121502 0.52663428 4278981649
0.44447705 0.065155938 0.52667814 4279113235
0.44487691 0.065190539 0.52672201 4279179028
0.44527727 0.065225318 0.52676588 4279179030
0.44569987 0.065169975 0.52684933 4279375898
0.44607946 0.065295324 0.52685362 4279112985
0.44648129 0.065330565 0.52689749 4279047192
0.44686112 0.065456003 0.52690178 4278982423
0.44726369 0.065491512 0.52694571 4279112472
0.44764376 0.065617025 0.52695 4279178519
0.44804707 0.065652773 0.52699387 4279244312
0.44842738 0.06577836 0.52699816 4279506712
0.44880772 0.065903962 0.52700245 4279441691
0.44921198 0.065940022 0.52704638 4279441689
0.44964099 0.065886796 0.52712989 4279310616
0.45002204 0.066012636 0.52713418 4279179030
0.45045254 0.065959886 0.52721781 4279178780
0.45085904 0.065996692 0.52726173 4279376411
0.45126605 0.066033646 0.52730566 4279441687
0.45169896 0.065981716 0.52738923 4279375894
0.45210719 0.066019073 0.52743322 4279507480
0.45254186 0.065967709 0.52751684 4279376409
0.45297751 0.065916657 0.52760047 4279245595
0.45344058 0.065777227 0.52772379 4279048216
0.45437112 0.065499827 0.52797037 4279180061
0.45478427 0.065538794 0.52801442 4279179548
0.45522532 0.06548956 0.52809811 4279179548
0.45566738 0.065440625 0.52818179 4279179548
0.45608249 0.065480262 0.52822584 4279179802
0.45777676 0.065552518 0.52844173 4279179800
0.45819458 0.065593064 0.52848577 4279179030
0.45864227 0.065545991 0.52856958 4279048214
0.45909095 0.065499246 0.52865332 4279245593
0.45951074 0.065540433 0.52869743 4279245593
0.45993102 0.065581799 0.52874154 4279310616
0.46032143 0.065710723 0.52874589 4279310616
0.46077305 0.065664962 0.52882969 4279179030
0.46119481 0.065706789 0.52887386 4279310616
0.46912402 0.066961035 0.52951419 4279375896
0.46948281 0.067176998 0.52947891 4279375896
0.46980509 0.067478344 0.52940381 4279310618
0.47016269 0.067693889 0.52936852 4279179552
0.47051975 0.067909285 0.52933317 4279179552
0.47087634 0.068124503 0.52929783 4279245345
0.47119543 0.068424791 0.52922267 4279376159
0.47158805 0.068554446 0.52922714 4279376161
0.47190568 0.068854243 0.52915198 4279310366
0.47226006 0.069068745 0.52911663 4279376159
0.47261393 0.069283068 0.52908123 4279245345
0.47292906 0.069582075 0.52900606 4279179548
0.47328174 0.069795996 0.52897072 4279180315
0.47363389 0.070009738 0.52893531 4279245595
0.47398555 0.070223346 0.52889991 4279245595
0.47437596 0.070352286 0.52890432 4279245595
0.47472692 0.070565611 0.52886891 4279179550
0.47507733 0.070778802 0.52883351 4279245345
0.47542727 0.070991844 0.5287981 4279376927
0.47577673 0.071204707 0.52876264 4279836708
0.47612572 0.071417406 0.52872723 4279770915
0.47647417 0.071629956 0.52869177 4279836708
0.47686312 0.071758404 0.52869618 4279968548
0.47721085 0.071970686 0.52866071 4280100134
0.47755808 0.072182819 0.52862531 4280494638
0.47794652 0.072311103 0.52862966 4280757810
0.47833496 0.072439387 0.52863407 4281087547
0.43503848 0.06409736 0.52616596 4278915860
0.43541238 0.064220846 0.52617019 4278981401
0.43578631 0.064344332 0.52617443 4278915608
0.43616024 0.064467818 0.5261786 4278915860
0.43653417 0.064591303 0.52618283 4278785044
0.43690807 0.064714804 0.52618706 4278784790
0.437282 0.06483829 0.52619123 4278784790
0.43768951 0.064778224 0.52627504 4278784790
0.43806392 0.064901873 0.52627921 4278784790
0.43847293 0.064842299 0.52636302 4278850837
0.43886536 0.064874589 0.526407 4278850833
0.43925828 0.064907059 0.52645105 4278850833
0.43966973 0.064848289 0.52653486 4278850833
0.44006389 0.064881146 0.52657884 4278850837
0.44045857 0.064914152 0.52662289 4278915860
0.44085371 0.064947337 0.52666694 4278981651
0.44126835 0.064889625 0.5267508 4279047444
0.44166473 0.064923227 0.52679479 4278916628
0.4420616 0.064956963 0.5268389 4278916376
0.44245896 0.064990878 0.52688295 4279047446
0.44285682 0.065024957 0.52692699 4279113239
0.44325516 0.06505917 0.5269711 4278981653
0.443654 0.065093577 0.52701515 4278916630
0.44407403 0.065037668 0.52709907 4278916628
0.4444741 0.065072462 0.52714318 4278982421
0.44487467 0.06510745 0.52718723 4279113237
0.44527572 0.065142557 0.52723134 4279113237
0.44567728 0.065177858 0.52727544 4279244312
0.44610125 0.06512323 0.52735943 4279113239
0.44648182 0.065248922 0.52736372 4279113239
0.4468624 0.065374598 0.52736801 4279047446
0.44726565 0.065410465 0.52741212 4279113239
0.44764647 0.065536231 0.52741641 4279113239
0.44802728 0.065661982 0.5274207 4279179032
0.44840807 0.065787748 0.52742499 4279375898
0.44881257 0.065824017 0.52746916 4279441691
0.44919363 0.065949872 0.52747345 4279441689
0.44959888 0.065986365 0.52751756 4279442202
0.44998017 0.066112295 0.52752185 4279376409
0.45038614 0.066149041 0.52756602 4279179032
0.45079261 0.066185981 0.52761018 4279310616
0.45124987 0.066045031 0.5277341 4279376409
0.4516578 0.066082433 0.52777827 4279310616
0.45211756 0.065942287 0.52790225 4279310616
0.45255286 0.065891445 0.52798629 4279179030
0.4530153 0.065752193 0.52811027 4279179800
0.45347923 0.065613449 0.52823424 4279048214
0.45394462 0.065475181 0.52835822 4279114520
0.45441148 0.065337405 0.52848226 4278983450
0.4548527 0.065288484 0.52856636 4279047962
0.45526752 0.065328151 0.52861065 4279047962
0.45568284 0.065367982 0.52865493 4279047962
0.45612651 0.065319881 0.52873909 4279048216
0.45779568 0.065481842 0.52891624 4279179800
0.45824328 0.065435022 0.52900046 4279179800
0.4586919 0.06538856 0.52908468 4279048214
0.45914146 0.065342382 0.5291689 4279179800
0.45956218 0.065384015 0.52921319 4279310616
0.45998341 0.065425798 0.52925754 4279442202
0.46040514 0.065467745 0.52930188 4279375907
0.46082735 0.065509871 0.52934623 4279310114
0.46905535 0.067156672 0.52987438 4279244310
0.46944994 0.067286983 0.52987885 4279375896
0.46980855 0.067502722 0.52984327 4279310618
0.47013041 0.067803681 0.52976775 4279179550
0.47048777 0.068019018 0.52973217 4279245343
0.47084466 0.068234205 0.52969664 4279245345
0.47116408 0.06853433 0.52962106 4279245343
0.47151974 0.0687491 0.52958548 4279179552
0.47187489 0.068963706 0.5295499 4279047966
0.47222954 0.069178149 0.52951431 4279047966
0.47254577 0.06947723 0.52943873 4279179552
0.4728992 0.069691271 0.52940309 4279310364
0.47325215 0.069905162 0.52936751 4279179548
0.47360459 0.070118874 0.52933186 4279311136
0.47395656 0.070332438 0.52929628 4279179550
0.4743472 0.070461452 0.52930069 4279047964
0.47469842 0.070674762 0.52926505 4279245343
0.47504917 0.070887893 0.5292294 4279311136
0.4753994 0.071100876 0.52919376 4279640099
0.47574914 0.071313724 0.52915812 4279836708
0.47613883 0.07144241 0.52916253 4279902501
0.47648782 0.07165499 0.52912688 4279771685
0.47683632 0.071867391 0.52909124 4279969318
0.47718436 0.072079659 0.52905554 4280362791
0.47757328 0.072208107 0.52905995 4280823603
0.47792056 0.07242012 0.52902424 4280955189
0.47830924 0.072548479 0.52902865 4281942858
0.43500346 0.064098284 0.52658725 4278915606
0.43536261 0.064314082 0.52655149 4278981403
0.43573678 0.064437643 0.52655566 4278915610
0.43611094 0.064561218 0.52655989 4278915860
0.43648511 0.064684793 0.52656412 4278785044
0.43687552 0.064716548 0.52660835 4278784790
0.43726644 0.064748466 0.52665251 4278784790
0.43765786 0.064780533 0.52669674 4278784790
0.43803278 0.064904347 0.52670097 4278784790
0.43844217 0.064845219 0.52678519 4278850837
0.43885255 0.064786375 0.52686948 4278850833
0.43924618 0.064819187 0.5269137 4278850833
0.43964028 0.064852148 0.52695793 4278850833
0.44005314 0.064794138 0.52704221 4278785044
0.44044849 0.064827502 0.5270865 4278981651
0.44084433 0.064861059 0.52713072 4278981651
0.44124067 0.064894766 0.52717501 4278981651
0.44163749 0.064928636 0.5272193 4278916628
0.44203481 0.06496267 0.52726358 4278850583
0.44243261 0.064996853 0.52730787 4279047192
0.44283092 0.065031216 0.52735221 4279112985
0.44324991 0.064975217 0.52743655 4278981653
0.44364944 0.065009966 0.52748084 4279047446
0.44404945 0.065044925 0.52752513 4278916630
0.44444996 0.065080002 0.52756947 4278982423
0.44485098 0.065115243 0.52761382 4279179030
0.44525248 0.065150663 0.52765816 4279113237
0.44567615 0.0650962 0.52774256 4279244312
0.44607887 0.065132022 0.52778685 4279244312
0.44648209 0.065167993 0.52783126 4279113239
0.44686341 0.065293923 0.52783555 4279047446
0.44726735 0.065330148 0.52787989 4279179032
0.44764891 0.065456167 0.52788419 4279178519
0.44803047 0.065582171 0.52788848 4279244312
0.448412 0.065708175 0.52789283 4279375898
0.44879356 0.06583418 0.52789712 4279244058
0.44917509 0.065960184 0.52790141 4279441689
0.44962904 0.065818563 0.52802593 4279376409
0.44998696 0.066033944 0.52799016 4279310616
0.45044288 0.065892965 0.52811474 4279113239
0.45082563 0.066019371 0.52811903 4279310616
0.45128378 0.065879121 0.52824366 4279310616
0.45169267 0.06591697 0.52828807 4279310616
0.45217887 0.065688819 0.52845275 4279310616
0.45261532 0.065638587 0.52853727 4279179030
0.45310497 0.065411553 0.52870202 4279048214
0.45357022 0.065273657 0.52882671 4279048214
0.45401037 0.065224662 0.52891129 4279114520
0.4544515 0.065175965 0.52899587 4278983450
0.45489362 0.065127611 0.52908051 4279047964
0.45530939 0.06516774 0.52912498 4279047964
0.4557808 0.065031871 0.52924973 4279047962
0.45611459 0.065336481 0.52917385 4279179548
0.45871183 0.065319583 0.5295614 4279048212
0.45913252 0.065361321 0.52960598 4279179798
0.45958349 0.065315887 0.52969068 4279310614
0.46003544 0.065270782 0.52977538 4279376411
0.46048838 0.065226004 0.52986008 4279245091
0.46094233 0.065181553 0.52994484 4279245091
0.46133566 0.065311462 0.52994925 4279179550
0.46179107 0.065267473 0.53003401 4279179802
0.46873292 0.066879749 0.53039092 4279244060
0.46905759 0.067181349 0.53031492 4279244312
0.46941698 0.067397222 0.53027916 4279244310
0.46973991 0.067698225 0.53020322 4279310618
0.47006187 0.067998946 0.53012723 4279179550
0.47041929 0.068214148 0.53009146 4279179550
0.4707762 0.068429232 0.53005564 4279376159
0.47113264 0.068644121 0.53001988 4279245341
0.4714886 0.068858847 0.52998406 4279245343
0.47184402 0.069073409 0.52994823 4279047964
0.47216132 0.069372565 0.52987224 4279047964
0.47251552 0.069586739 0.52983642 4279179552
0.47286925 0.069800735 0.52980059 4279310364
0.47322249 0.070014566 0.52976477 4279179548
0.47357523 0.070228264 0.52972889 4279376161
0.47392747 0.070441768 0.52969307 4279179550
0.47431839 0.070570871 0.52969748 4279047964
0.47466987 0.070784137 0.52966166 4279179550
0.47502089 0.070997253 0.52962577 4279311138
0.4754113 0.071126193 0.52963018 4279640103
0.47576159 0.071339026 0.5295943 4279836458
0.47611138 0.071551725 0.52955848 4279968044
0.47646067 0.071764275 0.5295226 4280099884
0.47685033 0.071892977 0.52952695 4279969064
0.4771989 0.072105259 0.52949107 4280494377
0.47750559 0.072400928 0.52941495 4281020986
0.47789454 0.072529376 0.5294193 4281218365
0.43531272 0.064407572 0.52693319 4278915610
0.43568712 0.064531222 0.52693743 4278849817
0.43606156 0.064654872 0.52694166 4278981399
0.43643597 0.064778522 0.52694583 4278850837
0.43682659 0.064810485 0.52699029 4278850837
0.43721771 0.064842597 0.52703476 4278850837
0.43760934 0.064874887 0.52707916 4278785044
0.43800145 0.064907357 0.52712363 4278850837
0.43841124 0.064848587 0.52720833 4278850837
0.43882203 0.064790145 0.52729303 4278916628
0.43921611 0.064823255 0.52733749 4278916628
0.43961069 0.064856514 0.52738196 4278850833
0.44002393 0.064798906 0.52746671 4278850835
0.44041973 0.064832553 0.52751118 4278850835
0.44081602 0.064866394 0.5275557 4278850835
0.44123173 0.064809576 0.52764046 4278981651
0.44162923 0.064843819 0.52768493 4278916628
0.44202727 0.06487821 0.52772945 4278785042
0.44242576 0.064912781 0.52777398 4278916628
0.44282475 0.064947486 0.52781856 4279112985
0.44322425 0.064982384 0.52786309 4278981653
0.44362423 0.065017432 0.52790761 4279047192
0.44402471 0.065052643 0.52795213 4279047446
0.44442567 0.065088019 0.52799672 4279113239
0.44484827 0.065033481 0.52808154 4279113239
0.44525045 0.065069258 0.52812612 4279047446
0.44565314 0.065105185 0.5281707 4279112987
0.44607818 0.065051496 0.52825552 4279112987
0.44648212 0.065087825 0.52830011 4279047446
0.44688651 0.065124333 0.52834469 4279113239
0.44726881 0.06525059 0.52834904 4279310618
0.44767395 0.065287352 0.52839363 4279178782
0.44807959 0.065324247 0.52843821 4279112989
0.44973117 0.065384462 0.52865702 4279376411
0.45011517 0.065511286 0.52866131 4279179032
0.45052376 0.065549165 0.52870595 4279113239
0.45095766 0.065498382 0.52879095 4279179030
0.4513424 0.065625444 0.52879524 4279179030
0.45177782 0.065575123 0.52888024 4279310616
0.45223975 0.065436557 0.52900553 4279310616
0.45272899 0.06520991 0.52917123 4279441689
0.45319411 0.065072373 0.52929652 4279244310
0.45360813 0.065112054 0.52934122 4279113239
0.45407569 0.064975351 0.52946663 4278917139
0.45451799 0.06492731 0.52955168 4278982936
0.45493421 0.064967722 0.52959639 4279114522
0.4553782 0.064920247 0.52968144 4279047964
0.45579565 0.064961076 0.52972621 4279047962
0.45621359 0.065002069 0.52977097 4279179550
0.45657596 0.065218776 0.52973497 4279179802
0.45696613 0.065347627 0.52973938 4279179802
0.45741332 0.065301225 0.5298245 4279375896
0.45786148 0.06525515 0.52990961 4279375898
0.45831066 0.065209389 0.52999473 4279310364
0.45881933 0.064989179 0.53016061 4279310364
0.45924145 0.065031543 0.53020543 4279376411
0.4596343 0.065161288 0.53020984 4279375896
0.46008715 0.065116748 0.53029501 4279376411
0.46051076 0.065159589 0.53033984 4279376161
0.46096534 0.065115631 0.53042501 4279310368
0.46142089 0.06507197 0.53051019 4279245343
0.46187744 0.065028667 0.53059542 4279179802
0.46230373 0.065072402 0.53064024 4279179800
0.46322125 0.064987212 0.53081071 4278785555
0.46768391 0.066169888 0.53098112 4279047442
0.46797696 0.066557795 0.53086436 4279112989
0.46830341 0.066859722 0.53078794 4279112989
0.46866408 0.067075863 0.53075194 4279112989
0.46902424 0.067291871 0.530716 4279112987
0.4693839 0.067507699 0.53068 4279113239
0.46970719 0.067808554 0.53060359 4279047962
0.47002947 0.068109095 0.53052717 4279047966
0.47038719 0.068324268 0.53049117 4279047966
0.4707444 0.068539277 0.53045511 4279310366
0.47110111 0.068754151 0.53041911 4279310618
0.47145733 0.068968832 0.53038311 4279310366
0.47177571 0.069268063 0.53030664 4279047966
0.47213072 0.069482356 0.53027058 4278982173
0.47248521 0.069696471 0.53023458 4279179552
0.47283921 0.069910437 0.53019851 4279047962
0.47319275 0.070124239 0.53016245 4278982171
0.47354576 0.070337877 0.53012639 4279310364
0.47389829 0.070551351 0.53009033 4279178778
0.47428945 0.070680529 0.53009474 4279047964
0.47464123 0.070893764 0.53005868 4279179550
0.47503215 0.071022853 0.53006309 4279442470
0.47538319 0.071235836 0.53002703 4279771435
0.47573376 0.071448669 0.52999091 4279902251
0.47608384 0.071661308 0.52995485 4279968044
0.47643343 0.071873814 0.52991873 4280099884
0.47682333 0.072002575 0.52992314 4280231466
0.4771722 0.072214842 0.52988702 4280692271
0.47756186 0.072343528 0.52989143 4281021502
0.43565285 0.064533219 0.52736002 4278849817
0.43601209 0.064748764 0.52732384 4278981399
0.43640268 0.064780846 0.52736849 4278981653
0.43679374 0.064813092 0.52741313 4278916630
0.4371689 0.064936981 0.52741736 4278850837
0.43756071 0.064969495 0.52746207 4278850837
0.43795303 0.065002128 0.52750671 4278850837
0.43836299 0.064943701 0.52759188 4278850837
0.43877393 0.064885587 0.527677 4279047444
0.43918589 0.0648278 0.52776217 4278981651
0.4395988 0.064770356 0.52784735 4278916628
0.43999454 0.064804152 0.52789205 4278850835
0.4403908 0.064838096 0.52793676 4278850835
0.44080618 0.064781442 0.52802199 4278850835
0.44120365 0.064815804 0.52806675 4278850835
0.44160163 0.06485033 0.52811146 4278916628
0.44200009 0.064885005 0.52815622 4278981649
0.44239902 0.064919859 0.52820098 4279047442
0.44279847 0.064954862 0.52824575 4279112724
0.44319841 0.064990029 0.52829051 4279112724
0.44359884 0.065025359 0.52833527 4278916376
0.44402036 0.064970747 0.52842057 4278916376
0.44442204 0.06500648 0.52846533 4278916376
0.44482419 0.065042377 0.52851009 4278916630
0.44524819 0.064988598 0.52859539 4279113237
0.44565156 0.065024897 0.52864021 4279112985
0.44605541 0.065061361 0.52868503 4279112985
0.4464598 0.065098003 0.52872986 4279047446
0.44688699 0.065045252 0.52881515 4278982169
0.44727001 0.065171748 0.5288195 4279310364
0.44767585 0.065208867 0.52886432 4279178778
0.44810525 0.065156847 0.52894968 4279178778
0.44853562 0.065105155 0.52903503 4279179032
0.44976053 0.065218955 0.52916962 4279441689
0.4501698 0.065257207 0.5292145 4279178265
0.45060414 0.065206811 0.52929991 4279112985
0.45101464 0.065245494 0.5293448 4279310618
0.45230019 0.065185487 0.52956057 4279113237
0.4527905 0.064959764 0.52972716 4279244310
0.45323071 0.064911321 0.52981263 4279178517
0.4536719 0.064863205 0.52989811 4279178778
0.45408759 0.064903572 0.52994305 4278982936
0.45450377 0.064944103 0.52998799 4278982684
0.45492044 0.064984798 0.53003299 4279114270
0.45536482 0.064937755 0.53011847 4279047962
0.45578274 0.064978853 0.53016347 4279310364
0.45620114 0.065020114 0.53020841 4279179548
0.45662001 0.065061539 0.53025341 4279244058
0.45706761 0.065015525 0.530339 4279375644
0.45743075 0.065232366 0.53030282 4279310618
0.45796576 0.064924508 0.53051013 4279310364
0.45835838 0.065054163 0.53051454 4279310366
0.45880944 0.065009311 0.53060013 4279310366
0.459232 0.065051958 0.53064519 4279376157
0.45965505 0.065094754 0.53069019 4279376411
0.4600786 0.065137729 0.53073525 4279376157
0.46053284 0.065093905 0.53082085 4279310364
0.46095765 0.065137282 0.53086591 4279178780
0.46144429 0.065007284 0.53099215 4279179032
0.46190149 0.064964443 0.53107786 4279179030
0.46232849 0.065008551 0.53112292 4278982421
0.46275598 0.065052807 0.53116798 4278850835
0.46321565 0.065010816 0.5312537 4278587663
0.46364436 0.065055475 0.53129876 4278587663
0.46407357 0.065100312 0.53134388 4278521872
0.4676148 0.066366732 0.53134352 4278851348
0.4679426 0.066668794 0.53126669 4278982173
0.46830428 0.066885158 0.53123051 4278982173
0.46863037 0.067186669 0.53115368 4279112987
0.46895546 0.067487866 0.53107685 4279112987
0.46931517 0.067703575 0.53104061 4279112985
0.46963853 0.068004176 0.53096378 4279112987
0.46999702 0.068219468 0.53092754 4279178780
0.470355 0.068434626 0.5308913 4279376159
0.47071248 0.068649605 0.53085506 4279376159
0.47103268 0.068949163 0.53077817 4279310366
0.47138894 0.06916374 0.53074193 4279310114
0.47174472 0.069378138 0.53070569 4278916639
0.47209999 0.069592386 0.53066939 4278916639
0.47245479 0.069806457 0.53063315 4279114270
0.47280911 0.070020378 0.53059691 4279179548
0.47316289 0.07023415 0.53056061 4279178782
0.47351623 0.070447743 0.53052431 4279178780
0.47386906 0.070661172 0.53048807 4279178780
0.47426045 0.070790425 0.53049248 4279179550
0.47461253 0.071003631 0.53045619 4279245856
0.47500366 0.071132809 0.5304606 4279640103
0.47531521 0.071429506 0.53038359 4279968298
0.47570586 0.07155852 0.530388 4280033837
0.47605622 0.07177116 0.53035164 4280033837
0.47644663 0.071900085 0.53035605 4280362802
0.47679627 0.072112441 0.53031975 4280560435
0.47718644 0.072241291 0.53032416 4281020984
0.47753531 0.072453424 0.5302878 4281942856
0.43635333 0.064875185 0.52775133 4278981653
0.4367446 0.064907655 0.52779621 4279047446
0.43713638 0.064940244 0.52784115 4278981653
0.43752864 0.064973027 0.52788603 4278850837
0.4379214 0.065005958 0.52793092 4278850837
0.43831465 0.065039054 0.52797586 4278850837
0.43874311 0.064890221 0.52810216 4278916630
0.43913785 0.064923823 0.52814704 4278981651
0.43955094 0.064866692 0.52823269 4278916628
0.43996501 0.064809874 0.52831835 4278981651
0.44036168 0.064844117 0.52836329 4278850835
0.44077748 0.06478788 0.52844894 4278850835
0.4411754 0.06482251 0.52849388 4278850835
0.44157383 0.064857334 0.52853888 4278916628
0.44197273 0.064892292 0.52858388 4278850833
0.44239172 0.064837113 0.52866954 4278916626
0.44277203 0.064962715 0.52867383 4279178515
0.44319248 0.064908013 0.52875954 4279112724
0.44359362 0.064943716 0.52880454 4278850583
0.44399524 0.064979568 0.52884954 4278916376
0.44439733 0.065015584 0.52889454 4278916376
0.444821 0.064961955 0.52898031 4278981651
0.44524562 0.064908653 0.52906609 4279113237
0.44564971 0.06494531 0.52911109 4279113237
0.44605428 0.064982146 0.52915615 4279113237
0.44645935 0.065019146 0.52920121 4278982423
0.4468649 0.065056309 0.52924627 4278982423
0.44727093 0.065093622 0.52929133 4279178778
0.44770026 0.06504187 0.5293771 4279178778
0.44810751 0.0650796 0.52942216 4279179032
0.44853857 0.065028384 0.52950799 4279179030
0.44897059 0.064977527 0.52959388 4279244310
0.44978955 0.065054446 0.52968407 4279310616
0.45022404 0.065004379 0.5297699 4279244058
0.45063502 0.06504333 0.52981502 4279112985
0.45104647 0.065082431 0.52986014 4279178778
0.45233473 0.065024033 0.5300771 4279179030
0.45282584 0.0647991 0.53024459 4279179032
0.45324099 0.064839423 0.53028971 4279113239
0.45365661 0.064879924 0.53033489 4279178778
0.45407277 0.06492056 0.53038007 4279114522
0.45448938 0.064961389 0.53042525 4278982171
0.45490649 0.065002382 0.53047043 4279047964
0.45532411 0.065043509 0.53051561 4278982169
0.45574221 0.065084815 0.53056079 4279179802
0.4561885 0.065038636 0.5306468 4279179032
0.45660782 0.06508036 0.53069204 4279179032
0.45705584 0.065034762 0.53077805 4279376411
0.45750481 0.064989492 0.53086406 4279310618
0.45792612 0.065031856 0.5309093 4279310364
0.45837682 0.064987153 0.53099537 4279310366
0.45879936 0.065029919 0.53104061 4279376159
0.45922238 0.065072849 0.53108585 4279376157
0.45961621 0.065202922 0.53109026 4279376411
0.46006989 0.065159187 0.53117639 4279376157
0.4604944 0.065202594 0.53122163 4279178778
0.46094978 0.065159455 0.53130776 4279178782
0.46140614 0.065116614 0.53139383 4279244312
0.46186352 0.065074116 0.53147995 4279310616
0.4622907 0.065118402 0.53152525 4279113237
0.46274978 0.065076485 0.53161138 4278719249
0.46317822 0.065121189 0.53165674 4278521870
0.46360713 0.065166071 0.53170204 4278521872
0.46403655 0.065211117 0.53174734 4278521872
0.46446645 0.065256312 0.5317927 4278521872
0.46489686 0.065301687 0.531838 4278652688
0.46721685 0.066261426 0.53178322 4278851348
0.46754572 0.066563576 0.53170592 4278851350
0.46790817 0.066780061 0.53166956 4279047962
0.46827015 0.066996366 0.53163314 4278982169
0.46859655 0.067297727 0.53155583 4279047192
0.46892196 0.06759873 0.53147852 4279112985
0.46928197 0.06781441 0.53144211 4279178265
0.46960568 0.068114862 0.5313648 4279112987
0.46996444 0.068330124 0.53132838 4279178780
0.47028643 0.06863001 0.53125101 4279310366
0.47064397 0.068844855 0.53121454 4279376159
0.47100103 0.069059551 0.53117812 4279310366
0.47135758 0.069274083 0.53114164 4279310116
0.47171363 0.069488451 0.53110516 4278982432
0.4720692 0.069702655 0.53106868 4278916639
0.4724243 0.069916695 0.5310322 4279114272
0.47274086 0.070214778 0.53095484 4279179548
0.47313297 0.070344284 0.53095925 4279178780
