# .PCD v0.7 - Point Cloud Data file format
VERSION 0.7
FIELDS x y z rgb
SIZE 4 4 4 4
TYPE F F F U
COUNT 1 1 1 1
WIDTH 1039
HEIGHT 1
VIEWPOINT 0 0 0 1 0 0 0
POINTS 1039
DATA ascii
0.44111052 -0.01172626 0.58044511 4286413933
0.44173887 -0.011624679 0.58044559 4286283122
0.44241816 -0.011822194 0.58043206 4286283122
0.44306529 -0.01181972 0.58042789 4286677880
0.44367877 -0.011617735 0.58043307 4286480499
0.44427469 -0.011316255 0.58044291 4286677878
0.44488794 -0.011114359 0.58044809 4286743671
0.41498587 -0.012850359 0.58119237 4287269508
0.41556767 -0.012448221 0.58120644 4286940543
0.41615498 -0.012149587 0.58121592 4285888109
0.41673505 -0.011748016 0.58122998 4283256137
0.41732115 -0.011449769 0.58123952 4283255365
0.41790673 -0.011151671 0.581249 4283123516
0.41847688 -0.010648087 0.58126754 4281872931
0.41906101 -0.010350481 0.58127701 4281609759
0.41964462 -0.010053053 0.58128649 4281543453
0.42023596 -0.0098583698 0.5812915 4281412380
0.42083573 -0.0097661763 0.58129203 4281149980
0.42144471 -0.0097762644 0.58128804 4281084187
0.42207259 -0.0099907219 0.58127511 4281280794
0.42271161 -0.010306776 0.5812577 4281215001
0.42337194 -0.010826394 0.5812313 4280821274
0.42401636 -0.011140689 0.58121395 4280426516
0.4246732 -0.011556178 0.58119214 4280163346
0.42533296 -0.011970699 0.58117032 4280032530
0.42597485 -0.012180537 0.58115751 4280098580
0.4266187 -0.012389734 0.58114469 4279966994
0.4272536 -0.012496546 0.58113635 4279835149
0.4278788 -0.012501284 0.58113253 4280097805
0.42849362 -0.012404174 0.58113313 4280360723
0.42910889 -0.012306884 0.58113378 4280822048
0.42970088 -0.0120067 0.58114338 4280822048
0.43031666 -0.011909246 0.58114398 4281151013
0.43090814 -0.011609226 0.58115357 4281347620
0.43152443 -0.011511609 0.58115423 4281545769
0.43212831 -0.011312783 0.58115929 4281480233
0.43274534 -0.011214927 0.58115995 4281480233
0.43336284 -0.011116937 0.5811606 4281349417
0.43398082 -0.011018738 0.58116126 4281282854
0.43458545 -0.010819674 0.58116639 4281413415
0.43520421 -0.010721266 0.58116704 4281479208
0.43582341 -0.01062268 0.58116776 4281479208
0.43642855 -0.010423452 0.58117282 4281348390
0.43709305 -0.010625839 0.58116019 4281545767
0.43771425 -0.010526612 0.5811609 4284045385
0.43838197 -0.010727927 0.58114827 4285887589
0.43905166 -0.010928616 0.58113569 4285756255
0.43972331 -0.011128634 0.58112311 4285493856
0.44039693 -0.011328012 0.58111054 4285297249
0.44108886 -0.011626661 0.58109361 4285428835
0.44175011 -0.01172483 0.5810855 4285625962
0.44242963 -0.01192227 0.58107299 4285362792
0.443077 -0.011919707 0.58106935 4284968034
0.44369072 -0.011717647 0.58107454 4285954159
0.44430444 -0.011515573 0.58107972 4285822573
0.44491819 -0.011313513 0.58108491 4284967005
0.4455319 -0.011111453 0.58109009 4285295200
0.41497469 -0.012747362 0.58182228 4287269508
0.41555625 -0.012345314 0.58183581 4286874750
0.41613683 -0.011943579 0.58184934 4286216820
0.41672316 -0.011645243 0.58185858 4283256135
0.41730201 -0.011244088 0.58187211 4283255619
0.41787991 -0.010843247 0.58188558 4283189561
0.41844931 -0.010339901 0.58190334 4282201383
0.419025 -0.0099397898 0.58191681 4281806625
0.4196156 -0.0097453445 0.58192176 4281543453
0.42020619 -0.0095508993 0.58192676 4281412380
0.42080522 -0.009458974 0.58192754 4281413152
0.42141348 -0.0094693005 0.58192408 4281281566
0.42204952 -0.0097863376 0.58190793 4281412380
0.42267883 -0.010000303 0.58189601 4281215001
0.423329 -0.010417983 0.58187568 4280558104
0.42398211 -0.010834694 0.58185542 4280360725
0.42462826 -0.011148408 0.58183932 4280097553
0.42528701 -0.011563256 0.58181906 4279966737
0.42592791 -0.011773407 0.58180726 4279966994
0.42657077 -0.011982918 0.58179551 4279835149
0.42721558 -0.012191787 0.58178371 4279835149
0.42784005 -0.012196764 0.58178037 4279966989
0.42845413 -0.012099877 0.58178127 4280164114
0.42905703 -0.011901379 0.58178639 4280756253
0.42967182 -0.011804268 0.58178729 4280822046
0.43027496 -0.01160568 0.58179235 4281414185
0.4308781 -0.011407107 0.58179748 4281413413
0.43149391 -0.011309654 0.58179837 4281545767
0.43209729 -0.011111006 0.58180344 4281480231
0.43271381 -0.011013314 0.58180439 4281546024
0.4333308 -0.010915458 0.58180529 4281415208
0.43394831 -0.010817438 0.58180618 4281545769
0.43458018 -0.010819986 0.58180296 4281282599
0.4351989 -0.010721579 0.58180386 4281348392
0.43581814 -0.010622993 0.58180481 4281348392
0.43645248 -0.010624737 0.58180153 4281348647
0.43708777 -0.010626152 0.58179832 4281545769
0.43773916 -0.010727555 0.58179092 4283387201
0.43839201 -0.010828495 0.58178353 4285624163
0.43906194 -0.01102908 0.58177197 4284901464
0.43974966 -0.0113291 0.58175623 4284969052
0.44042379 -0.011528328 0.58174473 4284245590
0.44111618 -0.011826798 0.58172905 4283258695
0.44177788 -0.011924818 0.58172172 4283717965
0.44244108 -0.012022331 0.58171445 4282731070
0.44308871 -0.012019709 0.58171129 4282926904
0.44370267 -0.01181756 0.58171648 4282005802
0.44433421 -0.01171492 0.58171755 4281740582
0.44494843 -0.011512697 0.58172274 4281871652
0.4455446 -0.011211142 0.58173203 4281344025
0.41495752 -0.012541041 0.58245569 4287137922
0.41553861 -0.012139142 0.58246869 4286348406
0.41612518 -0.011840716 0.58247769 4285887855
0.41670454 -0.011439413 0.58249068 4283124803
0.41728291 -0.011038408 0.58250368 4283059260
0.41785309 -0.010534823 0.5825206 4283058742
0.41842178 -0.010031715 0.58253753 4282465068
0.41900441 -0.0097346008 0.58254653 4282004517
0.41958657 -0.0094376355 0.58255547 4281543966
0.42017642 -0.0092434436 0.58256048 4281413150
0.42077473 -0.0091517568 0.58256149 4281478943
0.42138222 -0.0091623217 0.58255857 4281478173
0.42201751 -0.0094796121 0.58254367 4281478173
0.42265528 -0.009796083 0.58252883 4281149462
0.42330495 -0.010213912 0.58251005 4280820245
0.42395756 -0.010630786 0.58249134 4280688659
0.42460319 -0.010944679 0.58247656 4280097551
0.42525128 -0.011257738 0.58246177 4280032528
0.42590183 -0.011570022 0.58244705 4279966992
0.42653352 -0.011677891 0.58244026 4279835149
0.4271667 -0.011785299 0.58243352 4279835149
0.42779019 -0.011790603 0.58243066 4280032782
0.42841464 -0.011795595 0.58242786 4280032782
0.42901683 -0.011597335 0.58243293 4280361754
0.42963088 -0.011500433 0.58243412 4280624926
0.4302333 -0.011302099 0.58243918 4281216809
0.43084809 -0.011204988 0.58244032 4281414185
0.43146336 -0.011107698 0.58244151 4281545769
0.43207914 -0.011010274 0.58244264 4281480235
0.43269542 -0.010912657 0.58244383 4281480235
0.43331218 -0.01081489 0.58244497 4281677614
0.43394303 -0.010817751 0.58244222 4281545771
0.43456104 -0.010719597 0.58244342 4281545769
0.43519363 -0.010721892 0.58244067 4281414183
0.43581286 -0.010623306 0.58244187 4281348647
0.43646178 -0.010725528 0.58243519 4281217831
0.43711218 -0.010827273 0.58242857 4281348390
0.43774894 -0.010828197 0.58242589 4281939244
0.43841738 -0.011029273 0.58241534 4281478693
0.43908781 -0.011229709 0.58240479 4281477923
0.439776 -0.01152958 0.58239043 4280821015
0.44046667 -0.011828631 0.582376 4280755733
0.44112715 -0.011927053 0.58236945 4280624147
0.44182226 -0.01222463 0.58235514 4280492309
0.44246936 -0.012222156 0.58235252 4280427288
0.44311747 -0.012219369 0.5823499 4280558356
0.44374925 -0.012116656 0.58235121 4280624149
0.44436395 -0.011914268 0.58235639 4281017624
0.44499648 -0.011811316 0.5823577 4281082904
0.44559339 -0.011509493 0.58236676 4280950550
0.41494635 -0.012438014 0.58308429 4287072388
0.41552719 -0.012036204 0.5830968 4286282613
0.41611353 -0.011737883 0.58310556 4286019441
0.41668591 -0.011233568 0.58312172 4283124801
0.41727078 -0.010935709 0.58313048 4282993467
0.41783348 -0.010329291 0.58315039 4282926902
0.41840169 -0.0098263472 0.58316654 4282465838
0.41898385 -0.0095294118 0.58317524 4282005287
0.4195655 -0.0092326254 0.58318394 4281413150
0.42015487 -0.0090385824 0.58318889 4281413150
0.42075267 -0.0089470446 0.5831902 4281478943
0.42135969 -0.0089577883 0.58318776 4281478173
0.42199448 -0.0092752278 0.58317417 4281478173
0.42264092 -0.0096941143 0.58315694 4281281048
0.42328089 -0.01000987 0.58314341 4280952083
0.42392331 -0.010324806 0.58312988 4280163085
0.42457813 -0.010740936 0.58311272 4280228878
0.42521554 -0.010952234 0.583103 4280163598
0.42586535 -0.011264727 0.58308953 4280032528
0.4264963 -0.011372879 0.58308351 4279900942
0.42712873 -0.011480525 0.58307749 4279900942
0.42776263 -0.011587679 0.58307147 4279966989
0.42837521 -0.011491299 0.5830729 4280032782
0.42898828 -0.011394739 0.58307427 4280295961
0.42960185 -0.011298031 0.5830757 4280559133
0.4302159 -0.011201143 0.58307707 4281151018
0.43081805 -0.011002898 0.5830822 4281611310
0.43144548 -0.011006892 0.58307993 4281545771
0.43206102 -0.010909528 0.58308131 4281348649
0.43267703 -0.010811999 0.58308274 4281480235
0.43329355 -0.010714307 0.58308417 4281611821
0.43392417 -0.010717273 0.58308196 4281545517
0.43455577 -0.01071991 0.5830797 4281611562
0.43518835 -0.010722205 0.58307749 4281545769
0.43582192 -0.010724187 0.58307528 4281414183
0.4364565 -0.010725841 0.58307308 4281282854
0.43712172 -0.010927975 0.58306354 4281282597
0.4377889 -0.011129469 0.58305401 4281479204
0.43844277 -0.011230066 0.58304822 4281084446
0.43912923 -0.011530489 0.58303505 4280557593
0.43981817 -0.011830136 0.58302194 4280754200
0.44050956 -0.012128934 0.58300889 4280492563
0.44118708 -0.012327015 0.58299947 4280492563
0.44185004 -0.012424618 0.58299369 4280426516
0.44251445 -0.012521744 0.58298796 4280361495
0.44316328 -0.012518704 0.58298588 4280427286
0.44377849 -0.012316152 0.58299106 4280493079
0.44562411 -0.011708513 0.58300668 4280819732
0.44623929 -0.011505976 0.58301187 4280622612
0.4149352 -0.012335017 0.5837124 4286480249
0.41551578 -0.011933282 0.58372438 4286282619
0.41609541 -0.011531875 0.58373636 4286019447
0.41667402 -0.01113078 0.58374828 4282466878
0.41725168 -0.010730043 0.5837602 4282663480
0.4178139 -0.010123789 0.5837791 4282466353
0.41838908 -0.0097238272 0.58379102 4282598191
0.41896328 -0.0093242228 0.58380288 4282400812
0.41954446 -0.0090275854 0.58381134 4281544990
0.42013332 -0.0088337064 0.58381635 4281544736
0.42073065 -0.0087423474 0.58381784 4281544736
0.42132846 -0.0086508095 0.58381939 4281347357
0.4219625 -0.0089684874 0.58380711 4281478943
0.42259902 -0.0092853755 0.58379483 4281348124
0.42324743 -0.0097036213 0.58377916 4281018642
0.42389876 -0.010120898 0.58376348 4280557323
0.42455307 -0.010537207 0.58374786 4280491530
0.42520016 -0.010850608 0.5837357 4280360716
0.4258289 -0.010959461 0.58373046 4280230413
0.42646974 -0.011169627 0.58372176 4280427792
0.42710167 -0.011277452 0.58371651 4280230413
0.42772391 -0.011283144 0.58371472 4279966989
0.42834717 -0.011288539 0.58371294 4279966735
0.42895973 -0.011192143 0.5837146 4280295702
0.42958468 -0.011196956 0.58371282 4280624667
0.43018636 -0.010998875 0.58371788 4281084968
0.43081278 -0.011003211 0.58371615 4281413931
0.43141496 -0.010804951 0.58372122 4281348392
0.43204287 -0.010808796 0.58371949 4281282599
0.43265864 -0.010711342 0.58372116 4281216806
0.43327489 -0.010613739 0.58372283 4281348392
0.43390527 -0.010616779 0.5837211 4281545769
0.43455049 -0.010720223 0.58371598 4281807656
0.43518308 -0.010722518 0.58371431 4281741863
0.43581665 -0.0107245 0.58371258 4281479204
0.4364658 -0.010826647 0.58370751 4281348390
0.4371461 -0.011129096 0.58369559 4281282595
0.43781379 -0.011330426 0.58368713 4281151011
0.43848345 -0.0115311 0.58367872 4280690460
0.43917066 -0.011831298 0.58366686 4280032532
0.43986031 -0.012130663 0.58365506 4280360727
0.44055244 -0.012429252 0.58364326 4280229907
0.44123071 -0.01262708 0.58363491 4280295700
0.44189438 -0.012724444 0.58362997 4280361493
0.41492403 -0.012231991 0.58434004 4285953900
0.41549817 -0.01172711 0.58435464 4285032548
0.41608375 -0.011429027 0.58436286 4285032548
0.41664872 -0.010821879 0.58438075 4282138434
0.41723955 -0.010627359 0.58438575 4282202677
0.41780877 -0.010124087 0.58440036 4282202414
0.41837648 -0.0096213073 0.58441496 4282663984
0.41895044 -0.0092217624 0.58442634 4282598191
0.41952342 -0.0088225603 0.58443773 4281545503
0.42011181 -0.0086288452 0.58444268 4281544736
0.42070019 -0.0084351301 0.58444768 4281544736
0.42130592 -0.0084462613 0.58444625 4281281564
0.42193055 -0.0086617619 0.58443844 4281413150
0.4225755 -0.0090811551 0.58442432 4281217054
0.42322338 -0.0094995648 0.58441019 4281215251
0.42386454 -0.0098149031 0.58439922 4280754700
0.42451811 -0.01023145 0.58438516 4280820493
0.42517462 -0.010647044 0.58437109 4280492813
0.42580286 -0.01075606 0.58436662 4280427792
0.42644322 -0.010966375 0.58435893 4281217308
0.42707464 -0.011074349 0.58435446 4281085722
0.42769638 -0.011080235 0.58435321 4280623895
0.42831913 -0.011085764 0.58435196 4280360723
0.42894286 -0.011090994 0.58435065 4280755481
0.42955568 -0.010994524 0.58435261 4280821274
0.43018112 -0.010999188 0.58435136 4281215782
0.43079516 -0.010902315 0.58435327 4281347368
0.43140972 -0.010805264 0.58435518 4281085218
0.43202475 -0.010708049 0.58435714 4281085216
0.43265337 -0.010711655 0.58435589 4281085216
0.43326965 -0.010614052 0.58435786 4281348645
0.4339 -0.010617092 0.58435661 4281348645
0.43454522 -0.010720536 0.58435225 4281610529
0.4351919 -0.010823473 0.58434796 4281610529
0.43582571 -0.010825381 0.58434677 4281545251
0.4364897 -0.011027932 0.58433932 4281348390
0.43715566 -0.011229828 0.58433187 4281544999
0.43782356 -0.011431068 0.58432442 4281217063
0.43850878 -0.011731893 0.58431387 4280756512
0.43919647 -0.012031943 0.58430338 4279966739
0.43988663 -0.012331143 0.58429289 4279966739
0.44057924 -0.012629554 0.5842824 4280032530
0.44125798 -0.012827232 0.58427507 4280229909
0.44192213 -0.012924433 0.58427083 4280361493
0.41549298 -0.011727408 0.58497798 4281609509
0.41606566 -0.011223033 0.58499187 4281609509
0.41664356 -0.010822192 0.58500278 4280625191
0.41722742 -0.01052466 0.58501071 4280821796
0.41778919 -0.0099185705 0.58502752 4281741095
0.4183639 -0.0095187873 0.58503836 4282532916
0.41893759 -0.0091193169 0.58504927 4282598709
0.41951033 -0.0087201744 0.58506012 4281677607
0.42009026 -0.0084239691 0.58506799 4281545251
0.42067817 -0.0082304031 0.58507299 4281544738
0.42128342 -0.008241713 0.5850721 4281347359
0.42190754 -0.0084573776 0.58506531 4281413152
0.42255196 -0.0088769346 0.58505273 4281282847
0.42319936 -0.0092955083 0.58504015 4281478425
0.42383036 -0.0095089078 0.58503342 4281281046
0.424503 -0.01012975 0.58501506 4281544218
0.42514908 -0.010443464 0.58500546 4280887571
0.42579764 -0.010756373 0.58499593 4281084952
0.42642733 -0.010864899 0.58499223 4281545503
0.42705852 -0.010972977 0.58498853 4281545503
0.42769116 -0.011080548 0.58498484 4281216032
0.42831388 -0.011086076 0.58498406 4280623897
0.42893761 -0.011091307 0.58498335 4280952862
0.42955041 -0.010994837 0.58498549 4280821276
0.43017587 -0.010999501 0.58498478 4281281577
0.43078992 -0.010902628 0.58498698 4281413161
0.43140444 -0.010805577 0.58498913 4281151011
0.43203235 -0.010809422 0.58498842 4281085470
0.43264812 -0.010711968 0.58499062 4281085470
0.43327773 -0.010715246 0.58498991 4281282852
0.43389475 -0.010617405 0.58499217 4281480231
0.4345538 -0.010821551 0.58498567 4281610531
0.43518662 -0.010823786 0.58498502 4281544738
0.43583477 -0.010926247 0.58498144 4281676585
0.436499 -0.011128709 0.58497506 4281545769
0.43716517 -0.01133053 0.58496863 4281677357
0.43784842 -0.01163201 0.58495939 4281348649
0.43853414 -0.011932686 0.58495015 4281085477
0.43922231 -0.012232557 0.58494091 4279966739
0.43991292 -0.012531623 0.58493167 4280031760
0.440606 -0.012829855 0.58492249 4280097551
0.44128525 -0.0130274 0.58491623 4280163344
0.4154816 -0.0116245 0.58560401 4281280544
0.41606048 -0.011223331 0.58561444 4281083165
0.41663837 -0.01082249 0.58562481 4280427547
0.41720834 -0.01031898 0.58563787 4280624672
0.41778404 -0.0099188685 0.58564824 4281543716
0.41835874 -0.0095191002 0.58565861 4282531379
0.41892475 -0.0090168864 0.58567166 4282794551
0.41949725 -0.0086178184 0.58568197 4282203181
0.42007694 -0.0083216727 0.5856896 4281741863
0.42066461 -0.008128196 0.58569461 4281610529
0.4212696 -0.0081395805 0.58569419 4281478943
0.42189345 -0.0083553493 0.58568847 4281413150
0.4225193 -0.0085704476 0.58568275 4281544736
0.42316592 -0.0089892447 0.58567172 4281609246
0.42381552 -0.009407118 0.58566076 4281675039
0.42445815 -0.0097219646 0.58565241 4281938211
0.42512354 -0.010239884 0.58563882 4281610783
0.42577159 -0.010552958 0.58563054 4281677089
0.42640078 -0.010661677 0.58562762 4281873955
0.42704237 -0.010871574 0.58562201 4282005541
0.42768592 -0.011080861 0.58561647 4281676837
0.42829725 -0.010984868 0.58561885 4280886817
0.42893237 -0.01109162 0.58561599 4280821794
0.42954516 -0.01099515 0.58561844 4280821794
0.4301706 -0.010999814 0.5856182 4281150765
0.43079704 -0.01100415 0.58561802 4281677109
0.4314118 -0.010907009 0.58562046 4281480233
0.4320271 -0.010809734 0.58562291 4281546021
0.43265596 -0.010813251 0.58562273 4281743400
0.43327248 -0.010715559 0.58562517 4281348645
0.43390307 -0.010718524 0.58562499 4281348642
0.43454853 -0.010821864 0.58562225 4281610531
0.43519545 -0.010924757 0.58561945 4281610531
0.43585816 -0.011127695 0.58561403 4281808169
0.43652287 -0.011329994 0.58560866 4281743148
0.43717471 -0.011431247 0.58560592 4281874736
0.43787327 -0.011832967 0.58559531 4281874736
0.43855947 -0.012133494 0.58558738 4281611819
0.43923253 -0.012333035 0.58558208 4281151009
0.43992341 -0.012632012 0.58557415 4282599734
0.44060063 -0.012830183 0.5855689 4282206259
0.44127989 -0.013027713 0.58556366 4283324740
0.41548264 -0.011728033 0.58622468 4281214749
0.41604885 -0.011120483 0.5862394 4281083163
0.41661981 -0.010616645 0.58625174 4280361752
0.41719624 -0.010216281 0.58626157 4280559133
0.4177717 -0.009816274 0.58627141 4281674789
0.41834617 -0.0094165653 0.58628124 4282531633
0.41891193 -0.008914426 0.58629352 4282729012
0.41948417 -0.0085154474 0.58630335 4282334254
0.42006361 -0.0082193911 0.58631074 4281938726
0.42065102 -0.0080259889 0.58631569 4281610529
0.4212558 -0.0080374628 0.58631581 4281610783
0.42187047 -0.0081509501 0.58631355 4281610783
0.42249578 -0.0083662122 0.58630884 4281675806
0.4231419 -0.0087852031 0.58629936 4281675039
0.42378134 -0.0091011077 0.58629233 4281741345
0.42443314 -0.009518221 0.58628291 4282136103
0.42508787 -0.0099343807 0.58627349 4281873955
0.42574558 -0.010349542 0.58626413 4281873955
0.42639557 -0.010661989 0.58625716 4281873955
0.42704803 -0.010973588 0.58625019 4282071334
0.42766953 -0.010979548 0.58625048 4281742630
0.42831481 -0.011188239 0.58624595 4280952610
0.42895037 -0.011294857 0.58624387 4280952610
0.4295637 -0.011198208 0.58624655 4281018403
0.43018961 -0.011202708 0.58624685 4281020202
0.43080413 -0.011105657 0.58624959 4281349167
0.43141916 -0.011008456 0.58625227 4281611819
0.43204755 -0.011012152 0.58625263 4281677610
0.4326638 -0.010914534 0.58625531 4281809196
0.43329391 -0.010917664 0.58625567 4281349415
0.433925 -0.010920465 0.58625603 4281283106
0.43457094 -0.011023641 0.586254 4281544736
0.43520424 -0.011025712 0.58625442 4281610529
0.43586722 -0.011228591 0.58625007 4281874216
0.43653217 -0.0114308 0.58624572 4281940009
0.43719909 -0.011632368 0.58624136 4282072113
0.43788302 -0.01193361 0.58623469 4282072113
0.43855414 -0.012133807 0.5862304 4281743403
0.43922719 -0.012333348 0.58622617 4282006829
0.43991804 -0.01263234 0.58621955 4283390270
0.4405953 -0.012830496 0.58621532 4282864441
0.44125819 -0.012928113 0.58621341 4283061820
0.44498205 -0.011912659 0.58623993 4279835408
0.4160437 -0.011120781 0.58686173 4281083417
0.41661465 -0.010616958 0.58687323 4280624147
0.41719109 -0.010216594 0.58688259 4280624149
0.41776654 -0.0098165721 0.58689189 4281805859
0.41834101 -0.0094168633 0.58690125 4282662447
0.4189145 -0.0090174973 0.58691055 4282925619
0.419487 -0.0086184293 0.58691984 4282794287
0.42005849 -0.0082196891 0.58692914 4282200099
0.42064589 -0.0080263019 0.58693409 4282135330
0.42125064 -0.0080377758 0.58693475 4281937949
0.42186531 -0.008151263 0.58693326 4281937949
0.42248148 -0.0082642585 0.58693177 4281937949
0.42310852 -0.0084789544 0.58692813 4281937179
0.42375684 -0.0088972002 0.5869202 4282201896
0.42439821 -0.009212479 0.58691448 4282399275
0.42505223 -0.0096288472 0.58690661 4281940261
0.42571956 -0.010146141 0.58689666 4281939746
0.42637971 -0.010560513 0.58688885 4281873953
0.4270319 -0.0108722 0.58688319 4282005539
0.42768657 -0.011183098 0.58687758 4281873955
0.42834371 -0.011493176 0.58687198 4281149476
0.42895678 -0.011396617 0.5868749 4280887071
0.42959407 -0.011502638 0.58687359 4281281829
0.43020859 -0.011405602 0.58687657 4281282599
0.43082362 -0.011308387 0.58687955 4281545771
0.43145177 -0.011312172 0.58688039 4281743407
0.43206802 -0.011214569 0.58688337 4281546796
0.43268478 -0.011116788 0.58688635 4281809968
0.43331537 -0.011119753 0.58688724 4281415208
0.43394694 -0.011122376 0.58688807 4281414433
0.43456566 -0.011023954 0.58689111 4281347870
0.43522716 -0.011227325 0.58688778 4281545249
0.43587628 -0.011329442 0.58688653 4282071082
0.43654144 -0.011531591 0.58688325 4282399277
0.43719375 -0.011632681 0.58688205 4282268974
0.43787771 -0.011933923 0.58687669 4282203181
0.4385488 -0.012134135 0.58687341 4281874986
0.43922186 -0.012333676 0.58687019 4282072365
0.43989688 -0.012532577 0.58686697 4282928953
0.44057387 -0.012730807 0.58686376 4283061570
0.44122019 -0.012728587 0.58686477 4282864191
0.4418841 -0.012825891 0.5868637 4281217831
0.44251585 -0.012723163 0.5868668 4280360727
0.44313106 -0.012520626 0.58687198 4279374602
0.44372898 -0.01221849 0.58687931 4279308809
0.4443264 -0.011916503 0.58688658 4279440398
0.44490552 -0.01151526 0.58689594 4280098580
0.4166095 -0.010617256 0.58749479 4281151261
0.41718593 -0.010216907 0.58750355 4280821526
0.41776139 -0.009816885 0.58751237 4281871906
0.41833586 -0.0094171762 0.5875212 4282794033
0.41890937 -0.0090177953 0.58752996 4283122998
0.4194898 -0.0087213963 0.58753687 4282859565
0.42006975 -0.008425191 0.58754373 4282528805
0.4206492 -0.008129105 0.58755058 4282266146
0.42124552 -0.0080380738 0.58755368 4282069535
0.42185128 -0.0080492198 0.58755487 4282069535
0.42246714 -0.0081623048 0.58755416 4282068765
0.42308453 -0.008274883 0.58755344 4282068252
0.42372268 -0.0085912049 0.58754897 4282136103
0.42437324 -0.0090087354 0.58754265 4282399275
0.42501655 -0.0093233436 0.58753824 4281940007
0.42570394 -0.01004459 0.58752626 4281808673
0.4263745 -0.010560825 0.58751816 4281873953
0.42703757 -0.010974213 0.5875119 4281939746
0.42770362 -0.011386633 0.5875057 4281545503
0.42836124 -0.011696562 0.58750141 4281084450
0.4289864 -0.011701271 0.58750272 4280887071
0.42961258 -0.011705697 0.58750409 4281347622
0.43023971 -0.011709794 0.58750546 4281414185
0.43085545 -0.011612356 0.58750868 4281808173
0.43147174 -0.011514738 0.5875119 4281809200
0.43208846 -0.011416972 0.58751518 4281415980
0.43271881 -0.011419997 0.58751655 4281679152
0.43333679 -0.011321828 0.58751976 4281349415
0.43395525 -0.011223495 0.58752304 4281414433
0.43458807 -0.01122573 0.58752447 4281282077
0.43523595 -0.01132828 0.587524 4281545249
0.43588531 -0.011430338 0.58752358 4282202668
0.43653613 -0.011531919 0.58752316 4282465068
0.43718845 -0.011633009 0.58752275 4282268974
0.4378573 -0.011833921 0.58752054 4282203181
0.43852815 -0.012034208 0.58751833 4282005802
0.43920094 -0.012233838 0.58751613 4282203179
0.43987572 -0.012432814 0.58751392 4282797113
0.44053638 -0.012531146 0.58751357 4283325523
0.44118223 -0.012529075 0.58751512 4282601800
0.44182909 -0.012526691 0.58751661 4280295702
0.44246009 -0.012424231 0.58752 4279965456
0.44307455 -0.012221918 0.58752519 4279439625
0.44365445 -0.011820436 0.58753401 4279373832
0.44423333 -0.011419266 0.58754289 4279571981
0.44481125 -0.011018425 0.58755171 4280230166
0.4453882 -0.010617912 0.58756053 4280427797
0.44596416 -0.010217711 0.58756936 4281675552
0.44650206 -0.0096194893 0.58758175 4282464816
0.44709432 -0.0093192011 0.58758873 4282596402
0.44764805 -0.0088210404 0.58759934 4282859567
0.41661105 -0.01072064 0.58811462 4283323977
0.41718078 -0.010217205 0.58812457 4282467380
0.41776344 -0.0099200904 0.58813125 4282465838
0.41833073 -0.0094174743 0.58814114 4282925621
0.4189119 -0.0091208518 0.58814776 4283451965
0.41948467 -0.0087217093 0.58815604 4282991664
0.42007279 -0.0085280687 0.58816105 4282791973
0.42065251 -0.0082319379 0.58816767 4282201119
0.42124906 -0.0081408024 0.58817095 4282135328
0.42185503 -0.0081518739 0.58817267 4282069535
0.42246202 -0.0081626028 0.58817434 4282003224
0.42306995 -0.0081730038 0.58817607 4282002711
0.42369822 -0.0083872974 0.58817452 4281807908
0.42432842 -0.0086009353 0.58817303 4281939494
0.42500123 -0.0092217177 0.58816499 4281809191
0.42566755 -0.0097393245 0.58815861 4281742628
0.426348 -0.010357574 0.58815068 4281676835
0.42703235 -0.010974526 0.58814275 4281479456
0.42772064 -0.011590183 0.58813488 4281347872
0.42837873 -0.011899918 0.58813184 4281084446
0.42901602 -0.01200597 0.58813208 4280887069
0.42963105 -0.01190877 0.5881356 4281281827
0.43025869 -0.011912704 0.58813745 4283451711
0.43087494 -0.011815086 0.58814096 4283912264
0.43150431 -0.011818439 0.58814287 4282269492
0.43210891 -0.011619374 0.588148 4281875761
0.43273973 -0.01162225 0.58814991 4281678382
0.43334487 -0.011423036 0.58815497 4281546794
0.43396357 -0.011324629 0.58815849 4281611560
0.43459663 -0.01132676 0.58816046 4281216032
0.43524474 -0.01142925 0.58816075 4281413411
0.43588001 -0.011430651 0.58816272 4282071082
0.43653083 -0.011532232 0.58816308 4282465068
0.43718314 -0.011633322 0.58816344 4282334765
0.43783692 -0.011733919 0.58816385 4282268972
0.43849218 -0.01183404 0.58816421 4281874984
0.43916446 -0.01203385 0.58816308 4281743398
0.43982294 -0.012132898 0.5881635 4283388482
0.44048285 -0.012231469 0.58816391 4283586648
0.44111165 -0.012129739 0.58816755 4281020721
0.4417575 -0.012127668 0.58816957 4279834131
0.44237074 -0.011925772 0.58817476 4279505418
0.44298398 -0.011723876 0.58817995 4279439625
0.44356263 -0.011322796 0.58818823 4279900174
0.44415784 -0.01102154 0.58819503 4280294932
0.44471699 -0.010521591 0.58820486 4280887321
0.44527468 -0.010022148 0.5882147 4281347359
0.44586742 -0.0097216964 0.58822143 4282005541
0.44642267 -0.0092230588 0.58823127 4282531631
0.44699517 -0.0088239908 0.58823955 4282663217
0.4475857 -0.0085242838 0.58824623 4282794287
0.44819498 -0.0083236843 0.58825141 4282860078
0.41717565 -0.010217518 0.58874559 4282863428
0.4177511 -0.0098174959 0.58875334 4282598709
0.41833302 -0.0095206201 0.58875972 4283122998
0.41891447 -0.0092239082 0.5887661 4283583549
0.41948748 -0.0088246912 0.58877385 4283254838
0.42006767 -0.0085283816 0.58878022 4282923813
0.42065582 -0.008334741 0.58878517 4282135326
0.42125261 -0.0082435459 0.58878875 4281938461
0.42184991 -0.008152172 0.58879238 4281806875
0.42245686 -0.0081629157 0.58879459 4281806615
0.42306483 -0.0081733167 0.58879679 4281806615
0.42367375 -0.0081834048 0.58879906 4281675806
0.42431337 -0.0084992498 0.58879721 4281675806
0.42495546 -0.0088142604 0.58879536 4281742630
0.42702711 -0.010974839 0.58877361 4281347618
0.42771539 -0.011590496 0.58876777 4281282079
0.42839622 -0.012103319 0.58876336 4281216032
0.42903402 -0.012209207 0.58876437 4280887069
0.42966139 -0.0122132 0.58876681 4281216034
0.43027765 -0.012115613 0.58877051 4283714624
0.43089437 -0.012017816 0.58877432 4283846208
0.43151161 -0.011919901 0.58877808 4282663478
0.43212935 -0.011821792 0.58878183 4282466099
0.43273446 -0.011622563 0.58878696 4281940782
0.43335292 -0.011524245 0.58879071 4282006575
0.43397188 -0.011425748 0.58879447 4281808169
0.43460518 -0.01142782 0.58879691 4281281312
0.43523943 -0.011429563 0.58879942 4281478691
0.4358747 -0.011430964 0.58880186 4281939242
0.43651095 -0.011432067 0.5888043 4282202668
0.437163 -0.011533245 0.5888055 4282268974
0.43781653 -0.011633903 0.58880663 4282072622
0.43845621 -0.011633873 0.58880913 4281941036
0.43911245 -0.011733666 0.58881032 4281809191
0.43977016 -0.011832997 0.58881152 4282202920
0.4404133 -0.011831805 0.58881402 4280162581
0.44104111 -0.011730388 0.58881789 4279965202
0.4416694 -0.011628807 0.58882177 4279374348
0.44228142 -0.011427313 0.58882695 4279243271
0.4428764 -0.011126146 0.58883339 4279440648
0.44348815 -0.010924742 0.58883858 4280492050
0.4440473 -0.010424808 0.5888477 4280952601
0.44462278 -0.010024771 0.58885545 4281742369
0.44519725 -0.0096250623 0.58886319 4282005287
0.44577074 -0.0092256814 0.58887094 4282335019
0.44636178 -0.0089258105 0.58887744 4282598191
0.44697106 -0.008725211 0.58888257 4282598191
0.44754237 -0.0083265603 0.58889031 4282663469
0.44817042 -0.0082250535 0.58889419 4282860078
0.44877946 -0.0080245286 0.58889931 4282925869
0.41774598 -0.009817794 0.58937383 4282796088
0.41832045 -0.0094180852 0.5893811 4283254584
0.41890931 -0.0092242062 0.58938605 4283583549
0.41949028 -0.0089276731 0.58939219 4283386424
0.42007071 -0.008631289 0.58939826 4282923813
0.4206591 -0.0084375739 0.58940327 4282201373
0.42124748 -0.0082438588 0.58940822 4281938461
0.42184478 -0.0081524849 0.58941209 4281806875
0.42245173 -0.0081632286 0.58941483 4281609496
0.42305967 -0.0081736296 0.58941758 4281675289
0.42365894 -0.0080816001 0.58942145 4281938463
0.42428839 -0.0082955062 0.58942199 4281609498
0.42492998 -0.0086106807 0.58942145 4281610277
0.42772129 -0.011692435 0.58939958 4281742117
0.42841375 -0.012306705 0.58939588 4281414435
0.429052 -0.012412414 0.58939773 4280952862
0.42967987 -0.012416258 0.58940065 4281084448
0.4302966 -0.012318492 0.58940464 4282925621
0.43091384 -0.012220562 0.58940864 4283649342
0.43151894 -0.012021333 0.58941376 4282926389
0.43212408 -0.011822104 0.58941889 4282794803
0.43275538 -0.011824831 0.58942187 4282137388
0.43336099 -0.011625439 0.58942693 4282006318
0.4339802 -0.011526853 0.58943099 4281807656
0.43459988 -0.011428133 0.58943504 4281412128
0.43523416 -0.011429876 0.58943802 4281609507
0.43585509 -0.011330709 0.58944207 4281807658
0.43649107 -0.011331886 0.58944505 4282071082
0.43712804 -0.01133275 0.58944803 4282203181
0.43778107 -0.011433586 0.58945 4282138161
0.43842027 -0.011433706 0.58945298 4282006575
0.43907601 -0.011533663 0.58945495 4281743400
0.43970162 -0.01143299 0.58945906 4282005287
0.44034374 -0.011432141 0.5894621 4280096788
0.44097057 -0.011331052 0.58946621 4279767823
0.44158134 -0.01112996 0.58947134 4279374348
0.44219214 -0.010928869 0.58947653 4279309064
0.44278586 -0.010628119 0.58948272 4279901199
0.44336182 -0.010227919 0.58949 4280754452
0.44395432 -0.009927541 0.5894962 4281412382
0.44452858 -0.0095279366 0.58950341 4281939748
0.44511983 -0.0092279762 0.58950961 4282400045
0.44571063 -0.0089281946 0.58951581 4282598191
0.44630092 -0.0086285621 0.589522 4282598191
0.44692823 -0.0085273236 0.58952612 4282598191
0.44751805 -0.0082278401 0.58953232 4282663469
0.44814587 -0.0081264377 0.58953643 4282794285
0.44873515 -0.0078271329 0.58954257 4282794283
0.44936347 -0.0077255517 0.58954668 4282925608
0.45001224 -0.0077225119 0.58954978 4282728229
0.41832274 -0.0095212311 0.59000021 4283320629
0.41890419 -0.0092245191 0.59000605 4283649594
0.41949305 -0.0090306401 0.590011 4283386422
0.42008191 -0.0088367611 0.59001601 4282858283
0.42067081 -0.0086428821 0.59002095 4282070049
0.42126834 -0.0085514486 0.59002507 4281806875
0.42186639 -0.0084598213 0.59002918 4281938461
0.42246491 -0.0083680451 0.59003335 4281543703
0.42305452 -0.0081739277 0.5900383 4281740568
0.42366344 -0.0081840158 0.59004158 4282069797
0.42428324 -0.0082958043 0.59004402 4282201383
0.42491466 -0.0085090399 0.59004563 4282597689
0.42843121 -0.012510106 0.59002948 4283983188
0.42906997 -0.012615636 0.59003204 4281413152
0.4296746 -0.012416571 0.59003717 4281544738
0.43029132 -0.012318805 0.59004146 4282069545
0.43090856 -0.012220874 0.59004575 4283912262
0.43152627 -0.012122795 0.59005004 4285360478
0.43213165 -0.011923492 0.59005511 4282794551
0.43273699 -0.011724174 0.59006023 4282070058
0.43335572 -0.011625752 0.59006453 4282201133
0.43396133 -0.011426374 0.59006965 4281872679
0.4345946 -0.011428446 0.59007317 4281477921
0.43522885 -0.011430189 0.59007663 4281543714
0.43583545 -0.011230484 0.59008175 4281478693
0.43647119 -0.01123172 0.59008527 4281479458
0.43710792 -0.011232659 0.59008878 4281874986
0.43774563 -0.011233255 0.5900923 4281875759
0.43838432 -0.011233553 0.59009582 4281809966
0.43900844 -0.011133358 0.59010017 4281677605
0.43964887 -0.01113306 0.59010369 4281676837
0.44025815 -0.01093246 0.59010887 4279899922
0.44088376 -0.010831773 0.59011322 4279570957
0.4414933 -0.010631084 0.59011835 4279702797
0.44208604 -0.010330662 0.59012431 4280492309
0.44269535 -0.010130048 0.59012944 4280690458
0.44327009 -0.0097302794 0.59013617 4281347357
0.44386137 -0.0094303191 0.59014213 4281544736
0.44443437 -0.0090310872 0.59014887 4282136357
0.44502443 -0.008731544 0.59015477 4282663984
0.44563225 -0.0085314363 0.59015989 4282663984
0.44625857 -0.0084304959 0.59016424 4282466605
0.44688541 -0.0083294213 0.5901686 4282598191
0.44749373 -0.0081291348 0.59017378 4282860078
0.44810203 -0.0079288632 0.59017891 4282860076
0.44872984 -0.0078274459 0.59018326 4282794283
0.44933841 -0.0076270849 0.59018844 4282991401
0.44996697 -0.0075254291 0.59019279 4282859815
0.45057577 -0.0073249936 0.59019792 4282860582
0.41890672 -0.0093275905 0.59062541 4283649594
0.41949585 -0.0091336221 0.59063035 4283320629
0.42008495 -0.0089396685 0.59063536 4282727213
0.42069092 -0.0089507103 0.59063911 4282070049
0.42128053 -0.0087565929 0.59064412 4281806877
0.42187905 -0.0086648166 0.59064847 4281938463
0.42246893 -0.0084706098 0.59065348 4281543705
0.42307758 -0.0084807873 0.59065729 4281609498
0.42367759 -0.0083885193 0.59066164 4282004006
0.42427808 -0.0082961172 0.59066606 4283648831
0.4249095 -0.0085093528 0.59066868 4283980112
0.42969304 -0.012619644 0.59067255 4281544997
0.43029815 -0.012420416 0.59067768 4282004006
0.43091562 -0.012322411 0.59068221 4283912003
0.4315336 -0.012224227 0.5906868 4286873971
0.43213922 -0.01202485 0.59069186 4282071082
0.43275791 -0.011926427 0.59069645 4282134824
0.43336377 -0.011726961 0.59070158 4282069549
0.43396962 -0.011527494 0.59070671 4281806375
0.4345893 -0.011428759 0.59071124 4281347105
0.43518132 -0.011128545 0.59071696 4281412898
0.43583015 -0.011230797 0.59072036 4281478693
0.43646589 -0.011232033 0.59072441 4281544738
0.4370878 -0.011132568 0.590729 4281743403
0.4377102 -0.011032939 0.59073359 4281809196
0.43834838 -0.011033371 0.59073758 4281809196
0.438972 -0.010933354 0.59074223 4281677607
0.43959612 -0.010833144 0.59074682 4281546021
0.44020468 -0.010632783 0.59075195 4279965715
0.44079694 -0.010332525 0.59075761 4279636750
0.44140527 -0.010132238 0.59076279 4280031508
0.44199678 -0.0098321885 0.59076846 4280690460
0.44258782 -0.0095323324 0.59077412 4280887837
0.44317839 -0.0092326254 0.59077978 4281675552
0.44376844 -0.0089330673 0.59078544 4281872931
0.44435799 -0.0086336881 0.59079111 4282202150
0.44496506 -0.0084338188 0.59079623 4282663984
0.44557214 -0.0082339495 0.59080136 4282729777
0.44619775 -0.0081332475 0.59080601 4282598191
0.44684258 -0.008131519 0.59081012 4282598191
0.4474504 -0.0079313964 0.59081525 4282860080
0.44805825 -0.0077312887 0.59082037 4282794285
0.44870505 -0.0077289045 0.59082448 4282794283
0.44931334 -0.007528618 0.59082961 4282860330
0.44994164 -0.0074270368 0.59083426 4282860330
0.4505502 -0.0072266757 0.59083939 4282860582
0.45115876 -0.0070263147 0.59084457 4282860582
0.41950655 -0.0093392581 0.59124988 4283124022
0.42010432 -0.0092477351 0.59125453 4282595629
0.42070261 -0.0091560483 0.59125918 4282069283
0.42131004 -0.0091666132 0.59126347 4281871904
0.42190957 -0.009074524 0.59126812 4281806879
0.42250955 -0.0089822561 0.59127277 4281873185
0.42311004 -0.008889854 0.59127742 4281675806
0.42371103 -0.0087972432 0.59128207 4282201896
0.4243125 -0.0087045133 0.59128678 4284109893
0.42493474 -0.0088154823 0.59129077 4284310102
0.42971149 -0.012822703 0.59130901 4282138161
0.4303171 -0.012623325 0.59131414 4281808421
0.43092272 -0.012423933 0.59131926 4282463271
0.43154091 -0.012325674 0.59132403 4287136112
0.43214676 -0.012126207 0.59132916 4284372806
0.43275261 -0.01192674 0.59133428 4282004267
0.43335849 -0.011727273 0.59133941 4281807660
0.43396434 -0.011527807 0.59134454 4281741863
0.43457019 -0.01132834 0.59134966 4281412898
0.43520421 -0.011330158 0.59135419 4281412898
0.43582487 -0.011231109 0.59135902 4281478691
0.43643147 -0.011031404 0.59136415 4281544738
0.43706769 -0.011032477 0.59136868 4281677864
0.43768981 -0.010932922 0.5913735 4281611560
0.43831247 -0.010833219 0.59137833 4281677353
0.43893558 -0.010733336 0.59138322 4281611560
0.43954343 -0.010533229 0.59138834 4281414181
0.44015124 -0.010333106 0.59139347 4280491546
0.44075906 -0.010132998 0.5913986 4280096788
0.44135034 -0.0098330528 0.59140402 4280688674
0.44194114 -0.0095332414 0.59140944 4281150759
0.44253144 -0.0092336237 0.59141487 4281414181
0.44312125 -0.0089341551 0.59142029 4282005287
0.44371057 -0.0086348653 0.59142566 4282202666
0.44429937 -0.0083357096 0.59143108 4282400558
0.44490573 -0.0081360787 0.59143621 4282598191
0.44553033 -0.0080357343 0.59144104 4282663984
0.44613692 -0.007836014 0.59144616 4282598191
0.44678101 -0.007834509 0.59145081 4282598191
0.44738811 -0.0076346397 0.59145594 4282729264
0.44803369 -0.0076326579 0.59146053 4282794287
0.44864124 -0.0074326247 0.59146565 4282794285
0.44928831 -0.0074301511 0.5914703 4282925869
0.44989637 -0.007229954 0.59147543 4282860076
0.45052469 -0.0071283877 0.59148031 4282860328
0.45113298 -0.0069281012 0.5914855 4282860328
0.45174131 -0.0067278296 0.59149063 4282794283
0.42013186 -0.0096584111 0.5918752 4282595629
0.42073113 -0.0095663816 0.59188008 4282069283
0.42133954 -0.0095766336 0.59188491 4281806111
0.42194003 -0.0094842166 0.5918898 4281937951
0.42254102 -0.0093916208 0.59189475 4281938465
0.42314249 -0.0092988908 0.59189969 4281873183
0.42374447 -0.0092059821 0.59190458 4282465068
0.42433703 -0.0090108812 0.59190959 4284109893
0.42558447 -0.0092318654 0.59191918 4284967262
0.43032393 -0.012724921 0.59195167 4282334765
0.43092978 -0.012525454 0.59195679 4282990639
0.43153563 -0.012325987 0.59196186 4285754205
0.43214148 -0.01212652 0.59196699 4286214756
0.43276042 -0.012028039 0.59197205 4282269490
0.43335319 -0.011727586 0.59197724 4281809198
0.43395904 -0.011528119 0.59198236 4281677614
0.43457872 -0.011429384 0.59198743 4281282597
0.43518484 -0.011229843 0.59199256 4281282597
0.43580523 -0.011130854 0.59199768 4281281825
0.43642616 -0.011031717 0.59200275 4281347618
0.43704757 -0.010932386 0.59200788 4281808169
0.43766946 -0.010832921 0.59201294 4281611562
0.43827656 -0.010633051 0.59201807 4281677355
0.43889919 -0.010533333 0.59202319 4281414183
0.4395065 -0.010333374 0.59202832 4281216804
0.44011384 -0.01013343 0.59203345 4280623386
0.44070488 -0.0098335594 0.59203863 4280886304
0.44129544 -0.0095338374 0.59204376 4281149476
0.44188547 -0.0092343092 0.59204888 4281742378
0.44247505 -0.0089349151 0.59205407 4281874986
0.44306412 -0.0086356997 0.5920592 4282138158
0.44365269 -0.0083366334 0.59206432 4282269744
0.44424078 -0.0080377311 0.59206945 4282467123
0.44484639 -0.0078383535 0.59207457 4282335535
0.44547024 -0.0077382177 0.5920797 4282533168
0.4460946 -0.0076379627 0.59208483 4282466603
0.44673821 -0.0076366216 0.59208995 4282663982
0.44736379 -0.0075359195 0.59209508 4282794285
0.44798988 -0.0074350834 0.5921002 4282794283
0.44863594 -0.0074329376 0.59210533 4282859817
0.44924352 -0.0072329044 0.59211046 4282925610
0.44987109 -0.0071315616 0.59211564 4282925610
0.45049912 -0.0070300698 0.59212077 4282925608
0.4511072 -0.0068298727 0.59212589 4282794537
0.45169455 -0.0065312237 0.59213102 4282794283
0.45232335 -0.0064294785 0.5921362 4282794283
0.42076805 -0.01007925 0.59250325 4282135076
0.42136037 -0.0098842382 0.59250826 4282069283
0.42197049 -0.0098939091 0.59251362 4281872931
0.42256331 -0.0096987337 0.59251863 4281741345
0.4231655 -0.0096057504 0.59252381 4281873183
0.42376822 -0.0095126033 0.592529 4282860596
0.42437142 -0.0094193071 0.59253418 4284439628
0.4249751 -0.0093258023 0.59253943 4284902239
0.43154293 -0.012427449 0.59259993 4284767050
0.43213618 -0.012126833 0.59260488 4286543461
0.43274206 -0.011927366 0.59261 4282335283
0.43334791 -0.011727899 0.59261507 4282006577
0.43395376 -0.011528432 0.59262019 4281809970
0.43455961 -0.011328965 0.59262532 4281217059
0.43517953 -0.011230156 0.59263068 4281217059
0.43579996 -0.011131167 0.59263605 4281216286
0.43640628 -0.010931537 0.59264117 4281347872
0.43702745 -0.01083231 0.59264648 4281742376
0.4376491 -0.010732904 0.59265184 4281611560
0.43825594 -0.010533109 0.59265697 4281743146
0.43886277 -0.010333329 0.5926621 4281282597
0.43946964 -0.010133535 0.59266722 4280953632
0.44006041 -0.009833768 0.59267211 4280689179
0.440667 -0.0096340477 0.5926773 4281083937
0.44124052 -0.0092346668 0.59268188 4281281316
0.44182986 -0.0089353472 0.59268677 4281874216
0.44241866 -0.0086362064 0.59269166 4282072363
0.44300699 -0.0083372295 0.59269655 4282203949
0.44359484 -0.0080384016 0.59270144 4282467123
0.44419995 -0.007839188 0.5927065 4282467123
0.44480509 -0.0076399595 0.59271163 4282467121
0.44542843 -0.0075400174 0.59271699 4282467375
0.44605231 -0.0074398965 0.59272242 4282598189
0.44669542 -0.0074387193 0.59272802 4282598189
0.4473395 -0.0074372292 0.59273368 4282794283
0.44796535 -0.0073364377 0.59273905 4282662951
0.44861117 -0.0073343813 0.59274471 4282728231
0.44919875 -0.0070356578 0.5927496 4282925610
0.44984579 -0.0070331842 0.59275526 4282859817
0.45047361 -0.0069317669 0.59276068 4282859817
0.45108142 -0.0067316443 0.59276581 4282662697
0.45166853 -0.0064330846 0.5927707 4282531881
0.45227611 -0.0062330514 0.59277582 4282794283
0.45294732 -0.0063278973 0.59278178 4282860076
0.42139849 -0.010396689 0.59313399 4281873701
0.42198312 -0.010098919 0.59313858 4281807908
0.42258558 -0.010005862 0.59314406 4281938724
0.42319793 -0.010014802 0.59314996 4281675552
0.42381126 -0.01002343 0.59315586 4283255869
0.4321309 -0.012127146 0.5932427 4283517497
0.43272367 -0.011826709 0.59324735 4282926389
0.43331593 -0.011526451 0.593252 4282203699
0.4339349 -0.011427939 0.59325761 4281875509
0.43454048 -0.011228561 0.59326273 4281217059
0.43516016 -0.011129811 0.59326828 4281151266
0.43578035 -0.011030912 0.59327388 4281347870
0.43638644 -0.010831371 0.593279 4281545249
0.43699253 -0.010631815 0.59328413 4281742630
0.4376137 -0.010532588 0.59328973 4281742376
0.43823534 -0.010433212 0.5932954 4281742376
0.43884194 -0.010233492 0.59330052 4280953630
0.43943274 -0.0099336952 0.59330511 4280952862
0.44003907 -0.0097340643 0.59331024 4280887067
0.44061285 -0.009334594 0.59331441 4281216284
0.4412187 -0.0091351271 0.59331954 4281413663
0.441791 -0.0087361634 0.59332365 4282202916
0.44237933 -0.0084371716 0.59332824 4282334502
0.44298443 -0.0082379431 0.59333336 4282466090
0.44357204 -0.0079392195 0.59333795 4282663469
0.44417691 -0.0077400655 0.59334308 4282663469
0.44478178 -0.0075409263 0.59334821 4282663982
0.44540492 -0.0074410439 0.59335381 4282400810
0.44602853 -0.0073410273 0.59335947 4282400295
0.44665265 -0.007240817 0.59336507 4282663467
0.44729623 -0.0072394907 0.59337127 4282794537
0.44794083 -0.0072378367 0.59337741 4282465059
0.44858637 -0.00723584 0.59338361 4282398752
0.44919345 -0.0070359707 0.59338874 4282728231
0.44980055 -0.0068360865 0.59339386 4282662438
0.45042783 -0.0067348331 0.59339952 4282794283
0.45105565 -0.0066334307 0.59340519 4282466090
0.45166323 -0.0064333975 0.59341031 4282400295
0.45227081 -0.0062333643 0.59341544 4282400547
0.45285717 -0.0059350133 0.59342009 4282663719
0.4327184 -0.011827037 0.59388494 4283385911
0.43331066 -0.011526763 0.5938893 4282203699
0.43391603 -0.01132746 0.59389442 4281809718
0.43453521 -0.011228874 0.59390026 4281217059
0.43514082 -0.011029482 0.59390539 4281151266
0.43574643 -0.010830089 0.59391052 4281413663
0.43636659 -0.01073119 0.59391642 4281545251
0.43698725 -0.010632142 0.59392226 4281676583
0.43759334 -0.010432586 0.59392738 4281742376
0.43819946 -0.01023303 0.59393251 4281544997
0.43882111 -0.010133639 0.59393835 4281084446
0.43941164 -0.0098339319 0.59394276 4281083933
0.4400017 -0.0095343739 0.59394711 4281083933
0.44059128 -0.0092349946 0.59395146 4281282077
0.44118035 -0.0089357793 0.59395581 4281479456
0.44176894 -0.008636713 0.59396023 4282203170
0.44237405 -0.0084374845 0.59396529 4282268963
0.4429619 -0.0081386715 0.59396964 4282400297
0.44356677 -0.0079395324 0.59397477 4282663467
0.44417164 -0.0077403784 0.5939799 4282663467
0.44477651 -0.0075412393 0.59398502 4282663467
0.44539961 -0.0074413568 0.59399092 4282400295
0.44600475 -0.0072421432 0.59399599 4282465318
0.4466286 -0.0071420223 0.59400189 4282662697
0.44727194 -0.0071407706 0.59400856 4282662184
0.44791627 -0.007139191 0.59401524 4282399012
0.44856158 -0.0071372837 0.59402198 4282267426
0.44918817 -0.0070362836 0.59402788 4282466088
0.44979525 -0.0068364143 0.594033 4282466088
0.45042256 -0.006735146 0.5940389 4282466601
0.45102987 -0.0065352023 0.59404403 4282335017
0.45163721 -0.0063352436 0.59404922 4282335015
0.4522655 -0.0062336773 0.59405512 4282334754
0.45285186 -0.0059353262 0.59405947 4282466340
0.4534592 -0.0057353824 0.59406459 4282662951
0.43268692 -0.011625394 0.59452051 4287267180
0.43329203 -0.011426181 0.59452564 4282531381
0.43389717 -0.011226952 0.59453076 4281677109
0.4345161 -0.011128455 0.5945369 4281217063
0.43512145 -0.010929152 0.59454197 4281151270
0.43572682 -0.010729849 0.59454709 4281413663
0.43634674 -0.010631025 0.59455323 4281676583
0.43696716 -0.010532036 0.59455937 4281544997
0.43757302 -0.010332569 0.5945645 4281676583
0.43817887 -0.010133103 0.59456962 4281281825
0.43878472 -0.0099336356 0.59457469 4281216032
0.43939057 -0.0097341686 0.59457982 4281609761
0.43998039 -0.0094347 0.59458393 4281543453
0.4405697 -0.0091354102 0.59458804 4281873181
0.44115853 -0.0088362545 0.59459215 4281873181
0.44176364 -0.008637026 0.59459728 4282202400
0.44235176 -0.0083381236 0.59460133 4282333732
0.44295663 -0.0081389844 0.59460646 4282399527
0.44356149 -0.0079398453 0.59461159 4282662697
0.44416636 -0.0077406913 0.59461671 4282794283
0.44477123 -0.0075415522 0.59462184 4282532135
0.44539434 -0.0074416697 0.59462798 4282400295
0.44599944 -0.0072424561 0.5946331 4282465318
0.44662333 -0.0071423501 0.59463924 4282596904
0.44726667 -0.0071410835 0.59464639 4282596391
0.44791099 -0.007139504 0.59465361 4282399014
0.44853681 -0.0070387572 0.59465981 4282136353
0.44916314 -0.0069378018 0.59466594 4282269222
0.44978994 -0.0068367273 0.59467214 4282269222
0.45039701 -0.0066368431 0.59467727 4282203429
0.45102459 -0.0065355152 0.59468347 4282269222
0.4516319 -0.0063355565 0.59468859 4282335015
0.45223925 -0.0061355978 0.59469372 4282335015
0.45282537 -0.0058373511 0.59469777 4282466601
0.45341098 -0.0055392534 0.59470189 4282466088
0.43327343 -0.011325598 0.5951615 4282399793
0.4338783 -0.011126459 0.59516656 4281677109
0.434497 -0.011028036 0.59517294 4281152040
0.43510211 -0.010828808 0.59517807 4281020454
0.43570721 -0.010629594 0.59518319 4281282849
0.43632689 -0.010530859 0.59518957 4281611562
0.43694705 -0.010431945 0.59519595 4281414181
0.43755266 -0.010232568 0.59520108 4281348642
0.43815827 -0.010033175 0.5952062 4281085470
0.43876389 -0.0098337978 0.59521127 4281347872
0.4393537 -0.0095343292 0.59521514 4281741345
0.43995905 -0.0093350261 0.59522027 4281938465
0.44054815 -0.0090357959 0.59522408 4282070560
0.44115326 -0.0088365674 0.59522921 4282004767
0.44174159 -0.0085375905 0.59523308 4282333734
0.44234645 -0.0083384365 0.59523815 4282202148
0.44295132 -0.0081392974 0.59524328 4282399527
0.44355622 -0.0079401582 0.5952484 4282662697
0.44416106 -0.0077410191 0.59525353 4282662697
0.44476593 -0.0075418651 0.59525859 4282531881
0.44538906 -0.0074419826 0.59526503 4282400295
0.44599417 -0.007242769 0.59527016 4282531111
0.44661802 -0.007142663 0.59527653 4282662697
0.44724238 -0.0070423782 0.59528297 4282531111
0.44788647 -0.0070408881 0.59529066 4282531111
