# .PCD v0.7 - Point Cloud Data file format
VERSION 0.7
FIELDS x y z rgb
SIZE 4 4 4 4
TYPE F F F U
COUNT 1 1 1 1
WIDTH 1068
HEIGHT 1
VIEWPOINT 0 0 0 1 0 0 0
POINTS 1068
DATA ascii
0.45330513 0.062285021 0.50056392 4279243538
0.45372307 0.062151864 0.50056762 4279243540
0.45425138 0.062200472 0.50053054 4279309333
0.45466882 0.062067479 0.50053418 4279177747
0.45514095 0.062025532 0.50051749 4279243288
0.45555812 0.061892614 0.50052112 4279243542
0.4560295 0.061850891 0.50050437 4279309081
0.45644644 0.061718062 0.50050807 4279177495
0.4684152 0.071898594 0.49792299 4278915606
0.46880031 0.071775898 0.49792635 4278915608
0.46918538 0.071653202 0.49792975 4279046931
0.4696205 0.071623057 0.4979127 4279046931
0.47000533 0.071500435 0.49791607 4278850835
0.4704397 0.071470529 0.49789903 4278850835
0.4708243 0.071347982 0.49790239 4278915860
0.47120887 0.071225449 0.49790576 4279111956
0.47159347 0.071102917 0.49790913 4279111956
0.47197807 0.07098037 0.4979125 4279177495
0.47236264 0.070857838 0.49791586 4279111706
0.47269917 0.070642129 0.49793968 4279111954
0.47303623 0.070426255 0.49796349 4279111954
0.47337374 0.070210233 0.49798727 4278981136
0.47371179 0.069994062 0.49801111 4278981140
0.47400323 0.069684237 0.49805537 4278981140
0.47434247 0.069467664 0.49807918 4278981653
0.47468221 0.069250926 0.49810302 4278981653
0.47497612 0.068940312 0.49814731 4279046933
0.47522497 0.068535596 0.49821204 4279111954
0.47552112 0.068224281 0.49825633 4279177749
0.47581825 0.067912653 0.49830064 4279177749
0.47616169 0.067694739 0.49832451 4279046933
0.47650564 0.067476675 0.49834839 4279046933
0.47680524 0.067164272 0.4983927 4278981138
0.48562363 -0.012775078 0.51329589 4279376147
0.48621571 -0.012855262 0.51328027 4280229659
0.48678076 -0.013035297 0.51328522 4280492831
0.48734581 -0.013215333 0.51329017 4281543464
0.48788476 -0.013495505 0.51331574 4281544234
0.48845005 -0.01367563 0.51332068 4281939496
0.48901531 -0.013855726 0.51332563 4282729775
0.4895806 -0.014035836 0.51333058 4282795568
0.4901208 -0.01431644 0.51335615 4282796340
0.42329606 0.070232347 0.50103986 4282132521
0.42371818 0.070097849 0.50104356 4281017122
0.42406809 0.069878012 0.5010677 4280031781
0.42463434 0.069914296 0.5010305 4280163367
0.42498451 0.06969437 0.50105464 4279834655
0.42533517 0.06947431 0.50107884 4279703321
0.4256863 0.069254085 0.50110298 4279637280
0.42603794 0.069033697 0.50112712 4279637280
0.42631933 0.068727344 0.50117177 4279505188
0.42660174 0.068420678 0.50121641 4279505440
0.42688513 0.0681137 0.501261 4279178269
0.42716947 0.067806408 0.50130564 4279244062
0.42745483 0.067498788 0.50135034 4279112737
0.42781067 0.067277074 0.50137454 4279375659
0.42809772 0.066968903 0.50141919 4279374626
0.42845482 0.066746786 0.50144339 4279571228
0.42881238 0.066524535 0.50146759 4279768607
0.42917043 0.066302106 0.50149179 4279375128
0.42952895 0.066079527 0.50151604 4279244060
0.42995602 0.06594345 0.5015198 4279244060
0.43024755 0.065633878 0.5015645 4279375646
0.43060756 0.065410823 0.5015887 4279178780
0.43103534 0.065274522 0.50159246 4279178530
0.43139613 0.065051228 0.50161672 4279375646
0.43182415 0.064914852 0.50162047 4279441691
0.43218565 0.064691305 0.50164473 4279244312
0.43248141 0.064380407 0.50168943 4279375126
0.43291017 0.064243793 0.50169319 4279506710
0.43327317 0.064019799 0.50171745 4279177747
0.43363664 0.063795641 0.50174171 4279177747
0.43400061 0.063571319 0.50176597 4279176979
0.43430004 0.063259229 0.50181079 4279111956
0.43466526 0.063034505 0.50183505 4278914575
0.43496642 0.062721863 0.50187981 4278848780
0.44234103 0.062755793 0.50148076 4279244058
0.44282719 0.062709242 0.50146395 4279046944
0.44325227 0.062573805 0.50146765 4278981919
0.44367734 0.062438369 0.5014714 4278916126
0.44422263 0.062481329 0.50143403 4279112985
0.44464719 0.062346056 0.50143772 4279047192
0.44519103 0.062389463 0.50140035 4279112735
0.44573385 0.062433213 0.50136298 4279112474
0.44627565 0.062477261 0.50132555 4279112474
0.4468165 0.062521636 0.50128812 4279178519
0.44729775 0.06247665 0.50127125 4279178519
0.44789523 0.062611327 0.50121331 4279178515
0.44843313 0.062656641 0.50117582 4279375898
0.44897002 0.062702268 0.50113839 4279375898
0.44944829 0.062658235 0.50112152 4279047192
0.44998348 0.062704414 0.50108403 4279178519
0.45046049 0.062660754 0.50106716 4279178267
0.45093703 0.062617257 0.50105023 4279178265
0.45141309 0.06257394 0.50103337 4279179030
0.45188862 0.062530771 0.50101644 4279179030
0.4523637 0.062487751 0.50099951 4279113235
0.45278233 0.062354356 0.50100315 4279243538
0.45325667 0.062311575 0.50098628 4279243538
0.45373049 0.062268957 0.50096935 4279177747
0.45420384 0.062226489 0.50095242 4279243540
0.45467669 0.06218417 0.50093549 4279177747
0.45514899 0.062142015 0.50091851 4279177749
0.45556644 0.062009022 0.5009222 4279243542
0.45603806 0.061967105 0.50090522 4279309335
0.45645523 0.061834186 0.50090891 4279243542
0.46929353 0.07193701 0.49826032 4279046931
0.46967837 0.071814388 0.49826369 4279046931
0.47006321 0.071691781 0.49826705 4278850835
0.47044805 0.07156916 0.49827042 4278850835
0.47088215 0.071539208 0.49825317 4278915860
0.47126675 0.071416676 0.4982565 4279111956
0.47170007 0.071386948 0.49823925 4279177749
0.47203591 0.071171597 0.49826327 4279177495
0.47246876 0.071142033 0.49824598 4279177497
0.47280508 0.070926517 0.49827 4279111956
0.47314191 0.070710853 0.49829403 4279046163
0.47347921 0.070495039 0.49831808 4278981138
0.47376978 0.070185766 0.49836275 4278981140
0.47410834 0.06996955 0.4983868 4278915093
0.47440058 0.06965974 0.4984315 4278915606
0.47474039 0.069443122 0.49845558 4278981399
0.47503436 0.06913276 0.49850032 4279046933
0.47528332 0.068728417 0.4985657 4279111956
0.47553372 0.068323582 0.49863115 4279308565
0.47587672 0.068105951 0.49865523 4279308565
0.47622022 0.06788817 0.49867931 4279046933
0.47651917 0.067576244 0.49872407 4279046933
0.47686386 0.067358062 0.49874818 4278981136
0.48568162 -0.012593746 0.51383227 4279506963
0.48622036 -0.012873754 0.51385808 4280229659
0.48681268 -0.012954131 0.51384223 4280492831
0.48735192 -0.013234288 0.51386797 4281609259
0.48789164 -0.013514608 0.51389378 4281675052
0.48845768 -0.013694942 0.51389879 4282005548
0.48904926 -0.01377508 0.51388288 4282466099
0.48961502 -0.013955355 0.51388782 4282729775
0.49015576 -0.014235973 0.51391363 4282927154
0.42250001 0.07006681 0.50154513 4282068783
0.42292359 0.06993185 0.50154883 4281607981
0.42341959 0.06988202 0.5015319 4280360742
0.42391512 0.069832355 0.50151491 4280031777
0.42433822 0.069697544 0.50151861 4279966241
0.4247613 0.069562748 0.50152236 4279637276
0.4251844 0.069427937 0.50152606 4279637530
0.42546517 0.069122061 0.50157112 4279505692
0.42581779 0.068901494 0.5015955 4279505692
0.42610028 0.068595082 0.50164056 4279374626
0.42638373 0.068288341 0.50168568 4279374624
0.42673838 0.068067133 0.50171006 4279112474
0.42709348 0.067845777 0.5017345 4279375646
0.42744911 0.067624256 0.50175893 4279178782
0.42773578 0.067316487 0.50180405 4279309862
0.4280926 0.067094579 0.50182843 4279374878
0.42844999 0.066872522 0.50185287 4279505433
0.42880782 0.066650301 0.50187731 4279768605
0.42916614 0.066427916 0.50190175 4279505942
0.42952499 0.066205367 0.50192618 4279375648
0.42988431 0.06598267 0.50195068 4279309085
0.43024412 0.065759808 0.50197512 4279374878
0.43060443 0.065536797 0.50199956 4279244058
0.43103248 0.065400422 0.50200331 4279375142
0.4313935 0.065177172 0.50202781 4279441441
0.43175507 0.064953774 0.50205225 4279507484
0.4321171 0.064730212 0.50207675 4279244312
0.43247965 0.064506501 0.50210118 4279505944
0.43284267 0.064282611 0.50212568 4279637526
0.43314046 0.063971311 0.50217092 4279242768
0.4334392 0.063659698 0.50221616 4279176975
0.43373895 0.063347772 0.50226134 4279046163
0.43410468 0.063123018 0.50228584 4278915347
0.43440616 0.06281054 0.50233114 4278783761
0.43483764 0.062673062 0.50233489 4278915347
0.43520486 0.062447846 0.50235939 4278914573
0.43563661 0.062310293 0.5023632 4278981389
0.43600458 0.062084839 0.5023877 4279046683
0.43916515 0.062809214 0.5020746 4279505683
0.43971777 0.062849566 0.50203681 4279308831
0.44082004 0.06293121 0.50196129 4279309085
0.44173443 0.06274806 0.501948 4279309081
0.44228289 0.062789753 0.50191021 4279375128
0.4427087 0.062654078 0.50191391 4279112476
0.44319507 0.062607318 0.50189686 4279178269
0.44368094 0.062560722 0.50187981 4279112989
0.44416636 0.06251429 0.50186276 4279178780
0.4445914 0.062378854 0.50186652 4279112985
0.44513565 0.062421873 0.50182867 4279047192
0.44561955 0.062375903 0.50181162 4279309081
0.44622114 0.062508851 0.50175297 4279374874
0.44676241 0.062552825 0.50171512 4279244058
0.4473027 0.062597111 0.50167727 4279309081
0.44784197 0.06264171 0.50163937 4279178519
0.44838029 0.062686622 0.50160152 4279441439
0.44885975 0.062642068 0.50158441 4279375646
0.44939631 0.062687531 0.5015465 4278916378
0.44993192 0.062733307 0.50150859 4279178267
0.45040941 0.062689379 0.50149143 4279374876
0.45094326 0.062735692 0.50145352 4279178265
0.45136291 0.062601984 0.50145721 4279179028
0.45183891 0.062558532 0.50144011 4279179028
0.45231444 0.062515244 0.50142294 4279112722
0.45273358 0.0623817 0.50142664 4279178517
0.45320836 0.062338635 0.50140947 4279178519
0.45373803 0.062386304 0.5013715 4279177747
0.45415643 0.062252983 0.5013752 4279243540
0.45462972 0.062210396 0.50135803 4279243540
0.45510253 0.062167972 0.50134087 4279112724
0.45557484 0.062125683 0.5013237 4279177749
0.45599249 0.061992601 0.50132734 4279178519
0.45646405 0.061950564 0.50131017 4279178519
0.45693514 0.061908692 0.501293 4279309335
0.46973628 0.072005734 0.49861467 4279046931
0.4701708 0.071975499 0.49859715 4278850833
0.47055539 0.071852952 0.49860054 4278850833
0.4709892 0.071822956 0.49858302 4278785044
0.47137356 0.071700498 0.49858639 4279046933
0.47180659 0.071670726 0.49856889 4278981140
0.47219071 0.071548343 0.49857226 4279111704
0.47252655 0.071333125 0.49859649 4279046681
0.47286296 0.071117729 0.49862075 4278980886
0.47319978 0.070902199 0.49864501 4279046679
0.47353715 0.070686489 0.49866927 4279046933
0.47387499 0.070470631 0.49869353 4278915347
0.47416636 0.070161387 0.49873868 4278980886
0.47450542 0.069945127 0.49876294 4279046679
0.47484502 0.069728732 0.49878722 4279046679
0.47509259 0.069325209 0.4988533 4279111954
0.47534165 0.068921238 0.4989194 4279111954
0.4755922 0.068516761 0.4989855 4279308563
0.47593522 0.068299264 0.49900979 4279308563
0.47618821 0.067894027 0.49907592 4279177747
0.47644269 0.067488298 0.49914205 4279046931
0.47687775 0.067457899 0.49912456 4279177745
0.47722325 0.067239612 0.49914891 4279177745
0.48625198 -0.012791842 0.51441622 4280229916
0.48681825 -0.012972265 0.51442116 4280427295
0.48738453 -0.013152689 0.51442611 4281478441
0.4879508 -0.013333112 0.51443112 4281610027
0.4884913 -0.013613537 0.51445711 4282005550
0.48905781 -0.013794035 0.51446211 4282466101
0.48962432 -0.013974532 0.51446706 4282795316
0.49019086 -0.01415503 0.51447201 4282927154
0.42219937 0.069853127 0.50203586 4282069295
0.42269683 0.069802716 0.50201869 4280820260
0.42319378 0.069752455 0.50200152 4279966241
0.42369023 0.069702327 0.50198436 4279966241
0.42411432 0.069567218 0.50198805 4279900450
0.42461005 0.069517344 0.50197089 4279506464
0.42489111 0.069211647 0.50201643 4279506464
0.4252443 0.06899105 0.50204104 4279178267
0.42559797 0.068770275 0.50206566 4279244060
0.42588151 0.068463787 0.5021112 4279243810
0.42630684 0.068328261 0.50211495 4279637026
0.42666197 0.068107024 0.50213957 4279244060
0.42701763 0.067885637 0.50216424 4279375646
0.42730415 0.067578197 0.50220978 4279179552
0.42766103 0.067356423 0.5022344 4279179298
0.42808759 0.067220509 0.50223815 4279506714
0.42844522 0.066998482 0.50226283 4279572503
0.42880332 0.066776305 0.50228751 4279572503
0.42916197 0.066553965 0.50231218 4279375126
0.42952108 0.066331461 0.50233686 4279374878
0.42994863 0.066195235 0.50234056 4279570976
0.43024078 0.065885991 0.50238621 4279570976
0.43060139 0.065663025 0.50241089 4279637278
0.4309625 0.06543991 0.50243556 4279441441
0.43132406 0.065216631 0.50246024 4279572255
0.43168616 0.064993188 0.50248498 4279506462
0.43204871 0.064769596 0.50250965 4279375124
0.43241176 0.06454584 0.50253439 4279440151
0.43264341 0.0641478 0.50260097 4279374356
0.43294224 0.063836426 0.50264668 4279242770
0.43324208 0.063524738 0.50269234 4278979598
0.43360808 0.063300043 0.50271708 4278914575
0.43390965 0.062987804 0.50276279 4278783759
0.43427688 0.062762707 0.50278753 4278783761
0.43464464 0.062537462 0.50281227 4278783761
0.43507713 0.062399656 0.50281608 4279111952
0.43557358 0.062349558 0.50279886 4279309584
0.43606955 0.062299609 0.50278169 4279112476
0.43662852 0.062337667 0.50274354 4279375394
0.43712324 0.06228812 0.50272632 4279178015
0.438676 0.062982261 0.50250316 4279505690
0.43910453 0.062845722 0.50250691 4279440149
0.43959528 0.062797412 0.50248969 4279374624
0.44014761 0.062837601 0.50245148 4279374876
0.44063717 0.062789693 0.50243425 4279309083
0.44118774 0.062830433 0.50239599 4279439897
0.44167605 0.062782928 0.50237876 4279309081
0.44216388 0.062735572 0.50236154 4279178265
0.44259042 0.062599659 0.50236523 4279112476
0.443138 0.062641323 0.50232702 4279178269
0.44356409 0.062505573 0.50233072 4279112987
0.44405019 0.062458783 0.50231349 4279112987
0.44453579 0.062412143 0.50229621 4279112985
0.44508043 0.06245476 0.50225788 4279112472
0.44562408 0.06249769 0.50221962 4279178265
0.44610775 0.062451676 0.50220233 4279374874
0.44659084 0.06240581 0.50218505 4279244312
0.44719058 0.062538952 0.50212574 4279375128
0.44778886 0.06267257 0.50206637 4279112726
0.44826955 0.062627509 0.50204909 4279375646
0.44874969 0.062582597 0.50203174 4279244060
0.44928694 0.062627569 0.50199342 4278982171
0.44976586 0.062583059 0.50197607 4279178267
0.45035845 0.062718481 0.50191671 4279244062
0.45083591 0.062674433 0.50189936 4279244058
0.45131287 0.062630549 0.50188196 4279112472
0.45178935 0.062586814 0.50186461 4279179028
0.45226532 0.062543228 0.50184727 4279047444
0.45268494 0.06240952 0.50185096 4279047194
0.45316017 0.062366173 0.50183362 4279244060
0.45363492 0.062322989 0.50181621 4279112474
0.45416427 0.062370494 0.50177783 4279112724
0.45463777 0.062327713 0.50176042 4279112724
0.45511079 0.062285081 0.50174308 4279112724
0.45552894 0.062151849 0.50174671 4279243542
0.45600122 0.062109441 0.50172931 4279178517
0.45647299 0.062067196 0.50171196 4279178517
0.47066265 0.072136506 0.49893019 4278785040
0.47104701 0.072014049 0.49893355 4278981651
0.47143137 0.071891591 0.49893692 4279046933
0.47181571 0.071769133 0.49894029 4279046933
0.47224849 0.071739316 0.49892256 4279242522
0.47258437 0.071524218 0.49894702 4279046683
0.47296873 0.07140176 0.49895039 4279046679
0.47325769 0.071093529 0.49899599 4278980886
0.47359508 0.070877954 0.49902046 4279111956
0.47388577 0.070569187 0.49906605 4278981140
0.47427136 0.070446327 0.49906942 4278915093
0.47456351 0.070137084 0.49911505 4278981140
0.47490311 0.069920793 0.49913955 4279046933
0.47519702 0.069610998 0.49918517 4279111954
0.47549191 0.069300905 0.49923083 4279046931
0.47574207 0.068896964 0.49929759 4279308563
0.47594821 0.068398967 0.49938551 4279308563
0.47624683 0.068087697 0.49943116 4279177747
0.47650141 0.067682341 0.49949798 4279177745
0.47680223 0.06737034 0.49954367 4279177998
0.48631045 -0.012609854 0.51495397 4279835675
0.48687696 -0.012790352 0.51495892 4280492829
0.48744348 -0.012970865 0.51496387 4281478441
0.48800999 -0.013151363 0.51496887 4281741867
0.48855078 -0.013431743 0.5149951 4282137904
0.48909208 -0.013712287 0.51502138 4282466869
0.4896591 -0.013892949 0.51502633 4282598709
0.49022612 -0.01407361 0.51503134 4282992436
0.42132688 0.069607109 0.50256741 4282267178
0.42182627 0.069555923 0.50255001 4281740330
0.42247033 0.069674551 0.5024904 4280557601
0.42360985 0.069743261 0.50241339 4280098081
0.42389071 0.069437876 0.50245935 4279834909
0.42431581 0.06930244 0.50246304 4279703073
0.42466953 0.069081798 0.5024879 4279374624
0.42509484 0.068946272 0.50249165 4279308831
0.42537844 0.068640023 0.50253761 4279178267
0.42573366 0.06841892 0.50256252 4279243808
0.42608935 0.068197638 0.50258738 4279702816
0.42644554 0.067976221 0.50261223 4279244060
0.42680222 0.067754626 0.50263709 4279375646
0.42722902 0.067618653 0.50264084 4279179550
0.42758644 0.06739682 0.50266576 4279179552
0.4280135 0.067260757 0.50266945 4279441689
0.42837167 0.0670387 0.50269437 4279441689
0.42873031 0.066816479 0.50271928 4279572503
0.42915785 0.066680253 0.50272304 4279375124
0.42951727 0.066457808 0.50274789 4279244060
0.42987713 0.066235185 0.50277281 4279374626
0.43023753 0.066012427 0.50279772 4279374626
0.43059841 0.065789521 0.50282264 4279572255
0.43089265 0.06547989 0.50286871 4279507232
0.43125474 0.065256566 0.50289363 4279572255
0.43155068 0.064946383 0.50293976 4279506462
0.4318476 0.064635888 0.50298584 4279375124
0.43214554 0.064325079 0.50303197 4279440149
0.43251038 0.064100891 0.50305688 4279308563
0.43274432 0.063702524 0.50312424 4279242770
0.43304521 0.063390762 0.50317037 4278979598
0.43334708 0.063078701 0.50321651 4278914575
0.43364996 0.062766328 0.50326264 4278783759
0.43414786 0.062715635 0.50324529 4278783761
0.43451637 0.06249027 0.50327027 4278783761
0.43494961 0.06235224 0.50327402 4278981138
0.43538284 0.062214211 0.50327784 4279375124
0.43600714 0.062339097 0.50321805 4279112476
0.43656653 0.062376752 0.50317943 4279243808
0.43706173 0.062326923 0.50316203 4279178015
0.4377453 0.062540904 0.50308102 4279439899
0.43848962 0.062843472 0.5029788 4279440151
0.43891913 0.06270662 0.50298256 4279440147
0.43941087 0.062657893 0.50296509 4279505692
0.43996406 0.062697515 0.50292647 4279309335
0.44045457 0.062649176 0.502909 4279309335
0.44106752 0.062777683 0.5028491 4279440151
0.44161779 0.062818259 0.50281042 4279505944
0.44210607 0.06277062 0.50279295 4279178519
0.44253311 0.062634557 0.50279671 4279112472
0.44302064 0.062587172 0.50277925 4279178265
0.4435077 0.062539935 0.50276172 4279178265
0.44399422 0.062492833 0.50274426 4279178265
0.44454005 0.062534824 0.50270551 4279244310
0.44502538 0.062488139 0.50268805 4279112724
0.44556946 0.062530667 0.50264931 4279178517
0.44605353 0.062484369 0.50263178 4279572507
0.44659588 0.062527463 0.50259304 4279309331
0.44719577 0.062660143 0.50253308 4279440400
0.44773591 0.062703937 0.50249428 4279309331
0.44833305 0.062837496 0.50243425 4278982169
0.44875541 0.062702924 0.50243795 4279047962
0.44923532 0.062657967 0.50242043 4279180061
0.44977197 0.062702864 0.50238162 4279178528
0.45036471 0.062837839 0.50232154 4279178530
0.45084235 0.062793598 0.50230396 4279178780
0.45126301 0.062659577 0.50230765 4279047194
0.45173991 0.062615559 0.50229007 4279113237
0.45221633 0.062571704 0.50227249 4279113237
0.45263648 0.062437847 0.50227618 4279047194
0.45311219 0.062394232 0.5022586 4279178269
0.45358735 0.06235075 0.50224102 4279178269
0.45411712 0.062397853 0.50220215 4279112472
0.4545911 0.062354773 0.50218457 4279112726
0.45511913 0.062402427 0.50214571 4279178517
0.45553753 0.062269107 0.50214934 4279243540
0.45601001 0.062226519 0.50213176 4279309333
0.45648199 0.06218408 0.50211412 4279309333
0.45689991 0.062050924 0.50211781 4279178517
0.47600675 0.068592399 0.4997403 4279111954
0.47626022 0.068187818 0.49980778 4279243540
0.47656012 0.067876384 0.49985391 4279177745
0.476861 0.067564622 0.49990004 4279243791
0.47716287 0.067252561 0.49994621 4279112205
0.47742152 0.066846326 0.50001371 4279177749
0.48631564 -0.012626529 0.51553518 4280032278
0.4868829 -0.012807265 0.51554012 4280821024
0.48745015 -0.012988001 0.51554513 4281479208
0.48801741 -0.013168737 0.51555008 4281742378
0.48855901 -0.013449237 0.5155766 4282400558
0.4891265 -0.013630047 0.51558155 4282597937
0.489694 -0.013810873 0.5155865 4282467123
0.49023658 -0.014091671 0.51561302 4282992436
0.42109889 0.069481045 0.50304174 4282398510
0.42167202 0.069514051 0.50300282 4281871404
0.42224416 0.069547385 0.5029639 4280557603
0.42274302 0.069496229 0.50294626 4280426017
0.42359561 0.069224566 0.50295377 4279769114
0.42409348 0.069173753 0.50293612 4279637278
0.42451954 0.069038004 0.50293988 4279178015
0.42487454 0.068817079 0.50296497 4279178015
0.42523003 0.068596035 0.50299007 4279178265
0.42558601 0.068374798 0.50301516 4279178780
0.42594248 0.068153411 0.50304025 4279178015
0.42636955 0.068017349 0.50304401 4279243808
0.42672676 0.067795724 0.5030691 4279375394
0.42708445 0.067573935 0.5030942 4279310368
0.42751199 0.067437723 0.50309795 4279047712
0.42780137 0.06712991 0.50314444 4279374874
0.42829823 0.067079395 0.5031268 4279638046
0.42865741 0.066857144 0.50315195 4279769884
0.42908546 0.066720769 0.50315571 4279506710
0.42944539 0.06649828 0.5031808 4279375648
0.42980582 0.066275656 0.50320596 4279375396
0.43009913 0.065966576 0.50325245 4279243810
0.43052816 0.065829888 0.5032562 4279441441
0.43075579 0.065433919 0.50332415 4279507234
0.43105182 0.06512399 0.5033707 4279638048
0.43134883 0.064813733 0.50341725 4279572255
0.43164682 0.064503178 0.5034638 4279375126
0.4319458 0.064192295 0.50351042 4279374354
0.43224579 0.063881099 0.50355697 4279308563
0.43248111 0.063482717 0.50362498 4279176977
0.43284869 0.063257784 0.50365019 4279045393
0.4331516 0.062945649 0.5036968 4278915347
0.43358532 0.062807471 0.50370055 4278717964
0.43388975 0.062494844 0.50374717 4278783759
0.43438834 0.062443793 0.50372958 4278915345
0.43475813 0.062218159 0.50375479 4279112726
0.43532017 0.062254712 0.50371575 4279374358
0.43581754 0.062204048 0.50369817 4279046681
0.43644124 0.062328726 0.50363767 4279243808
0.43700033 0.062366217 0.50359863 4279178015
0.43762133 0.062491789 0.50353813 4279178267
0.43824083 0.062617823 0.50347763 4279244310
0.4389213 0.062832251 0.50339574 4279440400
0.43941325 0.062783331 0.50337803 4279505683
0.43990469 0.062734544 0.50336039 4279505683
0.44045734 0.062774092 0.50332129 4279440147
0.44107044 0.062902153 0.50326073 4279440149
0.44149846 0.062765777 0.50326449 4279637530
0.44198745 0.06271778 0.50324678 4279309335
0.44247594 0.062669948 0.50322908 4279309335
0.44296396 0.062622279 0.50321138 4279375128
0.44345146 0.062574759 0.50319368 4279244058
0.44393843 0.062527403 0.50317597 4279244310
0.44442496 0.062480196 0.50315827 4279376147
0.44502991 0.062610865 0.50309759 4279178517
0.44551495 0.062564135 0.50307989 4279112724
0.44605845 0.062606573 0.50304067 4279703071
0.44654226 0.062560245 0.50302297 4279309331
0.44714251 0.062692404 0.50296229 4279440400
0.44768307 0.062735796 0.50292307 4279243538
0.44822264 0.062779486 0.50288385 4278982423
0.44876122 0.062823519 0.50284463 4278982423
0.4492988 0.06286785 0.50280535 4279245341
0.44977814 0.062822923 0.50278759 4279047712
0.450257 0.06277816 0.50276983 4279047712
0.45079213 0.062823281 0.50273055 4279112987
0.45126975 0.062778905 0.50271279 4279047194
0.45169064 0.062644809 0.50271648 4279113239
0.45216751 0.062600672 0.50269866 4279113239
0.45264393 0.062556699 0.50268084 4279113239
0.45311981 0.062512875 0.50266308 4279112985
0.45365047 0.062559396 0.50262374 4279047192
0.45407012 0.062425688 0.50262743 4279047194
0.45459932 0.062472701 0.50258809 4279047192
0.455073 0.062429592 0.50257027 4279112724
0.4555462 0.062386632 0.50255245 4279112724
0.45596483 0.062253237 0.50255615 4279112724
0.45649105 0.062301189 0.50251681 4279178515
0.45685571 0.062077209 0.50254196 4279178515
0.4573274 0.062034726 0.50252414 4279112724
0.47380567 0.071446314 0.49967974 4279177747
0.47400177 0.070952594 0.49976936 4279046929
0.47434047 0.07073687 0.4997943 4278981136
0.47467965 0.070520997 0.49981925 4278915856
0.47497296 0.070211917 0.49986577 4278981649
0.47611067 0.068879172 0.50007355 4279177747
0.47636402 0.068475038 0.50014168 4279111956
0.47661883 0.068070412 0.50020981 4279177747
0.47691977 0.067758918 0.50025642 4279243540
0.47717732 0.067353427 0.50032461 4279177747
0.47748047 0.067041233 0.50037122 4279046933
0.48632109 -0.012642443 0.51611775 4280098328
0.48688906 -0.012823418 0.5161227 4280822048
0.48743093 -0.013103873 0.51614946 4281348392
0.48802507 -0.013185367 0.51613265 4281873449
0.48859307 -0.013366342 0.51613766 4282663471
0.48916107 -0.013547316 0.51614261 4282729264
0.48972908 -0.013728291 0.51614761 4282532916
0.49027216 -0.014009148 0.51617432 4282926643
0.42044264 0.069492519 0.50351417 4287136373
0.42101717 0.069524795 0.50347477 4282004519
0.42151797 0.069472909 0.50345701 4281805358
0.42201829 0.069421172 0.50343919 4280360996
0.42251807 0.069369599 0.50342137 4280229410
0.42301738 0.06931819 0.50340354 4279900700
0.42351621 0.06926693 0.50338566 4279703321
0.42394301 0.069130942 0.50338942 4279637276
0.42429852 0.068910003 0.50341475 4279178015
0.42472559 0.068773925 0.50341851 4279178015
0.42508185 0.068552747 0.50344384 4279112985
0.42543861 0.068331406 0.50346911 4279047964
0.42579585 0.0681099 0.5034945 4279112735
0.42622364 0.067973599 0.5034982 4279310114
0.42658162 0.06775187 0.50352359 4279310114
0.42700967 0.067615479 0.50352728 4279310368
0.42729911 0.067307934 0.50357425 4279310366
0.42772764 0.067171395 0.50357801 4279375898
0.42808735 0.066949114 0.50360334 4279573277
0.42858469 0.066898316 0.50358552 4279704093
0.42894489 0.066675872 0.50361085 4279638300
0.42930561 0.066453278 0.50363624 4279375646
0.42966682 0.066230521 0.50366157 4279441187
0.42996091 0.065921456 0.5037086 4279375394
0.43025601 0.065612078 0.50375557 4279375648
0.43055212 0.065302402 0.50380254 4279441441
0.43084919 0.064992398 0.50384957 4279703073
0.43114728 0.064682066 0.50389659 4279703073
0.43137997 0.064284906 0.5039652 4279440151
0.43154809 0.063800663 0.5040555 4279177749
0.4319157 0.063575849 0.50408089 4279242518
0.43221822 0.063264117 0.50412798 4279176725
0.43258709 0.063038915 0.50415343 4278979346
0.4329564 0.062813565 0.50417882 4278783507
0.43332624 0.062588066 0.50420427 4278652686
0.43376121 0.06244947 0.50420809 4278652686
0.43426052 0.062398061 0.50419027 4278981138
0.43469521 0.062259555 0.50419408 4279112472
0.43519378 0.062208384 0.50417626 4279440151
0.43569186 0.062157363 0.50415844 4279243292
0.43693906 0.062406003 0.50403613 4279178015
0.43756044 0.062531054 0.50397497 4279244060
0.438243 0.062744275 0.50389212 4279244308
0.43886116 0.062870339 0.50383097 4279702545
0.43935359 0.062821135 0.50381309 4279702292
0.43990737 0.062860027 0.50377351 4279702292
0.44046021 0.062899232 0.50373399 4279440147
0.44088924 0.062762544 0.50373775 4279374356
0.44144055 0.062802225 0.50369817 4279505944
0.44193 0.062753946 0.50368023 4279375128
0.44241893 0.06270583 0.50366235 4279243542
0.44290739 0.062657878 0.50364441 4279375128
0.44345552 0.062698588 0.50360483 4279375644
0.44388282 0.062562436 0.50360852 4279179032
0.44436979 0.062514961 0.50359064 4279506710
0.44491568 0.062556371 0.50355101 4279178519
0.44546059 0.062598079 0.50351137 4279112726
0.44600451 0.062640131 0.50347173 4279703071
0.44654748 0.06268248 0.5034321 4279309331
0.44703099 0.062636107 0.50341415 4279309584
0.44757223 0.062679023 0.50337446 4279243538
0.44811243 0.062722221 0.50333482 4279309331
0.44859397 0.062676474 0.50331682 4279113237
0.44924739 0.062898979 0.50323373 4279310366
0.44966999 0.062764332 0.50323743 4279047712
0.45020652 0.062808737 0.50319773 4279047712
0.45068532 0.06276384 0.50317973 4279112472
0.45116365 0.062719122 0.50316173 4279178265
0.4516415 0.062674537 0.50314373 4279113239
0.45217484 0.062719971 0.50310397 4279113239
0.45265144 0.062675789 0.50308597 4279047446
0.45312753 0.062631771 0.50306791 4279047446
0.45360315 0.062587902 0.50304991 4279047446
0.45407826 0.062544197 0.50303185 4279047196
0.45460764 0.062590867 0.50299209 4279047192
0.45508152 0.06254755 0.50297403 4279112724
0.4555549 0.062504396 0.50295597 4279047442
0.4559738 0.062370926 0.50295967 4279047442
0.45650023 0.06241855 0.50291985 4279244308
0.45697212 0.062375873 0.50290179 4279178517
0.45733702 0.062151924 0.50292718 4279178515
0.45780846 0.062109396 0.50290912 4279046929
0.47367418 0.071267158 0.5001176 4279243540
0.47396559 0.070958957 0.50016457 4279112722
0.47430483 0.070743203 0.50018978 4278981136
0.47464454 0.070527285 0.50021493 4279046929
0.47498477 0.070311219 0.50024015 4278981649
0.47532547 0.070094973 0.5002653 4278981649
0.47562084 0.06978555 0.50031227 4278981649
0.47582597 0.069289491 0.50040293 4278981138
0.47612378 0.068979248 0.5004499 4278981138
0.47642261 0.068668708 0.50049692 4279046931
0.47667754 0.068264455 0.50056577 4279243540
0.47693393 0.067859739 0.50063461 4279177747
0.47723621 0.067548081 0.50068164 4279046931
0.47745121 0.067048892 0.50077236 4278981653
0.48630011 -0.012756839 0.51672363 4280229657
0.48689544 -0.01283884 0.51670665 4280887841
0.48746419 -0.013020068 0.51671165 4281348392
0.48800707 -0.013300702 0.51673859 4282005037
0.48857605 -0.01348199 0.5167436 4282663471
0.48914504 -0.013663277 0.51674855 4282663471
0.48971403 -0.013844565 0.51675355 4282664500
0.49028301 -0.014025867 0.51675856 4282926643
0.42043388 0.069621369 0.50392675 4284765767
0.42093563 0.069569036 0.50390875 4282793783
0.42136419 0.069432512 0.50391251 4281280811
0.42193764 0.069464847 0.50387269 4280295206
0.42236567 0.069328472 0.50387645 4279900448
0.42286569 0.06927669 0.50385839 4279834907
0.42329347 0.069140404 0.50386214 4279703321
0.42372125 0.069004089 0.5038659 4279505692
0.42414904 0.068867803 0.50386965 4279374878
0.42450583 0.06864658 0.50389516 4279309085
0.42493388 0.068510205 0.50389892 4279310364
0.42529142 0.068288743 0.50392449 4278982171
0.42571968 0.068152279 0.50392824 4279243808
0.426148 0.068015829 0.503932 4279375394
0.42650652 0.06779407 0.50395757 4279506462
0.42693502 0.06765753 0.50396132 4279572253
0.42729431 0.067435518 0.5039869 4279507230
0.42772308 0.067298904 0.50399065 4279442204
0.42801431 0.066991031 0.50403804 4279507997
0.42837504 0.066768557 0.50406361 4279638300
0.42880458 0.066631705 0.50406742 4279638048
0.42916605 0.066408992 0.50409299 4279441439
0.42959583 0.066272065 0.50409675 4279507232
0.42975542 0.065791056 0.50418788 4279375646
0.4299843 0.065395504 0.50425714 4279768862
0.43008056 0.064827129 0.50437009 4279638300
0.43037969 0.064516768 0.5044176 4279572507
0.43061328 0.064119726 0.50448692 4279572257
0.43104723 0.063981459 0.50449073 4279375128
0.43115091 0.063410744 0.50460374 4279111704
0.43158609 0.063272074 0.50460756 4279111704
0.43195572 0.063046768 0.50463325 4278979098
0.43232584 0.062821299 0.50465888 4278914327
0.43269646 0.06259568 0.50468457 4278718227
0.43313241 0.062456787 0.50468838 4278652686
0.43356833 0.062317878 0.5046922 4278718479
0.43413293 0.062353075 0.50465232 4278915858
0.43463245 0.062301457 0.50463426 4279047446
0.43506765 0.062162802 0.50463808 4279375128
0.43563002 0.062198684 0.50459814 4279572255
0.4368149 0.062358856 0.5044964 4279374878
0.43743688 0.062483281 0.50443459 4279375644
0.43805742 0.062608197 0.50437272 4279375124
0.43867648 0.062733576 0.50431085 4279703062
0.43929404 0.062859431 0.50424904 4279506193
0.43984824 0.062897921 0.50420904 4279506193
0.44040149 0.062936723 0.50416899 4279440400
0.4408924 0.062887862 0.50415087 4279243538
0.44144389 0.062927231 0.50411087 4279375128
0.44187266 0.062790602 0.50411463 4279375128
0.44242269 0.062830418 0.50407457 4279244312
0.44285095 0.062693968 0.50407833 4279244312
0.44339952 0.062734276 0.50403833 4279375644
0.4438273 0.062597975 0.50404203 4279047962
0.44431472 0.062550202 0.50402391 4279310616
0.44486105 0.062591225 0.50398386 4279113239
0.44540641 0.062632546 0.50394374 4279179032
0.44589186 0.062585399 0.50392556 4279375646
0.44643545 0.062627271 0.50388551 4279506710
0.44691968 0.062580526 0.50386733 4279178768
0.44746155 0.062622964 0.50382721 4279309584
0.44794455 0.062576607 0.50380903 4279375377
0.44848472 0.062619597 0.50376892 4279178768
0.44902387 0.06266287 0.50372881 4279375896
0.44956204 0.06270647 0.50368863 4279178780
0.45009923 0.062750399 0.50364852 4279178780
0.45057878 0.062705144 0.50363028 4279244312
0.45111424 0.062749624 0.50359011 4279244312
0.4515925 0.062704772 0.50357187 4279113237
0.45212626 0.062749788 0.50353169 4279178517
0.45260331 0.062705338 0.50351346 4279047192
0.45307988 0.062661037 0.50349522 4279113237
0.45361114 0.062706843 0.50345498 4279047444
0.45408648 0.062662929 0.50343674 4279112726
0.45461601 0.062709272 0.50339651 4279047446
0.45509011 0.062665761 0.50337827 4279112724
0.45556372 0.062622398 0.50335997 4279178768
0.45603684 0.0625792 0.50334173 4279112975
0.45645574 0.06244573 0.50334537 4279112722
0.4569281 0.06240277 0.50332707 4279375644
0.45745319 0.062450543 0.50328684 4279244310
0.4577654 0.062135994 0.5033344 4279046929
0.47402367 0.071150914 0.50051665 4279046933
0.47431612 0.070842654 0.5005641 4279111952
0.47465613 0.07062678 0.50058949 4279177745
0.47504294 0.070503533 0.50059289 4278981649
0.47533762 0.070194572 0.50064033 4278981649
0.47563332 0.069885284 0.50068778 4278981649
0.47588441 0.069482669 0.50075722 4278981649
0.47613698 0.069079578 0.50082672 4278981649
0.47634596 0.068582848 0.50091827 4279047182
0.4766914 0.068365246 0.50094372 4279112722
0.47694817 0.067960814 0.50101328 4279046929
0.4772951 0.067742735 0.50103873 4279046931
0.47751024 0.067244038 0.50113028 4279047446
0.47781506 0.066931844 0.50117785 4279047196
0.47807723 0.066525683 0.50124741 4279047196
0.47829759 0.066025317 0.50133902 4279309081
0.48627946 -0.012870237 0.51733136 4280426520
0.48684943 -0.013051838 0.51733631 4280887839
0.48741943 -0.013233453 0.51734132 4281216804
0.4880152 -0.013315737 0.51732409 4282137134
0.48858494 -0.013497263 0.5173291 4282598191
0.48915467 -0.013678774 0.5173341 4282729777
0.48974946 -0.013760775 0.51731688 4282664754
0.41992277 0.069803149 0.50435805 4288581761
0.42042524 0.069750458 0.50433981 4284304446
0.42078131 0.069529608 0.50436562 4282596404
0.42135593 0.069561318 0.50432533 4281083945
0.42185718 0.069509029 0.50430709 4280295206
0.42228568 0.06937249 0.50431085 4279900448
0.42271423 0.069235966 0.5043146 4279900448
0.42321444 0.069183975 0.5042963 4279703323
0.42364269 0.069047511 0.50430006 4279374876
0.42399979 0.068826348 0.50432587 4279309083
0.42449927 0.068774596 0.50430757 4279374876
0.42485684 0.068553269 0.50433338 4279244058
0.4252854 0.068416744 0.50433713 4278982171
0.42564368 0.068195164 0.50436288 4279375394
0.42607248 0.06805855 0.50436664 4279441187
0.42650124 0.067921937 0.50437039 4279506460
0.42686057 0.067700058 0.5043962 4279638046
0.42722034 0.067478016 0.50442201 4279507230
0.42764962 0.067341238 0.50442576 4279376157
0.42807889 0.067204475 0.50442952 4279507743
0.42873269 0.066673934 0.50450325 4279638048
0.42889073 0.066193968 0.50459522 4279507232
0.42905071 0.065713361 0.50468719 4279507232
0.42941523 0.065489829 0.50471306 4279572255
0.42964569 0.065094188 0.50478303 4279638300
0.42981064 0.064612016 0.50487506 4279572507
0.43004429 0.064215347 0.5049451 4279572507
0.43027946 0.063818216 0.50501508 4279506462
0.43051609 0.063420609 0.50508511 4279440151
0.43088627 0.063195258 0.50511098 4279111704
0.43125692 0.062969759 0.50513691 4279111704
0.43162805 0.062744096 0.50516284 4278979098
0.43213028 0.062691495 0.5051446 4279045913
0.43256694 0.062552363 0.50514841 4278783761
0.4330036 0.062413231 0.50515223 4278718479
0.4334403 0.062274098 0.50515604 4278718479
0.43394125 0.062221885 0.5051378 4278915858
0.43444175 0.062169835 0.5051195 4278981651
0.43494171 0.062117934 0.50510126 4279375128
0.4354412 0.062066197 0.50508296 4279572255
0.43606681 0.062189072 0.5050205 4279374876
0.43662786 0.062225118 0.50498009 4279374876
0.43737638 0.062523663 0.50487339 4279375644
0.4379347 0.062560558 0.50483304 4279309333
0.43849206 0.062597781 0.50479257 4279506712
0.43911052 0.062722951 0.50473005 4279440400
0.4397893 0.062936306 0.50464541 4279506193
0.44034296 0.062974706 0.50460494 4279309584
0.44083428 0.062925562 0.50458664 4279243538
0.44138622 0.062964529 0.50454617 4279375126
0.44187635 0.062915772 0.50452781 4279244312
0.44236594 0.06286718 0.50450945 4279375898
0.44285506 0.062818736 0.50449109 4279244310
0.44334367 0.062770456 0.50447273 4279244060
0.4438318 0.062722325 0.50445431 4278982169
0.44431943 0.062674373 0.50443596 4279179800
0.44480658 0.062626556 0.50441754 4278982169
0.44535235 0.062667489 0.50437707 4279047962
0.4458971 0.062708721 0.50433654 4279244058
0.44632369 0.062572807 0.50434023 4279375894
0.44686696 0.062614501 0.5042997 4279309584
0.44735113 0.062567651 0.50428128 4279375377
0.4478927 0.062609911 0.50424075 4279506963
0.44837564 0.062563434 0.50422233 4279309584
0.44891548 0.062606245 0.50418174 4279375894
0.44945431 0.062649354 0.50414121 4279178780
0.44999218 0.062692791 0.50410062 4279244058
0.45047241 0.062647194 0.50408214 4279441437
0.45100856 0.062691182 0.50404155 4279375126
0.45154369 0.062735483 0.50400096 4279244308
0.45207784 0.062780112 0.50396031 4279244310
0.45255536 0.062735364 0.50394183 4279112476
0.45308778 0.062780529 0.50390124 4279178519
0.45361924 0.062826023 0.50386059 4279046933
0.45409477 0.062781915 0.50384212 4279112726
0.45456982 0.062737957 0.50382358 4279112726
0.45504439 0.062694162 0.5038051 4279112724
0.45551842 0.062650502 0.50378662 4279178766
0.45693764 0.062520534 0.50373107 4279375898
0.45735654 0.062387064 0.50373477 4279244312
0.4578284 0.062344134 0.50371623 4279046929
0.45829973 0.062301368 0.50369775 4279046929
0.45960689 0.061992288 0.50368655 4279243540
0.45997337 0.061768115 0.50371242 4279046679
0.47500861 0.070510551 0.50099015 4278981649
0.47539592 0.07038714 0.50099355 4278915858
0.47564587 0.069985285 0.5010637 4278981651
0.47589731 0.069582954 0.50113386 4278981651
0.47610497 0.069087178 0.50122625 4279047442
0.47640467 0.068776891 0.50127423 4279047182
0.47670537 0.068466276 0.50132215 4279112722
0.47700703 0.068155348 0.50137007 4279046929
0.4773097 0.067844108 0.50141805 4279046931
0.47752523 0.067345813 0.5015105 4279047446
0.47783035 0.067033783 0.50155848 4279047194
0.47813648 0.066721439 0.50160646 4279047194
0.47840029 0.066315174 0.50167674 4279309081
0.48628563 -0.012883708 0.51791841 4280491800
0.48688263 -0.012966514 0.517901 4280953632
0.48740104 -0.013346493 0.51795083 4281151011
0.48799777 -0.013429224 0.51793343 4282268720
0.48856848 -0.013611078 0.51793844 4282597937
0.4891392 -0.013792902 0.51794338 4282861109
0.41991395 0.069932684 0.50477183 4288254341
0.42034346 0.069795847 0.50477558 4283648315
0.42084587 0.069743037 0.50475711 4282332205
0.42127514 0.069606259 0.50476086 4281017639
0.42177683 0.069553688 0.50474238 4280229410
0.42227799 0.069501281 0.50472391 4279966238
0.42270678 0.069364667 0.50472766 4279769632
0.42313555 0.069228053 0.50473142 4279506460
0.42356431 0.069091439 0.50473517 4279309083
0.42399311 0.068954811 0.50473893 4279835427
0.42442188 0.068818197 0.50474268 4279637276
0.42485064 0.068681583 0.50474644 4279440149
0.42527944 0.068544969 0.50475019 4279309335
0.42563802 0.068323448 0.50477618 4279703071
0.42606705 0.06818676 0.50477993 4279768864
0.42642635 0.067964986 0.50480598 4279572255
0.42678618 0.067743078 0.50483203 4279375644
0.42714652 0.067520991 0.50485808 4279442204
0.4275763 0.067384064 0.50486183 4279310368
0.42779994 0.066990986 0.5049324 4279507747
0.42816201 0.066768363 0.50495845 4279572255
0.42818353 0.066117883 0.5050959 4279703839
0.4284119 0.06572333 0.50516653 4279572253
0.42857403 0.065242589 0.50525945 4279638046
0.42894053 0.065018535 0.5052855 4279638046
0.42897141 0.064365089 0.50542307 4279638046
0.42927319 0.0640544 0.50547147 4279572253
0.42950916 0.063657388 0.50554216 4279375126
0.42987964 0.063432083 0.50556827 4279572505
0.43025059 0.063206643 0.50559437 4279570708
0.43062201 0.062981024 0.50562054 4279045909
0.43099391 0.062755257 0.50564665 4279045909
0.43143183 0.062615737 0.50565046 4278848534
0.43193498 0.062562689 0.50563204 4278914325
0.43237266 0.062423244 0.50563586 4279046163
0.43287507 0.062370434 0.50561738 4278915343
0.43331248 0.062231064 0.50562119 4278981136
0.43387839 0.062265277 0.50558043 4279112724
0.43431532 0.06212607 0.50558424 4279113239
0.43487978 0.062160775 0.50554347 4279310364
0.43537971 0.062108755 0.50552493 4279375898
0.43594241 0.062144011 0.5054841 4279375898
0.43650416 0.062179565 0.50544333 4279244058
0.43706489 0.062215433 0.50540245 4279375898
0.43781221 0.062513679 0.50529462 4279244308
0.43837026 0.062550426 0.50525379 4279375126
0.43898934 0.062674969 0.50519061 4279375377
0.43966872 0.062887594 0.50510502 4279375377
0.44022304 0.062925518 0.50506413 4279244312
0.44083765 0.063051492 0.50500089 4279178517
0.44138974 0.063090131 0.50496 4279375894
0.44188005 0.06304118 0.5049414 4278982421
0.44236988 0.062992394 0.50492281 4279048214
0.44285923 0.062943757 0.50490421 4279048214
0.44334805 0.062895268 0.50488567 4279178780
0.44377658 0.062758729 0.50488937 4279178778
0.44426465 0.062710479 0.50487083 4279310616
0.44475228 0.062662393 0.50485218 4279179030
0.4451803 0.062526003 0.50485593 4279310364
0.44578481 0.06265521 0.50479263 4279178778
0.44627067 0.062607676 0.50477397 4279310616
0.44669771 0.062471613 0.50477773 4279440149
0.44724095 0.062513083 0.50473678 4279506712
0.44778317 0.062554836 0.50469577 4279506712
0.44832441 0.062596932 0.50465477 4279375126
0.44886467 0.062639341 0.50461376 4279506712
0.44928974 0.062503904 0.50461745 4279506712
0.44982851 0.06254679 0.50457644 4279637528
0.45036629 0.062589973 0.50453538 4279703321
0.45084673 0.062544167 0.50451672 4279440147
0.45138279 0.062587902 0.50447565 4279506191
0.45191786 0.062631965 0.50443459 4279506193
0.45234072 0.062497243 0.50443828 4279112726
0.4528743 0.062541768 0.50439721 4279178519
0.45335177 0.062496901 0.50437856 4279178517
0.45689386 0.062548295 0.50415796 4279375124
0.45736641 0.062505007 0.50413918 4279244310
0.45783848 0.062461883 0.50412047 4279112722
0.45831001 0.062418908 0.50410175 4279112722
0.45872867 0.062285513 0.50410539 4279243540
0.45919949 0.062242776 0.50408667 4279112472
0.45961791 0.06210947 0.50409031 4279243542
0.46008795 0.062066957 0.50407153 4279046679
0.46050614 0.061933726 0.50407523 4279178265
0.46087313 0.061709523 0.50410134 4278981399
0.47545415 0.070579708 0.50134677 4279047444
0.47574997 0.070270911 0.50139511 4279178519
0.47595578 0.069776252 0.50148845 4279112726
0.47620887 0.069373831 0.50155926 4279046679
0.47646338 0.068970919 0.50163013 4279112722
0.47676414 0.068660557 0.50167853 4279177998
0.47706586 0.068349868 0.50172693 4279177998
0.47732437 0.067945719 0.5017978 4279046929
0.47767234 0.067727581 0.50182372 4279112724
0.47793329 0.067322627 0.50189465 4279047446
0.47815219 0.066823795 0.50198805 4279047446
0.47841632 0.066417813 0.50205898 4279112726
0.486292 -0.012896448 0.51850682 4280492059
0.48688972 -0.012979612 0.51848918 4280888098
0.48740894 -0.013359591 0.51853949 4281085473
0.48800638 -0.01344268 0.51852185 4282072365
0.48855233 -0.013723895 0.5185495 4282335537
0.48914927 -0.01380682 0.51853186 4282795836
0.41940185 0.070115715 0.50520468 4288584335
0.41990519 0.070062473 0.50518596 4287794819
0.42033496 0.069925547 0.50518978 4282925873
0.42076474 0.06978862 0.50519353 4282266412
0.42126709 0.069735691 0.50517482 4280820513
0.42176896 0.069682926 0.5051561 4280033058
0.42212611 0.069461986 0.50518233 4279835679
0.42262751 0.06940937 0.50516361 4279703841
0.42305678 0.069272608 0.50516742 4279506460
0.42348605 0.06913583 0.50517118 4279833628
0.42391533 0.068999052 0.50517493 4279965214
0.42441547 0.068946838 0.50515622 4279702042
0.42477387 0.068725511 0.50518245 4279505942
0.42513275 0.068504035 0.50520867 4279375126
0.42563242 0.068451971 0.50518996 4279441441
0.42599177 0.068230331 0.50521624 4279507234
0.42635167 0.068008527 0.50524247 4279441439
0.42678142 0.0678716 0.50524622 4279375648
0.42707288 0.067564473 0.50529498 4279507230
0.42743421 0.067342192 0.50532126 4279573023
0.42759007 0.066863999 0.50541502 4279573023
0.42761108 0.066214502 0.50555384 4279507232
0.4277032 0.065649465 0.50567013 4279507232
0.42800158 0.065340132 0.50571895 4279573025
0.42823327 0.064944923 0.50579023 4279507230
0.42846644 0.064549223 0.50586164 4279573277
0.42863387 0.064067319 0.50595546 4279638300
0.4289372 0.063756421 0.50600433 4279572507
0.42917478 0.063359305 0.50607574 4279637528
0.42954674 0.063133657 0.50610209 4279769114
0.43005159 0.063079953 0.50608337 4279308565
0.43049002 0.06294027 0.50608724 4278914577
0.43086269 0.062714368 0.50611359 4279111956
0.43130136 0.06257461 0.50611746 4278848532
0.43180519 0.062521219 0.50609875 4278848534
0.43224362 0.062381536 0.50610262 4278915093
0.43274671 0.062328368 0.50608391 4278980886
0.43324935 0.062275365 0.50606525 4279047446
0.43375146 0.062222511 0.50604653 4279112985
0.4342531 0.06216982 0.50602782 4279112985
0.43475425 0.062117264 0.5060091 4279178778
0.43531835 0.062151805 0.50596786 4279375128
0.43581825 0.062099665 0.50594914 4279375128
0.43638065 0.062134743 0.50590783 4279375128
0.43694207 0.062170148 0.50586659 4279506712
0.43750247 0.062205836 0.50582528 4279637528
0.43818641 0.062416479 0.50573885 4279637526
0.43880635 0.062540367 0.50567502 4279505940
0.43948656 0.062752157 0.50558859 4279506191
0.4401648 0.062964618 0.5055021 4279244310
0.44071859 0.063002437 0.50546074 4279179032
0.44127133 0.063040599 0.50541943 4279310865
0.44182312 0.063079059 0.50537807 4278982670
0.44231337 0.06302999 0.50535923 4279048463
0.44286346 0.063069001 0.50531787 4278916628
0.44329247 0.062932312 0.50532162 4279047962
0.44378126 0.062883705 0.50530279 4279048216
0.44426957 0.062835261 0.50528395 4279244310
0.4446981 0.062698722 0.50528777 4279244310
0.44518566 0.062650502 0.50526893 4279244058
0.44567272 0.062602445 0.5052501 4279244058
0.44610077 0.06246607 0.50525385 4279179032
0.44658709 0.062418252 0.50523496 4279505944
0.44707292 0.062370598 0.50521612 4279505944
0.44755828 0.062323093 0.50519729 4279506712
0.4481582 0.062453344 0.50513327 4279506712
0.44869938 0.062495172 0.50509179 4279506712
0.44918251 0.062448382 0.50507295 4279309335
0.44972193 0.062490791 0.50503147 4279505944
0.45020384 0.062444389 0.50501257 4279637530
0.45074153 0.062487334 0.50497109 4279440151
0.45133433 0.06261985 0.50490701 4279637528
0.45175815 0.062484816 0.50491071 4279440149
0.45223758 0.062439203 0.50489181 4279112726
0.4527165 0.06239374 0.50487292 4279112726
0.45737636 0.062623203 0.50454414 4279244561
0.45784861 0.06257987 0.50452518 4279112975
0.45832038 0.062536687 0.50450617 4279112975
0.45879164 0.062493667 0.50448722 4279047446
0.45926243 0.062450811 0.50446826 4278981653
0.45968083 0.062317491 0.5044719 4279047444
0.46009925 0.062184185 0.50447559 4279047194
0.46051764 0.062050879 0.50447923 4279112987
0.46098721 0.062008396 0.50446028 4279047192
0.46140534 0.061875165 0.50446391 4279376157
0.46177286 0.061650932 0.50449026 4279046933
0.47576261 0.070371151 0.50177151 4279243538
0.47605973 0.070062205 0.50182033 4279177745
0.47626746 0.069567502 0.5019145 4279308306
0.47652209 0.069164962 0.50198603 4279178517
0.47682291 0.068854839 0.5020349 4279243542
0.47708026 0.068451434 0.50210643 4279243542
0.47742754 0.068233669 0.50213259 4279112724
0.47764337 0.067736357 0.50222689 4279046929
0.47794867 0.067424804 0.50227576 4279047444
0.47825491 0.067112952 0.50232464 4279047444
0.47874147 0.06620799 0.50249064 4279113237
0.48575315 -0.012627497 0.51906872 4279966739
0.48635152 -0.012711033 0.5190509 4280492059
0.48689702 -0.012991965 0.51907873 4280953634
0.48746899 -0.013174191 0.51908374 4281217059
0.4880152 -0.013455361 0.51911163 4281941036
0.48858741 -0.013637677 0.51911664 4282270001
0.48913437 -0.013919085 0.51914454 4282927424
0.48968187 -0.014200658 0.51917243 4283059258
0.41939294 0.070245951 0.50561953 4289045151
0.41989654 0.070192516 0.50560063 4288255372
0.42032653 0.0700555 0.50560439 4282662188
0.42082936 0.070002303 0.50558549 4282069547
0.42125914 0.069865361 0.50558925 4280557601
0.42168891 0.069728434 0.505593 4280426015
0.42211866 0.069591507 0.50559676 4279769632
0.42254841 0.069454581 0.50560051 4279573027
0.42297819 0.069317654 0.50560427 4279441439
