# .PCD v0.7 - Point Cloud Data file format
VERSION 0.7
FIELDS x y z rgb
SIZE 4 4 4 4
TYPE F F F U
COUNT 1 1 1 1
WIDTH 1046
HEIGHT 1
VIEWPOINT 0 0 0 1 0 0 0
POINTS 1046
DATA ascii
0.45405269 -0.026324183 0.61846459 4280047678
0.45350397 -0.026356503 0.61843872 4279258416
0.45296443 -0.026286721 0.6184271 4279061287
0.45242536 -0.026217118 0.61841547 4278929701
0.4518868 -0.026147664 0.61840385 4278863136
0.4513413 -0.026181042 0.61837798 4279125795
0.45080397 -0.02611199 0.61836636 4278994461
0.45026714 -0.026043072 0.61835474 4279258148
0.44973078 -0.025974333 0.61834311 4279192355
0.44920141 -0.025802776 0.61834574 4279521849
0.4486782 -0.025528133 0.61836267 4279389501
0.44814259 -0.025459647 0.61835104 4279453746
0.44760749 -0.025391325 0.61833942 4279322412
0.44708925 -0.025013193 0.61837059 4279519791
0.45459554 -0.026396573 0.61903554 4279982139
0.45404607 -0.026428655 0.61900914 4279718713
0.45350605 -0.026358724 0.61899728 4279258416
0.45296648 -0.026288942 0.61898541 4278995494
0.45241952 -0.026321843 0.61895901 4278929701
0.4518812 -0.026252463 0.61894715 4278863136
0.45133594 -0.026285917 0.61892074 4278994209
0.45079884 -0.026216939 0.61890888 4278994461
0.45026225 -0.026148111 0.61889696 4279257894
0.44972616 -0.026079476 0.6188851 4279323687
0.44919699 -0.025907993 0.61888772 4279521849
0.44867405 -0.025633425 0.61890489 4279454011
0.44814464 -0.025461853 0.61890751 4279584560
0.44760954 -0.025393531 0.61889565 4279322410
0.44709131 -0.025015414 0.61892736 4279453996
0.45459759 -0.026398793 0.61959487 4280047930
0.45405683 -0.026328623 0.61958277 4279981885
0.45350811 -0.026360944 0.61955583 4279193652
0.45296857 -0.026291162 0.61954373 4278930212
0.4524295 -0.026221544 0.61953157 4278864419
0.45188326 -0.026254684 0.61950469 4278995746
0.45133799 -0.026288137 0.61947775 4278929701
0.4508009 -0.026219144 0.61946565 4278798113
0.4502643 -0.026150331 0.61945349 4279127078
0.44972822 -0.026081681 0.61944133 4279192871
0.44919905 -0.025910199 0.61944395 4279653687
0.44866991 -0.025738716 0.61944664 4279585332
0.44814074 -0.025567234 0.61944926 4279584812
0.4476116 -0.025395736 0.61945188 4279322662
0.44708791 -0.025120929 0.61946934 4279388455
0.44656897 -0.024742603 0.61950153 4280638270
0.45460859 -0.026298821 0.62016928 4279916857
0.45405889 -0.026330844 0.62014186 4279981885
0.45351017 -0.026363164 0.62011445 4279324722
0.45297062 -0.026293382 0.62010205 4278996005
0.45242363 -0.026326269 0.62007463 4278930212
0.45188531 -0.026256904 0.62006223 4278930466
0.45134005 -0.026290357 0.62003475 4278864421
0.45080298 -0.026221365 0.62002236 4278732833
0.45025942 -0.026255384 0.61999494 4278996005
0.44973028 -0.026083902 0.61999756 4279127591
0.44920111 -0.025912404 0.62000024 4279587890
0.44867197 -0.025740921 0.62000287 4279716400
0.44814283 -0.025569439 0.62000549 4279650090
0.44761366 -0.025397956 0.62000811 4279322662
0.44708997 -0.025123149 0.62002581 4279388455
0.44657102 -0.024744824 0.6200586 4280506682
0.45461068 -0.026301041 0.62072885 4279786293
0.45406097 -0.026333064 0.62070096 4280047930
0.45351225 -0.026365384 0.620673 4279653170
0.45297268 -0.026295602 0.62066036 4279062052
0.45242569 -0.026328489 0.62063241 4279062052
0.45188737 -0.026259109 0.62061977 4278864421
0.45134211 -0.026292562 0.62059182 4278535974
0.45079783 -0.026326314 0.62056386 4278536226
0.45026147 -0.026257589 0.62055117 4278733603
0.44973233 -0.026086107 0.62055385 4278996775
0.44920319 -0.025914624 0.62055647 4279325742
0.44867402 -0.025743127 0.6205591 4279193386
0.44814485 -0.025571644 0.62056172 4279650855
0.44761571 -0.025400162 0.6205644 4279388453
0.44708657 -0.025228679 0.62056702 4279388453
0.44656786 -0.024850398 0.62060028 4280375614
0.45462167 -0.026201069 0.62130404 4279654967
0.45406303 -0.026335284 0.62126005 4279982652
0.45351431 -0.026367605 0.62123156 4279653424
0.45297477 -0.026297823 0.62121868 4279061539
0.45242777 -0.026330709 0.62119019 4279061539
0.45188177 -0.026363924 0.62116176 4278732835
0.45134416 -0.026294783 0.62114882 4278470183
0.45079988 -0.026328534 0.62112033 4278470181
0.45026353 -0.02625981 0.62110746 4278601765
0.44973439 -0.026088327 0.62111008 4278930730
0.44920522 -0.02591683 0.6211127 4279325488
0.44867608 -0.025745347 0.62111533 4279193904
0.44814694 -0.025573865 0.62111801 4279257646
0.44761777 -0.025402367 0.62112063 4279191340
0.44709408 -0.02512756 0.62113881 4279322926
0.44657513 -0.024749249 0.62117261 4280506946
0.45461482 -0.026305482 0.62184811 4279720246
0.45406508 -0.026337504 0.62181914 4279982650
0.45350796 -0.026472166 0.62177432 4279522097
0.45297682 -0.026300043 0.621777 4279127332
0.45242983 -0.02633293 0.62174803 4278995746
0.45188382 -0.02636613 0.621719 4278732833
0.45134622 -0.026296988 0.62170583 4278470179
0.45080194 -0.026330739 0.62167686 4278339109
0.45026559 -0.026262015 0.62166369 4278470693
0.44973645 -0.026090533 0.62166631 4278733865
0.44920731 -0.02591905 0.62166893 4279391281
0.44868433 -0.025644481 0.62168741 4279193132
0.448149 -0.02557607 0.62167424 4279323185
0.44761983 -0.025404587 0.62167686 4279191088
0.44709614 -0.02512978 0.62169534 4279322674
0.44657198 -0.024854824 0.62171382 4280573254
0.45460796 -0.026409909 0.62239164 4279851062
0.4540585 -0.026441976 0.62236214 4280047930
0.45351845 -0.026372045 0.62234873 4279390511
0.45297071 -0.026404679 0.62231922 4279062050
0.45242396 -0.02643764 0.62228972 4278996257
0.45188588 -0.02636835 0.62227631 4278799648
0.4513483 -0.026299208 0.6222629 4278339361
0.450804 -0.026332945 0.62223339 4278273314
0.45026767 -0.02626422 0.62221992 4278470947
0.4497385 -0.026092738 0.62222254 4278799912
0.44920936 -0.025921255 0.62222522 4279588144
0.44868019 -0.025749773 0.62222785 4279389998
0.44815105 -0.025578275 0.62223047 4279192369
0.44762188 -0.025406793 0.62223315 4278994992
0.4470982 -0.025131986 0.62225187 4279126578
0.44657925 -0.024753675 0.62228668 4280442189
0.45461002 -0.026412129 0.62295103 4279916344
0.45405188 -0.026546463 0.62290466 4279653174
0.45351207 -0.026476607 0.62289095 4279390000
0.45297277 -0.026406899 0.6228773 4278996259
0.45242602 -0.02643986 0.62284726 4279062052
0.45188794 -0.026370555 0.62283361 4278799648
0.45135036 -0.026301414 0.6228199 4278339359
0.45080608 -0.026335165 0.62278986 4278273314
0.45026973 -0.026266441 0.62277615 4278602531
0.44974056 -0.026094943 0.62277883 4278865703
0.44921142 -0.025923461 0.62278146 4279719215
0.44868225 -0.025751978 0.62278408 4279389998
0.44815311 -0.025580496 0.6227867 4279323439
0.44762394 -0.025408998 0.62278938 4278995503
0.44710574 -0.025030896 0.62282467 4279127089
0.45460317 -0.026516542 0.62349379 4279785273
0.45405394 -0.026548684 0.62346327 4279587640
0.45351416 -0.026478827 0.62344933 4279193132
0.45297483 -0.026409119 0.62343538 4278930212
0.45242807 -0.026442081 0.6234048 4279061798
0.4518823 -0.026475355 0.62337428 4278799650
0.45134497 -0.026406288 0.62336034 4278536476
0.45080814 -0.02633737 0.62334639 4278405152
0.45027179 -0.026268646 0.62333238 4278668578
0.44974262 -0.026097164 0.62333506 4279063336
0.44921347 -0.025925666 0.62333769 4279850285
0.4486843 -0.025754184 0.62334031 4279520814
0.44815516 -0.025582701 0.62334299 4279323437
0.44762599 -0.025411218 0.62334561 4279258416
0.44710234 -0.025136411 0.62336487 4279258416
0.45459631 -0.026620924 0.62403601 4279653687
0.45405602 -0.026550904 0.62402183 4279522617
0.45351622 -0.026481032 0.62400764 4279127339
0.45296872 -0.026513755 0.62397659 4278668324
0.45243013 -0.026444286 0.62396234 4278799910
0.45188436 -0.026477575 0.62393129 4278668578
0.45134705 -0.026408494 0.6239171 4278602269
0.45081019 -0.026339591 0.62390286 4278405406
0.45027384 -0.026270851 0.62388867 4278799650
0.44974467 -0.026099369 0.62389129 4279062822
0.44921553 -0.025927886 0.62389392 4280047151
0.44868636 -0.025756389 0.6238966 4279520814
0.44815722 -0.025584906 0.62389922 4279323435
0.44762808 -0.025413424 0.62390184 4279126828
0.44710988 -0.025035322 0.6239382 4279258414
0.45459837 -0.026623145 0.62459487 4279653424
0.45405808 -0.026553124 0.62458038 4279391799
0.45350984 -0.026585594 0.62454885 4278930732
0.45297077 -0.026515976 0.62453437 4278602531
0.45243222 -0.026446506 0.62451988 4278668324
0.45188642 -0.026479781 0.62448829 4278602531
0.45135653 -0.02630806 0.62449098 4278471195
0.45081225 -0.026341796 0.62445939 4278405402
0.45028284 -0.026170224 0.62446201 4278799650
0.44974673 -0.026101589 0.62444752 4279062822
0.44921759 -0.025930092 0.62445021 4279981617
0.44869465 -0.025655538 0.62446994 4279717932
0.44816524 -0.025483966 0.62447256 4279323687
0.44763583 -0.025312394 0.62447524 4279257896
0.44711193 -0.025037527 0.62449497 4279389482
0.45405146 -0.026657596 0.62512159 4279194416
0.45352036 -0.026485473 0.62512428 4278799658
0.45298102 -0.026415765 0.62510955 4278733605
0.4524422 -0.026346222 0.62509483 4278733605
0.45189619 -0.026379421 0.6250627 4278602271
0.45135862 -0.026310265 0.62504798 4278471195
0.45082152 -0.026241273 0.62503326 4278471195
0.45029187 -0.026069626 0.62503588 4278996005
0.44976223 -0.02589798 0.62503856 4279193384
0.44923258 -0.025726333 0.62504119 4280112951
0.4486967 -0.025657743 0.62502646 4279652141
0.44817328 -0.02538304 0.62504649 4279257894
0.44763792 -0.025314614 0.62503171 4279061285
0.44711947 -0.024936467 0.62506914 4279127078
0.4465948 -0.024661362 0.62508917 4281035075
0.4540709 -0.026455298 0.6257152 4279194670
0.45353085 -0.026385352 0.62570018 4278866218
0.45299128 -0.02631557 0.62568521 4278996007
0.45244429 -0.026348442 0.62565261 4278732835
0.45190594 -0.026279062 0.62563765 4278732833
0.45136809 -0.026209831 0.62562263 4278405406
0.45083076 -0.026140764 0.62560767 4278471199
0.45030087 -0.025969028 0.62561029 4278995755
0.44977099 -0.025797307 0.62561291 4279193134
0.4492411 -0.025625587 0.6256156 4280047162
0.44871119 -0.025453851 0.62561822 4279586096
0.4481813 -0.02528213 0.62562084 4279126828
0.44764569 -0.025213599 0.62560588 4278995753
0.44712153 -0.024938673 0.62562615 4279061546
0.44659686 -0.024663568 0.62564647 4280903750
0.45463139 -0.026323274 0.62632501 4279325990
0.45409033 -0.02625303 0.62630981 4279195431
0.4535498 -0.02618292 0.62629455 4278931748
0.45300972 -0.026112944 0.62627929 4278931234
0.45246223 -0.026145667 0.62624621 4278865441
0.4519234 -0.026076108 0.62623096 4278536478
0.45138508 -0.026006728 0.6262157 4278470947
0.45084724 -0.025937498 0.62620044 4278602533
0.4503099 -0.025868431 0.62618524 4278864939
0.44977975 -0.02569662 0.62618786 4279062318
0.44924316 -0.025627792 0.6261726 4279916859
0.44871324 -0.025456071 0.62617522 4279455541
0.44818336 -0.02528435 0.62617791 4279061298
0.44765347 -0.025112614 0.62618053 4278864939
0.44712907 -0.024837598 0.62620109 4278996525
0.44659892 -0.024665788 0.62620372 4281232719
0.45518416 -0.026293829 0.62691826 4279194406
0.45463344 -0.026325494 0.62688464 4279392037
0.45409241 -0.02625525 0.62686914 4279261224
0.45356029 -0.026082799 0.62687176 4278865957
0.45301181 -0.026115179 0.62683815 4278734369
0.45247224 -0.026045382 0.62682265 4278602783
0.45192546 -0.026078328 0.62678903 4278339611
0.45138714 -0.026008949 0.62677348 4278734119
0.45085651 -0.025836974 0.62677616 4278733605
0.4503189 -0.025767833 0.62676066 4278930732
0.44978854 -0.025595948 0.62676328 4279193904
0.44925168 -0.02552703 0.62674779 4279982652
0.44871533 -0.025458276 0.62673229 4279456054
0.4481914 -0.025183424 0.62675309 4279258162
0.44766125 -0.025011614 0.62675571 4278864939
0.44713661 -0.024736509 0.62677652 4278996525
0.44660622 -0.024564624 0.6267792 4281428813
0.45464444 -0.026225552 0.62746263 4279851053
0.45410317 -0.026155204 0.62744689 4279719467
0.45356238 -0.026085019 0.62743115 4279193386
0.45302206 -0.026014999 0.62741542 4278669089
0.4524743 -0.026047602 0.62738121 4278537503
0.45192754 -0.026080549 0.62734705 4278405917
0.45138919 -0.026011169 0.62733132 4278603044
0.45085856 -0.025839195 0.62733394 4278602531
0.45032099 -0.025770038 0.6273182 4279127343
0.4497906 -0.025598168 0.62732083 4279456308
0.44926021 -0.025426269 0.62732351 4280178496
0.44872358 -0.02535744 0.62730771 4279914549
0.44819942 -0.025082499 0.62732875 4279388715
0.44766331 -0.025013834 0.62731302 4279061035
0.44713867 -0.024738729 0.62733406 4279258414
0.45464653 -0.026227772 0.62802249 4281161003
0.45410523 -0.026157424 0.62800652 4281818165
0.45356444 -0.026087254 0.62799048 4281686325
0.45302412 -0.026017219 0.62797451 4279716898
0.45247638 -0.026049823 0.62793982 4279651105
0.45193729 -0.025980189 0.62792379 4279323174
0.45139873 -0.02591072 0.62790775 4279257131
0.45086062 -0.025841415 0.62789178 4279914027
0.45032999 -0.025669441 0.6278944 4280634418
0.44979265 -0.025600374 0.62787837 4281160762
0.44926226 -0.025428489 0.62788105 4281686595
0.44872564 -0.02535966 0.62786502 4281226044
0.44820151 -0.025084719 0.6278863 4280503346
0.44766539 -0.02501604 0.62787026 4280045102
0.44714072 -0.024740949 0.6278916 4280176688
0.45465752 -0.026127815 0.62860131 4282997560
0.45410731 -0.026159644 0.62856615 4284443725
0.45357496 -0.025987118 0.62856877 4283852106
0.45302621 -0.026019439 0.6285336 4281618739
0.4524864 -0.025949553 0.62851733 4281158188
0.45193937 -0.02598241 0.6284821 4280699434
0.45140079 -0.025912941 0.62846583 4280698415
0.45086271 -0.02584362 0.62844956 4281224241
0.45033208 -0.025671661 0.62845218 4282077494
0.44979471 -0.025602594 0.62843591 4282472252
0.44926435 -0.025430709 0.62843859 4283983440
0.44872773 -0.025361866 0.62842226 4283523666
0.44820356 -0.025086924 0.62844384 4281617472
0.44766745 -0.02501826 0.62842757 4281158968
0.44714278 -0.024743155 0.62844914 4281224761
0.45465958 -0.02613005 0.62916142 4284308544
0.45410937 -0.026161864 0.62912571 4285032269
0.45357701 -0.025989339 0.6291284 4284637007
0.45302826 -0.026021659 0.62909269 4283257664
0.45248845 -0.025951773 0.62907612 4282928699
0.45194912 -0.025882065 0.62905961 4282206511
0.45141029 -0.025812507 0.6290431 4282336816
0.45087197 -0.025743112 0.62902653 4282731320
0.45033413 -0.025673881 0.62901002 4283781180
0.4497968 -0.025604814 0.62899345 4284241731
0.4492664 -0.025432914 0.62899613 4284834638
0.44872978 -0.025364086 0.62897956 4284769360
0.44819963 -0.025192276 0.62898219 4283716940
0.44766378 -0.025123686 0.62896562 4282731072
0.44714487 -0.024745375 0.62900668 4282796865
0.45467061 -0.026030108 0.62974101 4284505155
0.45412013 -0.026061833 0.62970477 4285032269
0.45358753 -0.025889233 0.62970746 4284569933
0.45304674 -0.025819048 0.62969065 4283454016
0.45249847 -0.025851518 0.62965441 4283190844
0.45195889 -0.025781706 0.62963766 4282337582
0.45141238 -0.025814727 0.62960142 4282598961
0.45087403 -0.025745332 0.62958461 4282927929
0.45033619 -0.025676101 0.6295678 4283912253
0.44979885 -0.02560702 0.62955099 4284372804
0.44926199 -0.025538102 0.62953418 4285030734
0.44873807 -0.02526325 0.6295563 4285032017
0.44820768 -0.025091365 0.62955892 4283978057
0.44767156 -0.025022686 0.62954211 4283059008
0.44714144 -0.024850875 0.62954479 4283453766
0.45469949 -0.025725812 0.63036048 4285292370
0.45413959 -0.025859565 0.63030404 4285490773
0.45359805 -0.025789127 0.63028705 4284964439
0.45305699 -0.025718853 0.63027 4283780928
0.45250848 -0.025751248 0.63023323 4283517756
0.45196867 -0.025681376 0.63021618 4282795568
0.45141444 -0.025816947 0.63015974 4282860596
0.45087612 -0.025747553 0.63014269 4282926904
0.45033824 -0.025678307 0.63012558 4284174143
0.44980091 -0.02560924 0.63010854 4284700487
0.44927052 -0.025437355 0.63011122 4285030220
0.4487339 -0.025368512 0.63009411 4284768073
0.44820976 -0.025093585 0.63011646 4283979079
0.44767362 -0.025024906 0.63009942 4283321408
0.44714898 -0.024749815 0.63012177 4283716166
0.45413297 -0.025964037 0.63084447 4285818716
0.45360011 -0.025791362 0.63084716 4285424474
0.45305908 -0.025721073 0.63082987 4284043073
0.45251852 -0.025650963 0.63081253 4283714108
0.45197076 -0.025683597 0.63077527 4283056942
0.45142397 -0.025716513 0.63073802 4282990899
0.45087817 -0.025749773 0.63070071 4283188280
0.45034033 -0.025680527 0.63068342 4284239682
0.44980296 -0.02561146 0.63066608 4284634440
0.44927257 -0.02543956 0.6306687 4284964429
0.44873595 -0.025370732 0.63065141 4284768077
0.44821182 -0.025095791 0.630674 4283979079
0.44768143 -0.024923906 0.63067669 4283453248
0.44715104 -0.024752021 0.63067931 4283782213
0.45416981 -0.025557265 0.63148552 4285752921
0.45361063 -0.025691256 0.63142753 4285292372
0.45306933 -0.025620893 0.63140994 4284043073
0.45252058 -0.025653183 0.63137215 4283648315
0.45198053 -0.025583252 0.63135457 4283188014
0.45142603 -0.025718734 0.63129658 4283188018
0.45088744 -0.02564925 0.63127899 4283319352
0.45034239 -0.025682747 0.6312412 4284239682
0.44980502 -0.025613666 0.63122362 4284634440
0.44927466 -0.025441781 0.63122624 4285095245
0.44873804 -0.025372937 0.63120866 4284833357
0.44820789 -0.025201142 0.63121134 4284109895
0.44768348 -0.024926126 0.63123423 4283453248
0.44714761 -0.024857521 0.63121665 4283782213
0.45419794 -0.025252774 0.63210809 4285555542
0.45363805 -0.025386497 0.63204932 4285160271
0.45308781 -0.025418311 0.63201106 4284633927
0.45253059 -0.025552928 0.63195223 4283910456
0.45199031 -0.025482893 0.6319344 4283582004
0.45143557 -0.0256183 0.63187563 4283319352
0.45089671 -0.025548741 0.63185781 4283450434
0.45034444 -0.025684953 0.63179898 4283845442
0.44981381 -0.025512993 0.63180166 4284569165
0.44928318 -0.025341034 0.63180429 4285358415
0.44874632 -0.025272116 0.63178647 4285096015
0.44821593 -0.025100231 0.63178909 4284109893
0.44769129 -0.024825126 0.63181221 4283649342
0.45421743 -0.025050521 0.63271153 4285818716
0.45366547 -0.025081769 0.63267267 4285357650
0.45310628 -0.02521573 0.63261318 4284699720
0.45254859 -0.025350183 0.63255358 4283976251
0.45200008 -0.025382549 0.63251477 4283647799
0.45145255 -0.025415242 0.63247597 4283450938
0.45090601 -0.025448233 0.63243711 4283450436
0.45035347 -0.02558437 0.63237756 4283977030
0.44981587 -0.025515214 0.63235945 4284305995
0.44928527 -0.025343239 0.63236207 4285555281
0.44875461 -0.02517128 0.63236475 4285490003
0.44822398 -0.024999321 0.63236737 4284109895
0.4476991 -0.024724141 0.6323908 4283517756
0.44711334 -0.025584951 0.63218594 4283846721
0.45481715 -0.024510995 0.63341826 4284962640
0.4542456 -0.024746001 0.63333696 4285818462
0.45368445 -0.024879351 0.63327664 4285489749
0.45312476 -0.025013164 0.63321632 4284700233
0.45255861 -0.025249928 0.63313496 4283976251
0.45200986 -0.025282204 0.63309562 4283647797
0.45146209 -0.025314808 0.63305628 4283450168
0.45090806 -0.025450468 0.63299596 4283450688
0.4503625 -0.025483787 0.63295662 4283845444
0.44981796 -0.025517434 0.63291723 4284437581
0.44928733 -0.02534546 0.63291991 4285687382
0.44875669 -0.0251735 0.63292253 4285490773
0.44822603 -0.025001526 0.63292521 4284306759
0.44770688 -0.024623156 0.63296986 4283518008
0.44718125 -0.024347752 0.63299352 4283781180
0.45484608 -0.024206743 0.63404626 4285093708
0.45426506 -0.024543762 0.63394272 4286081627
0.45369497 -0.02477926 0.63386035 4285555542
0.45313504 -0.024912983 0.63379925 4284634440
0.45257661 -0.025047183 0.63373816 4284042044
0.45201963 -0.025181875 0.63367707 4283582004
0.45146415 -0.025317043 0.63361591 4283450166
0.45091736 -0.025349975 0.63357604 4283516479
0.45037156 -0.025383204 0.63353616 4283779649
0.44982675 -0.025416762 0.63349628 4284305993
0.44928938 -0.02534768 0.63347769 4285490773
0.44876498 -0.025072664 0.63350159 4285622359
0.44823408 -0.02490063 0.63350427 4284437831
0.44770896 -0.024625376 0.63352817 4283452213
0.45485711 -0.024106815 0.63463283 4284765765
0.45427585 -0.024443761 0.63452798 4286344795
0.45370549 -0.024679154 0.63444459 4285686865
0.45314533 -0.024812818 0.63438272 4284436798
0.45257866 -0.025049403 0.63429934 4284041790
0.45202941 -0.02508153 0.63425893 4283451190
0.45147368 -0.025216609 0.63419706 4283188018
0.45092666 -0.025249481 0.6341567 4283516731
0.45038059 -0.025282621 0.63411629 4283582524
0.44983554 -0.025316089 0.63407588 4283977282
0.44929793 -0.025246933 0.63405704 4285227601
0.44877326 -0.024971843 0.63408118 4285292622
0.44823617 -0.02490285 0.63406229 4284306245
0.44772249 -0.024421185 0.63412952 4283451963
0.45428663 -0.024343759 0.63511378 4286211937
0.45371604 -0.024579063 0.63502938 4285356630
0.45315561 -0.024712652 0.63496667 4284632907
0.45258871 -0.024949178 0.63488227 4283909952
0.45203921 -0.024981201 0.63484138 4283056694
0.45148322 -0.025116205 0.63477868 4282859313
0.45092872 -0.025251701 0.63471603 4283253811
0.45038265 -0.025284842 0.63467515 4283384114
0.4498443 -0.025215432 0.63465601 4283713079
0.44930646 -0.025146186 0.63463688 4285226577
0.44877535 -0.024974063 0.6346395 4285160532
0.44824421 -0.02480194 0.63464218 4283977544
0.44772458 -0.02442342 0.63468838 4282991930
0.45428872 -0.024345994 0.63567805 4286869867
0.45370966 -0.024683625 0.63557059 4285488216
0.4531495 -0.024817288 0.63550711 4284896079
0.45259079 -0.024951398 0.63544369 4283910719
0.45203358 -0.025085986 0.63538027 4283121971
0.45147783 -0.025221065 0.63531679 4282990639
0.45093077 -0.025253922 0.63527536 4283318319
0.45038474 -0.025287062 0.63523394 4283449137
0.44983965 -0.02532053 0.63519251 4283843895
0.44930851 -0.025148407 0.6351952 4285029200
0.44878364 -0.024873242 0.63521987 4284766544
0.44824627 -0.02480416 0.6352005 4283911751
0.44773239 -0.02432245 0.63526928 4282926139
0.45429081 -0.024348244 0.63624233 4287067498
0.45371175 -0.02468586 0.63613355 4287068268
0.45314336 -0.024921924 0.63604701 4285752408
0.45257694 -0.025158584 0.63596052 4284043073
0.45202023 -0.025293335 0.63589633 4283516983
0.45147243 -0.025325924 0.63585436 4283318832
0.45092565 -0.025358856 0.63581246 4283449905
0.45038679 -0.025289282 0.63579279 4283777848
0.44984844 -0.025219873 0.63577312 4284106813
0.4493041 -0.025253594 0.63573122 4285029198
0.44877946 -0.024978504 0.63575613 4284306761
0.44824836 -0.02480638 0.63575882 4283452481
0.45369694 -0.024892762 0.6366514 4286805096
0.45312902 -0.025128946 0.6365639 4285686615
0.45257106 -0.025263295 0.63649887 4284240452
0.45200688 -0.025500685 0.63641131 4283648569
0.45146704 -0.025430813 0.63639146 4283451188
0.45092049 -0.02546379 0.63634896 4283647284
0.45038188 -0.025394291 0.63632905 4283778872
0.44984379 -0.02532497 0.63630915 4284042044
0.44930619 -0.025255799 0.63628924 4284963146
0.44878152 -0.024980724 0.63631445 4284307013
0.4482564 -0.02470547 0.63633966 4283255617
0.44774225 -0.0242237 0.63641 4282926652
0.45369902 -0.024894997 0.63721389 4286080344
0.45312288 -0.025233567 0.63710248 4285488207
0.4519935 -0.025708035 0.63692534 4283714876
0.45145416 -0.025638297 0.63690519 4283582776
0.45091534 -0.025568724 0.63688499 4283582006
0.45037001 -0.025602117 0.63684201 4283779385
0.44983238 -0.025532946 0.63682187 4283976764
0.44930825 -0.02525802 0.63684732 4284897353
0.44878361 -0.024982944 0.63687277 4284964429
0.44824648 -0.024913937 0.63685262 4283385920
0.44772708 -0.024535492 0.6369009 4282532412
0.45254338 -0.025677651 0.63752788 4284634440
0.45144129 -0.025845781 0.63741785 4283319864
0.45090294 -0.025776371 0.63739741 4283451450
0.45037207 -0.025604337 0.63740009 4283583038
0.4498412 -0.025432289 0.63740271 4283912003
0.44930384 -0.025363192 0.63738227 4285292118
0.44877943 -0.025088191 0.63740802 4285555031
0.44824257 -0.025019258 0.63738757 4284239934
0.44772342 -0.024640903 0.63743639 4283124283
0.44720879 -0.02415897 0.63750827 4283255869
0.45144337 -0.025848001 0.63797617 4283450936
0.45090503 -0.025778592 0.63795549 4283648315
0.45037413 -0.025606543 0.63795811 4283648831
0.44983652 -0.025537372 0.63793743 4284109382
0.44930589 -0.025365412 0.63794011 4285621337
0.44878149 -0.025090411 0.6379661 4285752410
0.44824463 -0.025021479 0.63794541 4284239932
0.44771975 -0.024746329 0.6379714 4283124535
0.44720536 -0.024264455 0.63804406 4283256121
0.45144543 -0.025850222 0.63853449 4283647545
0.45091429 -0.025678098 0.63853711 4283647545
0.45036921 -0.025711566 0.63849258 4284108348
0.44983858 -0.025539592 0.63849527 4284568899
0.44931445 -0.02526468 0.63852149 4286015580
0.44877732 -0.025195658 0.63850057 4285883996
0.44825268 -0.024920583 0.6385268 4284700737
0.44772181 -0.024748534 0.63852942 4283453496
0.45090193 -0.025885746 0.63904774 4283713338
0.4503713 -0.025713772 0.63905042 4284108350
0.44984066 -0.025541812 0.63905305 4284437315
0.44931003 -0.025369853 0.63905567 4286081373
0.44877937 -0.025197878 0.63905835 4286015845
0.44824874 -0.025025919 0.63906097 4284766276
0.44772387 -0.024750754 0.6390875 4283585082
0.45037335 -0.025715992 0.6396082 4283582270
0.44984272 -0.025544032 0.63961083 4284437579
0.44931209 -0.025372058 0.63961351 4286081636
0.44878769 -0.025097072 0.63964027 4286279535
0.45273226 -0.023770988 0.64812791 4284895827
0.45220295 -0.023494408 0.64815831 4284108880
0.45052814 -0.023897037 0.64791667 4283517504
0.45329607 -0.023640141 0.64877373 4287132528
0.45273435 -0.023773223 0.64869243 4284830804
0.45218956 -0.023701727 0.6486671 4284174673
0.45161533 -0.024040833 0.64852983 4283780676
0.45109427 -0.023661882 0.64858848 4283518528
0.45054421 -0.023693711 0.64853513 4283452735
0.4500019 -0.023623019 0.64850986 4284633929
0.44946009 -0.023552462 0.64848447 4286210644
0.45433885 -0.024399817 0.64922071 4289895570
0.45385289 -0.023612067 0.64939284 4290882465
0.45329815 -0.023642391 0.64933902 4287132528
0.45273644 -0.023775473 0.64925694 4284830806
0.45219165 -0.023703963 0.64923137 4284174673
0.45164737 -0.023632616 0.6492058 4283780676
0.45108911 -0.023766816 0.64912373 4283649344
0.45054629 -0.023695946 0.64909816 4283583551
0.45000398 -0.023625255 0.64907253 4284830790
0.44946218 -0.023554698 0.64904696 4286407510
0.44892085 -0.023484319 0.64902139 4288776067
0.4549405 -0.02386108 0.64998186 4285554777
0.45439324 -0.023788765 0.64995599 4289435273
0.45385498 -0.023614317 0.64995867 4290882719
0.45330024 -0.023644626 0.64990437 4287921782
0.45273852 -0.023777708 0.64982152 4285027154
0.45219374 -0.023706213 0.64979565 4284371018
0.45164198 -0.023737475 0.64974129 4283846210
0.45109844 -0.023666352 0.64971548 4283123000
0.45054838 -0.023698181 0.64966112 4283386172
0.45000607 -0.02362749 0.64963526 4284896066
0.44947076 -0.02345401 0.64963794 4286474836
0.44892919 -0.023383528 0.64961213 4287725419
0.44839412 -0.023210138 0.64961475 4284766544
0.45494258 -0.02386333 0.65054792 4285291607
0.45439535 -0.023791015 0.65052187 4288513665
0.45384011 -0.02382116 0.65046698 4289697939
0.4532941 -0.023749247 0.65044093 4288118137
0.45274061 -0.023779958 0.65038604 4285027413
0.4521881 -0.023810983 0.6503312 4284240202
0.45164406 -0.02373971 0.65030509 4283649344
0.45108604 -0.023873985 0.65022141 4283320379
0.45055047 -0.023700416 0.65022409 4283583551
0.45000815 -0.023629725 0.65019798 4285093195
0.44946635 -0.023559168 0.65017188 4285881416
0.44893128 -0.023385763 0.65017456 4290027920
0.44839019 -0.023315459 0.65014845 4284767050
0.4478496 -0.023245305 0.65012234 4284438085
0.45550165 -0.023835987 0.65116936 4284108878
0.4549357 -0.023967698 0.65108496 4285225814
0.45439744 -0.023793265 0.65108764 4287856249
0.45385069 -0.023721114 0.6510613 4288711558
0.45328796 -0.023853868 0.6509769 4287393133
0.4527427 -0.023782194 0.65095055 4284896346
0.45218244 -0.023915753 0.65086615 4284043349
0.45163864 -0.023844555 0.65083981 4283386690
0.45109534 -0.023773521 0.65081346 4283321149
0.45054555 -0.023805439 0.65075803 4283650114
0.45000347 -0.023734808 0.65073168 4285092681
0.4494684 -0.023561403 0.65073436 4285881418
0.44892707 -0.02349101 0.65070796 4288317306
0.44839227 -0.023317695 0.65071064 4285292372
0.44785166 -0.02324754 0.6506843 4284897614
0.44732815 -0.022867799 0.65074503 4284109893
0.45605221 -0.02391094 0.6517626 4284370255
0.45549452 -0.02394028 0.6517067 4283912012
0.45493782 -0.023969948 0.65165079 4285094741
0.45439079 -0.023897722 0.6516242 4290355092
0.45384431 -0.023825645 0.65159762 4291276194
0.45328182 -0.023958489 0.65151244 4287196522
0.45273679 -0.023886889 0.6514858 4285224019
0.45218453 -0.023918003 0.65142995 4283912012
0.45164073 -0.02384679 0.65140331 4283584580
0.45109019 -0.023878455 0.6513474 4283584834
0.45054764 -0.023807675 0.65132076 4283650627
0.45000556 -0.023737043 0.65129411 4285027917
0.44947049 -0.023563638 0.65129679 4286736986
0.44892916 -0.023493245 0.65127021 4291079592
0.44839433 -0.02331993 0.65127283 4285816670
0.44785374 -0.023249775 0.65124625 4285290326
0.44733024 -0.022870034 0.65130746 4284110411
0.4554874 -0.024044603 0.65224349 4283912782
0.4549399 -0.023972198 0.65221667 4285029720
0.45438418 -0.02400218 0.65216023 4290025873
0.45383793 -0.023930192 0.65213341 4291736491
0.45328391 -0.023960724 0.65207696 4288381563
0.45272291 -0.024094045 0.65199101 4285421394
0.4521789 -0.024022758 0.65196413 4284109128
0.45162785 -0.024054259 0.65190768 4283715907
0.45108503 -0.023983389 0.65188086 4283715907
0.45054972 -0.02380991 0.65188348 4283715907
0.45000088 -0.023842126 0.6518271 4285160273
0.44946608 -0.023668811 0.65182972 4285685072
0.44893125 -0.02349548 0.6518324 4291145387
0.44839042 -0.023425251 0.65180552 4286276967
0.44785583 -0.02325201 0.65180814 4285355865
0.45548028 -0.024148881 0.65277982 4284306772
0.45492405 -0.024178714 0.6527229 4285030232
0.45437753 -0.024106637 0.65269578 4288250999
0.45383152 -0.024034724 0.65266865 4291474856
0.45327777 -0.024065346 0.65261167 4287592563
0.45272499 -0.02409628 0.65255475 4285290324
0.45217323 -0.024127528 0.65249783 4284437063
0.45162243 -0.024159119 0.65244091 4283846721
0.45108712 -0.023985639 0.65244353 4283845948
0.4505448 -0.023914918 0.65241641 4284043327
0.45000297 -0.023844361 0.65238929 4285226066
0.44946814 -0.023671046 0.65239191 4286474082
0.44892707 -0.023600727 0.65236479 4291210930
0.4483985 -0.0233244 0.65239727 4286211689
0.44785792 -0.023254246 0.6523701 4285093208
0.44732332 -0.023081005 0.65237278 4284437833
0.45547312 -0.02425319 0.65331554 4284372312
0.45491716 -0.024283081 0.65325814 4285096027
0.45437092 -0.024211094 0.65323073 4289106308
0.45382515 -0.024139255 0.65320337 4291341994
0.45327163 -0.024169952 0.65314591 4287657586
0.45271909 -0.024200961 0.65308845 4285290326
0.45216757 -0.024232298 0.65303099 4284371270
0.45162451 -0.024161354 0.65300357 4283846721
0.45108193 -0.024090558 0.65297621 4283714874
0.45053989 -0.024019927 0.6529488 4283912253
0.44999829 -0.023949444 0.65292138 4285226579
0.44946373 -0.023776203 0.65292406 4286277471
0.44892913 -0.023602962 0.65292674 4291080369
0.44839457 -0.023429722 0.65292943 4285751655
0.44786 -0.023256481 0.65293205 4284962139
0.44732541 -0.023083225 0.65293473 4284569167
0.45603219 -0.024225876 0.65393907 4284304724
0.45548445 -0.024153382 0.65391147 4284568917
0.45491925 -0.024285331 0.6538232 4285226327
0.4543817 -0.024111122 0.65382588 4289894800
0.45382723 -0.024141505 0.65376788 4291473580
0.45327371 -0.024172202 0.65370995 4287591793
0.45272118 -0.024203196 0.65365195 4285290326
0.45216966 -0.024234533 0.65359396 4284437063
0.4516266 -0.024163589 0.6535663 4283912253
0.45107678 -0.024195477 0.65350837 4283846460
0.45053494 -0.02412492 0.65348065 4283978046
0.45000038 -0.023951679 0.65348333 4285226579
0.44946581 -0.023778439 0.65348601 4286540127
0.44892496 -0.023708194 0.65345836 4292065971
0.44839063 -0.023535043 0.65346098 4285686880
0.44785631 -0.023361877 0.65346366 4285094743
0.44732749 -0.02308546 0.65349668 4284634962
0.45548654 -0.024155632 0.6544773 4284437833
0.45493034 -0.024185449 0.65441883 4285160784
0.45437509 -0.024215579 0.65436035 4288316020
0.45382932 -0.024143741 0.6543324 4290157207
0.45326757 -0.024276808 0.65424335 4287920245
0.45271528 -0.024307877 0.65418488 4285290324
0.45216399 -0.024339303 0.65412635 4284306509
0.45161366 -0.024371043 0.65406787 4283583803
0.45107886 -0.024197713 0.65407056 4283846975
0.45053703 -0.024127156 0.6540426 4284044354
0.45000246 -0.023953915 0.65404528 4285093456
0.44946137 -0.023883596 0.65401733 4286603608
0.44892704 -0.02371043 0.65402001 4289892484
0.44839272 -0.023537263 0.65402269 4286540391
0.44785839 -0.023364112 0.65402538 4285421910
0.44732958 -0.023087695 0.65405864 4284568399
0.45547941 -0.024259925 0.65501231 4284568649
0.45492345 -0.024289817 0.6549533 4284963144
0.45436844 -0.024320036 0.65489429 4287591784
0.45382291 -0.024248272 0.6548661 4289433738
0.45326966 -0.024279043 0.65480709 4287196776
0.45270938 -0.024412572 0.65471727 4285290322
0.45216608 -0.024341539 0.65468907 4284307022
0.45161575 -0.024373278 0.65463006 4283583551
0.45107368 -0.024302632 0.65460193 4283912768
0.45053911 -0.024129391 0.65460455 4284044354
0.45000452 -0.02395615 0.65460724 4285094741
0.44946346 -0.023885831 0.65457904 4286669660
0.44892913 -0.023712665 0.65458173 4290024840
0.44839478 -0.023539498 0.65458441 4286671463
0.44786045 -0.023366332 0.65458703 4285552982
0.44733167 -0.02308993 0.65462059 4284502093
0.45493451 -0.024189934 0.65554947 4285027656
0.45437926 -0.024220064 0.65548992 4289960330
0.453825 -0.024250522 0.65543038 4289103749
0.45326349 -0.024383634 0.65533978 4287393131
0.45271146 -0.024414808 0.65528023 4285093458
0.45216042 -0.024446309 0.65522075 4284306509
0.45161784 -0.024375498 0.65519226 4283912266
0.45107576 -0.024304867 0.65516382 4283648840
0.45053419 -0.024234384 0.65513539 4283977805
0.4500066 -0.023958385 0.65516919 4284569429
0.44947204 -0.023785144 0.65517187 4286013015
0.44893119 -0.0237149 0.65514338 4291341735
0.44840288 -0.023438647 0.65517718 4286014049
0.44786254 -0.023368567 0.65514874 4285356119
0.44733372 -0.023092166 0.65518248 4284501839
0.44679916 -0.022918925 0.65518516 4285290334
0.45493659 -0.024192184 0.65611476 4285356367
0.45439008 -0.024120107 0.65608609 4290947229
0.45382708 -0.024252757 0.65599465 4291340711
0.45327383 -0.024283528 0.65593463 4286866787
0.45272154 -0.024314597 0.65587461 4285093460
0.4521625 -0.024448544 0.65578318 4284174923
0.45161992 -0.024377733 0.65575445 4283846219
0.45107785 -0.024307102 0.65572578 4283648842
0.45053625 -0.024236619 0.65569711 4283846221
0.45000193 -0.024063453 0.65569973 4284438610
0.4494676 -0.023890287 0.65570241 4285553746
0.44893953 -0.023614123 0.65573645 4292263348
0.44839895 -0.023543969 0.65570772 4286079842
0.44786462 -0.023370802 0.6557104 4285290326
0.44733581 -0.023094401 0.65574443 4284501839
0.44680652 -0.022817835 0.65577847 4285093727
0.45439216 -0.024122357 0.65665114 4290289297
0.45382917 -0.024255008 0.65655893 4290946207
0.45328414 -0.024183407 0.65653002 4287722350
0.45271564 -0.024419278 0.65640622 4285027667
0.45217234 -0.024348259 0.65637726 4284108878
0.4516145 -0.024482578 0.65628505 4283912012
0.45107993 -0.024309337 0.65628773 4283648842
0.45054534 -0.024136096 0.65629041 4283648842
0.45000401 -0.024065688 0.65626144 4284307022
0.44946969 -0.023892522 0.65626407 4285619539
0.44893536 -0.02371937 0.65626675 4287853169
0.44840103 -0.023546204 0.65626943 4285948004
0.44786671 -0.023373038 0.65627211 4285026902
0.4473379 -0.023096621 0.65630639 4284238669
0.44680333 -0.02292338 0.65630907 4284766047
0.45326152 -0.024492711 0.6569984 4287723379
0.4527097 -0.024523973 0.6569373 4285093208
0.4521589 -0.024555534 0.65687621 4284239952
0.45161659 -0.024484813 0.656847 4283845968
0.45107475 -0.024414241 0.65681779 4283584332
0.45053339 -0.024343848 0.65678859 4283321160
0.4500061 -0.024067923 0.6568231 4284241227
0.44947177 -0.023894757 0.65682578 4285487953
0.44893742 -0.023721591 0.65682846 4288447102
0.44839707 -0.02365151 0.65679926 4285882976
0.44786876 -0.023375273 0.65683377 4285093460
0.44733444 -0.023202106 0.65683645 4284107594
0.44680542 -0.022925615 0.65687102 4285093725
0.4527038 -0.024628654 0.6574679 4285224794
0.45215324 -0.024660289 0.65740633 4284370768
0.45161116 -0.024589643 0.65737683 4283648842
0.45053548 -0.024346083 0.65735 4283452744
0.44999462 -0.024275824 0.6573205 4284503374
0.4494608 -0.024102822 0.65732318 4286342750
0.44892696 -0.023929805 0.65732586 4290422176
0.44839916 -0.023653746 0.65736067 4285751136
0.44787085 -0.023377493 0.65739548 4285290585
0.44733652 -0.023204342 0.65739816 4284304973
0.45213979 -0.024867564 0.65790343 4284633425
0.45159823 -0.024797052 0.65787369 4284042825
0.45050952 -0.024759337 0.65778184 4283715657
0.44998318 -0.024483725 0.65781689 4284896847
0.44945636 -0.024207965 0.65785193 4286473312
0.44892904 -0.02393204 0.65788704 4289368978
0.44839519 -0.023759037 0.65788966 4286145894
0.44786137 -0.023586035 0.65789235 4285290585
0.44732752 -0.023413032 0.65789503 4284700755
0.45211864 -0.02517733 0.65836692 4284501069
0.45157778 -0.025107086 0.65833688 4284173641
0.45104468 -0.024934322 0.65833956 4283847241
0.4505116 -0.024761558 0.65834218 4283781448
0.4499785 -0.024588794 0.65834486 4284897360
0.44945192 -0.024313107 0.65838021 4287000426
0.44891858 -0.024140269 0.65838289 4288183934
0.44839126 -0.023864344 0.65841818 4286277480
0.4478519 -0.023794577 0.6583882 4285290585
0.44732961 -0.023415253 0.65845621 4284634708
0.45264605 -0.025454849 0.65889198 4285618003
0.4520897 -0.02558963 0.65879589 4284501323
0.45155734 -0.025417104 0.65879852 4284238921
0.45101774 -0.025347278 0.65876824 4283912266
0.45049262 -0.025072053 0.65880382 4283978059
0.44996703 -0.024796695 0.6588394 4284570446
0.44944096 -0.024521172 0.65887499 4287330159
0.44890809 -0.024348482 0.65887767 4288644222
0.44837525 -0.024175808 0.65888029 4286211428
0.44784817 -0.023899958 0.65891588 4285027154
0.44732061 -0.023623958 0.65895152 4284568915
0.45318121 -0.025629833 0.6594497 4289432187
0.45262414 -0.025764376 0.65935284 4285485904
0.452084 -0.025694385 0.65932232 4284369224
0.4515444 -0.025624543 0.6592918 4284107594
0.45101255 -0.025452167 0.65929443 4283649864
0.45048767 -0.025177047 0.65933025 4283715657
0.44994882 -0.025107443 0.65929973 4284767312
0.44942346 -0.024832159 0.65933561 4287461743
0.44889763 -0.024556711 0.65937144 4288448378
0.44837129 -0.024281114 0.65940726 4285620572
0.44783291 -0.02421166 0.65937674 4285160021
0.45317504 -0.02573441 0.65997666 4288249196
0.45261818 -0.025869057 0.65987903 4285223238
0.45207834 -0.025799125 0.65984821 4284172095
0.45154646 -0.025626764 0.6598509 4283845192
0.45100734 -0.025557056 0.65982008 4283649862
0.45047572 -0.025384769 0.65982276 4283518276
0.44994411 -0.025212482 0.65982538 4284700751
0.44941249 -0.025040194 0.65982807 4287724401
0.44888714 -0.024764925 0.65986413 4288448378
0.44835529 -0.024592564 0.65986681 4285752160
0.45260426 -0.026076138 0.66037101 4285289290
0.45207265 -0.025903851 0.66037363 4283974975
0.45154101 -0.025731564 0.66037631 4283582272
0.45100939 -0.025559276 0.66037893 4283452483
0.45047778 -0.025386989 0.66038162 4283386690
0.4499394 -0.025317535 0.66035056 4284765776
0.44940802 -0.025145337 0.66035318 4287329391
0.44888294 -0.024870127 0.66038954 4287658872
0.44834527 -0.024800926 0.66035849 4286211176
0.45207471 -0.025906071 0.66093248 4283974464
0.45154309 -0.025733784 0.6609351 4283516479
0.45101148 -0.025561497 0.66093779 4283583299
0.45047283 -0.025491968 0.66090643 4283517506
0.44994146 -0.025319755 0.66090912 4284699981
0.44940358 -0.025250465 0.66087782 4287133039
0.44886616 -0.025181338 0.66084647 4287527799
0.45206901 -0.026010796 0.66145706 4283974975
0.45154515 -0.025736004 0.66149396 4283648065
0.45100629 -0.025666386 0.66146237 4283582786
0.45046788 -0.025596932 0.66143084 4283516993
0.44992998 -0.025527641 0.66139925 4284305223
0.44939259 -0.025458515 0.66136771 4286608232
0.45100108 -0.025771275 0.66198653 4283385409
0.4504559 -0.025804654 0.66192019 4283778368
0.44992527 -0.025632694 0.66192281 4284173126
0.45052618 -0.025328681 0.67159718 4283715657
0.45000112 -0.025053501 0.67163873 4284438105
0.44947556 -0.024778157 0.67168027 4286343014
0.4489432 -0.024605632 0.67168295 4287002225
0.45158446 -0.025778189 0.67211187 4283977292
0.45106012 -0.025503278 0.67215365 4283847243
0.45052826 -0.025330901 0.67215627 4283715657
0.44999638 -0.025158539 0.67215896 4284438105
0.44947106 -0.024883285 0.67220074 4286343014
0.44893897 -0.024710834 0.67220342 4287002225
0.44840685 -0.024538398 0.67220604 4285490280
0.45157897 -0.025882989 0.67263126 4283977292
0.4510549 -0.025608122 0.67267334 4283847243
0.45052329 -0.02543585 0.67267597 4283715657
0.44999167 -0.025263563 0.67267865 4284438105
0.44946006 -0.025091276 0.67268133 4286343014
0.44892842 -0.024918988 0.67268395 4287002225
0.4483968 -0.024746701 0.67268658 4285490280
0.44786519 -0.024574414 0.67268926 4284634971
0.45105696 -0.025610358 0.6732322 4283847243
0.45051831 -0.025540799 0.67319518 4283715657
0.44998693 -0.025368586 0.67319781 4284438105
0.44945556 -0.025196388 0.67320049 4286343014
0.44892418 -0.025024176 0.67320311 4287002225
0.44839281 -0.024851978 0.67320579 4285490280
0.45105174 -0.025715217 0.67375112 4283847243
0.45051333 -0.025645748 0.6737138 4283715657
0.44997543 -0.025576428 0.67367655 4284438105
0.44945109 -0.025301501 0.67371911 4286343014
0.44891995 -0.025129363 0.67372179 4287002225
0.44838279 -0.025060296 0.67368448 4285490280
0.45215547 -0.025549412 0.67450523 4284174673
0.45159271 -0.025787085 0.67434716 4283977292
0.45104653 -0.025820091 0.6742695 4283847243
0.45051542 -0.025647968 0.67427218 4283715657
0.44997069 -0.025681451 0.67419446 4284438105
0.44945318 -0.025303721 0.67427742 4286343014
0.44892204 -0.025131583 0.67428011 4287002225
0.44838485 -0.025062516 0.67424256 4285490280
0.45383203 -0.025149226 0.67542094 4288775038
0.45326412 -0.025385201 0.67526191 4287261799
0.45270619 -0.025519416 0.6751433 4285290587
0.45215753 -0.025551632 0.6750651 4284174673
0.45160234 -0.025686741 0.67494643 4283977292
0.45106319 -0.025617018 0.6749087 4283847243
0.45052451 -0.02554746 0.67487091 4283715657
0.44997954 -0.025580868 0.67479271 4284438105
0.44945523 -0.025305927 0.67483574 4286343014
0.44892409 -0.025133803 0.67483842 4287002225
0.44839299 -0.02496168 0.67484105 4285490280
0.45383412 -0.025151461 0.67598319 4288775038
0.453291 -0.025080457 0.67594516 4287261799
0.45272434 -0.025316834 0.67578506 4285290587
0.45217517 -0.025348887 0.67570639 4284503638
0.45161948 -0.025483817 0.67558694 4283977292
0.45106524 -0.025619239 0.67546749 4283847243
0.4505266 -0.02554968 0.67542946 4283715657
0.44999522 -0.025377467 0.67543215 4284438105
0.44946384 -0.025205269 0.67543477 4286343014
0.44893247 -0.025033057 0.67543745 4287002225
0.44840109 -0.024860859 0.67544007 4285490280
0.44787553 -0.024585515 0.67548347 4284634971
0.45385322 -0.024949208 0.67662728 4288775038
0.45329309 -0.025082693 0.67650712 4287261799
0.45273444 -0.025216654 0.67638695 4285290587
0.45217726 -0.025351107 0.67626673 4284503638
0.45162153 -0.025486037 0.67614657 4283977292
0.4510746 -0.02551882 0.67606729 4283847243
0.45053568 -0.025449172 0.67602903 4283715657
0.45000407 -0.025276884 0.67603165 4284438105
0.44947246 -0.025104597 0.67603433 4286343014
0.44894084 -0.02493231 0.67603695 4287002225
0.44840923 -0.024760023 0.67603964 4285490280
0.44788343 -0.024484634 0.67608321 4284634971
0.44736269 -0.024105847 0.67616779 4283977554
0.45439941 -0.025022745 0.67722851 4287722348
0.45385531 -0.024951443 0.67719001 4288775038
0.45329517 -0.025084928 0.67706907 4287261799
0.45274454 -0.025116503 0.67698932 4285290587
0.45218709 -0.025250852 0.67686832 4284503638
0.45163113 -0.025385708 0.67674738 4283977292
0.45108396 -0.025418401 0.67666757 4283847243
0.45053777 -0.025451392 0.67658782 4283715657
0.44999933 -0.025381908 0.67654926 4284438105
0.44947451 -0.025106817 0.67659312 4286343014
0.4489429 -0.02493453 0.67659581 4287002225
0.44841129 -0.024762243 0.67659843 4285490280
0.44788548 -0.024486855 0.6766423 4284634971
0.44736475 -0.024108067 0.67672741 4283977554
0.45442778 -0.024718508 0.67791587 4287722348
0.45385739 -0.024953678 0.67775273 4288775038
0.45330554 -0.024984837 0.67767245 4287261799
0.45275465 -0.025016323 0.67759216 4285290587
0.45219696 -0.025150597 0.67747045 4284503638
0.45164075 -0.025285363 0.67734873 4283977292
0.45108604 -0.025420621 0.67722696 4283847243
0.45054686 -0.025350899 0.67718816 4283715657
0.45000821 -0.025281325 0.67714936 4284438105
0.4494766 -0.025109038 0.67715198 4286343014
0.44894499 -0.024936751 0.67715466 4287002225
0.44841942 -0.024661452 0.67719877 4285490280
0.44789338 -0.024385959 0.67724288 4284634971
0.44737238 -0.024007097 0.67732853 4283977554
0.45499322 -0.024588287 0.6786021 4284961870
0.4544211 -0.024822891 0.67843795 4287722348
0.453868 -0.024853647 0.67835712 4288775038
0.45331588 -0.024884745 0.67827636 4287261799
0.45276475 -0.024916157 0.6781956 4285290587
0.45220682 -0.025050342 0.67807311 4284503638
0.45165038 -0.025185019 0.67795056 4283977292
0.4510954 -0.025320187 0.67782807 4283847243
0.45054188 -0.025455832 0.67770553 4283715657
0.45001027 -0.025283545 0.67770815 4284438105
0.44947866 -0.025111258 0.67771083 4286343014
0.44895965 -0.024733067 0.67779696 4287002225
0.44842148 -0.024663657 0.67775786 4285490280
0.44789544 -0.024388179 0.67780226 4284634971
0.44737446 -0.024009317 0.67788839 4283977554
0.4549863 -0.024692625 0.67912471 4284961870
0.45443195 -0.024722978 0.67904341 4287722348
0.45387009 -0.024855897 0.67892015 4288775038
0.45331797 -0.024886981 0.67883885 4287261799
0.45275879 -0.025020793 0.67871559 4285290587
0.45220891 -0.025052577 0.67863429 4284503638
0.45165244 -0.025187254 0.67851096 4283977292
0.45109746 -0.025322407 0.67838764 4283847243
0.450551 -0.025355339 0.67830634 4283715657
0.45001236 -0.025285766 0.678267 4284438105
0.44948071 -0.025113478 0.67826968 4286343014
0.44895542 -0.024838254 0.67831433 4287002225
0.44842961 -0.024562851 0.67835891 4285490280
0.44789749 -0.024390399 0.67836159 4284634971
0.44737095 -0.024114743 0.67840624 4283977554
0.45497936 -0.024796948 0.67964673 4284961870
0.45441651 -0.024929523 0.67952269 4287722348
0.45386365 -0.024960384 0.67944086 4288775038
0.45331177 -0.024991542 0.67935908 4287261799
0.45276088 -0.025023013 0.67927724 4285290587
0.45220318 -0.025157288 0.6791532 4284503638
0.45165452 -0.025189474 0.67907137 4283977292
0.45109954 -0.025324643 0.67894727 4283847243
0.45054603 -0.025460273 0.67882317 4283715657
0.45001441 -0.025287986 0.67882586 4284438105
0.4494828 -0.025115699 0.67882848 4286343014
0.44895118 -0.024943411 0.67883116 4287002225
0.44842562 -0.024668112 0.67887604 4285490280
0.44789958 -0.02439262 0.67892092 4284634971
0.44737303 -0.024116963 0.67896587 4283977554
0.44684601 -0.023841158 0.67901075 4284372813
0.45497245 -0.024901271 0.68016827 4284961870
0.45440981 -0.025033921 0.6800434 4287722348
0.45385721 -0.025064856 0.67996109 4288775038
0.45330557 -0.025096089 0.67987877 4287261799
0.4527469 -0.025230035 0.6797539 4285290587
0.45219749 -0.025261998 0.67967159 4284503638
0.4516415 -0.025396824 0.67954671 4283977292
0.4511016 -0.025326863 0.6795069 4283847243
0.45054811 -0.025462493 0.67938203 4283715657
0.4500165 -0.025290206 0.67938465 4284438105
0.44948485 -0.025117919 0.67938733 4286343014
0.44895324 -0.024945632 0.67938995 4287002225
0.44842163 -0.024773359 0.67939264 4285490280
0.44789582 -0.024497971 0.67943776 4284634971
0.44736955 -0.024222404 0.67948294 4283977554
0.44684806 -0.023843378 0.67957067 4284372813
0.45440313 -0.025138333 0.68056369 4287722348
0.45384222 -0.025271565 0.68043804 4288775038
0.45329109 -0.025302961 0.68035519 4287261799
0.45274094 -0.025334656 0.68027234 4285290587
0.45219177 -0.025366694 0.68018949 4284503638
0.45163605 -0.025501609 0.68006384 4283977292
0.45108908 -0.025534377 0.67998099 4283847243
0.45055017 -0.025464714 0.67994088 4283715657
0.45001176 -0.025395229 0.67990077 4284438105
0.44948038 -0.025223017 0.67990339 4286343014
0.44894901 -0.025050819 0.67990607 4287002225
0.44842368 -0.02477558 0.67995149 4285490280
0.44789207 -0.024603292 0.67995411 4284634971
0.44736603 -0.024327815 0.67999953 4283977554
0.44684482 -0.023948893 0.68008775 4284372813
0.44632262 -0.023569643 0.68017596 4287005816
0.45437887 -0.025447056 0.68099731 4287722348
0.45382723 -0.025478274 0.68091393 4288775038
0.4532766 -0.025509819 0.6808306 4287261799
0.45272693 -0.025541693 0.68074721 4285290587
0.45218605 -0.025471404 0.68070686 4284503638
0.45163056 -0.025606409 0.68058044 4283977292
