# .PCD v0.7 - Point Cloud Data file format
VERSION 0.7
FIELDS x y z rgb
SIZE 4 4 4 4
TYPE F F F U
COUNT 1 1 1 1
WIDTH 1047
HEIGHT 1
VIEWPOINT 0 0 0 1 0 0 0
POINTS 1047
DATA ascii
0.44583791 -0.02605404 0.6615575 4286872699
0.44575429 -0.025428772 0.66167378 4287135105
0.44559744 -0.024872854 0.66175222 4288054927
0.44551212 -0.024245277 0.66186845 4288318099
0.4454979 -0.023545429 0.66202253 4288319118
0.44555432 -0.02277267 0.6622144 4288319368
0.44553751 -0.022069246 0.66236848 4287133561
0.44559103 -0.021292508 0.66256034 4286278252
0.44557166 -0.020585522 0.66271448 4283713619
0.44540852 -0.020021006 0.66279298 4283057489
0.44524482 -0.019455656 0.66287148 4282599251
0.44515145 -0.018816978 0.66298783 4282467665
0.44505715 -0.018177032 0.66310418 4283453020
0.44765216 -0.029229775 0.66189712 4287073425
0.4472782 -0.028885454 0.66186196 4287400852
0.44705135 -0.028403282 0.6619029 4288386718
0.44675091 -0.027990043 0.66190577 4288781213
0.44645047 -0.027576789 0.66190863 4288188811
0.44622299 -0.027093783 0.66194957 4287465088
0.44599518 -0.02661036 0.66199046 4287201916
0.44576707 -0.026126504 0.66203141 4286872699
0.44561112 -0.025571853 0.66211039 4287135105
0.4455269 -0.024945736 0.66222739 4288054927
0.44544172 -0.024318382 0.66234446 4288318099
0.44542766 -0.023618743 0.66249955 4288319118
0.4454124 -0.022917435 0.66265464 4288319368
0.44546759 -0.022142991 0.66284776 4287133561
0.4455213 -0.021366462 0.663041 4286278252
0.44550204 -0.0206597 0.66319609 4283713619
0.44541031 -0.020023331 0.66331321 4283057489
0.44524664 -0.019457981 0.66339225 4282599251
0.44515324 -0.018819302 0.66350937 4282467665
0.44491738 -0.018324763 0.66355038 4283453020
0.44765395 -0.029232055 0.66240799 4287073425
0.44720644 -0.028956667 0.66233432 4287400852
0.4469797 -0.028474703 0.66237551 4288386718
0.44660622 -0.028131008 0.66234004 4288781213
0.44637918 -0.027648628 0.66238123 4288188811
0.44615185 -0.02716583 0.66242242 4287465088
0.44585142 -0.026752591 0.66242534 4287201916
0.44562361 -0.026269153 0.66246647 4286872699
0.44546798 -0.025714919 0.66254598 4287135105
0.44538403 -0.025089234 0.66266376 4288054927
0.44537136 -0.024391487 0.66281986 4288318099
0.44535744 -0.023692071 0.66297603 4288319118
0.4453423 -0.022990957 0.66313213 4288319368
0.44539768 -0.022216737 0.66332662 4287133561
0.4454515 -0.021440431 0.66352105 4286278252
0.44543242 -0.020733878 0.66367728 4283713619
0.44534087 -0.020097718 0.66379511 4283057489
0.44524843 -0.019460306 0.66391301 4282599251
0.44515502 -0.018821627 0.66403091 4282467665
0.44788229 -0.029716089 0.6628775 4287007632
0.44750834 -0.029371768 0.6628418 4287073425
0.4472082 -0.028958946 0.66284472 4287400852
0.44690809 -0.028546125 0.66284758 4288386718
0.44660795 -0.028133288 0.66285044 4288781213
0.44623476 -0.027790025 0.6628148 4288188811
0.44608068 -0.027237877 0.66289479 4287465088
0.4457804 -0.026824832 0.66289765 4287201916
0.44555277 -0.026341617 0.66293907 4286872699
0.44539726 -0.025787592 0.66301906 4287135105
0.44531348 -0.025162131 0.66313767 4288054927
0.44522879 -0.024535403 0.66325629 4288318099
0.44521517 -0.023836404 0.66341341 4288319118
0.44527224 -0.023064494 0.66360915 4288319368
0.44532776 -0.022290498 0.66380489 4287133561
0.44538176 -0.021514386 0.66400069 4286278252
0.44536281 -0.020808056 0.66415787 4283713619
0.44534266 -0.020100042 0.6643151 4283057489
0.44525021 -0.01946263 0.66443372 4282599251
0.44515681 -0.018823966 0.66455245 4282467665
0.44506255 -0.018184036 0.66467106 4283453020
0.44788402 -0.029718369 0.66338813 4287007632
0.44751006 -0.029374063 0.66335219 4287073425
0.44720995 -0.028961226 0.66335511 4287400852
0.44690984 -0.028548405 0.66335797 4288386718
0.44660974 -0.028135568 0.66336083 4288781213
0.44623655 -0.027792305 0.66332489 4288188811
0.44600952 -0.027309924 0.66336662 4287465088
0.44570938 -0.026897103 0.66336948 4287201916
0.4454819 -0.026414081 0.6634112 4286872699
0.44532657 -0.025860265 0.66349173 4287135105
0.44524294 -0.025235027 0.66361105 4288054927
0.44515839 -0.024608508 0.66373044 4288318099
0.44514495 -0.023909718 0.66388857 4288319118
0.44520217 -0.023138016 0.66408563 4288319368
0.44525784 -0.022364244 0.66428268 4287133561
0.44531196 -0.021588355 0.66447973 4286278252
0.44529319 -0.020882234 0.66463798 4283713619
0.44534445 -0.020102367 0.6648351 4283057489
0.44532311 -0.019392684 0.66499335 4282599251
0.44522959 -0.018753812 0.66511279 4282467665
0.44520593 -0.018040985 0.66527104 4283453020
0.44795966 -0.029652148 0.66393787 4287007632
0.44758552 -0.029307619 0.66390169 4287073425
0.44735879 -0.028825656 0.66394365 4287400852
0.4469116 -0.028550684 0.66386837 4288386718
0.44661149 -0.028137848 0.66387123 4288781213
0.44631135 -0.027725026 0.66387415 4288188811
0.44601125 -0.027312204 0.66387701 4287465088
0.44571114 -0.026899368 0.66387987 4287201916
0.44555628 -0.026346177 0.66396093 4286872699
0.44525588 -0.025932938 0.66396379 4287135105
0.44517237 -0.025307909 0.6640839 4288054927
0.44516015 -0.024610788 0.6642431 4288318099
0.44514674 -0.023912013 0.66440237 4288319118
0.44520393 -0.023140326 0.66460067 4288319368
0.4452596 -0.022366554 0.66479903 4287133561
0.44531375 -0.021590665 0.6649974 4286278252
0.44529498 -0.020884544 0.66515666 4283713619
0.44534627 -0.020104691 0.66535503 4283057489
0.44539601 -0.019322738 0.66555345 4282599251
0.44530231 -0.018683657 0.66567367 4282467665
0.44527853 -0.017970622 0.665833 4283453020
0.4484098 -0.029931098 0.66452456 4287402642
0.44803524 -0.029585928 0.66448808 4287007632
0.44766098 -0.029241189 0.66445166 4287073425
0.44728702 -0.028896853 0.66441518 4287400852
0.44706017 -0.028414696 0.66445744 4288386718
0.44661325 -0.028140128 0.66438162 4288781213
0.44631314 -0.027727306 0.66438448 4288188811
0.44601303 -0.027314484 0.6643874 4287465088
0.44571292 -0.026901647 0.66439027 4287201916
0.44548541 -0.026418641 0.66443247 4286872699
0.4452576 -0.025935218 0.66447473 4287135105
0.44510183 -0.02538079 0.66455626 4288054927
0.44501761 -0.024754688 0.66467714 4288318099
0.4450765 -0.023985326 0.66487676 4288319118
0.44513386 -0.023213848 0.66507638 4288319368
0.44526139 -0.022368848 0.66531539 4287133561
0.44531554 -0.021592975 0.66551501 4286278252
0.44543961 -0.020743161 0.66575402 4283713619
0.44534805 -0.020107001 0.66587502 4283057489
0.4454689 -0.019252792 0.66611409 4282599251
0.44551697 -0.018468544 0.66631377 4282467665
0.44542193 -0.01782757 0.66643476 4283453020
0.44848555 -0.029865086 0.66507554 4287402642
0.44811082 -0.029519722 0.66503882 4287007632
0.44781011 -0.029106051 0.66504174 4287073425
0.44743586 -0.028761297 0.66500503 4287400852
0.4470619 -0.028416976 0.66496831 4288386718
0.44676149 -0.028003722 0.66497117 4288781213
0.44638801 -0.027660027 0.66493452 4288188811
0.44608772 -0.027246997 0.66493738 4287465088
0.44571465 -0.026903927 0.66490066 4287201916
0.44541454 -0.026491106 0.66490352 4286872699
0.44525939 -0.025937498 0.6649856 4287135105
0.44503129 -0.025453657 0.6650281 4288054927
0.44501936 -0.024756983 0.66518939 4288318099
0.44507825 -0.023987606 0.66539025 4288319118
0.44513562 -0.023216143 0.66559118 4288319368
0.44519144 -0.022442594 0.66579211 4287133561
0.44531733 -0.021595284 0.66603267 4286278252
0.4454414 -0.020745471 0.66627324 4283713619
0.44549236 -0.019965217 0.66647422 4283057489
0.4455418 -0.019182846 0.66667521 4282925903
0.44558972 -0.018398389 0.6668762 4282467665
0.44549453 -0.017757222 0.66699803 4282926676
0.44539842 -0.017114788 0.6671198 4284045157
0.44544238 -0.016324893 0.66732085 4286413705
0.44856131 -0.029799089 0.66562706 4287402642
0.44818646 -0.029453501 0.66559011 4287007632
0.44788557 -0.029039621 0.66559297 4287073425
0.44751114 -0.028694674 0.66555601 4287400852
0.44713706 -0.02835013 0.66551906 4288386718
0.44683647 -0.027936667 0.66552198 4288781213
0.44646281 -0.027592763 0.66548496 4288188811
0.44608948 -0.027249277 0.66544801 4287465088
0.44571644 -0.026906207 0.66541106 4287201916
0.44548893 -0.026423201 0.66545379 4286872699
0.44526115 -0.025939777 0.66549653 4287135105
0.44503304 -0.025455937 0.66553926 4288054927
0.44502115 -0.024759263 0.66570157 4288318099
0.44500804 -0.02406092 0.66586393 4288319118
0.44513738 -0.023218453 0.66610599 4288319368
0.44519323 -0.022444889 0.66630816 4287133561
0.44531912 -0.021597594 0.66655028 4286278252
0.44544318 -0.020747796 0.66679245 4283713619
0.4455654 -0.019895464 0.66703457 4283057489
0.44554359 -0.019185171 0.66719699 4282925903
0.44566247 -0.018328249 0.66743916 4282467665
0.44563794 -0.017614186 0.66760159 4282926676
0.4455415 -0.01697135 0.66772419 4284045157
0.44544417 -0.016327232 0.6678468 4286413705
0.4487111 -0.0296648 0.66621923 4287402642
0.44826207 -0.029387295 0.66614187 4287007632
0.44788736 -0.029041916 0.66610467 4287073425
0.44758648 -0.028628036 0.66610754 4287400852
0.44728559 -0.028214172 0.66611046 4288386718
0.44691145 -0.027869627 0.6660732 4288781213
0.44653767 -0.027525499 0.66603601 4288188811
0.44616419 -0.027181804 0.66599876 4287465088
0.44579098 -0.026838511 0.66596156 4287201916
0.44556332 -0.026355311 0.66600454 4286872699
0.44526291 -0.025942057 0.6660074 4287135105
0.4451071 -0.02538763 0.66609055 4288054927
0.44502291 -0.024761558 0.66621375 4288318099
0.44508183 -0.023992196 0.66641724 4288319118
0.44513917 -0.023220748 0.66662073 4288319368
0.44519502 -0.022447199 0.66682428 4287133561
0.4453209 -0.021599904 0.66706795 4286278252
0.44544497 -0.020750105 0.66731161 4283713619
0.44556719 -0.019897789 0.66755533 4283057489
0.4457587 -0.018970698 0.66783917 4282925903
0.44580618 -0.018185616 0.66804278 4282467665
0.44571054 -0.017543823 0.6681661 4282926676
0.44561398 -0.016900778 0.66828948 4284045157
0.4455165 -0.016256467 0.66841286 4286413705
0.44931078 -0.029809266 0.6668902 4287730069
0.44878685 -0.029598802 0.66677201 4287402642
0.44833767 -0.029321074 0.66669416 4287007632
0.44803649 -0.028906778 0.66669708 4287073425
0.44766176 -0.028561413 0.66665959 4287400852
0.44721395 -0.028285578 0.66658175 4288386718
0.44691324 -0.027871907 0.66658467 4288781213
0.44661251 -0.027458251 0.66658753 4288188811
0.44616592 -0.027184084 0.66650969 4287465088
0.44586551 -0.02677083 0.66651255 4287201916
0.4455651 -0.026357591 0.66651547 4286872699
0.44526467 -0.025944352 0.66651833 4287135105
0.44503659 -0.025460511 0.6665616 4288054927
0.44502467 -0.024763837 0.66672599 4288318099
0.44501156 -0.024065495 0.66689038 4288319118
0.44514096 -0.023223042 0.66713554 4288319368
0.44519681 -0.022449508 0.6673404 4287133561
0.44532269 -0.021602213 0.66758561 4286278252
0.44544679 -0.02075243 0.66783082 4283713619
0.44564027 -0.019828066 0.66811645 4283057489
0.4458316 -0.018900767 0.66840214 4282925903
0.44580799 -0.018187955 0.66856664 4282467665
0.44585392 -0.017400801 0.66877151 4282926676
0.44568643 -0.016830236 0.66885531 4284045157
0.4455888 -0.016185716 0.66897941 4286413705
0.44931257 -0.029811561 0.6674037 4287730069
0.44878861 -0.029601082 0.66728473 4287402642
0.44848713 -0.029186368 0.66728765 4287007632
0.44803828 -0.028909072 0.66720927 4287073425
0.4477371 -0.028494775 0.66721219 4287400852
0.44728911 -0.028218731 0.66713381 4288386718
0.44698822 -0.027804852 0.66713667 4288781213
0.44661427 -0.02746053 0.66709894 4288188811
0.44624063 -0.027116612 0.66706121 4287465088
0.44586727 -0.026773125 0.66702348 4287201916
0.44556686 -0.026359871 0.66702634 4286872699
0.44526643 -0.025946632 0.6670292 4287135105
0.44503832 -0.025462791 0.66707271 4288054927
0.44495428 -0.024836943 0.66719753 4288318099
0.44494131 -0.024138808 0.66736299 4288319118
0.44507086 -0.023296565 0.66760969 4288319368
0.4451986 -0.022451803 0.66785645 4287133561
0.44532448 -0.021604523 0.66810322 4286278252
0.44544858 -0.020754755 0.66835004 4283713619
0.44564205 -0.019830391 0.66863745 4283057489
0.44590449 -0.018830821 0.66896558 4282925903
0.44588074 -0.018117815 0.66913116 4282467665
0.44585574 -0.017403141 0.66929668 4282926676
0.44575888 -0.016759679 0.66942161 4284045157
0.44559062 -0.01618807 0.66950589 4286413705
0.44931436 -0.029813856 0.66791719 4287730069
0.4488644 -0.029535085 0.66783834 4287402642
0.44848889 -0.029188663 0.66780037 4287007632
0.44804001 -0.028911352 0.66772151 4287073425
0.44773883 -0.02849707 0.66772437 4287400852
0.44736427 -0.0281519 0.6676864 4288386718
0.44699001 -0.027807146 0.66764838 4288781213
0.44661605 -0.02746281 0.66761041 4288188811
0.44624239 -0.027118891 0.66757238 4287465088
0.44586903 -0.02677539 0.66753435 4287201916
0.44556862 -0.026362151 0.66753727 4286872699
0.44526821 -0.025948912 0.66754013 4287135105
0.44504011 -0.025465071 0.66758388 4288054927
0.44495603 -0.024839222 0.66770947 4288318099
0.44494307 -0.024141088 0.66787595 4288319118
0.44500077 -0.023370087 0.66808337 4288319368
0.44512865 -0.022525549 0.66833162 4287133561
0.44532627 -0.021606833 0.66862088 4286278252
0.44545037 -0.020757064 0.6688692 4283713619
0.4457151 -0.019760668 0.66919941 4283057489
0.44597742 -0.018760905 0.66952956 4282925903
0.44602448 -0.017975211 0.6697371 4282467665
0.44592836 -0.017332807 0.66986275 4282926676
0.4457607 -0.016762033 0.6699475 4284045157
0.44566295 -0.016117319 0.67007327 4286413705
0.44939023 -0.029748082 0.66847181 4287730069
0.44886616 -0.02953738 0.66835135 4287402642
0.44849068 -0.029190958 0.66831309 4287007632
0.44811547 -0.028844938 0.66827482 4287073425
0.44774061 -0.02849935 0.66823655 4287400852
0.44736606 -0.028154179 0.66819835 4288386718
0.44691852 -0.027878761 0.66811895 4288781213
0.44654471 -0.027534634 0.66808069 4288188811
0.44617122 -0.027190924 0.66804242 4287465088
0.44587082 -0.026777685 0.66804528 4287201916
0.44557038 -0.026364431 0.66804814 4286872699
0.44526994 -0.025951192 0.66805106 4287135105
0.44504187 -0.025467351 0.66809505 4288054927
0.44488564 -0.024912313 0.66818029 4288318099
0.44487283 -0.024214402 0.66834778 4288319118
0.44485879 -0.023514807 0.66851532 4288319368
0.444987 -0.022670686 0.66876519 4287133561
0.44518495 -0.021752432 0.66905618 4286278252
0.44538072 -0.020831227 0.66934729 4283713619
0.44578815 -0.019690931 0.66976184 4283057489
0.44605035 -0.018690974 0.67009407 4282925903
0.44602627 -0.017977551 0.67026174 4282467665
0.44593018 -0.017335147 0.67038816 4282926676
0.44583315 -0.016691476 0.67051464 4284045157
0.44580573 -0.015973464 0.67068231 4286413705
0.44931787 -0.029818445 0.66894418 4287730069
0.44886792 -0.029539675 0.66886431 4287402642
0.44841859 -0.029261738 0.66878438 4287007632
0.44804356 -0.028915927 0.66874588 4287073425
0.44774237 -0.02850163 0.6687488 4287400852
0.44729441 -0.028225586 0.66866887 4288386718
0.44692028 -0.027881041 0.66863036 4288781213
0.44654649 -0.027536914 0.6685918 4288188811
0.44617298 -0.027193204 0.66855329 4287465088
0.44587255 -0.026779965 0.66855621 4287201916
0.44549951 -0.02643688 0.66851765 4286872699
0.44527173 -0.025953472 0.66856194 4287135105
0.44504362 -0.025469631 0.66860622 4288054927
0.44481522 -0.024985388 0.66865051 4288318099
0.44480258 -0.024287701 0.66881907 4288319118
0.44478872 -0.023588315 0.66898763 4288319368
0.44470191 -0.022958711 0.66911483 4287133561
0.4453111 -0.02090539 0.66982478 4283713619
0.44564742 -0.019837379 0.67020047 4283057489
0.44605213 -0.018693313 0.6706177 4282925903
0.44595712 -0.018052369 0.6707449 4282467665
0.44586116 -0.017410189 0.67087215 4282926676
0.44583499 -0.01669383 0.67104083 4284045157
0.44587803 -0.015902713 0.67125094 4286413705
0.44931966 -0.02982074 0.66945767 4287730069
0.44879568 -0.029610246 0.6693356 4287402642
0.4483465 -0.029332519 0.6692552 4287007632
0.44804531 -0.028918222 0.66925812 4287073425
0.44767061 -0.028572842 0.66921932 4287400852
0.4472962 -0.028227881 0.66918051 4288386718
0.44692206 -0.027883321 0.66914177 4288781213
0.44654825 -0.027539194 0.66910297 4288188811
0.44617474 -0.027195483 0.66906422 4287465088
0.44580156 -0.026852205 0.66902542 4287201916
0.44550127 -0.02643916 0.66902828 4286872699
0.44527349 -0.025955752 0.66907287 4287135105
0.44497305 -0.025542498 0.66907573 4288054927
0.44488916 -0.024916872 0.66920364 4288318099
0.44473231 -0.024360985 0.66928989 4288319118
0.44464675 -0.02373305 0.6694178 4288319368
0.44463196 -0.023032427 0.66958737 4287133561
0.44524148 -0.020979553 0.6703018 4283713619
0.44550672 -0.019983813 0.67063814 4283057489
0.44591174 -0.018840164 0.67105794 4282925903
0.44588798 -0.018127188 0.67122763 4282467665
0.44586298 -0.017412528 0.67139733 4282926676
0.44590744 -0.016623288 0.67160875 4284045157
0.44879746 -0.029612541 0.66984832 4287402642
0.44834828 -0.029334798 0.66976738 4287007632
0.4480471 -0.028920501 0.6697703 4287073425
0.44767237 -0.028575122 0.66973126 4287400852
0.44729793 -0.02823016 0.66969222 4288386718
0.44692382 -0.027885616 0.66965318 4288781213
0.44655001 -0.027541488 0.66961414 4288188811
0.44617653 -0.027197778 0.6695751 4287465088
0.44587609 -0.026784524 0.66957802 4287201916
0.44557565 -0.02637127 0.66958088 4286872699
0.44527525 -0.025958031 0.66958374 4287135105
0.44504714 -0.025474206 0.66962856 4288054927
0.44489092 -0.024919167 0.66971529 4288318099
0.4447341 -0.024363279 0.66980207 4288319118
0.4446485 -0.02373533 0.66993076 4288319368
0.44463372 -0.023034722 0.6701014 4287133561
0.44550851 -0.019986138 0.67115861 4283057489
0.44584244 -0.018914774 0.67153907 4282925903
0.44588977 -0.018129528 0.67175174 4282467665
0.44579399 -0.017487541 0.67188054 4282926676
0.44879925 -0.029614821 0.67036104 4287402642
0.44827619 -0.029405579 0.67023742 4287007632
0.44797516 -0.028991491 0.67024034 4287073425
0.4476006 -0.02864632 0.670201 4287400852
0.44729972 -0.02823244 0.67020392 4288386718
0.44692558 -0.027887896 0.67016459 4288781213
0.4465518 -0.027543768 0.67012531 4288188811
0.44617826 -0.027200058 0.67008603 4287465088
0.44587785 -0.026786804 0.67008889 4287201916
0.44557744 -0.026373565 0.67009181 4286872699
0.44534948 -0.025889948 0.67013687 4287135105
0.44504893 -0.025476485 0.67013973 4288054927
0.44496489 -0.024850652 0.67026919 4288318099
0.44480789 -0.024294555 0.67035645 4288319118
0.44465029 -0.023737624 0.67044377 4288319368
0.44470724 -0.022965595 0.67065763 4287133561
0.44510221 -0.021127865 0.67125422 4283713619
0.44522527 -0.020276651 0.67151034 4283057489
0.4455598 -0.019206136 0.67189306 4282925903
0.44560778 -0.018421754 0.67210704 4282467665
0.44865298 -0.02975367 0.67078888 4287402642
0.44827795 -0.029407874 0.67074937 4287007632
0.44797695 -0.028993785 0.67075229 4287073425
0.44760236 -0.0286486 0.67071271 4287400852
0.44730148 -0.028234735 0.67071557 4288386718
0.44692734 -0.027890176 0.67067605 4288781213
0.44655353 -0.027546048 0.67063648 4288188811
0.44625297 -0.027132586 0.6706394 4287465088
0.44587961 -0.026789084 0.67059982 4287201916
0.44565183 -0.026305676 0.67064512 4286872699
0.44535124 -0.025892228 0.67064804 4287135105
0.44519532 -0.025337607 0.67073578 4288054927
0.4450388 -0.024782136 0.67082357 4288318099
0.44495368 -0.024154842 0.67095387 4288319118
0.44486767 -0.023526281 0.67108411 4288319368
0.44478074 -0.022896469 0.67121434 4287133561
0.44490758 -0.0220505 0.67147201 4286278252
0.4450326 -0.021202013 0.67172962 4283713619
0.44522706 -0.020278975 0.67202979 4283057489
0.44865477 -0.02975595 0.67130113 4287402642
0.44827974 -0.029410154 0.67126131 4287007632
0.44797871 -0.028996065 0.67126417 4287073425
0.44760412 -0.028650895 0.67122436 4287400852
0.44730324 -0.028237015 0.67122728 4288386718
0.4469291 -0.02789247 0.67118746 4288781213
0.44662839 -0.027478799 0.67119038 4288188811
0.44625473 -0.027134866 0.67115051 4287465088
0.44595414 -0.026721418 0.67115343 4287201916
0.44572622 -0.026237801 0.67119902 4286872699
0.44542548 -0.02582413 0.67120188 4287135105
0.44519711 -0.025339887 0.67124748 4288054927
0.44504058 -0.024784431 0.67133576 4288318099
0.4450275 -0.024086133 0.6715095 4288319118
0.4450132 -0.023386165 0.67168325 4288319368
0.44485423 -0.022827342 0.67177159 4287133561
0.44498092 -0.02198118 0.67203081 4286278252
0.44503438 -0.021204323 0.67224729 4283713619
0.44522887 -0.0202813 0.67254925 4283057489
0.44858253 -0.029826522 0.67177033 4287402642
0.44820765 -0.029480919 0.67173028 4287007632
0.44790676 -0.029067054 0.6717332 4287073425
0.44760591 -0.028653175 0.67173606 4287400852
0.44730502 -0.028239295 0.67173898 4288386718
0.44700414 -0.02782543 0.67174184 4288781213
0.44663015 -0.027481079 0.67170179 4288188811
0.44632941 -0.027067423 0.67170465 4287465088
0.44602871 -0.026653752 0.67170751 4287201916
0.4458006 -0.026169926 0.67175341 4286872699
0.44549975 -0.025756046 0.67175627 4287135105
0.44534352 -0.025201008 0.67184508 4288054927
0.4451867 -0.024645135 0.67193395 4288318099
0.44510129 -0.024017423 0.67206573 4288319118
0.44508684 -0.023317248 0.6722405 4288319368
0.44499946 -0.022686809 0.67237234 4287133561
0.44498271 -0.021983474 0.67254716 4286278252
0.44496477 -0.021278486 0.67272192 4283713619
0.44865829 -0.029760525 0.67232549 4287402642
0.44828326 -0.029414728 0.6722852 4287007632
0.44798225 -0.02900064 0.67228806 4287073425
0.44760764 -0.028655455 0.67224777 4287400852
0.44730678 -0.02824159 0.67225063 4288386718
0.4470059 -0.02782771 0.67225355 4288781213
0.44663191 -0.027483374 0.6722132 4288188811
0.4463312 -0.027069703 0.67221606 4287465088
0.44603047 -0.026656032 0.67221898 4287201916
0.44580239 -0.026172206 0.67226505 4286872699
0.44557399 -0.025687963 0.67231119 4287135105
0.44534528 -0.025203303 0.67235732 4288054927
0.44526064 -0.024576634 0.67248988 4288318099
0.44517508 -0.023948714 0.67262244 4288319118
0.44508862 -0.023319542 0.67275506 4288319368
0.44500124 -0.022689104 0.67288762 4287133561
0.4449845 -0.021985784 0.67306346 4286278252
0.44496655 -0.021280795 0.67323935 4283713619
0.44896126 -0.030177116 0.67283481 4287664276
0.44866008 -0.029762819 0.67283773 4287402642
0.44828504 -0.029417008 0.67279714 4287007632
0.44791031 -0.029071614 0.67275655 4287073425
0.44760942 -0.028657749 0.67275941 4287400852
0.44723514 -0.028312981 0.67271882 4288386718
0.4469344 -0.02789931 0.67272174 4288781213
0.4466337 -0.027485654 0.6727246 4288188811
0.44633296 -0.027071983 0.67272747 4287465088
0.44610503 -0.026588365 0.67277384 4287201916
0.44580415 -0.026174486 0.67277676 4286872699
0.44564825 -0.025619879 0.67286658 4287135105
0.44534707 -0.025205582 0.6728695 4288054927
0.44519025 -0.024649709 0.67295939 4288318099
0.44517684 -0.023951009 0.67313617 4288319118
0.44516227 -0.023250625 0.67331308 4288319368
0.445003 -0.022691399 0.67340297 4287133561
0.44484311 -0.022131354 0.67349285 4286278252
0.4448255 -0.021426767 0.67366976 4283713619
0.44896302 -0.030179396 0.67334706 4287664276
0.44858783 -0.029833376 0.67330623 4287402642
0.4482868 -0.029419303 0.67330909 4287007632
0.44791207 -0.029073909 0.67326826 4287073425
0.44761118 -0.028660029 0.67327112 4287400852
0.4472369 -0.028315261 0.67323029 4288386718
0.44693616 -0.02790159 0.67323315 4288781213
0.44663543 -0.027487934 0.67323601 4288188811
0.44633472 -0.027074262 0.67323893 4287465088
0.44603398 -0.026660606 0.67324179 4287201916
0.44580591 -0.02617678 0.67328846 4286872699
0.44557753 -0.025692537 0.67333508 4287135105
0.44534883 -0.025207877 0.67338169 4288054927
0.44526419 -0.024581209 0.67351586 4288318099
0.44517863 -0.023953304 0.67364997 4288319118
0.44516402 -0.023252934 0.67382789 4288319368
0.4450765 -0.022622287 0.673962 4287133561
0.44498804 -0.021990404 0.67409617 4286278252
0.44497013 -0.021285415 0.67427409 4283713619
0.44889063 -0.030249745 0.67381525 4287664276
0.44851559 -0.029903933 0.67377412 4287402642
0.44821471 -0.029490069 0.67377704 4287007632
0.44784009 -0.029144883 0.67373592 4287073425
0.44746584 -0.0288001 0.67369485 4287400852
0.44723865 -0.028317541 0.6737417 4288386718
0.44686469 -0.027973205 0.67370057 4288781213
0.44649103 -0.027629271 0.67365944 4288188811
0.44626355 -0.02714628 0.67370635 4287465088
0.44603574 -0.026662886 0.67375326 4287201916
0.4458077 -0.02617906 0.67380011 4286872699
0.44550681 -0.025765195 0.67380297 4287135105
0.44535059 -0.025210157 0.67389393 4288054927
0.44526595 -0.024583504 0.67402881 4288318099
0.44518042 -0.023955598 0.6741637 4288319118
0.44516581 -0.023255229 0.67434263 4288319368
0.44515002 -0.022553191 0.67452157 4287133561
0.44498983 -0.021992713 0.67461252 4286278252
0.44889238 -0.030252039 0.67432719 4287664276
0.44851735 -0.029906228 0.67428583 4287402642
0.44814259 -0.029560819 0.67424446 4287007632
0.44776818 -0.029215842 0.6742031 4287073425
0.44739407 -0.028871283 0.67416173 4287400852
0.44709364 -0.028458044 0.67416465 4288386718
0.4467932 -0.02804479 0.67416751 4288781213
0.44649279 -0.027631551 0.67417037 4288188811
0.44619238 -0.027218297 0.67417324 4287465088
0.44589195 -0.026805058 0.67417616 4287201916
0.4457368 -0.026251495 0.67426753 4286872699
0.44550857 -0.025767475 0.67431468 4287135105
0.44535238 -0.025212452 0.67440611 4288054927
0.44519556 -0.024656579 0.67449749 4288318099
0.44511014 -0.024028882 0.6746332 4288319118
0.44502383 -0.023399934 0.67476892 4288319368
0.44486487 -0.022841141 0.67486036 4287133561
0.44881999 -0.030322373 0.67479461 4287664276
0.44844508 -0.02997677 0.67475301 4287402642
0.44814438 -0.029563114 0.67475587 4287007632
0.44769624 -0.029286817 0.67466974 4287073425
0.4473958 -0.028873563 0.67467266 4287400852
0.44709539 -0.028460324 0.67467552 4288386718
0.44672173 -0.02811639 0.67463386 4288781213
0.44634837 -0.027772889 0.67459226 4288188811
0.44612119 -0.027290314 0.67463964 4287465088
0.4458937 -0.026807338 0.67468703 4287201916
0.44566596 -0.026323944 0.67473447 4286872699
0.44551033 -0.025769755 0.67482638 4287135105
0.44535413 -0.025214732 0.67491829 4288054927
0.44519731 -0.024658874 0.6750102 4288318099
0.44511193 -0.024031177 0.6751467 4288319118
0.44502562 -0.023402244 0.67528319 4288319368
0.44882175 -0.030324668 0.67530632 4287664276
0.44844687 -0.029979065 0.67526442 4287402642
0.4479984 -0.029702336 0.67517781 4287007632
0.447698 -0.029289097 0.67518067 4287073425
0.44739759 -0.028875858 0.67518353 4287400852
0.44695035 -0.028600827 0.67509687 4288386718
0.44665021 -0.02818799 0.67509979 4288781213
0.4463501 -0.027775168 0.67510265 4288188811
0.44604999 -0.027362347 0.67510551 4287465088
0.44589549 -0.026809618 0.67519796 4287201916
0.44566768 -0.026326224 0.67524564 4286872699
0.44551212 -0.02577205 0.67533803 4287135105
0.44535589 -0.025217026 0.67543048 4288054927
0.44519907 -0.024661168 0.67552298 4288318099
0.44504166 -0.024104461 0.67561543 4288319118
0.44509926 -0.023333326 0.67584223 4288319368
0.44485202 -0.022142872 0.676072 4286278252
0.44874933 -0.030395001 0.67577296 4287664276
0.44837463 -0.030049607 0.67573082 4287402642
0.44800019 -0.02970463 0.67568868 4287007632
0.44762605 -0.029360056 0.67564654 4287073425
0.44725221 -0.029015929 0.6756044 4287400852
0.4469521 -0.028603107 0.67560726 4288386718
0.44657874 -0.02825959 0.67556512 4288781213
0.44627878 -0.027846962 0.67556798 4288188811
0.44605178 -0.027364612 0.67561591 4287465088
0.44582444 -0.026881844 0.67566383 4287201916
0.44574207 -0.026258349 0.67580181 4286872699
0.44558635 -0.025703967 0.6758948 4287135105
0.44535768 -0.025219306 0.67594272 4288054927
0.44520086 -0.024663448 0.6760357 4288318099
0.44504344 -0.024106756 0.67612869 4288319118
0.44495726 -0.023478031 0.67626667 4288319368
0.4488253 -0.030329227 0.67632967 4287664276
0.44837639 -0.030051887 0.67624199 4287402642
0.44800195 -0.02970691 0.67619962 4287007632
0.44762781 -0.029362336 0.67615718 4287073425
0.447254 -0.029018208 0.6761148 4287400852
0.44688046 -0.028674483 0.67607236 4288386718
0.4465805 -0.02826187 0.67607522 4288781213
0.44628054 -0.027849242 0.67607814 4288188811
0.4460535 -0.027366906 0.6761263 4287465088
0.44589901 -0.026814178 0.67621976 4287201916
0.44574386 -0.026260644 0.67631322 4286872699
0.44566059 -0.025635883 0.67645204 4287135105
0.44543177 -0.025151029 0.6765002 4288054927
0.44520262 -0.024665743 0.67654842 4288318099
0.4450452 -0.024109051 0.67664188 4288319118
0.44488716 -0.023551524 0.6767354 4288319368
0.44882703 -0.030331522 0.67684138 4287664276
0.44837815 -0.030054167 0.67675316 4287402642
0.44792986 -0.029777661 0.67666495 4287007632
0.44762957 -0.029364616 0.67666781 4287073425
0.44732931 -0.028951585 0.67667073 4287400852
0.44695562 -0.028607666 0.67662805 4288386718
0.44658226 -0.028264135 0.67658538 4288781213
0.4463554 -0.027782008 0.67663383 4288188811
0.44605529 -0.027369171 0.6766367 4287465088
0.44590077 -0.026816458 0.67673069 4287201916
0.44574562 -0.026262924 0.67682463 4286872699
0.44566238 -0.025638178 0.67696422 4287135105
0.44543353 -0.025153309 0.67701268 4288054927
0.44527656 -0.024597242 0.67710668 4288318099
0.44511902 -0.024040356 0.67720068 4288319118
0.44496083 -0.023482621 0.67729473 4288319368
0.44882882 -0.030333802 0.67735302 4287664276
0.4484539 -0.029988199 0.67731011 4287402642
0.44800547 -0.02971147 0.67722142 4287007632
0.44770503 -0.029298216 0.67722428 4287073425
0.44733107 -0.028953865 0.67718136 4287400852
0.44695741 -0.028609931 0.67713845 4288386718
0.44665727 -0.02819711 0.67714131 4288781213
0.44635716 -0.027784288 0.67714417 4288188811
0.44613001 -0.027301729 0.67719287 4287465088
0.44590253 -0.026818752 0.67724156 4287201916
0.44574738 -0.026265204 0.6773361 4286872699
0.44566414 -0.025640458 0.67747641 4287135105
0.44550765 -0.025085032 0.67757094 4288054927
0.44527835 -0.024599537 0.67761964 4288318099
0.44512078 -0.024042636 0.67771417 4288319118
0.44489071 -0.023556113 0.67776287 4288319368
0.44845569 -0.029990479 0.67782152 4287402642
0.44800723 -0.02971375 0.67773229 4287007632
0.44770682 -0.029300511 0.67773521 4287073425
0.44740641 -0.028887257 0.67773807 4287400852
0.44703257 -0.028543115 0.67769492 4288386718
0.44673228 -0.028130069 0.67769778 4288781213
0.44643205 -0.027717039 0.67770064 4288188811
0.44613177 -0.027303994 0.67770356 4287465088
0.44590428 -0.026821032 0.67775249 4287201916
0.44582182 -0.026197344 0.67789358 4286872699
0.4456659 -0.025642753 0.67798865 4287135105
0.4455094 -0.025087327 0.67808366 4288054927
0.4452801 -0.024601832 0.67813265 4288318099
0.44505054 -0.02411592 0.67818165 4288319118
0.44482061 -0.023629591 0.67823058 4288319368
0.44853145 -0.029924497 0.6783793 4287402642
0.44800901 -0.02971603 0.67824322 4287007632
0.44770858 -0.029302791 0.67824608 4287073425
0.44740814 -0.028889537 0.678249 4287400852
0.44710773 -0.028476298 0.67825186 4288386718
0.44680732 -0.028063044 0.67825472 4288781213
0.44643378 -0.027719319 0.67821133 4288188811
0.44613352 -0.027306288 0.67821419 4287465088
0.44590604 -0.026823312 0.67826343 4287201916
0.44575089 -0.026269779 0.67835891 4286872699
0.44566768 -0.025645033 0.67850083 4287135105
0.44543883 -0.025160179 0.67855006 4288054927
0.44520968 -0.024674907 0.6785993 4288318099
0.4450523 -0.024118215 0.67869484 4288319118
0.44482237 -0.023631886 0.67874408 4288319368
0.44853324 -0.029926792 0.678891 4287402642
0.44808462 -0.029649854 0.6788007 4287007632
0.44778407 -0.029236391 0.67880356 4287073425
0.44740993 -0.028891817 0.67875987 4287400852
0.44718289 -0.028409481 0.67880934 4288386718
0.44680908 -0.028065324 0.67876565 4288781213
0.44650865 -0.027652085 0.67876852 4288188811
0.44620824 -0.027238831 0.67877144 4287465088
0.44590783 -0.026825592 0.6787743 4287201916
0.44575268 -0.026272058 0.67887032 4286872699
0.44559693 -0.025717691 0.6789664 4287135105
0.44536826 -0.02523303 0.67901593 4288054927
0.44513929 -0.024747968 0.67906541 4288318099
0.44498199 -0.024191484 0.67916149 4288319118
0.44482416 -0.02363418 0.67925757 4288319368
0.448535 -0.029929072 0.67940265 4287402642
0.44816023 -0.029583663 0.67935872 4287007632
0.44785953 -0.029169992 0.67936158 4287073425
0.44748524 -0.028825223 0.67931765 4287400852
0.44711125 -0.028480858 0.67927366 4288386718
0.44681084 -0.028067604 0.67927659 4288781213
0.4464373 -0.027723879 0.6792326 4288188811
0.44621 -0.027241111 0.67928231 4287465088
0.44590956 -0.026827872 0.67928523 4287201916
0.44568181 -0.026344478 0.67933494 4286872699
0.44552624 -0.025790319 0.6794315 4287135105
0.44529769 -0.025305897 0.67948127 4288054927
0.44506884 -0.024821028 0.67953098 4288318099
0.44491175 -0.024264768 0.6796276 4288319118
0.44875884 -0.02972658 0.68005562 4287402642
0.44816202 -0.029585943 0.67987013 4287007632
0.44786128 -0.029172286 0.67987299 4287073425
0.447487 -0.028827503 0.67982882 4287400852
0.44711304 -0.028483137 0.6797846 4288386718
0.4468126 -0.028069884 0.67978746 4288781213
0.44651216 -0.027656645 0.67979038 4288188811
0.4461388 -0.027313128 0.67974615 4287465088
0.44583854 -0.026900083 0.67974901 4287201916
0.44561094 -0.026416913 0.67979902 4286872699
0.44538301 -0.02593331 0.67984897 4287135105
0.44515476 -0.025449291 0.67989898 4288054927
0.44492623 -0.024964854 0.67994899 4288318099
0.44476944 -0.024409026 0.68004608 4288319118
0.44823766 -0.029519767 0.68042892 4287007632
0.44778934 -0.029243231 0.68033707 4287073425
0.44748878 -0.028829783 0.68033999 4287400852
0.4471882 -0.028416336 0.68034285 4288386718
0.44681436 -0.028072178 0.68029839 4288781213
0.44644085 -0.027728438 0.68025386 4288188811
0.44614059 -0.027315408 0.68025678 4287465088
0.4458403 -0.026902363 0.68025964 4287201916
0.44561267 -0.026419193 0.68030989 4286872699
0.44531226 -0.026005939 0.68031275 4287135105
0.44508418 -0.025522143 0.68036306 4288054927
0.44485581 -0.025037915 0.68041331 4288318099
0.44455507 -0.024624258 0.68041617 4288319118
0.44816554 -0.029590517 0.680893 4287007632
0.4477911 -0.029245526 0.68084824 4287073425
0.44749051 -0.028832063 0.6808511 4287400852
0.44711655 -0.028487697 0.6808064 4288386718
0.44674286 -0.028143764 0.68076164 4288781213
0.4464426 -0.027730718 0.68076456 4288188811
0.44606936 -0.02738741 0.68071979 4287465088
0.44576925 -0.026974589 0.68072265 4287201916
0.4455418 -0.026491612 0.6807732 4286872699
0.44524151 -0.026078582 0.68077606 4287135105
0.44501361 -0.02559498 0.68082654 4288054927
0.44471318 -0.025181741 0.68082947 4288318099
0.4444848 -0.024697512 0.68087995 4288319118
0.44809344 -0.029661253 0.68135655 4287007632
0.44771916 -0.02931647 0.68131155 4287073425
0.44741875 -0.028903231 0.68131441 4287400852
0.44704491 -0.028559074 0.68126941 4288386718
0.44667137 -0.028215349 0.68122441 4288781213
0.44637126 -0.027802512 0.68122733 4288188811
0.44607112 -0.02738969 0.68123019 4287465088
0.44577101 -0.026976869 0.68123305 4287201916
0.44554356 -0.026493892 0.68128383 4286872699
0.4452433 -0.026080847 0.68128669 4287135105
0.44494301 -0.025667816 0.68128955 4288054927
0.44471496 -0.025184005 0.68134034 4288318099
0.44441453 -0.024770766 0.68134326 4288319118
0.44802135 -0.029732004 0.68181956 4287007632
0.44764721 -0.029387429 0.68177432 4287073425
0.44734693 -0.028974384 0.68177718 4287400852
0.44697323 -0.02863045 0.68173194 4288386718
0.44659984 -0.028286919 0.68168664 4288781213
0.44629991 -0.027874306 0.68168956 4288188811
0.44599992 -0.027461678 0.68169242 4287465088
0.44569996 -0.027049065 0.68169528 4287201916
0.44547266 -0.026566312 0.6817463 4286872699
0.44517255 -0.02615349 0.68174922 4287135105
0.4449448 -0.025670096 0.68180025 4288054927
0.44471669 -0.0251863 0.68185127 4288318099
0.44434425 -0.024844021 0.68180597 4288319118
0.44418776 -0.024288625 0.68190515 4288319368
0.44794923 -0.02980274 0.68228209 4287007632
0.44757521 -0.029458389 0.68223655 4287073425
0.4472751 -0.029045552 0.68223941 4287400852
0.44697499 -0.02863273 0.68224233 4288386718
0.44660163 -0.028289199 0.6821968 4288781213
0.44630164 -0.027876586 0.68219966 4288188811
0.44592875 -0.02753368 0.68215412 4287465088
0.44562894 -0.027121276 0.68215704 4287201916
0.44547442 -0.026568592 0.6822567 4286872699
0.44517431 -0.02615577 0.68225956 4287135105
0.44487417 -0.025742948 0.68226248 4288054927
0.4446463 -0.025259346 0.68231374 4288318099
0.44441807 -0.024775326 0.68236506 4288319118
0.44418952 -0.024290904 0.68241632 4288319368
0.44787711 -0.02987349 0.68274409 4287007632
0.44750327 -0.029529333 0.68269831 4287073425
0.44720331 -0.02911672 0.68270117 4287400852
0.44690335 -0.028704092 0.68270403 4288386718
0.44660336 -0.028291479 0.68270695 4288781213
0.44623029 -0.027948365 0.68266112 4288188811
0.44593048 -0.02753596 0.68266404 4287465088
0.44563067 -0.027123556 0.6826669 4287201916
0.44533086 -0.026711136 0.68266976 4286872699
0.44510356 -0.026228398 0.68272132 4287135105
0.44487596 -0.025745213 0.68277287 4288054927
0.44457585 -0.025332391 0.68277574 4288318099
0.4444198 -0.024777606 0.68287599 4288319118
0.44419128 -0.024293184 0.68292749 4288319368
0.44389072 -0.023879722 0.68293035 4287133561
0.44787887 -0.02987577 0.68325448 4287007632
0.44750503 -0.029531613 0.68320841 4287073425
0.44727862 -0.029050112 0.6832602 4287400852
0.44690511 -0.028706372 0.68321419 4288386718
0.44653189 -0.028363049 0.68316811 4288781213
0.44623208 -0.027950644 0.68317103 4288188811
0.44585931 -0.027607962 0.68312496 4287465088
0.44555962 -0.027195752 0.68312782 4287201916
0.44533265 -0.026713416 0.68317962 4286872699
0.44510531 -0.026230663 0.68323141 4287135105
0.44487771 -0.025747508 0.68328327 4288054927
0.44457757 -0.025334671 0.68328613 4288318099
0.44434953 -0.024850875 0.68333793 4288319118
0.44404927 -0.02443783 0.68334079 4288319368
0.44389248 -0.023882017 0.68344152 4287133561
0.44788063 -0.02987805 0.68376482 4287007632
0.44750679 -0.029533893 0.68371856 4287073425
0.44720683 -0.029121265 0.68372142 4287400852
0.44683343 -0.028777733 0.68367511 4288386718
0.44653362 -0.028365329 0.68367797 4288781213
0.4461607 -0.028022438 0.68363172 4288188811
0.44586104 -0.027610227 0.68363458 4287465088
0.44556141 -0.027198032 0.68363744 4287201916
0.44526172 -0.026785836 0.68364036 4286872699
0.44503456 -0.026303291 0.6836924 4287135105
0.44480711 -0.02582033 0.68374443 4288054927
0.44450715 -0.025407717 0.68374729 4288318099
0.44427925 -0.024924129 0.68379939 4288319118
0.44397911 -0.024511293 0.68380225 4288319368
0.4438225 -0.023955688 0.68390352 4287133561
0.44788238 -0.02988033 0.68427521 4287007632
0.44750854 -0.029536158 0.68422866 4287073425
0.44720858 -0.029123545 0.68423152 4287400852
0.44690862 -0.028710932 0.68423444 4288386718
0.44646212 -0.028436899 0.68413842 4288781213
0.44616246 -0.028024703 0.68414128 4288188811
0.44586283 -0.027612507 0.6841442 4287465088
0.44556314 -0.027200311 0.68414706 4287201916
0.4452635 -0.026788116 0.68414992 4286872699
0.44496381 -0.02637592 0.68415278 4287135105
0.44473654 -0.025893152 0.68420511 4288054927
0.44443673 -0.025480747 0.68420798 4288318099
0.44428098 -0.024926409 0.68430978 4288319118
0.44398087 -0.024513572 0.68431264 4288319368
0.44382426 -0.023957968 0.68441445 4287133561
0.44788414 -0.02988261 0.6847856 4287007632
0.4475103 -0.029538438 0.68473881 4287073425
0.44721034 -0.029125825 0.68474168 4287400852
0.44683695 -0.028782293 0.68469489 4288386718
0.44653714 -0.028369874 0.68469775 4288781213
0.44616422 -0.028026983 0.6846509 4288188811
0.44586456 -0.027614787 0.68465382 4287465088
0.44556493 -0.027202591 0.68465668 4287201916
0.44526523 -0.02679038 0.68465954 4286872699
0.4449656 -0.026378185 0.6846624 4287135105
0.44473827 -0.025895432 0.68471497 4288054927
0.44443846 -0.025483027 0.68471789 4288318099
0.44421071 -0.024999648 0.68477046 4288319118
0.44398266 -0.024515852 0.68482304 4288319368
0.44368252 -0.024103031 0.6848259 4287133561
0.44345403 -0.023618594 0.68487853 4284897893
0.44826007 -0.030229464 0.68534309 4287402642
0.4478859 -0.02988489 0.685296 4287007632
0.44751206 -0.029540718 0.68524891 4287073425
0.4472121 -0.029128104 0.68525183 4287400852
0.44683874 -0.028784573 0.68520474 4288386718
0.44653893 -0.028372154 0.68520761 4288781213
0.44623911 -0.027959749 0.68521047 4288188811
0.44586635 -0.027617067 0.68516338 4287465088
0.44556665 -0.027204856 0.6851663 4287201916
0.44526702 -0.02679266 0.68516916 4286872699
0.44496733 -0.026380464 0.68517202 4287135105
0.4446677 -0.025968269 0.68517488 4288054927
0.44444025 -0.025485307 0.68522775 4288318099
0.44421247 -0.025001928 0.68528056 4288319118
0.44391251 -0.024589315 0.68528342 4288319368
0.44368428 -0.02410531 0.68533629 4287133561
0.44826183 -0.030231744 0.68585372 4287402642
0.44788766 -0.02988717 0.68580639 4287007632
0.44758755 -0.029474333 0.68580925 4287073425
0.44721386 -0.029130384 0.68576193 4287400852
0.44684047 -0.028786838 0.6857146 4288386718
0.44654065 -0.028374434 0.68571746 4288781213
0.44624084 -0.027962029 0.68572032 4288188811
0.44586807 -0.027619332 0.685673 4287465088
0.44556844 -0.027207136 0.68567592 4287201916
0.44526875 -0.02679494 0.68567878 4286872699
0.44496912 -0.026382744 0.68568164 4287135105
0.44466946 -0.025970548 0.6856845 4288054927
0.44444197 -0.025487587 0.68573761 4288318099
0.44421422 -0.025004208 0.68579072 4288319118
0.44398618 -0.024520412 0.68584383 4288319368
0.44368607 -0.02410759 0.68584669 4287133561
0.44352913 -0.023551568 0.68595004 4284897893
0.44833761 -0.030165777 0.68641484 4287402642
0.44788945 -0.029889449 0.68631679 4287007632
0.44758931 -0.029476613 0.68631965 4287073425
0.4472892 -0.029063791 0.68632257 4287400852
0.44691566 -0.028720036 0.68627495 4288386718
0.44654244 -0.028376713 0.68622732 4288781213
0.44624263 -0.027964309 0.68623024 4288188811
0.44586983 -0.027621612 0.68618262 4287465088
0.44557017 -0.027209416 0.68618548 4287201916
0.44527054 -0.02679722 0.6861884 4286872699
0.44497085 -0.026385024 0.68619126 4287135105
0.44474357 -0.025902271 0.68624461 4288054927
0.44444376 -0.025489852 0.68624747 4288318099
0.44421598 -0.025006488 0.68630087 4288319118
0.44398791 -0.024522692 0.68635422 4288319368
0.44375956 -0.024038479 0.68640757 4287133561
0.44353089 -0.023553848 0.68646097 4284897893
0.4483394 -0.030168056 0.68692577 4287402642
0.44789118 -0.029891729 0.68682718 4287007632
0.44759107 -0.029478893 0.68683004 4287073425
0.44729096 -0.029066071 0.6868329 4287400852
0.44699085 -0.028653249 0.68683583 4288386718
0.44661745 -0.028309703 0.68678796 4288781213
0.44624436 -0.027966589 0.6867401 4288188811
0.44587159 -0.027623892 0.68669224 4287465088
0.44557196 -0.027211696 0.6866951 4287201916
0.44534492 -0.02672936 0.68674874 4286872699
0.44504511 -0.026316956 0.6867516 4287135105
0.4447453 -0.025904536 0.68675447 4288054927
0.44444549 -0.025492132 0.68675733 4288318099
0.44421774 -0.025008768 0.68681097 4288319118
0.44398969 -0.024524972 0.68686461 4288319368
0.44368958 -0.02411215 0.68686748 4287133561
0.44834113 -0.030170351 0.68743664 4287402642
0.44789296 -0.029893994 0.68733758 4287007632
0.44759285 -0.029481173 0.68734044 4287073425
0.44729272 -0.029068351 0.6873433 4287400852
0.44699261 -0.028655529 0.68734622 4288386718
0.44661921 -0.028311983 0.68729806 4288781213
0.44631925 -0.027899355 0.68730098 4288188811
0.44594634 -0.027556449 0.68725282 4287465088
0.44564652 -0.027144045 0.68725574 4287201916
0.44534671 -0.02673164 0.6872586 4286872699
0.4450469 -0.026319236 0.68726146 4287135105
0.44474709 -0.025906816 0.68726432 4288054927
0.44451946 -0.025423661 0.68731821 4288318099
0.44421953 -0.025011048 0.68732107 4288319118
0.44399145 -0.024527252 0.68737495 4288319368
0.44376308 -0.024043038 0.68742889 4287133561
0.44834292 -0.030172631 0.68794757 4287402642
0.44789469 -0.029896289 0.68784797 4287007632
0.44766834 -0.029414788 0.68790209 4287073425
0.44729447 -0.029070631 0.68785369 4287400852
0.44699436 -0.028657794 0.68785655 4288386718
0.44662097 -0.028314263 0.68780822 4288781213
0.44624788 -0.027971134 0.68775982 4288188811
0.44594806 -0.027558729 0.68776268 4287465088
0.44564825 -0.027146325 0.6877656 4287201916
0.44527578 -0.026804045 0.6877172 4286872699
0.44504863 -0.026321501 0.68777132 4287135105
0.44474885 -0.025909096 0.68777418 4288054927
0.44452125 -0.025425941 0.68782836 4288318099
0.44429332 -0.024942353 0.68788248 4288319118
0.44406512 -0.024458349 0.68793666 4288319368
0.4438366 -0.023973942 0.68799078 4287133561
0.44353616 -0.023560688 0.68799365 4284897893
0.44834468 -0.030174911 0.68845844 4287402642
0.44797039 -0.029830113 0.68840981 4287007632
0.4476701 -0.029417068 0.68841273 4287073425
0.44729626 -0.029072911 0.68836409 4287400852
0.44699612 -0.028660089 0.68836695 4288386718
0.44662273 -0.028316528 0.68831831 4288781213
0.44632277 -0.027903914 0.68832123 4288188811
0.44594985 -0.027561009 0.6882726 4287465088
0.44565004 -0.027148604 0.68827546 4287201916
0.44535023 -0.026736185 0.68827832 4286872699
0.44505042 -0.02632378 0.68828118 4287135105
0.44489533 -0.025770292 0.6883871 4288054927
0.44459522 -0.02535747 0.68839002 4288318099
0.44436717 -0.024873674 0.68844438 4288319118
0.44413877 -0.024389461 0.6884988 4288319368
0.44391012 -0.02390483 0.68855321 4287133561
0.44368112 -0.023419797 0.68860757 4284897893
0.44834644 -0.030177191 0.68896937 4287402642
0.44797212 -0.029832393 0.6889205 4287007632
0.44767186 -0.029419348 0.68892336 4287073425
0.44729799 -0.02907519 0.68887448 4287400852
0.44699788 -0.028662354 0.68887734 4288386718
0.44669777 -0.028249532 0.68888021 4288781213
0.44632453 -0.027906194 0.68883133 4288188811
0.44602457 -0.027493581 0.68883419 4287465088
0.44572461 -0.027080968 0.68883711 4287201916
0.44542465 -0.02666834 0.68883997 4286872699
0.44519719 -0.026185393 0.68889463 4287135105
0.44489706 -0.025772572 0.68889749 4288054927
0.44466919 -0.025288984 0.68895215 4288318099
0.44451302 -0.024734035 0.6890586 4288319118
0.44428432 -0.024249405 0.68911326 4288319368
0.44398361 -0.023835748 0.68911612 4287133561
0.44382608 -0.023278907 0.68922257 4286278252
0.44834819 -0.030179471 0.68948025 4287402642
0.44797391 -0.029834673 0.68943113 4287007632
0.44774735 -0.029352978 0.68948603 4287073425
0.44729978 -0.02907747 0.68938488 4287400852
0.4470731 -0.028595552 0.68943977 4288386718
0.44669953 -0.028251812 0.6893906 4288781213
0.44639942 -0.02783899 0.68939352 4288188811
0.44609928 -0.027426153 0.68939638 4287465088
0.44579917 -0.027013332 0.68939924 4287201916
0.44549906 -0.02660051 0.6894021 4286872699
0.44519895 -0.026187673 0.68940502 4287135105
0.44504356 -0.025633767 0.68951195 4288054927
0.44474316 -0.025220513 0.68951488 4288318099
0.44458681 -0.024665356 0.68962181 4288319118
0.44435802 -0.024180532 0.6896767 4288319368
0.44405714 -0.023766652 0.68967962 4287133561
0.44397104 -0.023138002 0.68983865 4286278252
0.44797564 -0.029836953 0.68994176 4287007632
0.44774914 -0.029355258 0.68999696 4287073425
0.44730151 -0.029079735 0.68989527 4287400852
0.44707483 -0.028597832 0.68995041 4288386718
0.44670129 -0.028254092 0.68990099 4288781213
0.44640118 -0.02784127 0.68990386 4288188811
0.44610107 -0.027428433 0.68990678 4287465088
0.44580096 -0.027015612 0.68990964 4287201916
0.44550082 -0.026602775 0.6899125 4286872699
0.44534576 -0.026049286 0.69001997 4287135105
0.44511771 -0.025565505 0.69007516 4288054927
0.44481713 -0.025152057 0.69007802 4288318099
0.44466066 -0.024596691 0.69018555 4288319118
0.44450361 -0.024040461 0.69029301 4288319368
0.44420242 -0.023626179 0.69029588 4287133561
0.44404441 -0.023068711 0.6904034 4286278252
0.44797742 -0.029839233 0.69045246 4287007632
0.44775087 -0.029357538 0.69050783 4287073425
0.4473033 -0.02908203 0.69040567 4287400852
0.44707662 -0.028600127 0.69046104 4288386718
0.44670305 -0.028256372 0.69041139 4288781213
0.44640294 -0.027843535 0.69041431 4288188811
0.44617581 -0.027361006 0.69046974 4287465088
0.44587553 -0.026947975 0.6904726 4287201916
0.44557527 -0.02653493 0.69047546 4286872699
0.44534752 -0.026051581 0.6905309 4287135105
0.44511944 -0.025567785 0.69058633 4288054927
0.44496331 -0.025012851 0.69069433 4288318099
0.44473448 -0.024528012 0.69074976 4288319118
0.44457728 -0.023971587 0.69085777 4288319368
0.44427592 -0.023557097 0.69086063 4287133561
0.44418943 -0.022927821 0.69102126 4286278252
0.44790527 -0.029909953 0.69091028 4287007632
0.44767892 -0.029428467 0.69096595 4287073425
0.44730502 -0.029084295 0.69091606 4287400852
0.44707838 -0.028602391 0.69097173 4288386718
0.4467048 -0.028258651 0.69092178 4288781213
0.44647783 -0.027776331 0.69097745 4288188811
0.44617757 -0.027363285 0.69098037 4287465088
0.44587731 -0.026950255 0.69098324 4287201916
0.44564968 -0.0264671 0.69103891 4286872699
