# .PCD v0.7 - Point Cloud Data file format
VERSION 0.7
FIELDS x y z rgb
SIZE 4 4 4 4
TYPE F F F U
COUNT 1 1 1 1
WIDTH 1054
HEIGHT 1
VIEWPOINT 0 0 0 1 0 0 0
POINTS 1054
DATA ascii
0.47316879 -0.0014998047 0.4929772 4278849031
0.47316706 -0.0010971995 0.49297991 4278914824
0.47316533 -0.00069459621 0.49298263 4278914575
0.4731636 -0.00029199384 0.49298537 4278849813
0.47317722 0.00010018051 0.49288806 4278717966
0.4731755 0.0005025249 0.49289078 4278652688
0.47315845 0.00091581978 0.49299353 4278652688
0.47315672 0.0013184231 0.49299628 4278718477
0.47317034 0.0017095599 0.49289897 4278979849
0.47316861 0.0021119062 0.49290168 4278849033
0.47316688 0.0025142506 0.49290442 4279111954
0.47316515 0.0029165931 0.49290714 4279111954
0.47316346 0.0033189394 0.49290985 4279046159
0.47316173 0.0037212837 0.49291259 4278914573
0.47316 0.00412363 0.49291533 4279046161
0.47315827 0.0045259725 0.49291804 4278914826
0.47315654 0.0049283188 0.49292076 4278849033
0.47315484 0.0053306632 0.4929235 4279046664
0.47315311 0.0057330057 0.49292624 4279112457
0.47315139 0.006135352 0.49292892 4278981138
0.47314966 0.0065376963 0.49293166 4278915093
0.47314793 0.0069400426 0.49293441 4279046679
0.4731462 0.007342387 0.49293712 4279047962
0.47312912 0.0077600833 0.49303991 4279375894
0.47312742 0.0081626866 0.49304262 4279506963
0.4731257 0.0085652936 0.49304533 4279242768
0.47313932 0.0089517664 0.492948 4279242768
0.47313759 0.0093541089 0.49295074 4279110925
0.47313589 0.0097564552 0.49295348 4278848780
0.47313416 0.0101588 0.49295619 4278981387
0.47311705 0.010578314 0.49305898 4279045389
0.47311535 0.010980913 0.49306172 4279045389
0.47311363 0.01138352 0.49306443 4279176975
0.4731119 0.011786124 0.49306715 4278914577
0.47312555 0.012170522 0.49296981 4279046410
0.47312382 0.01257287 0.49297255 4278849031
0.47312209 0.012975214 0.49297526 4279046929
0.47312036 0.01337756 0.49297798 4279046163
0.47311863 0.013779903 0.49298072 4278848780
0.47311693 0.014182249 0.49298346 4278914826
0.47311521 0.014584592 0.49298617 4279046412
0.47311348 0.014986934 0.49298888 4279308814
0.47311175 0.015389284 0.49299163 4279439371
0.47311002 0.015791627 0.49299434 4279570957
0.47310832 0.016193973 0.49299705 4279703315
0.47310659 0.016596319 0.49299979 4279571729
0.47310486 0.016998662 0.49300253 4279111178
0.47310314 0.017401008 0.49300525 4279242764
0.47310141 0.01780335 0.49300796 4279308805
0.47309971 0.018205697 0.4930107 4279505668
0.47308257 0.018630387 0.49311352 4279505668
0.47308087 0.019032994 0.49311626 4279637004
0.47307914 0.019435598 0.49311897 4279047182
0.47307742 0.019838205 0.49312168 4278718479
0.47309107 0.020217417 0.49302432 4279177745
0.47308937 0.020619763 0.49302703 4279177745
0.47308764 0.021022109 0.49302977 4279374374
0.47308591 0.021424452 0.49303249 4278915610
0.47308418 0.021826802 0.4930352 4279046163
0.47308245 0.022229141 0.49303794 4279440149
0.47309613 0.022606546 0.49294055 4279440149
0.4730944 0.023008635 0.49294329 4279176975
0.47310808 0.023385266 0.49284589 4279308557
0.47310635 0.023787094 0.4928486 4278981136
0.47312003 0.024162946 0.49275121 4279374356
0.47313374 0.024538277 0.49265379 4279440149
0.47313201 0.024939587 0.49265653 4279768327
0.47314569 0.025314143 0.49255911 4279965452
0.47314399 0.025715189 0.49256182 4279505936
0.47312686 0.026143508 0.49266469 4279242768
0.47312513 0.026544819 0.49266738 4279440147
0.47312343 0.026946133 0.49267012 4279243288
0.47310629 0.027375488 0.49277297 4279441691
0.47310457 0.027777052 0.49277568 4279439894
0.47310284 0.028178619 0.49277842 4279899160
0.47310114 0.028580191 0.49278113 4279899160
0.473084 0.029010842 0.49288398 4279504917
0.47308227 0.029412663 0.49288672 4279374101
0.47306514 0.029844092 0.49298957 4279702294
0.47306341 0.030246174 0.49299228 4279703570
0.47306171 0.030648263 0.49299502 4279769363
0.47305998 0.031050349 0.49299774 4279178519
0.47305825 0.031452432 0.49300045 4279113237
0.47304112 0.031885415 0.49310333 4279244312
0.47303939 0.032287769 0.49310607 4279634966
0.47303766 0.032690108 0.49310881 4279634966
0.47303593 0.033092454 0.49311152 4279570959
0.47303423 0.033494793 0.49311423 4279309085
0.4730325 0.033897139 0.49311697 4279507230
0.47301534 0.03433194 0.49321985 4279375644
0.47301361 0.03473454 0.49322259 4279442204
0.47301191 0.035137147 0.49322534 4279309331
0.47299474 0.035572976 0.49332821 4279308557
0.47299302 0.035975844 0.49333096 4279308304
0.47299129 0.036378704 0.4933337 4279374097
0.47298956 0.036781572 0.49333641 4279900445
0.47298783 0.037184432 0.49333912 4279834402
0.4729861 0.037587292 0.49334186 4279898919
0.47298437 0.03799016 0.4933446 4279505442
0.47298267 0.038393021 0.49334732 4279373856
0.47298095 0.038795888 0.49335003 4278980636
0.47297922 0.039198749 0.49335277 4279506462
0.47297749 0.039601609 0.49335551 4279768864
0.47297576 0.040004477 0.49335825 4279375659
0.47297403 0.040407337 0.49336097 4279112487
0.4729723 0.040810198 0.49336368 4279702819
0.47297058 0.041213065 0.49336642 4279702812
0.47296888 0.041615926 0.49336916 4279308561
0.47296715 0.042018794 0.49337187 4279505940
0.47296542 0.042421654 0.49337459 4279637526
0.47294822 0.042862408 0.49347752 4279768859
0.47296196 0.043227375 0.49338007 4279768859
0.47296023 0.043630242 0.49338281 4280031779
0.47295851 0.044033103 0.49338552 4279900694
0.47295678 0.044435963 0.49338824 4279440143
0.47295505 0.044838831 0.49339098 4279178250
0.47295332 0.045241691 0.49339372 4279243292
0.47295162 0.045644552 0.49339643 4279637528
0.47294989 0.046047419 0.49339914 4280029978
0.47294816 0.04645028 0.49340189 4279898392
0.47294644 0.04685314 0.49340463 4279769134
0.47294471 0.047256008 0.49340737 4279899941
0.47295845 0.047617868 0.49330986 4279242786
0.47295672 0.048020475 0.49331257 4279374372
0.47295499 0.048423074 0.49331528 4279374372
0.47293782 0.048867449 0.49341828 4279374372
0.47293609 0.049270324 0.49342099 4279374372
0.47293437 0.049673185 0.4934237 4279374372
0.47293264 0.050076045 0.49342644 4279374372
0.47291544 0.050521716 0.49352941 4279374372
0.47291371 0.050924845 0.49353212 4279374372
0.47291198 0.051327966 0.49353486 4279374372
0.47291026 0.051731087 0.4935376 4279374372
0.47289306 0.052178062 0.49364057 4279374372
0.47289133 0.052581444 0.49364328 4279374372
0.4728896 0.052984834 0.49364603 4279374372
0.47290334 0.053343572 0.49354851 4279374372
0.47290161 0.053746693 0.49355125 4279374372
0.47289991 0.054149821 0.493554 4279374372
0.47289819 0.054552943 0.49355671 4279374372
0.47291192 0.054910399 0.49345919 4279374372
0.4729102 0.055313267 0.49346191 4279374372
0.47290847 0.055716127 0.49346465 4279374372
0.47290677 0.056118988 0.49346739 4279374372
0.47290504 0.056521848 0.4934701 4279374372
0.47291881 0.056877762 0.49337256 4279374372
0.47291708 0.057280362 0.4933753 4279374372
0.47291535 0.057682961 0.49337801 4279374372
0.47292912 0.058037825 0.49328047 4279374372
0.47291189 0.058488175 0.49338347 4279374372
0.47289467 0.058939032 0.49348646 4279374372
0.47289294 0.059341893 0.49348921 4279374372
0.47289121 0.05974476 0.49349195 4279374372
0.47288951 0.060147621 0.49349466 4279374372
0.47288778 0.060550474 0.49349737 4279374372
0.47290155 0.060903795 0.49339983 4279374372
0.47289982 0.061306402 0.49340254 4279374372
0.4728981 0.061709002 0.49340528 4279374372
0.47291189 0.06206128 0.49330771 4279374372
0.47292566 0.062413044 0.49321014 4279374372
0.47295496 0.062713437 0.49301231 4279374372
0.47318476 -0.091989569 0.49216294 4279505687
0.47319838 -0.091538861 0.49206606 4279505687
0.47319669 -0.091137037 0.49206877 4279703062
0.47319496 -0.090735212 0.49207151 4279572503
0.47319323 -0.09033338 0.49207422 4279309081
0.4731915 -0.089931555 0.49207693 4279309081
0.4731898 -0.08952973 0.49207968 4279243038
0.47318807 -0.089127906 0.49208239 4279177495
0.47318634 -0.088726074 0.4920851 4279505166
0.47318462 -0.088324249 0.49208784 4279374101
0.47318292 -0.087922424 0.49209055 4279505687
0.47318119 -0.087520599 0.49209327 4279242770
0.47316411 -0.087164551 0.49219561 4279308561
0.47316238 -0.086762466 0.49219835 4279374350
0.47316068 -0.08636038 0.49220106 4279505942
0.47315896 -0.085958287 0.49220377 4279374356
0.47315723 -0.085556209 0.49220651 4279242772
0.4731555 -0.085154124 0.49220926 4279440151
0.47313842 -0.08479628 0.4923116 4279374358
0.47313669 -0.084393933 0.49231434 4279176979
0.47313499 -0.083991595 0.49231708 4279242772
0.47313327 -0.083589241 0.49231976 4279439894
0.47313154 -0.083186902 0.4923225 4279439894
0.47314519 -0.082741603 0.49222559 4279242772
0.47314346 -0.082339518 0.4922283 4279176979
0.47314173 -0.08193744 0.49223101 4279111702
0.47314 -0.081535347 0.49223375 4279112474
0.4731383 -0.081133261 0.49223647 4279111956
0.47313657 -0.080731176 0.49223918 4279111176
0.47313485 -0.080329098 0.49224192 4279242762
0.47313312 -0.079927005 0.49224463 4279112975
0.47311604 -0.079565801 0.49234703 4279111956
0.47311431 -0.079163447 0.49234974 4279111702
0.47311258 -0.078761108 0.49235249 4279374356
0.47311085 -0.078358762 0.49235523 4279242770
0.47310913 -0.077956416 0.49235794 4279112205
0.4731074 -0.077554077 0.49236065 4279045389
0.4731057 -0.077151723 0.49236339 4279243538
0.47310397 -0.076749384 0.49236611 4279111956
0.47310224 -0.076347038 0.49236882 4279111956
0.47310051 -0.075944699 0.49237156 4279176725
0.47309878 -0.075542346 0.4923743 4279111956
0.47309709 -0.075140007 0.49237701 4279045389
0.47309536 -0.074737661 0.49237972 4279045389
0.47309363 -0.074335314 0.49238247 4279570706
0.4730919 -0.073932968 0.49238518 4279308563
0.47309017 -0.073530622 0.49238789 4279242518
0.47308847 -0.073128283 0.49239063 4278915347
0.47310212 -0.072689474 0.49229366 4278915347
0.47310039 -0.072287381 0.4922964 4278850316
0.4730987 -0.071885303 0.49229908 4278850314
0.47309697 -0.07148321 0.49230182 4278850063
0.47311065 -0.071045704 0.49220484 4278981653
0.47310892 -0.070643879 0.49220759 4279113239
0.47310719 -0.070242055 0.4922103 4278981399
0.47310546 -0.069840223 0.49221301 4278850067
0.47310376 -0.069438398 0.49221575 4278784010
0.47310203 -0.069036573 0.49221846 4279177228
0.4731003 -0.068634748 0.49222118 4279177228
0.47309858 -0.068232924 0.49222392 4279308565
0.47308147 -0.06786444 0.49232632 4279374356
0.47307974 -0.067462355 0.49232906 4279637779
0.47307801 -0.067060269 0.4923318 4279374607
0.47307631 -0.066658184 0.49233449 4279308814
0.47307459 -0.066256098 0.49233723 4278981140
0.47307286 -0.065854013 0.49233997 4279046931
0.47307113 -0.065451927 0.49234268 4279177749
0.47306943 -0.065049842 0.49234539 4279177749
0.4730677 -0.064647757 0.49234813 4279244308
0.47306597 -0.064245664 0.49235085 4279112472
0.47306424 -0.063843586 0.49235356 4279177497
0.47306252 -0.0634415 0.4923563 4279636503
0.47306082 -0.063039415 0.49235901 4279570710
0.47305909 -0.062637329 0.49236172 4279242768
0.47305736 -0.062235244 0.49236447 4278981387
0.47305563 -0.061833158 0.49236718 4279374354
0.47305393 -0.061431073 0.49236989 4279375377
0.4730522 -0.061028987 0.49237263 4279243791
0.47305048 -0.060626902 0.49237537 4279112205
0.47304875 -0.060224809 0.49237806 4279177998
0.47304702 -0.059822731 0.4923808 4279112205
0.47304532 -0.059420645 0.49238354 4279177745
0.47304359 -0.05901856 0.49238625 4279111952
0.4730573 -0.058589078 0.49228922 4279309584
0.47305557 -0.058187254 0.49229193 4279243540
0.47305384 -0.057785429 0.49229467 4279111952
0.47305214 -0.057383604 0.49229738 4279111952
0.47306585 -0.056955412 0.49220034 4279177747
0.47306412 -0.056553841 0.49220306 4279112205
0.4730624 -0.056152277 0.4922058 4279178248
0.47304526 -0.055776291 0.49230826 4279177996
0.47304353 -0.055374466 0.492311 4279243789
0.4730418 -0.054972641 0.49231371 4278915860
0.47304007 -0.054570816 0.49231642 4278915343
0.47303838 -0.054168984 0.49231917 4279111954
0.47302121 -0.053791441 0.49242163 4279308563
0.47301948 -0.053389356 0.49242437 4279242770
0.47301775 -0.05298727 0.49242711 4279177226
0.47301602 -0.052585185 0.49242982 4279046412
0.47302976 -0.052159853 0.49233276 4279112474
0.4730435 -0.051735029 0.49223572 4278915343
0.47304177 -0.051333465 0.4922384 4278915343
0.47305551 -0.050909422 0.49214137 4278981136
0.47305378 -0.050508112 0.49214405 4278981389
0.47305205 -0.050106809 0.49214679 4279045640
0.47306579 -0.049683802 0.49204969 4279046410
0.47304863 -0.049304187 0.49215221 4279177996
0.4730469 -0.048902884 0.49215496 4278981140
0.4730452 -0.048501574 0.49215764 4278915345
0.473028 -0.048120923 0.49226019 4278915860
0.47304174 -0.04769896 0.49216309 4278981136
0.47302458 -0.047317788 0.49226564 4278915343
0.47302285 -0.046916224 0.49226832 4279112205
0.47302112 -0.046514656 0.49227107 4279047444
0.47301942 -0.046113089 0.49227378 4279113237
0.47301769 -0.045711521 0.49227649 4279047444
0.47301596 -0.045309953 0.49227923 4279112457
0.47301427 -0.044908386 0.49228194 4278916630
0.47301254 -0.044506818 0.49228466 4278981649
0.47301081 -0.04410525 0.4922874 4278915594
0.47300911 -0.043703683 0.49229008 4278915594
0.47300738 -0.043302111 0.49229282 4279046933
0.47300565 -0.042900547 0.49229553 4278981653
0.47300392 -0.042498976 0.49229825 4279111702
0.47300223 -0.042097412 0.49230099 4279308565
0.4730005 -0.041695844 0.4923037 4279242772
0.47299877 -0.041294277 0.49230641 4279374354
0.47299707 -0.040892713 0.49230915 4279177747
0.47299534 -0.040491141 0.49231184 4278981138
0.47299361 -0.040089577 0.49231458 4279244310
0.47299188 -0.039688006 0.49231729 4279046931
0.47297469 -0.039301399 0.49241984 4279046931
0.47297299 -0.038899571 0.49242258 4279112472
0.47297126 -0.038497746 0.49242529 4279046931
0.47296953 -0.038095921 0.492428 4278915343
0.4729678 -0.037694093 0.49243075 4278915343
0.47296607 -0.037292264 0.49243346 4279244310
0.47296438 -0.03689044 0.49243617 4279244058
0.47296265 -0.036488615 0.49243891 4278981136
0.47296092 -0.036086787 0.49244162 4278783757
0.47295922 -0.035684958 0.49244434 4278784008
0.47295749 -0.035283133 0.49244708 4278915596
0.47295576 -0.034881305 0.49244979 4279046161
0.47295403 -0.03447948 0.4924525 4278981138
0.47296783 -0.034066059 0.49235538 4279046931
0.4729661 -0.033664495 0.49235809 4279112722
0.47296438 -0.033262923 0.49236083 4278915594
0.47297817 -0.032850541 0.49226367 4278916109
0.47297645 -0.032449234 0.49226636 4278785293
0.47299024 -0.032037631 0.4921692 4278851086
0.47298852 -0.031636581 0.49217194 4278850833
0.47298679 -0.031235531 0.49217463 4278982421
0.47296956 -0.030844001 0.49227726 4279113235
0.47298336 -0.030433431 0.49218008 4278916361
0.47296613 -0.030041385 0.49228269 4278850568
0.47296441 -0.029640075 0.4922854 4278915856
0.47296271 -0.029238766 0.49228811 4278915596
0.47296098 -0.028837457 0.49229085 4278849033
0.47295925 -0.02843615 0.49229354 4278981136
0.47295755 -0.028034842 0.49229628 4279046929
0.47295582 -0.027633533 0.49229899 4278783759
0.4729386 -0.027239412 0.4924016 4278849033
0.47293687 -0.026837844 0.49240434 4279046412
0.47293514 -0.026436279 0.49240705 4279112205
0.47293344 -0.026034711 0.49240977 4278914826
0.47293171 -0.025633141 0.49241251 4278849033
0.47292998 -0.025231574 0.49241519 4278981389
0.47292829 -0.024830006 0.49241793 4278784010
0.47292656 -0.024428438 0.49242064 4278784010
0.47292483 -0.024026871 0.49242336 4279047182
0.4729231 -0.023625303 0.4924261 4278784008
0.4729214 -0.023223737 0.49242881 4278915078
0.47291967 -0.022822168 0.49243152 4278849031
0.47291794 -0.022420602 0.49243426 4278914824
0.47291625 -0.022019034 0.49243695 4279243019
0.47291452 -0.021617467 0.49243969 4278979847
0.47292832 -0.021212596 0.49234247 4278915594
0.47292662 -0.02081129 0.49234521 4278915858
0.47292489 -0.020409979 0.4923479 4278850065
0.47292316 -0.020008672 0.49235064 4278915858
0.47292146 -0.019607363 0.49235335 4278915345
0.47291973 -0.019206055 0.49235606 4279112474
0.472918 -0.018804746 0.4923588 4278981399
0.47291631 -0.018403437 0.49236149 4278849813
0.47291458 -0.018002128 0.49236423 4278915858
0.47291285 -0.017600821 0.49236694 4278915856
0.47291115 -0.017199513 0.49236965 4278850063
0.47290942 -0.016798204 0.49237239 4278784008
0.47289217 -0.016397089 0.49247503 4278915594
0.47289044 -0.015995521 0.49247777 4279046929
0.47288871 -0.015593953 0.49248049 4279046929
0.47288701 -0.015192386 0.4924832 4278717966
0.47288528 -0.014790818 0.49248594 4278915343
0.47288355 -0.01438925 0.49248862 4278981136
0.47288185 -0.013987683 0.49249136 4278915596
0.47288013 -0.013586115 0.49249408 4278783757
0.4728784 -0.013184547 0.49249679 4279177749
0.47287667 -0.01278298 0.49249953 4279243542
0.47287497 -0.012381412 0.49250224 4279177745
0.47287324 -0.011979844 0.49250495 4278783759
0.47287151 -0.011578278 0.4925077 4278850065
0.47286981 -0.011176709 0.49251038 4278981136
0.47286808 -0.010775141 0.49251312 4278915343
0.47286636 -0.010373575 0.49251583 4279110925
0.47286466 -0.009972007 0.49251854 4279177745
0.47286293 -0.0095704393 0.49252129 4279177749
0.4728612 -0.0091688726 0.492524 4278848780
0.47285947 -0.0087673049 0.49252671 4278782987
0.47285777 -0.0083657373 0.49252945 4278850063
0.47285604 -0.0079641696 0.49253213 4278718477
0.47285432 -0.0075626019 0.49253488 4278587144
0.47285262 -0.0071610343 0.49253759 4278848780
0.47285089 -0.0067594666 0.4925403 4278848780
0.47284916 -0.0063578989 0.49254304 4278915343
0.47284746 -0.0059563313 0.49254575 4278652684
0.47284573 -0.0055547636 0.49254847 4278718217
0.472844 -0.0051531959 0.49255121 4278915594
0.47284228 -0.0047516301 0.49255389 4278784008
0.47284058 -0.0043500625 0.49255663 4278849031
0.47282326 -0.0039406549 0.49265933 4278718217
0.47282153 -0.0035388283 0.49266207 4278981651
0.47281983 -0.0031370018 0.49266478 4278914826
0.47281811 -0.0027351743 0.4926675 4278849033
0.47281638 -0.0023333477 0.49267024 4279046662
0.47281465 -0.001931522 0.49267295 4279112455
0.47281295 -0.0015296955 0.49267566 4279045640
0.47281122 -0.0011278689 0.4926784 4278914577
0.47282508 -0.00073595159 0.49258113 4279046163
0.47282338 -0.00033438578 0.49258381 4278981401
0.47282165 6.7181885e-05 0.49258655 4278717964
0.47281992 0.00046874955 0.49258927 4278586891
0.47281823 0.00087031722 0.49259198 4278652684
0.4728165 0.0012718849 0.49259472 4278718477
0.47281477 0.0016734526 0.49259743 4278979849
0.47281304 0.0020750184 0.49260014 4279045642
0.47281134 0.002476586 0.49260288 4278981399
0.47280961 0.0028781537 0.49260557 4278981399
0.47280788 0.0032797232 0.49260831 4278783759
0.47280619 0.0036812909 0.49261102 4278914573
0.47280446 0.0040828586 0.49261373 4279111956
0.47281834 0.0044711456 0.49251643 4278914826
0.47281662 0.0048724543 0.49251914 4278849033
0.47281492 0.0052737631 0.49252188 4278981639
0.47281319 0.00567507 0.49252456 4279047947
0.47281146 0.0060763787 0.49252731 4278981651
0.47279415 0.0064922627 0.49263006 4278915347
0.47279242 0.0068938304 0.49263281 4278981140
0.47279069 0.007295398 0.49263549 4279179032
0.47278899 0.0076969657 0.49263823 4279112975
0.47278726 0.0080985334 0.49264094 4279441938
0.47278553 0.008500101 0.49264365 4279177749
0.4727838 0.0089016687 0.4926464 4279243542
0.47278211 0.0093032364 0.49264911 4278979598
0.47278038 0.009704804 0.49265182 4278783240
0.47277865 0.01010637 0.49265456 4278915594
0.47277695 0.010507939 0.49265724 4279045391
0.47277522 0.010909505 0.49265999 4278979598
0.47277349 0.011311075 0.4926627 4279176977
0.47277179 0.011712641 0.49266541 4279046161
0.47277007 0.012114208 0.49266815 4279046412
0.47276834 0.012515778 0.49267086 4279046159
0.47276664 0.012917344 0.49267358 4279111952
0.47276491 0.013318913 0.49267632 4278914577
0.47276318 0.013720479 0.492679 4278782987
0.47276145 0.014122047 0.49268174 4278914826
0.47275975 0.01452361 0.49268445 4279243019
0.47275802 0.014925178 0.49268717 4279374605
0.47277194 0.015306478 0.49258983 4279308555
0.47277021 0.015707785 0.49259251 4279504913
0.47275287 0.016129887 0.49269533 4279636752
0.47275114 0.016531451 0.49269807 4279505166
0.47274941 0.016933022 0.49270076 4279373580
0.47274771 0.017334586 0.4927035 4279242764
0.47274598 0.017736154 0.49270621 4279308807
0.47274426 0.018137721 0.49270892 4279505414
0.47274256 0.018539289 0.49271166 4279439621
0.47274083 0.018940857 0.49271438 4279439373
0.4727391 0.019342424 0.49271709 4279111952
0.4727374 0.019743996 0.49271983 4278718479
0.47273567 0.02014556 0.49272254 4279111952
0.47273394 0.020547127 0.49272525 4279111952
0.47273222 0.020948695 0.49272799 4279178269
0.47273052 0.021350263 0.49273068 4279177495
0.47274444 0.021727411 0.49263328 4279045141
0.47274274 0.022128722 0.49263602 4279308311
0.47274101 0.022530029 0.49263874 4279308311
0.47275496 0.022906141 0.49254131 4279045391
0.47275323 0.023307191 0.49254405 4279177228
0.4727515 0.023708237 0.49254677 4278915345
0.4727498 0.024109287 0.49254948 4278980886
0.47274807 0.024510337 0.49255219 4279046679
0.47274637 0.024911387 0.4925549 4279505166
0.47274464 0.025312437 0.49255764 4279570444
0.47274292 0.025713483 0.49256033 4279439122
0.47274122 0.026114533 0.49256307 4278848780
0.47273949 0.026515579 0.49256578 4278914573
0.47273776 0.026916636 0.49256849 4278915343
0.47273606 0.027317682 0.4925712 4279046933
0.47273433 0.027718732 0.49257392 4279176977
0.4727326 0.028119778 0.49257666 4279635986
0.4727309 0.028520832 0.49257934 4279635986
0.47272918 0.028921882 0.49258208 4279504402
0.47272748 0.029322928 0.49258479 4279045143
0.47272575 0.029723978 0.49258751 4279242518
0.47272402 0.030125024 0.49259022 4279375377
0.47272232 0.030526081 0.49259293 4279375377
0.47272059 0.030927127 0.49259567 4279242770
0.47270319 0.031358816 0.49269855 4279243021
0.47270149 0.031760126 0.49270123 4279176975
0.47268409 0.032192588 0.49280411 4279307021
0.47268236 0.032594159 0.49280685 4279241228
0.47268063 0.032995723 0.49280956 4279046412
0.47267893 0.033397287 0.49281228 4279112476
0.4726772 0.033798859 0.49281502 4279178515
0.4726598 0.034232877 0.4929179 4278981401
0.47265807 0.034634702 0.49292061 4278915608
0.47265634 0.035036527 0.49292332 4279243288
0.47265464 0.035438351 0.49292606 4279439122
0.47265291 0.035840176 0.49292877 4279242513
0.47265118 0.036242008 0.49293149 4279439640
0.47264946 0.036643833 0.49293423 4279702812
0.47264776 0.037045665 0.49293694 4279636253
0.47264603 0.037447482 0.49293965 4279700246
0.4726443 0.037849315 0.49294239 4279175700
0.4726426 0.038251139 0.49294508 4279241493
0.47264087 0.038652971 0.49294782 4279176725
0.47263914 0.039054796 0.49295056 4279309333
0.47263741 0.039456621 0.49295324 4279637278
0.47263572 0.039858446 0.49295598 4279505440
0.47263399 0.040260278 0.49295872 4279439647
0.47263226 0.040662102 0.49296141 4279243038
0.47263053 0.041063927 0.49296415 4279177499
0.47261313 0.041502863 0.49306706 4279177497
0.4726114 0.041904956 0.49306977 4279505944
0.47260967 0.042307034 0.49307251 4279505944
0.47260794 0.04270912 0.49307522 4279833878
0.47260624 0.043111205 0.49307793 4279703064
0.47260451 0.043513298 0.49308068 4280031261
0.47260278 0.043915376 0.49308339 4279966238
0.47260106 0.044317462 0.4930861 4279505687
0.47259933 0.044719554 0.49308884 4279374099
0.47259763 0.045121633 0.49309158 4279702814
0.47261161 0.045484014 0.49299407 4279505690
0.47260988 0.045885839 0.49299681 4280095517
0.47260818 0.046287671 0.49299952 4280029724
0.47260645 0.046689503 0.49300224 4279702046
0.47260472 0.047091328 0.49300498 4279373854
0.47260302 0.047493152 0.49300769 4279242786
0.47260129 0.047894984 0.4930104 4279374372
0.4726153 0.048255287 0.49291292 4279374372
0.47261357 0.048656859 0.49291563 4279374372
0.47261184 0.04905843 0.49291837 4279374372
0.47261015 0.049459994 0.49292105 4279374372
0.47259268 0.049904115 0.49302402 4279374372
0.47257525 0.050348751 0.49312699 4279374372
0.47257352 0.050750837 0.49312967 4279374372
0.47257179 0.05115293 0.49313241 4279374372
0.47257006 0.051555015 0.49313515 4279374372
0.4725526 0.05200094 0.49323809 4279374372
0.4725509 0.052403279 0.49324083 4279374372
0.47254917 0.052805625 0.49324358 4279374372
0.47256318 0.053163357 0.49314603 4279374372
0.47254571 0.053610317 0.493249 4279374372
0.47255975 0.053967521 0.49315149 4279374372
0.47255802 0.054369614 0.4931542 4279374372
0.47255629 0.054771699 0.49315691 4279374372
0.47255456 0.055173784 0.49315965 4279374372
0.4725686 0.055529691 0.49306214 4279374372
0.47256687 0.055931516 0.49306482 4279374372
0.47256514 0.056333341 0.49306756 4279374372
0.47256345 0.056735173 0.4930703 4279374372
0.47257745 0.057089776 0.49297273 4279374372
0.47257575 0.05749134 0.49297547 4279374372
0.47257403 0.057892911 0.49297819 4279374372
0.47258806 0.058246486 0.49288064 4279374372
0.4726021 0.058599547 0.49278307 4279374372
0.47260037 0.059000589 0.49278581 4279374372
0.47258291 0.05945041 0.49288881 4279374372
0.47258118 0.059851721 0.49289149 4279374372
0.47257945 0.060253024 0.49289423 4279374372
0.47257775 0.060654335 0.49289694 4279374372
0.47257602 0.061055653 0.49289966 4279374372
0.47259006 0.061406888 0.49280208 4279374372
0.47257259 0.061858267 0.49290508 4279374372
0.47258663 0.062208988 0.49280751 4279374372
0.4726007 0.06255918 0.49270993 4279374372
0.4725832 0.063011087 0.49281293 4279374372
0.47258148 0.063412137 0.49281567 4279374372
0.47256398 0.063864805 0.49291867 4279374372
0.47256228 0.064266108 0.49292141 4279374372
0.47254479 0.064719565 0.49302441 4279374372
0.47284681 -0.092196748 0.49176031 4280031247
0.47284508 -0.091795698 0.491763 4279505685
0.47284335 -0.091394648 0.49176574 4279505685
0.47284165 -0.090993606 0.49176845 4279637779
0.47283992 -0.090592548 0.49177116 4279375896
0.47283819 -0.090191498 0.49177387 4279309335
0.47283649 -0.089790449 0.49177659 4279112222
0.47283477 -0.089389406 0.49177933 4279046429
0.47283307 -0.088988349 0.49178201 4279046679
0.47281572 -0.088634126 0.49188438 4279570444
0.47282961 -0.088186257 0.49178746 4279505685
0.47281229 -0.087831505 0.4918898 4279571478
0.47281057 -0.087430201 0.49189252 4279242768
0.47280887 -0.087028898 0.49189526 4279308814
0.47280714 -0.08662758 0.49189797 4279570957
0.47280541 -0.08622627 0.49190068 4279505944
0.47280371 -0.085824966 0.49190339 4279505944
0.47280198 -0.085423663 0.49190611 4279243038
0.47280025 -0.085022345 0.49190885 4279374876
0.47278294 -0.084665276 0.49201119 4279374358
0.47278121 -0.084263712 0.49201393 4279242513
0.47277948 -0.083862141 0.49201664 4279242513
0.47277778 -0.083460577 0.49201936 4279242772
0.47277606 -0.083059013 0.4920221 4279374101
0.47277433 -0.082657434 0.49202481 4279242770
0.4727726 -0.08225587 0.49202752 4279111702
0.47278652 -0.081811883 0.49193057 4279177495
0.47278479 -0.081410572 0.49193329 4279112472
0.47278309 -0.081009261 0.49193603 4278915343
0.47278136 -0.080607951 0.49193874 4279242246
0.47277963 -0.080206648 0.49194145 4279439625
0.47277793 -0.079805344 0.49194416 4279243538
0.47276059 -0.079444908 0.49204656 4279045393
0.47275886 -0.079043336 0.49204928 4279045911
0.47275713 -0.078641772 0.49205202 4279243290
0.4727554 -0.078240201 0.4920547 4279111704
0.4727537 -0.077838637 0.49205744 4278914575
0.47273633 -0.077476643 0.49215984 4279176975
0.47273463 -0.077074811 0.49216253 4279111952
0.4727329 -0.076672986 0.49216527 4279242768
0.47273117 -0.076271161 0.49216801 4279176975
0.47272944 -0.075869337 0.49217069 4279373329
0.47272772 -0.075467505 0.49217343 4279242768
0.47272602 -0.07506568 0.49217618 4279111178
0.47272429 -0.074663855 0.49217886 4279045385
0.47272256 -0.07426203 0.4921816 4279505166
0.47273651 -0.07382296 0.49208462 4279308561
0.47273478 -0.073421389 0.49208736 4279242513
0.47273305 -0.073019825 0.49209008 4279046159
0.472747 -0.07258179 0.4919931 4279046159
0.47274527 -0.07218048 0.49199581 4278718215
0.47274354 -0.071779177 0.49199852 4278784010
0.47274184 -0.071377866 0.49200124 4278718477
0.47275576 -0.070941128 0.49190426 4278981140
0.47275406 -0.070540078 0.49190697 4279046933
0.47275233 -0.070139028 0.49190968 4278915860
0.4727506 -0.069737978 0.49191242 4278783759
0.47274891 -0.069336928 0.49191511 4278914826
0.47274718 -0.068935879 0.49191785 4279242764
0.47274548 -0.068534836 0.49192053 4279111178
0.47272807 -0.068167403 0.49202299 4279242768
0.47272637 -0.067766085 0.4920257 4279308561
0.47272465 -0.067364782 0.49202842 4279309584
0.47272292 -0.066963471 0.49203116 4279112205
0.47272122 -0.066562168 0.49203387 4279177998
0.47271949 -0.06616085 0.49203658 4279046159
0.47271776 -0.065759547 0.49203929 4279111952
0.47271606 -0.065358236 0.49204201 4279242770
0.47271433 -0.064956926 0.49204475 4279243538
0.47271261 -0.064555623 0.49204746 4279309331
0.47271091 -0.064154312 0.49205017 4279112726
0.47270918 -0.063753001 0.49205288 4279111702
0.47270745 -0.063351698 0.49205559 4279570710
0.47270575 -0.062950388 0.49205834 4279504917
0.4727197 -0.062519088 0.4919613 4279176975
0.47270229 -0.062147774 0.49206376 4278981641
0.4727006 -0.061746463 0.49206647 4279374607
0.47269887 -0.061345153 0.49206918 4279309584
0.47269714 -0.060943849 0.49207193 4279243791
0.47269544 -0.060542531 0.49207464 4279046412
0.47269371 -0.060141228 0.49207735 4279177998
0.47269198 -0.059739918 0.49208006 4279046161
0.47269028 -0.059338614 0.49208277 4279111952
0.47268856 -0.058937304 0.49208552 4279111952
0.47270253 -0.058508597 0.49198848 4279243538
0.4727008 -0.058107547 0.49199116 4279177749
0.47269911 -0.057706498 0.4919939 4279046163
0.47269738 -0.057305448 0.49199659 4279111954
0.47271135 -0.056878045 0.49189955 4279177747
0.47269395 -0.056503348 0.49200204 4279046412
0.47269222 -0.056102298 0.49200475 4279046664
0.47269049 -0.055701248 0.49200749 4279112203
0.47268879 -0.055300198 0.49201018 4278981140
0.47268707 -0.054899149 0.49201292 4278915347
0.47268537 -0.054498099 0.4920156 4278783757
0.47268364 -0.054097056 0.49201834 4278981136
0.47268191 -0.053696007 0.49202105 4279242770
0.47268021 -0.053294957 0.49202377 4279242770
0.47267848 -0.052893907 0.49202648 4279177228
0.47267675 -0.052492857 0.49202919 4279177745
0.47269076 -0.052068554 0.49193212 4279243288
0.47267333 -0.051690757 0.49203461 4278914573
0.47268733 -0.051266976 0.49193755 4278914573
0.47268561 -0.050866187 0.49194026 4278915596
0.47268391 -0.050465398 0.491943 4278914826
0.47268218 -0.050064608 0.49194568 4279045640
0.47268045 -0.049663812 0.49194843 4278915594
0.47267875 -0.049263023 0.49195111 4278981387
0.47267702 -0.048862234 0.49195385 4278915858
0.47267532 -0.048461445 0.49195656 4278718479
0.47267359 -0.048060656 0.49195927 4278915858
0.4726876 -0.047639459 0.49186218 4278915343
0.47267017 -0.04725907 0.4919647 4278783757
0.47266844 -0.046858277 0.49196741 4279046410
0.47266674 -0.046457488 0.49197012 4278981902
0.47264928 -0.046076067 0.49207264 4279113488
0.47266328 -0.045655906 0.49197555 4278784008
0.47266158 -0.045255117 0.49197829 4278784008
0.47265986 -0.044854328 0.49198097 4278850833
0.47265816 -0.044453539 0.49198371 4278718730
0.47265643 -0.044052746 0.49198639 4278915596
0.4726547 -0.043651953 0.49198914 4278784010
0.472653 -0.043251164 0.49199185 4278785042
0.47265127 -0.042850375 0.49199456 4278915860
0.47264957 -0.042449586 0.49199727 4279046163
0.47264785 -0.042048797 0.49199998 4279111956
0.47264615 -0.041648008 0.4920027 4279111956
0.47264442 -0.041247211 0.49200541 4279177747
0.47262695 -0.040862426 0.49210799 4279046161
0.47262526 -0.040461373 0.49211067 4278914577
0.47262353 -0.040060326 0.49211341 4278981138
0.4726218 -0.039659277 0.49211612 4278915345
0.4726201 -0.039258227 0.49211884 4278717964
0.47260264 -0.038871881 0.49222142 4278784010
0.47260091 -0.03847057 0.49222413 4279046161
0.47259921 -0.038069263 0.49222684 4279046161
0.47259748 -0.037667952 0.49222955 4279046161
0.47259575 -0.037266642 0.49223226 4278981138
0.47259402 -0.036865335 0.492235 4279308563
0.47260806 -0.036450878 0.49213785 4278783757
0.47260636 -0.036049828 0.49214056 4278718215
0.47260463 -0.035648782 0.49214327 4278784008
0.47261867 -0.03523536 0.49204612 4278784010
0.47261697 -0.034834567 0.49204886 4278914826
0.47261524 -0.034433778 0.49205154 4278915596
0.47261351 -0.034032989 0.49205428 4278981389
0.47261181 -0.033632196 0.492057 4278981389
0.47262585 -0.033220336 0.49195981 4278849033
0.47262412 -0.0328198 0.49196255 4278915596
0.47262242 -0.032419272 0.49196523 4278719498
0.4726207 -0.032018736 0.49196798 4278719498
0.472619 -0.031618208 0.49197069 4278785040
0.47261727 -0.031217678 0.4919734 4278915606
0.47261557 -0.030817147 0.49197611 4278981649
0.47261384 -0.030416615 0.49197882 4278718728
0.47261214 -0.030016083 0.49198154 4278718728
0.47261041 -0.029615551 0.49198425 4278850065
0.47260869 -0.029215021 0.49198696 4278718217
0.47260699 -0.028814491 0.49198967 4278783240
0.47260526 -0.028413959 0.49199238 4278784010
0.47260356 -0.028013427 0.4919951 4278915596
0.47258607 -0.027620345 0.49209771 4278783757
0.47258434 -0.027219556 0.49210042 4278587144
0.47258264 -0.026818763 0.49210313 4278718217
0.47258091 -0.026417974 0.49210584 4279045642
0.47257918 -0.026017183 0.49210858 4278979849
0.47257748 -0.025616392 0.49211127 4278783240
0.47257575 -0.025215603 0.49211401 4278784010
0.47257406 -0.024814812 0.49211669 4278652937
0.47257233 -0.024414022 0.49211943 4278718730
0.47257063 -0.024013232 0.49212214 4278718730
0.4725689 -0.023612441 0.49212486 4278718217
0.47256717 -0.023211651 0.49212757 4278980101
0.47256547 -0.022810861 0.49213028 4278849285
0.47256374 -0.022410071 0.49213299 4279046664
0.47256204 -0.02200928 0.4921357 4279046664
0.47257611 -0.021604927 0.49203849 4278783492
0.47257438 -0.021204397 0.49204123 4278718728
0.47257268 -0.020803865 0.49204391 4278718477
0.47257096 -0.020403333 0.49204665 4278850063
0.47256926 -0.020002803 0.49204934 4278850067
0.47256753 -0.019602271 0.49205208 4278850065
0.47256583 -0.019201741 0.49205476 4279111956
0.4725641 -0.018801209 0.4920575 4278981653
0.47256237 -0.018400678 0.49206018 4278850067
0.47256067 -0.018000146 0.49206293 4278718479
0.47255895 -0.017599614 0.49206561 4278915343
0.47255725 -0.017199084 0.49206835 4278850065
0.47255552 -0.016798552 0.49207103 4278718728
0.47255382 -0.016398022 0.49207377 4278718728
0.47255209 -0.01599749 0.49207646 4278916107
0.47255039 -0.015596959 0.4920792 4278916109
0.47253287 -0.015195845 0.49218184 4278718217
0.47253114 -0.014795055 0.49218458 4278783757
0.47252941 -0.014394264 0.49218729 4278915343
0.47252771 -0.013993474 0.49219 4278850063
0.47252598 -0.013592683 0.49219272 4278914575
0.47252429 -0.013191893 0.49219543 4278981140
0.47252256 -0.012791103 0.49219814 4279046931
0.47252083 -0.012390312 0.49220085 4278915345
0.47251913 -0.011989522 0.49220359 4278718481
0.4725174 -0.011588732 0.49220628 4278718477
0.4725157 -0.011187941 0.49220902 4279046159
0.47251397 -0.010787151 0.4922117 4279045389
0.47251225 -0.010386361 0.49221444 4279045389
0.47251055 -0.0099855699 0.49221712 4279177998
0.47252464 -0.0095889904 0.49211988 4279046161
0.47252294 -0.0091884593 0.49212259 4278848780
0.47252122 -0.0087879272 0.4921253 4278783757
0.47251952 -0.008387397 0.49212801 4278915343
0.47251779 -0.007986865 0.49213073 4278784010
0.47251609 -0.0075863348 0.49213344 4278717964
0.47251436 -0.0071858037 0.49213615 4278848782
0.47251263 -0.0067852717 0.49213886 4278848782
0.47249511 -0.0063784579 0.49224156 4279046412
0.47249338 -0.0059776669 0.4922443 4278586891
0.47249165 -0.0055768769 0.49224699 4278652935
0.47248995 -0.0051760869 0.49224973 4279047434
0.47248822 -0.0047752978 0.49225244 4278981641
0.47248653 -0.004374506 0.49225515 4279046410
0.4724848 -0.0039737159 0.49225786 4279112457
0.47248307 -0.0035729259 0.49226058 4279047693
0.47248137 -0.003172135 0.49226329 4278914824
0.47247964 -0.002771345 0.492266 4278849031
0.47247794 -0.002370554 0.49226874 4279046662
0.47247621 -0.0019697649 0.49227142 4279243273
0.47247452 -0.0015689749 0.49227417 4279373327
0.47247279 -0.0011681831 0.49227685 4279045139
0.47247106 -0.00076739211 0.49227959 4279308311
0.47246936 -0.00036660209 0.49228227 4279047446
0.47246763 3.4188852e-05 0.49228501 4278914826
0.47248179 0.00042429194 0.49218768 4278784010
0.4724642 0.00083577074 0.49229044 4278850314
0.47246248 0.0012365598 0.49229315 4278916107
0.47247663 0.0016258843 0.49219584 4279046410
0.4724749 0.0020264145 0.49219853 4279439625
0.4724732 0.0024269465 0.49220127 4279177749
0.47247148 0.0028274767 0.49220398 4278783761
0.47246978 0.0032280087 0.49220669 4278915347
0.47246805 0.0036285408 0.4922094 4279046159
0.47246635 0.0040290728 0.49221212 4279111702
0.47246462 0.004429603 0.49221483 4278981902
0.47246289 0.004830135 0.49221754 4278916359
0.47246119 0.0052306652 0.49222025 4278982152
0.47245947 0.0056311954 0.49222296 4279113740
0.47245777 0.0060317274 0.49222568 4278981138
0.47245604 0.0064322576 0.49222839 4278981140
0.47245434 0.0068327896 0.4922311 4278981140
0.47245261 0.0072333198 0.49223381 4279178519
0.47245091 0.0076338556 0.49223652 4279441940
0.47244918 0.0080343857 0.49223924 4279310865
0.47244745 0.0084349141 0.49224195 4279112985
0.47242987 0.0088515766 0.49234474 4279112985
0.47242814 0.0092523657 0.49234742 4278979600
0.47242644 0.0096531585 0.49235016 4279046410
0.47242472 0.010053948 0.49235287 4279112455
0.47242302 0.010454739 0.49235559 4279309836
0.47242129 0.010855528 0.4923583 4279178250
0.47241959 0.011256319 0.49236101 4279374101
0.47241786 0.011657108 0.49236372 4279637528
0.47241613 0.012057897 0.49236643 4279112722
0.47241443 0.012458691 0.49236917 4278915093
0.47241271 0.01285948 0.49237186 4278980886
0.47242689 0.013241291 0.49227452 4278915347
0.47242516 0.013641821 0.4922772 4279177998
0.47242346 0.014042355 0.49227995 4279177998
0.47242174 0.014442883 0.49228263 4279309582
0.47242004 0.014843415 0.49228537 4279375375
0.47241831 0.015243949 0.49228805 4279243019
0.47241658 0.015644481 0.49229079 4279241994
0.47241488 0.01604501 0.49229348 4279570446
0.47241315 0.016445542 0.49229622 4279636752
0.47241145 0.016846074 0.4922989 4279570959
0.47240973 0.017246606 0.49230164 4279242764
0.47240803 0.017647138 0.49230433 4279440147
0.47239041 0.01806975 0.49240714 4279572505
0.47238868 0.018470543 0.49240988 4279176725
0.47238696 0.018871332 0.49241257 4279176725
0.47238526 0.019272121 0.49241531 4279111954
0.47238353 0.01967291 0.49241802 4278915858
0.47238183 0.020073703 0.49242073 4279046933
0.4723801 0.020474492 0.49242344 4279046681
0.47237837 0.020875284 0.49242616 4279375646
0.47239259 0.021251919 0.49232876 4279309081
0.47239086 0.021652447 0.49233148 4279176727
0.47238916 0.022052979 0.49233419 4279242518
0.47238743 0.022453507 0.4923369 4279176977
0.4723857 0.022854047 0.49233961 4279176977
0.47239992 0.02322912 0.49224222 4279177226
0.47239822 0.023629392 0.49224493 4278915345
0.47239649 0.024029663 0.49224764 4279244058
0.47239476 0.024429934 0.49225035 4279374099
0.47240898 0.024803715 0.49215293 4279308306
0.47240728 0.025203729 0.49215564 4279570446
0.47240555 0.02560374 0.49215835 4279505166
0.47240385 0.026003754 0.49216104 4279177228
0.47238621 0.026431294 0.49226391 4278717964
0.47238448 0.026831573 0.4922666 4278915343
0.47238278 0.02723184 0.49226934 4279178517
0.47238106 0.027632115 0.49227202 4279308563
0.47237936 0.028032383 0.49227476 4279374099
0.47237763 0.028432662 0.49227744 4279374099
0.47237593 0.028832929 0.49228019 4279373847
0.4723742 0.0292332 0.49228287 4279176727
0.4723725 0.029633472 0.49228561 4279242518
0.47237077 0.030033743 0.49228829 4279375124
0.47235313 0.030464137 0.49239117 4279506710
0.4723514 0.030864669 0.49239385 4279242768
0.4723497 0.031265199 0.49239659 4279111178
0.47234797 0.031665727 0.49239928 4279045642
0.47234628 0.032066263 0.49240202 4279242764
0.4723286 0.032498203 0.49250489 4279111178
0.4723269 0.032898992 0.49250758 4278915596
0.47232518 0.033299781 0.49251032 4279178778
0.4723075 0.033732764 0.4926132 4279113237
0.4723058 0.034133822 0.49261591 4278915608
0.47230408 0.034534864 0.49261862 4278849815
0.47230238 0.034935914 0.49262133 4279243288
0.47230065 0.035336964 0.49262404 4279438357
0.47229892 0.035738014 0.49262679 4279242261
0.47229722 0.036139064 0.49262947 4279570456
0.47229549 0.036540113 0.49263221 4279899421
0.47229376 0.036941163 0.49263492 4279701533
0.47229207 0.037342213 0.49263763 4279700246
0.47229034 0.037743263 0.49264035 4279175700
0.47228864 0.038144313 0.49264306 4279242518
0.47228691 0.038545363 0.4926458 4279176725
0.47228518 0.038946405 0.49264848 4279178517
0.47228348 0.039347455 0.49265122 4279374874
0.47228175 0.039748505 0.49265394 4279309085
0.47228003 0.040149562 0.49265665 4278980890
0.47227833 0.040550604 0.49265936 4279046683
0.4722766 0.040951654 0.49266207 4279046429
0.4722749 0.041352704 0.49266481 4279571228
0.4722572 0.041791126 0.49276772 4279899421
0.47225547 0.042192437 0.49277043 4279571478
0.47225377 0.042593747 0.49277315 4279703064
0.47225204 0.042995051 0.49277586 4279505687
0.47225034 0.043396361 0.4927786 4279505433
0.47224861 0.043797672 0.49278131 4279834655
0.47224689 0.044198975 0.49278402 4279374104
0.47226113 0.044561103 0.49268651 4279504663
0.47225943 0.044962145 0.49268925 4279702044
0.4722577 0.045363203 0.49269196 4279439899
0.472256 0.045764253 0.49269468 4279898910
0.47225428 0.046165295 0.49269739 4279701531
0.47225255 0.046566345 0.4927001 4279636251
0.47225085 0.046967402 0.49270284 4279373851
0.47224912 0.047368445 0.49270552 4279373345
0.47224742 0.047769494 0.49270827 4279570724
0.47224569 0.048170537 0.49271098 4279570724
0.47224396 0.048571594 0.49271369 4279570724
0.47224227 0.048972644 0.4927164 4279570724
0.47224054 0.049373694 0.49271911 4279570724
0.47223881 0.049774744 0.49272186 4279570724
0.47223711 0.050175793 0.49272454 4279570724
0.47223538 0.050576836 0.49272728 4279570724
0.47223365 0.050977886 0.49272999 4279570724
0.47223195 0.051378943 0.4927327 4279570724
0.47221425 0.051823847 0.49283567 4279570724
0.47221252 0.05222515 0.49283838 4279570724
0.47221079 0.052626461 0.49284109 4279570724
0.47222507 0.052983142 0.49274355 4279570724
0.47220737 0.053429082 0.49284655 4279570724
0.47220564 0.053830385 0.49284926 4279570724
0.47220394 0.054231688 0.49285197 4279570724
0.47220221 0.054633006 0.49285468 4279570724
0.47220048 0.055034317 0.4928574 4279570724
0.47219878 0.05543562 0.49286014 4279570724
0.47221306 0.055790484 0.49276257 4279570724
0.47221133 0.056191526 0.49276531 4279570724
0.47220963 0.056592584 0.49276802 4279570724
0.47222391 0.056946419 0.49267048 4279570724
0.47222221 0.057347201 0.49267316 4279570724
0.47223648 0.057700254 0.49257562 4279570724
0.47223479 0.058100797 0.49257833 4279570724
0.47223306 0.058501326 0.49258104 4279570724
0.47223136 0.058901854 0.49258375 4279570724
0.47224566 0.059253611 0.49248621 4279570724
0.47224393 0.059653886 0.49248892 4279570724
0.47224224 0.060054153 0.4924916 4279570724
0.47224051 0.060454428 0.49249434 4279570724
0.47223881 0.060854703 0.49249703 4279570724
0.47223708 0.061254978 0.49249977 4279570724
0.47223538 0.061655246 0.49250245 4279570724
0.47223365 0.062055521 0.49250519 4279570724
0.47223192 0.062455788 0.49250787 4279570724
0.47223023 0.062856056 0.49251062 4279570724
0.4722285 0.063256331 0.4925133 4279570724
0.4722268 0.063656606 0.49251604 4279570724
0.47220904 0.064108759 0.49261904 4279570724
0.47220734 0.064509295 0.49262172 4279570724
0.47220561 0.064909823 0.49262446 4279570724
0.47220391 0.065310359 0.49262714 4279570724
0.47220218 0.065710887 0.49262989 4279570724
0.47216842 0.066217773 0.4928332 4279570724
0.47216496 0.067019865 0.49283862 4279570724
0.47214723 0.067474872 0.49294168 4279504933
0.47247744 -0.092100136 0.49155957 4280096270
0.47249159 -0.091650702 0.49146271 4279637002
0.47248989 -0.09125042 0.49146539 4279702795
0.47248816 -0.090850152 0.49146813 4279440398
0.47248644 -0.090449885 0.49147081 4279047444
0.47248474 -0.09004961 0.49147356 4279112726
0.47248301 -0.089649335 0.49147624 4279244058
0.47248131 -0.089249067 0.49147898 4279112472
0.47247958 -0.088848799 0.49148166 4278981653
0.472462 -0.088495351 0.491584 4279440147
0.4724603 -0.088094816 0.49158671 4279505942
0.47245857 -0.087694287 0.49158943 4279440147
0.47245687 -0.087293759 0.49159214 4279374354
0.47245514 -0.086893223 0.49159485 4279637004
0.47245345 -0.086492695 0.49159756 4279703567
0.47243586 -0.086137444 0.49169993 4279702310
0.47243413 -0.085736647 0.49170262 4279965482
0.4724324 -0.085335858 0.49170536 4279637294
0.47243071 -0.084935069 0.49170804 4279571751
0.47242898 -0.084534273 0.49171078 4279571228
0.47242728 -0.084133483 0.49171349 4279242768
0.47242555 -0.083732694 0.49171621 4279308561
0.47242382 -0.083331913 0.49171892 4279308306
0.47242212 -0.082931116 0.49172163 4279570706
0.47242039 -0.082530327 0.49172434 4279768357
0.4724187 -0.082129538 0.49172705 4279374878
0.47241697 -0.081728742 0.4917298 4279309085
0.47243115 -0.08128579 0.49163282 4279112726
0.47241354 -0.080927163 0.49173522 4279046412
0.4724277 -0.080484726 0.49163824 4279374097
0.47241011 -0.080125578 0.49174064 4279308563
0.47240838 -0.079724789 0.49174333 4279242770
0.47240669 -0.079324007 0.49174607 4278914323
0.47240496 -0.078923211 0.49174878 4279046163
0.47238734 -0.078562774 0.49185115 4279178269
0.47238562 -0.078161731 0.49185389 4279046683
0.47238392 -0.077760682 0.4918566 4278915095
0.47238219 -0.077359632 0.49185932 4278915345
0.47238049 -0.076958574 0.49186203 4279047182
0.47237876 -0.076557525 0.49186474 4278914826
0.47237703 -0.076156482 0.49186748 4279046412
0.47237533 -0.075755432 0.49187016 4279242770
0.4723736 -0.075354382 0.49187291 4279374354
0.47237188 -0.074953333 0.49187562 4279242513
0.47237018 -0.074552283 0.49187833 4279242518
0.47236845 -0.074151233 0.49188104 4279308311
0.47236675 -0.073750183 0.49188375 4279177228
0.47236502 -0.073349133 0.4918865 4279241994
0.47237921 -0.072911359 0.49178949 4279045642
0.47237748 -0.07251057 0.4917922 4279177745
0.47237578 -0.072109781 0.49179494 4279046159
0.47238997 -0.071673043 0.49169794 4278717968
0.47238827 -0.071272507 0.49170065 4278784010
0.47238654 -0.070871972 0.49170336 4278915343
0.47238484 -0.070471443 0.49170607 4278783757
0.47238311 -0.070070915 0.49170879 4278718479
0.47238141 -0.069670379 0.4917115 4278915860
0.47237968 -0.069269851 0.49171421 4279177749
0.47237796 -0.068869323 0.49171692 4279046163
0.47237626 -0.068468787 0.49171963 4278914577
0.47237453 -0.068068258 0.49172235 4279112205
0.47237283 -0.067667723 0.49172506 4279177998
0.4723711 -0.067267194 0.49172777 4279112975
0.47235346 -0.066899508 0.49183023 4279112203
0.47235176 -0.066498719 0.49183291 4279112203
0.47235003 -0.066097923 0.49183565 4279570957
0.4723483 -0.065697134 0.49183834 4279374348
0.4723466 -0.065296344 0.49184108 4279111176
0.47234488 -0.064895555 0.49184379 4279178250
0.47235909 -0.064463481 0.49174678 4279178250
0.47235739 -0.064062938 0.49174947 4279046412
0.47235566 -0.06366241 0.49175221 4278915343
0.47235397 -0.063261881 0.49175489 4279177497
0.47235224 -0.062861353 0.49175763 4279111956
0.47235054 -0.062460825 0.49176031 4278914577
0.47234881 -0.062060282 0.49176306 4279046410
0.47234708 -0.061659753 0.49176574 4279112205
0.47234538 -0.061259225 0.49176848 4279112205
0.47234365 -0.060858697 0.49177116 4279046412
0.47234195 -0.060458161 0.4917739 4279046412
0.47234023 -0.060057633 0.49177659 4279243791
0.47233853 -0.059657097 0.49177933 4279308561
0.4723368 -0.059256569 0.49178201 4279176975
0.4723351 -0.05885604 0.49178475 4279176975
0.47233337 -0.058455504 0.49178743 4279177745
0.47234762 -0.058027834 0.4916904 4278915347
0.47234589 -0.057627566 0.49169314 4278915347
0.47234419 -0.057227291 0.49169582 4279046679
0.47234246 -0.056827024 0.49169856 4279046679
0.47234076 -0.056426749 0.49170125 4279046163
0.47233903 -0.056026474 0.49170399 4279046161
0.47233734 -0.055626206 0.49170667 4279046161
0.47233561 -0.055225931 0.49170941 4279111956
0.47233391 -0.054825664 0.49171209 4279046163
0.47233218 -0.054425389 0.49171484 4278783759
0.47233045 -0.054025114 0.49171752 4278981136
0.47232875 -0.053624846 0.49172023 4279111956
0.47232702 -0.053224571 0.49172294 4279176975
0.47232533 -0.052824296 0.49172565 4279176975
0.4723236 -0.052424021 0.49172837 4279111954
0.4723219 -0.052023754 0.49173108 4279111956
0.47233614 -0.051600486 0.49163401 4278913803
0.47233444 -0.051200479 0.49163669 4278979596
0.47233272 -0.050800465 0.49163944 4279112205
