# .PCD v0.7 - Point Cloud Data file format
VERSION 0.7
FIELDS x y z rgb
SIZE 4 4 4 4
TYPE F F F U
COUNT 1 1 1 1
WIDTH 1054
HEIGHT 1
VIEWPOINT 0 0 0 1 0 0 0
POINTS 1054
DATA ascii
0.43974105 -0.07466007 0.55828631 4279704342
0.43973938 -0.075227439 0.55828083 4279572756
0.4398115 -0.075836077 0.55820286 4279835926
0.43980983 -0.0764037 0.5581975 4279770133
0.43988195 -0.077013113 0.55811954 4279835675
0.4399541 -0.077623047 0.55804157 4279573277
0.44009998 -0.0782758 0.55789107 4279836449
0.44017211 -0.078887023 0.55781311 4279968035
0.44031805 -0.079541594 0.55766261 4279902240
0.44039014 -0.080154128 0.55758458 4279704861
0.44046226 -0.080767162 0.55750662 4279836447
0.44060814 -0.081424318 0.55735612 4279836445
0.44075406 -0.082082517 0.55720556 4280033307
0.44089997 -0.082741752 0.557055 4280164640
0.44104588 -0.083402023 0.55690444 4280164640
0.44104418 -0.083974056 0.55689895 4280164640
0.44111627 -0.084590979 0.55682093 4280164640
0.44126219 -0.085253567 0.55667031 4280164640
0.44133425 -0.085871801 0.55659229 4280164640
0.44133258 -0.086444862 0.5565868 4280164640
0.44140467 -0.087063864 0.55650878 4280164640
0.44155055 -0.087729573 0.55635816 4280164640
0.44154888 -0.088303417 0.55635267 4280164640
0.44154716 -0.088877253 0.55634713 4280164640
0.44154549 -0.089451097 0.55634165 4280164640
0.44161755 -0.090072177 0.55626357 4280164640
0.44161588 -0.090646274 0.55625808 4280164640
0.44168794 -0.091268122 0.55618 4280164640
0.44168627 -0.09184248 0.55617452 4280164640
0.44168454 -0.092416845 0.55616903 4280164640
0.44175667 -0.093039729 0.55609095 4280164640
0.44175494 -0.093614347 0.55608547 4280164640
0.44190079 -0.094287053 0.55593479 4280164640
0.44197288 -0.094911486 0.5558567 4280164640
0.44204497 -0.095536441 0.55577856 4280164640
0.44211704 -0.096161924 0.55570042 4280164640
0.44226289 -0.096838012 0.55554974 4280164640
0.44240874 -0.097515121 0.555399 4280164640
0.44255459 -0.098193258 0.55524826 4280164640
0.44277421 -0.098923296 0.55502492 4280164640
0.44277251 -0.099501543 0.55501938 4280164640
0.44291833 -0.10018254 0.55486864 4280164640
0.44306418 -0.10086457 0.5547179 4280164640
0.44306248 -0.10144385 0.5547123 4280164640
0.44306076 -0.10202313 0.55470681 4280164640
0.44313282 -0.10265482 0.55462861 4280164640
0.44313109 -0.10323437 0.55462307 4280164640
0.44495875 0.063576989 0.55412579 4282924858
0.44488317 0.062970318 0.55419236 4281873966
0.44480759 0.062364168 0.55425888 4280821794
0.44473201 0.061758533 0.55432546 4280558879
0.44465643 0.061153419 0.55439198 4280099098
0.44458085 0.060548827 0.5544585 4280033305
0.44450527 0.059944749 0.55452508 4280034075
0.44435585 0.059321314 0.55466384 4280034077
0.44420642 0.058698915 0.55480254 4279968284
0.44398314 0.058058202 0.55501342 4279770135
0.44383374 0.057438135 0.55515218 4279835928
0.44368431 0.056819111 0.55529094 4279770135
0.44346103 0.056182541 0.55550194 4279835926
0.44323778 0.055547521 0.55571282 4279638549
0.4431622 0.054950185 0.55577946 4279770135
0.44293898 0.054317757 0.55599046 4279704342
0.4428634 0.053721972 0.5560571 4279638549
0.44278786 0.053126693 0.55612373 4279769882
0.44271231 0.05253195 0.55619037 4279704342
0.44256294 0.05192095 0.55632925 4279900949
0.44248736 0.051327497 0.55639589 4279834899
0.44241184 0.050734557 0.55646253 4279834899
0.44233629 0.050142132 0.55652922 4279769360
0.44226074 0.049550235 0.55659592 4279835153
0.44218519 0.048958845 0.55666262 4279703570
0.44203582 0.048352771 0.5568015 4279507215
0.4419603 0.047762685 0.5568682 4279375629
0.44181091 0.04715842 0.55700707 4279375375
0.44173539 0.046569631 0.55707377 4279506961
0.44165987 0.045981355 0.55714047 4279375126
0.44158435 0.045393597 0.55720723 4279309333
0.44143498 0.044792704 0.55734617 4279309333
0.44135943 0.044206243 0.55741286 4279505936
0.44135773 0.043633435 0.55740738 4279505934
0.44128224 0.043047752 0.55747414 4279506193
0.44128054 0.042475209 0.55746865 4279244308
0.44135267 0.041915014 0.55739093 4279178515
0.44127715 0.041330114 0.55745769 4279178515
0.44127548 0.040757563 0.5574522 4279178768
0.44127378 0.040185019 0.55744672 4279178766
0.44119826 0.039601147 0.55751348 4279047180
0.44112274 0.039017797 0.55758023 4279047180
0.44112104 0.038445763 0.55757475 4279505934
0.44104552 0.037863187 0.55764151 4279374600
0.44097003 0.037281133 0.55770826 4279374600
0.44089451 0.036699593 0.55777508 4279046681
0.440819 0.036118574 0.5578419 4279112474
0.44074351 0.03553807 0.55790865 4278915343
0.44066799 0.034958083 0.55797541 4278915594
0.44066632 0.034387611 0.55796999 4278981136
0.4405908 0.033808403 0.5580368 4279112722
0.44058913 0.033238187 0.55803132 4278981136
0.44051361 0.032659754 0.55809814 4278981136
0.44058576 0.032097757 0.55802041 4279111954
0.44058406 0.031527542 0.55801493 4279111952
0.44050857 0.030949887 0.55808175 4278784262
0.44050688 0.030379931 0.55807626 4278784262
0.44050521 0.029809974 0.55807084 4278915848
0.44050354 0.02924002 0.55806541 4279112205
0.44050184 0.028670061 0.55805993 4279045389
0.44050014 0.028100105 0.55805445 4279112205
0.44049847 0.027530149 0.55804902 4279046412
0.44042298 0.026954567 0.55811584 4279046410
0.44034749 0.026379507 0.55818266 4278850067
0.44034582 0.025810067 0.55817723 4278850063
0.44034413 0.02524063 0.55817175 4278914826
0.44026864 0.024666602 0.55823863 4278914826
0.44026697 0.024097424 0.55823314 4278914826
0.44019145 0.023524174 0.55830002 4278849031
0.44011599 0.022951443 0.55836689 4278914824
0.44011432 0.022382783 0.55836141 4279243021
0.44011262 0.021814121 0.55835599 4279177228
0.44011092 0.021245461 0.55835056 4279045383
0.44010925 0.020676799 0.55834508 4279045894
0.44003379 0.020105623 0.55841196 4279045894
0.43995833 0.019534966 0.55847883 4279111176
0.43988281 0.018964825 0.55854571 4279111176
0.43980736 0.018395204 0.55861264 4279177226
0.43958429 0.017823141 0.55882418 4279177226
0.4395088 0.017255075 0.55889112 4279177480
0.43935955 0.016686564 0.55903035 4279177226
0.43935788 0.016120495 0.55902493 4278979847
0.43920863 0.01555354 0.55916417 4279176977
0.43935454 0.014988353 0.55901408 4278915345
0.43927908 0.014422359 0.55908102 4278850065
0.43942499 0.013855878 0.55893087 4278850067
0.43949711 0.013288955 0.55885315 4278718481
0.43942165 0.012723219 0.55892009 4278783757
0.43949375 0.012155778 0.5588423 4278849033
0.4395659 0.011587817 0.55876446 4278915078
0.43949041 0.0110226 0.55883145 4278849285
0.43956253 0.010454122 0.55875361 4278980101
0.43941328 0.0098915715 0.55889297 4278979849
0.43941161 0.0093252417 0.55888754 4278783492
0.43940991 0.0087589119 0.55888212 4278849033
0.43933448 0.0081955083 0.55894905 4278783240
0.43925905 0.0076326234 0.55901599 4278848780
0.43918356 0.0070702541 0.55908298 4278913805
0.43918189 0.0065047015 0.55907756 4278913803
0.43918023 0.0059391493 0.55907214 4279045642
0.43925235 0.0053693773 0.55899435 4278979849
0.43925068 0.0048035653 0.55898893 4278783240
0.43924901 0.0042377543 0.5589835 4278783240
0.43924734 0.0036719423 0.55897808 4278717445
0.43924567 0.0031061321 0.55897266 4278848780
0.439244 0.0025403192 0.55896723 4278782987
0.43924233 0.0019745091 0.55896187 4278848014
0.43924066 0.0014086971 0.55895638 4278717194
0.43931276 0.00083659217 0.5588786 4278717445
0.43938485 0.00026397035 0.55880076 4278979842
0.43938318 -0.00030235946 0.55879533 4279045635
0.43938151 -0.0008686902 0.55878991 4278979842
0.43937984 -0.0014350209 0.55878448 4278783492
0.43937817 -0.0020013489 0.55877912 4278782987
0.43922895 -0.0025519822 0.55891848 4278848784
0.43930107 -0.0031259004 0.55884063 4278717198
0.43922561 -0.0036836062 0.55890763 4278717445
0.43915018 -0.0042407922 0.55897468 4278783492
0.43907475 -0.0047974605 0.55904168 4278979849
0.43907309 -0.0053627547 0.55903625 4278979596
0.41564882 -0.015993068 0.58186775 4282730802
0.41564739 -0.016476234 0.58186311 4282730802
0.41564596 -0.016959405 0.58185852 4283190326
0.41564453 -0.017442571 0.58185387 4283582774
0.41556937 -0.017908303 0.58192176 4283320118
0.4156417 -0.018408908 0.58184463 4283188532
0.41556653 -0.018874122 0.58191252 4283386424
0.41549134 -0.019338818 0.58198041 4283320377
0.41556367 -0.019839937 0.58190322 4283123000
0.41548851 -0.020304119 0.58197117 4282925621
0.41548708 -0.020786764 0.58196652 4283057207
0.41548568 -0.02126942 0.58196193 4282729012
0.41555798 -0.021771571 0.58188474 4282466351
0.41555655 -0.022254484 0.58188015 4282400558
0.41555512 -0.022737389 0.5818755 4282268223
0.41562742 -0.023240579 0.58179832 4282268223
0.41562599 -0.023723753 0.58179373 4282333764
0.41562456 -0.024206916 0.58178914 4282399807
0.41569689 -0.024711153 0.58171195 4282794301
0.41569549 -0.025194576 0.5817073 4283123266
0.41569406 -0.025678003 0.58170271 4282860346
0.41569263 -0.026161427 0.58169806 4283122235
0.41561744 -0.026622755 0.58176601 4283122487
0.41561604 -0.027105922 0.58176136 4282990899
0.4156146 -0.027589092 0.58175671 4282925106
0.41553944 -0.028049385 0.58182466 4282596391
0.41553801 -0.028532291 0.58182001 4282859049
0.41546285 -0.028991813 0.58188796 4282859061
0.43800461 -0.042330965 0.55962276 4279243791
0.43815041 -0.042945884 0.5594722 4278981900
0.43829614 -0.043561853 0.55932164 4279047693
0.4383682 -0.044151835 0.55924362 4279177998
0.43844026 -0.044742331 0.5591656 4279309584
0.43858603 -0.045360886 0.55901504 4279243791
0.43873179 -0.045980476 0.55886441 4279309081
0.43865639 -0.04651694 0.55893159 4279309584
0.43865472 -0.047081195 0.55892622 4279309584
0.43865305 -0.04764545 0.5589208 4279243538
0.43872511 -0.048238538 0.55884278 4279309584
0.43872344 -0.048803054 0.55883741 4279636750
0.43872178 -0.049367569 0.55883199 4279440398
0.43872011 -0.049932078 0.55882657 4279440398
0.43871844 -0.050496601 0.55882114 4279244559
0.43871677 -0.051061116 0.55881572 4279374859
0.4387151 -0.051625632 0.55881035 4279899661
0.43871343 -0.052190147 0.55880493 4279440141
0.43878549 -0.052785575 0.55872691 4279440141
0.43878382 -0.053350344 0.55872148 4279638027
0.43878216 -0.053915136 0.55871606 4279571977
0.43878049 -0.054479904 0.55871069 4279834131
0.43877882 -0.055044673 0.55870527 4279769106
0.43877715 -0.05560945 0.55869985 4279703313
0.43877548 -0.056174219 0.55869448 4279898891
0.43870011 -0.05670628 0.55876172 4279637004
0.43877214 -0.057303779 0.55868363 4279834381
0.4386968 -0.057835311 0.55875087 4279702795
0.43869513 -0.058399819 0.5587455 4279637002
0.43869346 -0.058964342 0.55874008 4279702795
0.43876547 -0.059562884 0.558662 4279571981
0.43876383 -0.060127653 0.55865657 4279638031
0.43883586 -0.060726956 0.55857849 4279375375
0.43883419 -0.061291993 0.55857313 4279506961
0.43883252 -0.06185703 0.5585677 4279506710
0.43883085 -0.062422059 0.55856228 4279703567
0.43882918 -0.062987089 0.55855691 4279638029
0.43875381 -0.063516304 0.55862415 4279506191
0.43882585 -0.064117163 0.55854607 4279506191
0.43875048 -0.064645849 0.5586133 4279637779
0.43874884 -0.065210626 0.55860794 4279570456
0.43874717 -0.065775402 0.55860251 4279309081
0.43881917 -0.066377297 0.55852443 4279441687
0.43874383 -0.066904947 0.55859172 4279507480
0.43866846 -0.067432083 0.55865902 4279703822
0.43881416 -0.068072401 0.55850816 4279769360
0.43881249 -0.068637431 0.55850279 4279834899
0.43881083 -0.069202468 0.55849737 4279769106
0.4389565 -0.069844857 0.55834651 4279769108
0.43895483 -0.070410408 0.55834115 4279769365
0.43895316 -0.070975967 0.55833566 4279638296
0.43902519 -0.071580976 0.55825758 4280033307
0.4390972 -0.072186485 0.55817944 4279770135
0.4390955 -0.072752565 0.55817401 4279835158
0.43909383 -0.07331863 0.55816859 4279834907
0.43916583 -0.073925197 0.55809045 4280098077
0.43916416 -0.074491531 0.55808502 4279572503
0.43923616 -0.075098865 0.55800688 4279506710
0.4392345 -0.075665452 0.5580014 4279573273
0.4393065 -0.076273568 0.55792326 4279835158
0.43930483 -0.076840416 0.55791783 4279835158
0.43937683 -0.077449307 0.55783963 4279638296
0.43959618 -0.078143328 0.557616 4279835675
0.43966818 -0.078753777 0.55753779 4279967263
0.43981379 -0.079407565 0.55738682 4279836447
0.43981212 -0.079976223 0.55738139 4279704859
0.4399578 -0.080631569 0.55723041 4279704859
0.43995613 -0.081200756 0.55722499 4279836950
0.44010177 -0.081857644 0.55707401 4279705364
0.44024742 -0.082515582 0.55692303 4279902743
0.44031939 -0.083130166 0.55684477 4279705364
0.44039136 -0.083745286 0.55676651 4279705364
0.44046333 -0.084360905 0.55668831 4279705364
0.44053531 -0.084977046 0.55661005 4279705364
0.44060731 -0.085593715 0.55653179 4279705364
0.44067925 -0.086210899 0.55645359 4279705364
0.44075125 -0.086828612 0.55637527 4279705364
0.4408232 -0.087446824 0.55629706 4279705364
0.44082153 -0.08801911 0.55629158 4279705364
0.44081983 -0.088591397 0.5562861 4279705364
0.4408918 -0.089210659 0.55620778 4279705364
0.44089013 -0.089783207 0.55620229 4279705364
0.44103572 -0.090450719 0.55605125 4279705364
0.44103402 -0.09102378 0.55604577 4279705364
0.44103235 -0.091596857 0.55604029 4279705364
0.44103065 -0.092169926 0.5560348 4279705364
0.44110259 -0.092791513 0.55595648 4279705364
0.44117457 -0.093413606 0.55587816 4279705364
0.44124651 -0.094036229 0.55579984 4279705364
0.44131848 -0.094659373 0.55572158 4279705364
0.44139045 -0.095283039 0.55564326 4279705364
0.44153604 -0.095957026 0.5554921 4279705364
0.44160798 -0.096581981 0.55541378 4279705364
0.44182724 -0.097308137 0.55518979 4279705364
0.44197279 -0.097985245 0.55503857 4279705364
0.44211841 -0.098663382 0.55488741 4279705364
0.44226396 -0.099342555 0.55473626 4279705364
0.4423359 -0.099971384 0.55465788 4279705364
0.44240785 -0.10060075 0.5545795 4279705364
0.44247979 -0.10123063 0.55450112 4279705364
0.44255173 -0.10186101 0.55442274 4279705364
0.44262367 -0.10249195 0.55434436 4279705364
0.44254833 -0.10301805 0.55441165 4279705364
0.44254661 -0.10359655 0.55440617 4279705364
0.44452196 0.064124055 0.5537684 4283122233
0.44437277 0.063495956 0.55390751 4282069808
0.44437104 0.062911749 0.55390191 4281543464
0.44429561 0.062306374 0.55396867 4280623647
0.44429389 0.06172242 0.55396312 4280361243
0.4441447 0.061097175 0.5541023 4279967512
0.44406927 0.06049335 0.55416906 4280033305
0.44399381 0.059890047 0.55423582 4280033305
0.44377089 0.059247516 0.55444741 4279967766
0.44362175 0.058626145 0.55458659 4279836180
0.44339886 0.057986461 0.55479819 4279770133
0.44332343 0.057386525 0.554865 4279835926
0.44310054 0.056749433 0.5550766 4279704340
0.44295138 0.056132466 0.55521584 4279573524
0.44272852 0.05549822 0.55542749 4279441691
0.44257939 0.054883592 0.55556673 4279573526
0.44243023 0.054269999 0.55570602 4279573273
0.4422811 0.053657442 0.55584526 4279573273
0.44220567 0.053063206 0.55591214 4279507480
0.44213027 0.052469492 0.55597901 4279834905
0.44198114 0.05185952 0.55611837 4279900949
0.44197941 0.051283605 0.55611283 4279834899
0.44183028 0.050675198 0.55625212 4279834899
0.44175488 0.050083809 0.55631906 4279703567
0.44167948 0.049492948 0.55638593 4279835153
0.44167778 0.048918061 0.55638045 4279703572
0.44145495 0.048297547 0.55659223 4279506961
0.44137955 0.047708489 0.55665916 4279375375
0.44123042 0.04710526 0.55679852 4279375375
0.44115502 0.046517506 0.55686545 4279572754
0.44107962 0.045930259 0.55693239 4279506712
0.44100425 0.045343541 0.55699933 4279375126
0.44092882 0.044757333 0.55706632 4279309333
0.44085345 0.044171646 0.55713326 4279505683
0.44077805 0.043586478 0.55720019 4279440400
0.44077635 0.043014705 0.55719477 4279375377
0.44077468 0.04244294 0.55718929 4279178768
0.44077301 0.041871168 0.5571838 4279178768
0.44077128 0.041299399 0.55717832 4279112975
0.44069591 0.040715784 0.55724531 4279178766
0.44069421 0.040144272 0.55723983 4279178766
0.44069254 0.03957276 0.55723441 4279046929
0.44061714 0.038990185 0.5573014 4279046929
0.44054174 0.038408123 0.5573684 4279440141
0.44046637 0.037826583 0.55743539 4279374857
0.440391 0.037245557 0.55750239 4279374598
0.44024193 0.036655024 0.55764186 4279046681
0.44024026 0.036085069 0.55763638 4279046681
0.44016486 0.0355056 0.55770344 4278915343
0.44008949 0.034926645 0.55777043 4278981387
0.44008783 0.034357212 0.55776501 4278981389
0.44001245 0.033779036 0.557832 4279112975
0.44001079 0.033209853 0.55782658 4279047182
0.44000909 0.032640677 0.55782115 4278981389
0.44000739 0.032071497 0.55781567 4279308565
0.44000572 0.031502321 0.55781019 4279046931
0.44000405 0.03093314 0.55780476 4278915594
0.44000238 0.030363958 0.55779934 4278915594
0.44000068 0.029794779 0.55779386 4278981641
0.43999901 0.029225601 0.55778843 4279112205
0.43999732 0.028656421 0.55778301 4279176975
0.43992195 0.028081097 0.55785 4279112203
0.43992028 0.027512178 0.55784458 4279046410
0.43991858 0.026943257 0.55783916 4278915594
0.43984324 0.02636897 0.55790621 4278849813
0.43984157 0.025800308 0.55790079 4278850063
0.4397662 0.025226798 0.55796784 4279045642
0.43969086 0.024653805 0.5580349 4279045642
0.43968916 0.024085663 0.55802947 4278914824
0.43961382 0.023513447 0.55809659 4278849031
0.43961215 0.022945564 0.55809116 4278914824
0.43953678 0.022374127 0.55815822 4279242768
0.43960878 0.021809796 0.55808026 4279176975
0.43953341 0.021238877 0.55814737 4279045385
0.43960541 0.020674028 0.55806935 4279045640
0.4394564 0.020101108 0.55820906 4279045894
0.43938106 0.019531485 0.55827618 4279045640
0.43930572 0.018962378 0.55834329 4279045640
0.43923038 0.01839379 0.55841041 4279243019
0.43915504 0.017825721 0.55847752 4279045640
0.43900603 0.017256947 0.55861723 4279177480
0.43893069 0.016690172 0.55868435 4279045894
0.43885535 0.016123915 0.55875152 4279045894
0.43885368 0.015558622 0.5587461 4279176975
0.43877834 0.014993143 0.55881327 4278915343
0.43877667 0.014428109 0.55880785 4278915856
0.43884867 0.013862742 0.55872989 4278850067
0.43892068 0.013296858 0.55865186 4278718481
0.43899268 0.012730455 0.5585739 4278783757
0.43906462 0.012163535 0.55849588 4278914824
0.43898934 0.011598832 0.55856305 4279046664
0.43898767 0.011033021 0.55855763 4278914308
0.4389123 0.010469096 0.5586248 4278914308
0.43883699 0.0099056903 0.55869198 4278849031
0.43883532 0.0093403962 0.55868655 4278652676
0.43875998 0.0087777674 0.55875373 4278652424
0.43875831 0.0082127322 0.55874836 4278914573
0.438683 0.0076508811 0.55881554 4278848780
0.43860766 0.0070895473 0.55888271 4278782987
0.43860599 0.0065250304 0.55887735 4278848010
0.43860433 0.0059605138 0.55887192 4278979849
0.43867633 0.0053917812 0.5587939 4278979849
0.43867466 0.0048270058 0.55878848 4278783240
0.43867299 0.0042622304 0.55878305 4278849031
0.43867135 0.0036974549 0.55877769 4278783238
0.43859601 0.003137934 0.55884492 4278848780
0.43859434 0.0025734184 0.5588395 4278782987
0.43866634 0.0020031305 0.55876148 4278717198
0.43873829 0.0014323238 0.5586834 4278783240
0.43873662 0.00086728949 0.55867803 4278783238
0.43873498 0.00030225515 0.55867261 4279176449
0.43873331 -0.00026277918 0.55866718 4279242242
0.43873164 -0.00082781445 0.55866182 4278914306
0.43872997 -0.0013928469 0.55865633 4278783490
0.4387283 -0.0019578803 0.55865097 4278783238
0.43872663 -0.0025229137 0.55864555 4278914573
0.43865132 -0.0030798465 0.55871278 4278848780
0.43864965 -0.003644621 0.55870736 4278782987
0.43857434 -0.0042007733 0.55877459 4278783238
0.43849903 -0.0047564097 0.55884188 4278914056
0.43842372 -0.0053115245 0.55890912 4278913803
0.41555578 -0.016021138 0.58130312 4283059258
0.41555434 -0.016504819 0.58129847 4282664757
0.4154793 -0.016971594 0.5813666 4282993719
0.41547787 -0.017455017 0.58136195 4283321401
0.41547644 -0.017938448 0.58135736 4283189813
0.41547501 -0.018421872 0.58135271 4282926641
0.41539997 -0.01888735 0.58142078 4283189811
0.41539854 -0.019370517 0.58141619 4282861359
0.41539711 -0.019853683 0.58141154 4282795568
0.41539568 -0.020336853 0.58140695 4282729777
0.41539425 -0.02082002 0.5814023 4282795570
0.41539282 -0.021303186 0.58139765 4282598191
0.41546503 -0.021805862 0.58132029 4282598191
0.4154636 -0.022289289 0.58131564 4282597939
0.41553578 -0.022792736 0.58123827 4282663732
0.41553435 -0.02327642 0.58123362 4282334265
0.41553292 -0.023760108 0.58122897 4282662979
0.41560507 -0.024264591 0.5811516 4282597186
0.41560364 -0.024748536 0.58114696 4282729021
0.41560221 -0.025232481 0.58114237 4282729021
0.41560081 -0.025716426 0.58113772 4282795068
0.41552579 -0.026178537 0.58120584 4282990649
0.41545075 -0.02664013 0.58127403 4283056440
0.41544932 -0.027123554 0.58126938 4282925108
0.41537428 -0.027584368 0.58133757 4282925108
0.41537285 -0.028067535 0.58133292 4282399529
0.43750602 -0.041685604 0.55935913 4279570957
0.43757796 -0.042272985 0.55928093 4279177747
0.43772349 -0.04288739 0.55912989 4279112975
0.43772182 -0.04344932 0.55912453 4279047180
0.43786734 -0.044065282 0.55897349 4279046929
0.43793929 -0.044654995 0.55889529 4278981136
0.43801117 -0.04524523 0.55881703 4279111952
0.43808311 -0.045835987 0.55873883 4279112726
0.43808144 -0.046399213 0.55873346 4278981649
0.43807977 -0.046962425 0.55872804 4279113235
0.43807811 -0.047525652 0.55872262 4279046681
0.43807647 -0.048088871 0.55871725 4279112724
0.4380748 -0.048652098 0.55871189 4279178515
0.43807313 -0.049215317 0.55870646 4279047182
0.43814504 -0.049808137 0.5586282 4279112975
0.43814337 -0.050371617 0.55862284 4279178766
0.4381417 -0.050935104 0.55861741 4279112724
0.43814003 -0.051498584 0.55861205 4279702543
0.4381384 -0.052062064 0.55860662 4279308812
0.43821031 -0.052656442 0.55852842 4279374605
0.43820864 -0.053220175 0.558523 4279440648
0.43820697 -0.053783916 0.55851758 4279440645
0.4382053 -0.054347664 0.55851221 4279506188
0.43820363 -0.054911397 0.55850679 4279703565
0.43820196 -0.055475131 0.55850142 4279506186
0.43820032 -0.056038871 0.558496 4279702532
0.43812507 -0.056569904 0.55856347 4279506438
0.43819699 -0.057166353 0.55848521 4279571977
0.43819532 -0.057730094 0.55847979 4279506184
0.43819368 -0.058293827 0.55847442 4279506184
0.43819201 -0.05885756 0.558469 4279506184
0.43819034 -0.059421301 0.55846363 4279440398
0.43826222 -0.060019314 0.55838531 4279309836
0.43826056 -0.060583316 0.55837989 4279113225
0.43825889 -0.06114731 0.55837452 4279179018
0.43825722 -0.061711311 0.55836916 4279441938
0.438182 -0.062239997 0.55843663 4280030479
0.43832746 -0.062874869 0.55828542 4279440141
0.43825224 -0.063403308 0.55835295 4279571981
0.43817702 -0.063931212 0.55842042 4279506188
0.43824893 -0.064531304 0.5583421 4279571476
0.43817371 -0.065058693 0.55840963 4279504663
0.43817204 -0.065622434 0.55840421 4279309081
0.43817037 -0.066186167 0.55839884 4279376147
0.4381687 -0.066749908 0.55839348 4279441940
0.43816704 -0.067313649 0.55838805 4279506441
0.43816537 -0.067877382 0.55838263 4279506443
0.43823725 -0.068479277 0.55830431 4279506191
0.43830913 -0.069081694 0.55822599 4279703824
0.43830746 -0.069645964 0.55822057 4279638031
0.43837935 -0.070249148 0.55814224 4279637779
0.43845126 -0.070852853 0.55806386 4279374876
0.43844959 -0.071417637 0.5580585 4280098079
0.43852147 -0.07202211 0.55798012 4279834907
0.43851981 -0.072587147 0.5579747 4279769106
0.43851814 -0.073152184 0.55796933 4279703319
0.43858999 -0.073757716 0.55789095 4279900949
0.43858832 -0.074323006 0.55788553 4279572505
0.43873376 -0.07497032 0.55773419 4279506712
0.43873209 -0.075536124 0.55772877 4279506710
0.43873042 -0.076101936 0.55772334 4280096790
0.4388023 -0.076709516 0.55764496 4279834901
0.43887416 -0.07731764 0.55756658 4279703572
0.43901956 -0.077968575 0.55741519 4279966744
0.43909144 -0.078577973 0.55733681 4280098077
0.4391633 -0.079187915 0.55725837 4279967261
0.4393087 -0.079841428 0.55710697 4279639319
0.43930703 -0.080409303 0.55710155 4279639567
0.43937892 -0.081020802 0.55702311 4279639567
0.43952429 -0.081676647 0.55687171 4279639569
0.43959612 -0.08228942 0.55679327 4279705362
0.439668 -0.082902722 0.55671483 4279705362
0.43973985 -0.083516531 0.55663639 4279705362
0.43981171 -0.084130868 0.55655789 4279705362
0.43988356 -0.084745713 0.55647945 4279705362
0.43988186 -0.085315667 0.55647403 4279705362
0.43988019 -0.085885622 0.55646855 4279705362
0.44002557 -0.086547442 0.55631709 4279705362
0.44009739 -0.087164104 0.55623865 4279705362
0.44016925 -0.08778128 0.55616015 4279705362
0.44016755 -0.08835227 0.55615467 4279705362
0.44023943 -0.088970229 0.55607617 4279705362
0.44031125 -0.089588709 0.55599767 4279705362
0.44030958 -0.090160221 0.55599225 4279705362
0.44038141 -0.090779476 0.55591369 4279705362
0.44037971 -0.091351241 0.5559082 4279705362
0.44045156 -0.091971278 0.55582976 4279705362
0.44052339 -0.09259183 0.5557512 4279705362
0.44052169 -0.093164116 0.55574572 4279705362
0.44066703 -0.093834467 0.55559421 4279705362
0.44073886 -0.094456568 0.55551565 4279705362
0.44081068 -0.095079184 0.55543715 4279705362
0.44088253 -0.095702335 0.55535859 4279705362
0.44102788 -0.096376076 0.55520701 4279705362
0.4411732 -0.097050846 0.55505538 4279705362
0.44131854 -0.097726636 0.55490381 4279705362
0.44146389 -0.098403484 0.55475217 4279705362
0.44168273 -0.099132471 0.55452752 4279705362
0.44175452 -0.099760272 0.5544489 4279705362
0.44182634 -0.10038859 0.55437028 4279705362
0.44189817 -0.10101742 0.55429173 4279705362
0.44196996 -0.10164678 0.55421317 4279705362
0.44204175 -0.10227666 0.55413455 4279705362
0.44204006 -0.10285439 0.554129 4279705362
0.44203836 -0.10343212 0.55412346 4279705362
0.44211018 -0.10406303 0.55404484 4279705362
0.44415927 0.064692289 0.5533393 4286414453
0.44401038 0.064063922 0.55347884 4282203447
0.44393504 0.063458286 0.55354583 4281545519
0.44378608 0.06283173 0.55368543 4281084968
0.44371077 0.062227391 0.55375248 4280361251
0.44356185 0.061602645 0.55389208 4280295456
0.44363374 0.061040908 0.55381393 4279835675
0.44341123 0.060397074 0.55402613 4279835928
0.44333592 0.059795059 0.55409312 4279967514
0.443187 0.059173696 0.55423278 4279835928
0.44303811 0.058553353 0.55437243 4279835928
0.44288921 0.057934061 0.55451208 4279639317
0.44266671 0.057296693 0.5547244 4279639317
0.44251782 0.056679733 0.55486405 4279573524
0.44229534 0.056045219 0.55507636 4279442200
0.44214642 0.055430584 0.55521607 4279310364
0.44199759 0.054816991 0.55535579 4279442202
0.4418487 0.054204427 0.5554955 4279442200
0.4416998 0.053592898 0.55563521 4279442200
0.44162449 0.05299969 0.55570233 4279442202
0.44154921 0.052407011 0.55576944 4279769112
0.44147393 0.051814847 0.55583662 4279835158
0.44139868 0.051223196 0.55590373 4279769363
0.44132337 0.050632067 0.55597085 4279637777
0.44124809 0.050041452 0.55603802 4279703824
0.44109923 0.04943563 0.55617779 4279703824
0.44109756 0.048861787 0.55617225 4279506961
0.44094867 0.048257522 0.55631208 4279506961
0.44079983 0.047654279 0.55645192 4279506710
0.44072455 0.047066778 0.55651903 4279506710
0.44057572 0.04646536 0.55665892 4279375375
0.44050044 0.045879148 0.5567261 4279309331
0.44042516 0.045293458 0.55679327 4279506712
0.44034991 0.044708285 0.55686045 4279309584
0.44027466 0.044123635 0.55692768 4279375377
0.44019938 0.043539494 0.55699486 4279309331
0.44019771 0.042968765 0.55698943 4279309331
0.44019601 0.042398028 0.55698395 4279178768
0.44026789 0.041839663 0.55690581 4279113227
0.44026619 0.041268669 0.55690032 4279113227
0.44019097 0.040685829 0.55696756 4279244813
0.44011569 0.04010351 0.55703473 4279178766
0.44011402 0.039533034 0.55702931 4279046679
0.44003877 0.038951494 0.55709648 4279112472
0.44003707 0.038381275 0.55709106 4279440400
0.43996185 0.037800506 0.55715829 4279244043
0.43988657 0.037220258 0.55722553 4279309836
0.43981135 0.036640525 0.55729276 4278981651
0.43966252 0.036051542 0.55743271 4278981136
0.43966085 0.035482623 0.55742729 4278981136
0.4395856 0.034904446 0.55749452 4278981387
0.4395839 0.034335785 0.5574891 4279047180
0.43950868 0.033758383 0.55755639 4279113227
0.43943346 0.033181503 0.55762362 4279047434
0.43943179 0.032613363 0.5576182 4278981387
0.43950364 0.03205318 0.55754006 4279046933
0.43942842 0.031477079 0.55760729 4278981653
0.43942672 0.030908933 0.55760187 4278850063
0.43942505 0.030340791 0.55759645 4278915856
0.43934983 0.029765721 0.55766368 4278916109
0.43942171 0.029204503 0.55758554 4278981389
0.43942004 0.028636362 0.55758011 4279046161
0.43941838 0.028068218 0.55757463 4279046410
0.43934309 0.027494185 0.55764198 4278914824
0.43934143 0.026926301 0.5576365 4279112203
0.4392662 0.02635305 0.55770385 4278915343
0.43919098 0.025780313 0.55777115 4278784008
0.43918931 0.025212947 0.55776572 4278915078
0.43911409 0.024640989 0.55783302 4279046664
0.43911242 0.02407388 0.55782759 4279046664
0.43911076 0.023506775 0.55782217 4278914824
0.43910906 0.022939667 0.55781674 4279046410
0.43903384 0.022369005 0.5578841 4279112203
0.43903217 0.021802157 0.55787861 4279046410
0.4390305 0.02123531 0.55787325 4278849033
0.43902883 0.020668462 0.55786777 4279046412
0.43902713 0.020101614 0.5578624 4278915594
0.43895191 0.019532505 0.55792975 4279045640
0.43880317 0.018961914 0.55806983 4279045640
0.43872797 0.0183941 0.55813718 4279243019
0.43865275 0.017826805 0.55820453 4279045640
0.43857753 0.017260028 0.55827194 4279177480
0.43850231 0.016693769 0.5583393 4279045894
0.43842712 0.016128028 0.55840671 4279177480
0.43842545 0.015563252 0.55840129 4279046410
0.43835023 0.014998289 0.55846864 4278718479
0.43842211 0.014433702 0.55839044 4278850063
0.43842047 0.013868928 0.55838501 4278850065
0.43841881 0.013304153 0.55837965 4278718479
0.43849066 0.01273853 0.55830145 4278914824
0.43848899 0.012173495 0.55829602 4279046410
0.4384138 0.011609827 0.55836344 4278915078
0.43833858 0.011046677 0.55843079 4278849031
0.43833691 0.01048216 0.55842543 4278783238
0.43833524 0.0099176448 0.55842 4278717964
0.43826005 0.009355532 0.55848742 4278652422
0.43818486 0.0087939352 0.55855483 4278849031
0.43810967 0.008232858 0.55862224 4278717968
0.438108 0.0076691196 0.55861688 4278717968
0.43803281 0.0071088183 0.55868429 4278717966
0.43795761 0.0065490361 0.5587517 4278848782
0.43802947 0.0059818588 0.5586735 4278914573
0.4380278 0.0054183789 0.55866808 4279045642
0.43809968 0.0048504258 0.55858988 4278979849
0.43809801 0.0042866869 0.55858445 4278980101
0.43809634 0.003722948 0.55857909 4278980101
0.43802118 0.00316446 0.5586465 4278782989
0.43801951 0.00260098 0.55864114 4278717196
0.43809134 0.0020317324 0.55856287 4278782989
0.4380897 0.0014679935 0.55855751 4278848782
0.43808803 0.00090425462 0.55855209 4278849033
0.43815988 0.00033396762 0.55847383 4279111428
0.43815821 -0.00023003109 0.55846846 4279111428
0.43815655 -0.000794027 0.55846304 4279045640
0.43815488 -0.0013580266 0.55845761 4278783492
0.43815321 -0.0019220226 0.55845225 4278717699
0.43815154 -0.0024860222 0.55844682 4278914826
0.43807638 -0.0030419156 0.5585143 4278914826
0.43807471 -0.0036056563 0.55850887 4278913803
0.43792602 -0.0041521564 0.55864924 4278914054
0.43785086 -0.0047065001 0.55871677 4278914056
0.43777567 -0.0052603222 0.55878425 4278783240
0.43770051 -0.0058136266 0.55885172 4278783240
0.41531521 -0.016016411 0.5808835 4282993467
0.41538727 -0.01651674 0.5808059 4282664759
0.41531235 -0.016983783 0.5808742 4282862136
0.41531092 -0.017467463 0.58086956 4283125305
0.41530949 -0.017951155 0.58086497 4282993717
0.41530806 -0.018434836 0.58086032 4282927924
0.41523317 -0.018900579 0.58092868 4282994221
0.41523173 -0.019384002 0.58092403 4282730795
0.4152303 -0.01986743 0.58091938 4282664750
0.4152289 -0.020350857 0.5809148 4282533166
0.41522747 -0.020834284 0.58091015 4282598959
0.41522604 -0.021317711 0.58090556 4282467121
0.41522461 -0.021801138 0.58090091 4282467121
0.41529664 -0.022304324 0.5808233 4282532662
0.41536868 -0.022808025 0.5807457 4282532662
0.41536725 -0.02329197 0.58074105 4282269242
0.41536582 -0.023775915 0.5807364 4282466368
0.41536438 -0.02425986 0.58073175 4282465598
0.41536295 -0.024743805 0.5807271 4282597435
0.41536152 -0.02522775 0.58072251 4282663228
0.41543359 -0.025733272 0.58064485 4282598459
0.41535866 -0.026195636 0.58071327 4282859063
0.4152838 -0.026657494 0.58078158 4282990647
0.41528237 -0.027141182 0.58077693 4282859315
0.41520748 -0.027602257 0.58084536 4282859315
0.41491216 -0.027994206 0.58113277 4282531113
0.43708169 -0.041067541 0.55902374 4279505936
0.43700659 -0.041602187 0.55909145 4279440143
0.43707839 -0.042188793 0.55901301 4279177747
0.43722364 -0.042802416 0.55886155 4279046931
0.43729544 -0.043390319 0.55878317 4279047182
0.43729377 -0.04395172 0.55877775 4279177745
0.43736559 -0.044540405 0.55869931 4279111952
0.43743736 -0.045129605 0.55862093 4279242768
0.43743572 -0.045691527 0.55861551 4279046933
0.43743408 -0.046253458 0.55861014 4278850833
0.43743241 -0.04681538 0.55860472 4278981401
0.43743074 -0.047377311 0.55859935 4278981401
0.43742907 -0.047939226 0.55859399 4279113239
0.4374274 -0.048501156 0.55858862 4279113237
0.43749923 -0.049092427 0.55851018 4278981389
0.43749756 -0.04965461 0.55850476 4279244813
0.43749589 -0.050216787 0.5584994 4279244813
0.43756771 -0.0508091 0.5584209 4279177745
0.43756604 -0.051371552 0.55841553 4279571727
0.43763781 -0.051964633 0.55833709 4279244043
0.43763614 -0.052527331 0.55833167 4279244043
0.4376345 -0.053090028 0.5583263 4279374855
0.43763283 -0.053652741 0.55832088 4279440645
0.43755773 -0.054183766 0.55838859 4279374852
0.43755609 -0.054746211 0.55838323 4279374852
0.43755442 -0.055308647 0.55837786 4279309059
0.43755275 -0.055871092 0.55837244 4279440650
0.43762451 -0.056466252 0.55829394 4279309832
0.43762287 -0.057028957 0.55828857 4279309834
0.43762121 -0.057591654 0.55828321 4279244041
0.43761954 -0.058154359 0.55827779 4279375627
0.4376179 -0.058717057 0.55827242 4279309582
0.43761623 -0.059279762 0.558267 4279309331
0.43761456 -0.059842467 0.55826163 4279244559
0.43761289 -0.060405165 0.55825627 4279047945
0.43761122 -0.06096787 0.55825084 4279113738
0.43768302 -0.061565623 0.55817235 4279440650
0.43768135 -0.062128581 0.55816698 4279833098
0.43767971 -0.06269154 0.55816156 4279374348
0.43767804 -0.063254505 0.55815613 4279571981
0.43767637 -0.063817464 0.55815077 4279506188
0.4376747 -0.06438043 0.5581454 4279440395
0.4375996 -0.064906783 0.55821311 4279374350
0.43767136 -0.065506347 0.55813462 4279177998
0.43759629 -0.066032194 0.55820239 4279506186
0.43759462 -0.066594891 0.55819696 4279703565
0.43759298 -0.067157596 0.5581916 4279440648
0.43759131 -0.067720301 0.55818617 4279439897
0.43766308 -0.068321154 0.55810761 4279506710
0.43773484 -0.068922527 0.55802912 4279703824
0.43773317 -0.069485761 0.55802369 4279506445
0.43780494 -0.07008791 0.55794513 4279505934
0.43787667 -0.070690572 0.55786657 4279374108
0.43787503 -0.071254306 0.55786121 4279768862
0.43794677 -0.071857758 0.55778265 4279505942
0.4379451 -0.072421759 0.55777723 4279505942
0.43801686 -0.073025987 0.55769861 4279505940
0.4380886 -0.073630728 0.55762005 4279572503
0.43808693 -0.074195236 0.55761468 4279375896
0.43815869 -0.074800767 0.55753607 4279244310
0.43815702 -0.075365536 0.55753064 4279309584
0.43822879 -0.075971834 0.55745208 4280554259
0.43822712 -0.076536864 0.55744666 4280161811
0.43829885 -0.077143937 0.55736804 4279965715
0.43837059 -0.077751532 0.55728942 4280097301
0.43851575 -0.078402206 0.55713761 4280097301
0.43858749 -0.07901109 0.55705899 4279900949
0.43865922 -0.079620488 0.55698037 4279507985
0.43865755 -0.080187075 0.55697495 4279574028
0.43872929 -0.08079727 0.55689627 4279508235
0.43880102 -0.081407964 0.55681765 4279376912
0.43887275 -0.082019188 0.55673897 4279769363
0.43894449 -0.082630925 0.55666035 4279966742
0.43901622 -0.083243184 0.55658168 4279966742
0.43908796 -0.083855964 0.55650306 4279966742
0.43915966 -0.084469244 0.55642438 4279966742
0.4392314 -0.085083053 0.5563457 4279966742
0.43922973 -0.085651718 0.55634022 4279966742
0.43930143 -0.086266309 0.55626154 4279966742
0.43944657 -0.086927593 0.55610967 4279966742
0.4394449 -0.087497033 0.55610418 4279966742
0.4394432 -0.088066466 0.55609876 4279966742
0.43951494 -0.088682868 0.55602002 4279966742
0.43958664 -0.089299798 0.55594134 4279966742
0.43965834 -0.089917243 0.55586267 4279966742
0.43980345 -0.090582922 0.55571067 4279966742
0.43980175 -0.091153659 0.55570519 4279966742
0.43987346 -0.091772646 0.55562651 4279966742
0.43994519 -0.092392154 0.55554777 4279966742
0.4400169 -0.093012184 0.55546904 4279966742
0.4400886 -0.093632728 0.5553903 4279966742
0.4401603 -0.094253801 0.55531156 4279966742
0.44023198 -0.094875373 0.55523282 4279966742
0.44030371 -0.095497482 0.55515409 4279966742
0.44037539 -0.096120104 0.55507529 4279966742
0.44052047 -0.09679357 0.5549233 4279966742
0.44073898 -0.097518675 0.55469793 4279966742
0.44081065 -0.098143615 0.55461919 4279966742
0.44095573 -0.098820195 0.55446708 4279966742
0.44110078 -0.099497795 0.55431503 4279966742
0.44117248 -0.10012481 0.55423623 4279966742
0.44131756 -0.10080424 0.55408412 4279966742
0.44138923 -0.10143256 0.55400532 4279966742
0.44146091 -0.10206141 0.55392647 4279966742
0.44153261 -0.10269076 0.55384767 4279966742
0.44153088 -0.10326771 0.55384219 4279966742
0.44152921 -0.10384466 0.55383664 4279966742
0.44167423 -0.10452849 0.55368447 4279966742
0.44372338 0.065237522 0.5529834 4286480251
0.4435747 0.064609155 0.55312347 4285559144
0.44342601 0.063981809 0.55326349 4282466621
0.44342431 0.063398905 0.55325794 4281348146
0.44334912 0.062794559 0.55332518 4280821802
0.44312698 0.062148385 0.55353802 4280361251
0.44312525 0.061566509 0.55353248 4280229665
0.44297662 0.06094332 0.55367249 4279835675
0.44290143 0.060341567 0.55373979 4279835675
0.44275278 0.059720188 0.55387986 4279835675
0.44260412 0.059099853 0.55401999 4279769882
0.44245547 0.058480546 0.55416012 4279507480
0.44223338 0.057842918 0.55437303 4279573526
0.44208473 0.057225943 0.55451316 4279508244
0.44193611 0.056610011 0.55465329 4279508244
0.44178748 0.055995114 0.55479348 4279442200
0.44156539 0.055362925 0.55500644 4279375896
0.44141677 0.054750353 0.55514663 4279376409
0.44126815 0.054138824 0.55528682 4279245591
0.44119298 0.053545885 0.55535412 4279376409
0.44111782 0.052953452 0.55542147 4279442202
0.44104266 0.05236154 0.55548882 4279769108
0.44096753 0.051770151 0.55555618 4279900694
0.44081891 0.051162772 0.55569643 4279835156
0.44067031 0.050556421 0.55583668 4279638031
0.44066861 0.049983092 0.55583119 4279703824
0.44052002 0.049378298 0.55597138 4279572754
0.44051832 0.048805483 0.5559659 4279375375
0.44036973 0.048202246 0.55610621 4279506963
0.44022113 0.047600046 0.55624646 4279572756
0.44007254 0.046998881 0.55638677 4279506963
0.4399974 0.046413191 0.55645418 4279506191
0.43992227 0.045828011 0.55652159 4279309584
0.43984711 0.04524336 0.55658901 4279506963
0.43969855 0.044645555 0.55672932 4279440400
0.43969688 0.044075601 0.55672383 4279506193
0.43962175 0.043492496 0.55679131 4279309333
0.43962008 0.042922802 0.55678582 4279309584
0.43969184 0.04236573 0.5567075 4279178766
0.43969014 0.041795775 0.55670202 4279178766
0.43968844 0.041225817 0.55669653 4279112973
0.43968678 0.040655859 0.55669111 4279179020
0.43961167 0.040074315 0.55675852 4279112975
0.43960997 0.039504617 0.5567531 4279112474
0.43960828 0.03893492 0.55674767 4279177745
0.43953317 0.038354412 0.55681515 4279243538
0.43945807 0.037774418 0.55688256 4279309584
0.43945637 0.037205234 0.55687714 4279309331
0.43930781 0.03661599 0.55701751 4278981653
0.43923271 0.036037549 0.55708504 4278981136
0.43915761 0.03545963 0.55715251 4278981136
0.43908247 0.034882229 0.55721998 4278981389
0.43908077 0.034314342 0.5572145 4279047180
0.43907911 0.033746459 0.55720913 4279047947
0.439004 0.033170097 0.55727661 4278916107
0.4389289 0.032594249 0.55734408 4278916107
0.43892723 0.032026883 0.55733865 4279046933
0.43885213 0.031451814 0.55740619 4279046933
0.43877703 0.030877262 0.55747372 4278850063
0.43884879 0.030317599 0.55739534 4278981649
0.43884709 0.029750492 0.55738991 4278981389
0.43877202 0.029176718 0.55745745 4278915596
0.43884376 0.028616279 0.55737901 4279046161
0.43876866 0.028043022 0.5574466 4278981387
0.43876699 0.027476175 0.55744112 4278915594
0.43876529 0.026909327 0.55743575 4279112457
0.43876362 0.02634248 0.55743027 4278915594
0.43868852 0.025770519 0.55749786 4278914824
0.43861341 0.025199074 0.55756539 4278915078
0.43861175 0.024632744 0.55755997 4278915078
0.43868351 0.024070753 0.55748153 4279046664
0.43860841 0.023500089 0.55754912 4278915078
0.43853334 0.022929939 0.55761671 4279046664
0.43853164 0.022363868 0.55761123 4279112203
0.43852997 0.021797799 0.55760586 4279046410
0.4385283 0.021231728 0.55760044 4278914826
0.43852663 0.020665657 0.55759501 4279046412
0.43845159 0.020097066 0.55766255 4279046410
0.43837649 0.019528989 0.55773014 4278914824
0.43822798 0.018959429 0.55787075 4278914824
0.43815291 0.018392649 0.55793834 4279046410
0.43807781 0.017826388 0.55800593 4278914826
0.43807614 0.01726187 0.5580005 4279177480
0.43792766 0.016695419 0.55814111 4278915078
0.43792599 0.016131422 0.55813575 4279046664
0.43792433 0.015567423 0.55813032 4279046410
0.43792266 0.015003425 0.5581249 4278915345
0.43784761 0.014439495 0.55819255 4278980886
0.43784595 0.013875756 0.55818713 4278850065
0.43784428 0.013312018 0.55818176 4278850065
0.43791601 0.012747434 0.55810332 4278718730
0.43791434 0.012183435 0.55809796 4278784008
0.43783927 0.011620801 0.55816555 4278915594
0.4378376 0.011057063 0.55816019 4278849031
0.43776256 0.010495204 0.55822778 4278849031
0.43768749 0.0099338666 0.55829543 4278914826
0.43768582 0.0093706455 0.55829006 4278849031
0.43761075 0.0088100834 0.55835772 4278914824
0.4375357 0.0082500391 0.55842537 4278914577
0.43746063 0.007690514 0.55849302 4278782991
0.43745899 0.007128071 0.55848765 4278914575
0.43745732 0.0065656276 0.55848229 4278914573
0.43745565 0.0060031842 0.55847687 4278914573
0.43745399 0.0054407408 0.5584715 4278914826
0.43752575 0.0048738243 0.558393 4278783240
0.43752408 0.0043111211 0.55838764 4279045892
0.43744904 0.0037534097 0.55845535 4278979847
0.43744737 0.0031909673 0.55844992 4278717964
0.4374457 0.0026285239 0.55844456 4278717964
0.43744403 0.0020660805 0.55843914 4278652171
0.43751577 0.0014976095 0.5583607 4278915093
0.4375141 0.0009349063 0.55835533 4278783757
0.43751246 0.000372204 0.55834997 4279045894
0.43751079 -0.00019049924 0.55834454 4278717964
0.43750912 -0.00075319968 0.55833912 4278783757
0.43750745 -0.0013159029 0.55833375 4278718728
0.43750578 -0.0018786043 0.55832839 4278784260
0.43750414 -0.0024413075 0.55832303 4278979847
0.4374291 -0.0029959101 0.55839074 4279045640
0.43735403 -0.0035499968 0.55845845 4278914054
0.43727899 -0.0041035637 0.55852616 4278914054
0.43720394 -0.004656611 0.55859387 4278914056
0.4372023 -0.0052182786 0.5585885 4278587144
0.43705389 -0.0057611559 0.55872929 4278586891
0.41514516 -0.016995957 0.58038139 4282927679
0.41514373 -0.017479902 0.5803768 4282927420
0.41506892 -0.017946428 0.58044535 4282993213
0.41506749 -0.018430108 0.5804407 4282993213
0.41499275 -0.018895851 0.58050931 4282927926
0.41499132 -0.019379275 0.58050466 4282795566
0.41498989 -0.019862702 0.58050001 4282664502
0.41498846 -0.020346129 0.58049536 4282598712
0.41498703 -0.020829557 0.58049077 4282664505
0.41505894 -0.021332225 0.58041292 4282269747
0.41505754 -0.021815909 0.58040828 4282270001
0.41512942 -0.022319356 0.58033043 4282269492
0.41512799 -0.022803297 0.58032584 4282466871
0.41512656 -0.023287242 0.58032119 4282268989
0.41512513 -0.023771187 0.58031654 4282334782
0.4151237 -0.024255132 0.58031189 4282137913
0.41512227 -0.024739077 0.58030725 4282335033
0.41512084 -0.025223022 0.58030266 4282269240
0.41519278 -0.025728537 0.58022475 4282597689
0.41511798 -0.026190909 0.58029342 4282531383
0.41511655 -0.026674854 0.58028877 4282728758
0.41438174 -0.026935322 0.58101642 4282465586
0.43650952 -0.040959187 0.55883044 4279374605
0.43665457 -0.041570731 0.55867851 4279374605
0.4366529 -0.042130843 0.55867314 4278981138
0.43679792 -0.042743944 0.55852127 4278981140
0.43672293 -0.043277822 0.55858916 4278981136
0.43679458 -0.043865204 0.55851054 4279308814
0.43686625 -0.044453099 0.55843186 4279308814
0.43679127 -0.044986464 0.55849981 4279308306
0.43678963 -0.04554709 0.55849445 4279046933
0.43686128 -0.046135776 0.55841577 4279046931
0.43685964 -0.046696663 0.55841041 4279113239
0.43678465 -0.047228985 0.55847836 4278981653
0.43685633 -0.047818437 0.55839968 4279047192
0.43685466 -0.048379332 0.55839431 4279178517
0.43692634 -0.048969559 0.55831563 4279308812
0.43692467 -0.049530707 0.55831027 4279309836
0.43692303 -0.050091848 0.55830491 4279309836
0.43699467 -0.050683118 0.55822623 4279308812
0.436993 -0.051244527 0.5582208 4279505936
0.43706468 -0.051836565 0.55814213 4278981387
0.43706304 -0.052398235 0.55813676 4279112455
0.43706137 -0.052959897 0.5581314 4279244041
0.4370597 -0.053521566 0.55812597 4279374857
0.43705803 -0.054083228 0.55812061 4279309316
0.43705639 -0.054644905 0.55811524 4279308805
0.43705475 -0.055206567 0.55810988 4279243012
0.43705308 -0.055768229 0.55810452 4279374857
0.43705142 -0.056329899 0.55809915 4279309832
0.43704975 -0.056891561 0.55809373 4279309834
0.43704811 -0.05745323 0.55808836 4279113225
0.43704644 -0.058014892 0.558083 4279179018
0.4370448 -0.058576562 0.55807757 4279178766
0.43704313 -0.059138231 0.55807221 4279178768
0.43704146 -0.0596999 0.55806684 4279178766
0.43703979 -0.060261562 0.55806148 4278982154
0.43711144 -0.060858019 0.55798274 4279047947
0.4371098 -0.061419949 0.55797732 4279309064
0.43710816 -0.061981864 0.55797195 4279702797
0.43710649 -0.062543787 0.55796659 4279505418
0.43710482 -0.063105717 0.55796123 4279506188
0.43710315 -0.06366764 0.55795586 4279506188
0.43710148 -0.06422957 0.55795044 4279637004
0.43709984 -0.064791493 0.55794507 4279374350
0.43709821 -0.065353416 0.55793971 4279243791
0.43709654 -0.065915346 0.55793428 4279637002
0.43702155 -0.066439882 0.55800235 4279702795
0.4370932 -0.067039199 0.55792356 4279637002
0.43709153 -0.067601122 0.55791819 4279702044
0.43708989 -0.068163052 0.55791283 4279505940
0.43708825 -0.068724968 0.5579074 4279506191
0.43715987 -0.069325566 0.55782866 4279440398
0.43723151 -0.069926687 0.55774987 4279374605
0.43730313 -0.070528321 0.55767107 4279374106
0.43730149 -0.071091019 0.55766571 4279703069
0.4373731 -0.07169342 0.55758691 4279439897
0.43737143 -0.072256386 0.55758154 4279505690
0.43744308 -0.07285957 0.55750275 4279505942
0.43751469 -0.073463283 0.55742395 4279506710
0.43751305 -0.074026756 0.55741853 4279376147
0.43758464 -0.074631236 0.55733973 4279375375
0.43765628 -0.075236239 0.55726093 4279375375
0.43765461 -0.07580024 0.55725551 4280095505
0.43772623 -0.076406002 0.55717671 4280096020
0.43772456 -0.076970257 0.55717129 4280096788
0.43779618 -0.077576816 0.55709243 4280162581
0.43794107 -0.078226447 0.5569402 4280031508
0.43793941 -0.078791484 0.55693483 4279769363
0.43801105 -0.079399593 0.55685592 4279573776
0.43808264 -0.080008209 0.55677712 4279508235
0.43808097 -0.080573767 0.5567717 4279508235
0.43815261 -0.08118318 0.55669284 4279442200
0.4382242 -0.081793092 0.55661398 4279770135
0.43829578 -0.082403533 0.55653512 4279770135
0.43829411 -0.082969867 0.5565297 4279770135
0.4383657 -0.083581075 0.55645084 4279770135
0.43843734 -0.084192812 0.55637193 4279770135
0.43850893 -0.084805064 0.55629307 4279770135
0.43858051 -0.085417837 0.55621415 4279770135
0.43865213 -0.086031131 0.5561353 4279770135
0.43872371 -0.086644933 0.55605638 4279770135
0.43879533 -0.087259263 0.55597746 4279770135
0.43879366 -0.087827407 0.55597204 4279770135
0.4389385 -0.088489465 0.55581969 4279770135
0.43893683 -0.089058131 0.55581427 4279770135
0.43908167 -0.089721739 0.55566186 4279770135
0.43915325 -0.090338655 0.55558288 4279770135
0.43915159 -0.090908095 0.55557746 4279770135
0.43929642 -0.091574058 0.55542505 4279770135
0.43929476 -0.092144012 0.55541956 4279770135
0.43936634 -0.092762746 0.55534065 4279770135
0.43943793 -0.093381979 0.55526173 4279770135
0.43958277 -0.094051033 0.55510926 4279770135
0.43965435 -0.094671577 0.55503029 4279770135
0.43972591 -0.09529265 0.55495131 4279770135
0.43979746 -0.095914222 0.55487233 4279770135
0.4399423 -0.09658666 0.55471987 4279770135
0.44008714 -0.097260103 0.5545674 4279770135
0.44015869 -0.097883761 0.55448842 4279770135
0.44030353 -0.098559044 0.55433589 4279770135
