# .PCD v0.7 - Point Cloud Data file format
VERSION 0.7
FIELDS x y z rgb
SIZE 4 4 4 4
TYPE F F F U
COUNT 1 1 1 1
WIDTH 1046
HEIGHT 1
VIEWPOINT 0 0 0 1 0 0 0
POINTS 1046
DATA ascii
0.43120462 -0.088589348 0.52703434 4281676861
0.47080755 -0.017206371 0.54982197 4279506710
0.47146177 -0.017284125 0.54970938 4284245091
0.4721145 -0.017362386 0.54959673 4283587151
0.4726972 -0.017266974 0.54956049 4280361754
0.47327942 -0.017171726 0.54952425 4280624415
0.47392869 -0.017251119 0.54941159 4280690208
0.47454298 -0.017243698 0.54933715 4281085216
0.47512299 -0.01714918 0.54930091 4281152290
0.47573555 -0.017142326 0.54922646 4281350439
0.47634712 -0.017135784 0.54915202 4282006829
0.47692516 -0.017041922 0.54911572 4282270001
0.4775027 -0.016948223 0.54907948 4282467126
0.47804773 -0.016766861 0.54908144 4282598457
0.47859272 -0.016585514 0.54908335 4282795836
0.47913772 -0.016404167 0.54908532 4282861884
0.47971404 -0.016310871 0.54904902 4282730298
0.48025882 -0.016129598 0.54905099 4282862908
0.48083439 -0.01603657 0.54901469 4282928701
0.48137891 -0.015855372 0.54901665 4283060033
0.48192343 -0.015674189 0.54901862 4283848781
0.42314613 -0.092721723 0.52598947 4285292651
0.42362365 -0.092661448 0.52595305 4285292651
0.42394704 -0.092455216 0.52599233 4284963686
0.42434749 -0.092321962 0.52599376 4284766307
0.42467159 -0.092115484 0.52603298 4284766307
0.4249962 -0.091908865 0.52607226 4284503902
0.42532131 -0.091702059 0.52611148 4283912281
0.4256469 -0.091495097 0.52615076 4283714902
0.425973 -0.091287963 0.52618998 4283583829
0.42629954 -0.091080673 0.52622926 4283255634
0.42670149 -0.090946928 0.52623069 4283189075
0.42702878 -0.090739392 0.52626997 4282925903
0.4273566 -0.090531684 0.52630925 4282662216
0.42775899 -0.090397775 0.52631068 4282728522
0.42808753 -0.090189844 0.5263499 4282334786
0.42849022 -0.090055853 0.52635133 4282005051
0.42881948 -0.089847662 0.52639061 4282202430
0.4292224 -0.089713588 0.52639204 4282004797
0.42955244 -0.089505166 0.52643132 4282004799
0.4299556 -0.089371011 0.52643275 4282201926
0.43021393 -0.089087799 0.52650988 4282136133
0.4313089 -0.089117922 0.52636141 4281677881
0.47078735 -0.017103583 0.54924488 4279506712
0.47137159 -0.017007783 0.54920888 4284771435
0.47198987 -0.016999304 0.54913485 4285036402
0.4726415 -0.01707834 0.54902291 4279966485
0.47325757 -0.017070577 0.54894888 4280492829
0.47387266 -0.017063156 0.54887491 4280624415
0.4744868 -0.017056048 0.54880089 4280887837
0.47513324 -0.017136812 0.54868895 4281019932
0.47571206 -0.017042831 0.54865289 4281349669
0.47632322 -0.017036691 0.54857886 4281941036
0.47693342 -0.01703091 0.54850489 4282006829
0.47751027 -0.016937584 0.54846883 4282466353
0.47805452 -0.016756475 0.5484708 4282598709
0.47863066 -0.016663387 0.54843473 4282664505
0.47917467 -0.016482368 0.54843664 4282533691
0.47971869 -0.016301334 0.54843861 4282599484
0.48029381 -0.016208589 0.54840255 4282862654
0.48083761 -0.016027644 0.54840451 4282732092
0.48141199 -0.015935138 0.54836845 4282929471
0.4819859 -0.01584278 0.54833245 4283454791
0.42315772 -0.092593245 0.5255869 4285095272
0.42363507 -0.092533171 0.52555072 4285030246
0.42395815 -0.092326902 0.52558976 4284767074
0.42435837 -0.092193723 0.52559119 4284569695
0.4246822 -0.091987208 0.52563018 4284701281
0.42500651 -0.091780528 0.52566922 4284372316
0.42525545 -0.091500193 0.52574587 4283911765
0.42565662 -0.091366693 0.5257473 4283780179
0.42598242 -0.091159523 0.52578634 4283584081
0.42630872 -0.090952188 0.52582538 4283255118
0.4266355 -0.090744689 0.52586436 4283122769
0.42696273 -0.090537027 0.5259034 4282991183
0.42736495 -0.090403199 0.52590489 4282857800
0.42769295 -0.090195291 0.52594388 4282726726
0.42809537 -0.090061381 0.52594531 4282465089
0.42842412 -0.089853242 0.52598441 4282202430
0.42882675 -0.089719258 0.52598584 4282136637
0.42922944 -0.08958526 0.52598727 4282202176
0.42955917 -0.089376785 0.52602631 4282202178
0.4299621 -0.089242712 0.52602774 4282004801
0.43029255 -0.089034006 0.52606678 4282202180
0.43069571 -0.088899851 0.52606821 4282005567
0.43102694 -0.088690877 0.52610725 4281940283
0.4705919 -0.016565874 0.54885733 4279572505
0.47128141 -0.016731456 0.54870832 4285297266
0.47189981 -0.016723216 0.54863477 4284906101
0.47251719 -0.016715303 0.54856128 4281480753
0.47316769 -0.016795114 0.54844999 4280427290
0.47381672 -0.016875431 0.54833865 4280493083
0.4744643 -0.01695624 0.54822737 4280756253
0.475077 -0.016949862 0.54815382 4281019932
0.47568876 -0.016943812 0.54808027 4281152290
0.47629949 -0.016938105 0.54800665 4281677607
0.47690928 -0.016932726 0.5479331 4282006572
0.47748566 -0.016839698 0.54789728 4282465840
0.47802943 -0.016658753 0.54789925 4282663732
0.47860509 -0.016565964 0.54786342 4282532916
0.47918028 -0.016473308 0.5478276 4282467898
0.47972357 -0.016292527 0.54782951 4282599484
0.48029798 -0.016200155 0.54779375 4282796861
0.48087195 -0.016107932 0.54775786 4282994494
0.4814454 -0.016015872 0.54772204 4282929471
0.48201835 -0.015923977 0.54768622 4283257666
0.42316943 -0.092465013 0.52518475 4285161578
0.42356941 -0.092331916 0.52518618 4284898660
0.42396939 -0.092198834 0.52518761 4284701281
0.42429268 -0.091992348 0.52522641 4284569695
0.42461646 -0.091785714 0.52526522 4284503902
0.42494074 -0.091578908 0.52530402 4284372314
0.42526549 -0.091371953 0.52534282 4283845972
0.42559075 -0.091164827 0.52538162 4283648593
0.42591652 -0.09095753 0.52542043 4283517773
0.42624277 -0.090750068 0.52545929 4283320396
0.42664444 -0.090616405 0.52546072 4283253585
0.42697144 -0.090408705 0.52549952 4282990413
0.4272989 -0.090200834 0.52553833 4282988616
0.42770109 -0.090067007 0.52553976 4282792005
0.4280293 -0.089858897 0.52557856 4282399296
0.42843172 -0.089724988 0.52557999 4282268223
0.42883414 -0.089591078 0.52558142 4282136637
0.42916334 -0.089382648 0.52562028 4282334016
0.429566 -0.089248665 0.52562171 4282267969
0.42996866 -0.089114673 0.52562314 4282136385
0.43037134 -0.088980682 0.52562457 4282267971
0.43070176 -0.088771835 0.52566338 4282202176
0.43110466 -0.088637762 0.52566487 4281940285
0.43143585 -0.088428684 0.52570367 4281612090
0.47050157 -0.016289055 0.54835594 4279638549
0.47122616 -0.016542405 0.54817033 4285889654
0.47187901 -0.016621873 0.5480597 4285103478
0.47249597 -0.016614363 0.54798657 4285562750
0.47311196 -0.01660718 0.54791349 4280361754
0.47376087 -0.016687959 0.54780287 4280230168
0.4744083 -0.016769201 0.54769224 4280361495
0.47505426 -0.016850933 0.54758161 4280690969
0.47566557 -0.016845316 0.54750848 4280756508
0.47627592 -0.016840026 0.54743534 4281282597
0.47688529 -0.016835064 0.54736221 4281677355
0.47749364 -0.0168304 0.54728913 4282071082
0.4780367 -0.016649708 0.54729104 4282466353
0.47861165 -0.016557276 0.54725546 4282401333
0.47915447 -0.016376659 0.54725742 4282336312
0.47976011 -0.016372919 0.54718423 4282467898
0.48030242 -0.016192466 0.5471862 4282796863
0.48087567 -0.016100615 0.54715061 4282731070
0.48144841 -0.016008928 0.54711497 4282862656
0.48205113 -0.016006157 0.54704183 4282994494
0.48259246 -0.015826032 0.5470438 4283455045
0.42350376 -0.092130668 0.5248217 4284964201
0.42382675 -0.091924153 0.52486026 4284832615
0.42422697 -0.091790974 0.52486169 4284766309
0.42462718 -0.091657802 0.52486312 4284503648
0.42495117 -0.091450959 0.52490169 4284108890
0.42519969 -0.091170207 0.52497745 4283911511
0.42552489 -0.090962954 0.52501601 4283779925
0.4258506 -0.090755537 0.52505457 4283517523
0.42617682 -0.090547949 0.5250932 4283188562
0.42650351 -0.090340205 0.52513176 4283055954
0.42683068 -0.090132296 0.52517039 4282858575
0.42723286 -0.089998469 0.52517182 4282988362
0.42756081 -0.089790314 0.52521038 4282792005
0.42796323 -0.089656405 0.52521181 4282464319
0.42836565 -0.089522496 0.52521324 4282399294
0.42876807 -0.089388594 0.52521467 4282070329
0.42909724 -0.089180037 0.5252533 4282333501
0.42949986 -0.089046054 0.52525473 4282333501
0.42990255 -0.088912062 0.52525616 4282464319
0.43030524 -0.088778071 0.52525759 4282464319
0.43070787 -0.088644087 0.52525902 4282333503
0.43111056 -0.088510089 0.52526045 4282005051
0.43144143 -0.088300958 0.52529907 4281873981
0.47175431 -0.016258538 0.54759735 4285497204
0.47244048 -0.016426355 0.54745013 4284971379
0.47305629 -0.0164195 0.54737747 4281878077
0.47370508 -0.016500726 0.5472675 4278983185
0.47435239 -0.016582429 0.54715759 4279835408
0.47499824 -0.016664624 0.54704762 4280229907
0.47560936 -0.016659319 0.5469749 4280164371
0.4762525 -0.016742438 0.54686493 4280624924
0.47686145 -0.016737863 0.54679227 4280888096
0.47743696 -0.016645402 0.54675686 4281545769
0.47804418 -0.016641408 0.54668421 4282137904
0.47858649 -0.016460955 0.54668617 4282204208
0.47916052 -0.016368985 0.54665077 4282401587
0.47973406 -0.016277179 0.54661542 4282533173
0.4803071 -0.016185522 0.54658002 4282664505
0.48091063 -0.01618275 0.5465073 4282861886
0.48148245 -0.016091511 0.54647195 4282796863
0.48202327 -0.015911549 0.54647386 4282928447
0.48262459 -0.015909523 0.54640114 4283125826
0.48316491 -0.015729725 0.54640311 4283586629
0.42391503 -0.091869876 0.52442169 4284832100
0.42416126 -0.0915896 0.52449697 4284766307
0.42456147 -0.091456428 0.52449834 4284437342
0.42488539 -0.091249458 0.52453673 4284240476
0.42513385 -0.09096846 0.52461201 4283977304
0.42545903 -0.090761088 0.52465034 4283845718
0.42578471 -0.090553544 0.52468872 4283450960
0.42611086 -0.090345837 0.52472711 4283319376
0.4264375 -0.090137966 0.52476543 4282990411
0.42676467 -0.089929931 0.52480382 4282793032
0.42709231 -0.089721739 0.5248422 4282857798
0.4274947 -0.08958783 0.52484363 4282660933
0.4278231 -0.0893794 0.52488202 4282529347
0.42822576 -0.089245409 0.52488345 4282726210
0.428702 -0.089186102 0.52484792 4282528831
0.4290311 -0.088977426 0.52488631 4282529858
0.42943376 -0.088843435 0.52488774 4282464835
0.42983645 -0.088709451 0.52488917 4282333249
0.43023911 -0.08857546 0.5248906 4282333249
0.43064177 -0.088441476 0.52489203 4282399296
0.43104446 -0.088307478 0.52489346 4282268223
0.43130344 -0.088022962 0.5249688 4282137157
0.4723506 -0.016150877 0.54695117 4285233781
0.47300071 -0.016232073 0.54684192 4284313451
0.47368336 -0.016401589 0.54669553 4279181597
0.47429657 -0.016395897 0.54662335 4279704592
0.47494227 -0.016478539 0.54651403 4280164116
0.4755865 -0.016561687 0.54640472 4279966994
0.47622925 -0.016645312 0.5462954 4280230166
0.47683778 -0.01664117 0.54622316 4280624924
0.47741285 -0.016548991 0.54618806 4281151268
0.47798741 -0.016456977 0.54615289 4281809450
0.47859347 -0.016453639 0.54608065 4282138158
0.47916681 -0.016362041 0.54604548 4282204206
0.47973964 -0.016270578 0.54601038 4282533173
0.48037454 -0.016356841 0.545901 4282598966
0.48085281 -0.015999347 0.54597712 4282730298
0.48145521 -0.015997246 0.54590487 4282861884
0.48202607 -0.015906453 0.54586971 4282928447
0.48262674 -0.015904933 0.54579747 4283257666
0.48316634 -0.015725374 0.54579937 4283520838
0.48373574 -0.015635073 0.54576421 4284113491
0.42377236 -0.091595076 0.5240941 4284634975
0.42417234 -0.091461986 0.52409548 4284569182
0.42441922 -0.091181219 0.52417034 4284371803
0.42481965 -0.091047965 0.52417177 4284043351
0.42506802 -0.09076672 0.52424657 4284108631
0.42539316 -0.090559214 0.52428472 4283845459
0.42579436 -0.090425715 0.52428615 4283516240
0.42604491 -0.090143718 0.52436101 4283253581
0.42637151 -0.089935727 0.52439916 4282924870
0.42669863 -0.089727573 0.52443731 4282661698
0.42702624 -0.089519247 0.52447546 4282726978
0.42742866 -0.089385338 0.52447689 4282595138
0.42775697 -0.089176789 0.52451503 4282529347
0.42815965 -0.089042798 0.52451646 4282595138
0.42863593 -0.088983618 0.52448118 4282529345
0.428965 -0.088774815 0.52451932 4282595140
0.42936766 -0.088640831 0.52452075 4282464839
0.42977035 -0.08850684 0.52452219 4282465350
0.43017301 -0.088372849 0.52452362 4282333764
0.43057567 -0.088238865 0.52452505 4282202946
0.43083411 -0.08795426 0.52459991 4282202950
0.47229522 -0.015963241 0.54641539 4285366141
0.47297949 -0.016132787 0.54626989 4285102717
0.47362778 -0.016214982 0.54616129 4284905338
0.47427458 -0.016297668 0.54605269 4279179279
0.47485286 -0.016204551 0.54601777 4279835410
0.47553051 -0.016376317 0.54587227 4279900949
0.47614008 -0.01637207 0.54580051 4279966742
0.47678152 -0.016456574 0.54569185 4280229914
0.47735634 -0.016364604 0.54565692 4280690715
0.47799531 -0.016449913 0.54554832 4281217311
0.47853661 -0.016269788 0.54555023 4281873703
0.47914153 -0.016267106 0.54547846 4282203949
0.47971392 -0.016175956 0.54544353 4282335283
0.48031715 -0.016173854 0.54537171 4282335283
0.48085722 -0.015994132 0.54537362 4282664248
0.48145896 -0.015992522 0.5453018 4282730293
0.48202914 -0.015902117 0.54526687 4282927929
0.48259881 -0.015811846 0.54523194 4283125308
0.48316801 -0.015721753 0.54519701 4283256894
0.48373669 -0.015631825 0.54516202 4283914574
0.48427531 -0.015452608 0.54516399 4284244057
0.42378378 -0.091467626 0.52369308 4284765277
0.42410666 -0.091260739 0.52373099 4284700252
0.42450663 -0.091127649 0.52373242 4284174422
0.42483026 -0.090920508 0.52377033 4283977556
0.42500219 -0.090564974 0.5238812 4284108115
0.4253273 -0.090357348 0.52391911 4283779150
0.42565286 -0.090149552 0.52395701 4283581519
0.42590362 -0.089867227 0.5240314 4283121736
0.42630553 -0.089733481 0.52403283 4282859073
0.42663258 -0.089525208 0.52407074 4282595901
0.42696017 -0.089316756 0.52410865 4282529597
0.4272882 -0.089108169 0.52414662 4282529345
0.42769086 -0.088974178 0.52414805 4282661446
0.42809355 -0.088840187 0.52414948 4282595653
0.42849621 -0.088706195 0.52415091 4282595653
0.42889887 -0.088572204 0.52415234 4282464839
0.42930156 -0.088438213 0.52415377 4282530632
0.42970422 -0.088304229 0.5241552 4282596684
0.43010688 -0.088170238 0.52415663 4282333512
0.43050957 -0.088036254 0.52415806 4282137160
0.43084008 -0.087826818 0.52419603 4282136908
0.47981924 -0.085053369 0.51937246 4281481535
0.47158855 -0.015694246 0.54598796 4285103480
0.47227448 -0.015863806 0.54584342 4285366141
0.47288978 -0.015857935 0.54577208 4285102717
0.47353822 -0.015940502 0.54566419 4284905338
0.47415131 -0.015935376 0.54559284 4278851086
0.47479704 -0.016018853 0.5454849 4279769363
0.47544128 -0.016102821 0.5453769 4279769112
0.47608402 -0.01618728 0.54526895 4279900949
0.47669247 -0.016183704 0.54519761 4280098328
0.47733253 -0.016269058 0.54508966 4280559129
0.47790641 -0.016177535 0.54505497 4281151518
0.47851193 -0.016174942 0.54498363 4281546021
0.47911644 -0.016172677 0.54491228 4282072363
0.47965679 -0.01599288 0.54491419 4282203697
0.48025984 -0.015991107 0.54484284 4282335283
0.48083079 -0.015900567 0.54480815 4282598455
0.48140123 -0.015810192 0.5447734 4282598966
0.48203242 -0.015898496 0.5446654 4282797113
0.48257104 -0.015719265 0.5446673 4283125562
0.48310965 -0.015540034 0.54466927 4283257148
0.48370802 -0.015539825 0.54459786 4283848779
0.48424613 -0.015360758 0.54459977 4284111953
0.42427164 -0.091281503 0.52325773 4284503389
0.4245176 -0.091000482 0.52333164 4284043351
0.42484093 -0.090793304 0.52336931 4283977558
0.42508864 -0.090511717 0.52344328 4283845459
0.42533731 -0.090229809 0.52351719 4283582287
0.42566264 -0.090021975 0.52355486 4283318601
0.42583764 -0.089664988 0.52366507 4283187015
0.42616439 -0.08945667 0.5237028 4282990146
0.42649168 -0.08924818 0.52374047 4282726974
0.4268941 -0.089114271 0.5237419 4282594878
0.42722207 -0.088905558 0.52377963 4282463554
0.42762476 -0.088771567 0.52378106 4282661448
0.42802745 -0.088637576 0.52378249 4282530378
0.42843008 -0.088503584 0.52378392 4282661964
0.42883277 -0.088369593 0.52378535 4282464585
0.42923546 -0.088235602 0.52378678 4282464585
0.42956516 -0.0880263 0.52382451 4282465098
0.43004078 -0.087967627 0.52378964 4282465098
0.43044347 -0.087833636 0.52379107 4282202953
0.4794355 -0.085074544 0.51899803 4281219385
0.47975856 -0.084867448 0.5190357 4281285178
0.48012805 -0.084744513 0.51903701 4281679934
0.47225389 -0.015764862 0.54527235 4285365889
0.4728688 -0.015759394 0.54520148 4285234301
0.47351685 -0.015842497 0.54509419 4285168508
0.47412956 -0.015837789 0.54502332 4284312165
0.47474128 -0.015833393 0.54495245 4279243540
0.47538537 -0.015917808 0.54484516 4279506460
0.47599488 -0.015914157 0.54477429 4279572505
0.47663629 -0.015999496 0.54466701 4279704091
0.47727624 -0.016085297 0.54455966 4280033557
0.47784993 -0.015993953 0.54452521 4280757532
0.4784874 -0.016080588 0.54441786 4281151266
0.47902772 -0.015900791 0.54441983 4281677862
0.47959971 -0.015810058 0.54438531 4282006829
0.48020259 -0.015808612 0.54431444 4282072622
0.48080447 -0.01580748 0.54424351 4282401587
0.48140538 -0.015806705 0.54417259 4282467898
0.48197466 -0.015716851 0.54413807 4282600504
0.48257384 -0.015716642 0.5440672 4282666549
0.48308155 -0.015448123 0.54410553 4282798135
0.48364961 -0.015358686 0.54407102 4283126850
0.48421717 -0.015269399 0.54403651 4283389768
0.48472536 -0.015000731 0.54407483 4284310882
0.42435992 -0.091228865 0.52282178 4284305496
0.42460531 -0.090947777 0.52289528 4283977045
0.42485169 -0.090666346 0.52296877 4283911763
0.42525142 -0.090533338 0.5229702 4283582798
0.42542332 -0.090176962 0.52307969 4283385419
0.42559674 -0.089820109 0.52318925 4283187015
0.42577162 -0.08946275 0.5232988 4283121220
0.42602316 -0.089179605 0.52337229 4283186243
0.42642558 -0.089045696 0.52337372 4282988864
0.42675331 -0.088836938 0.52341121 4282595138
0.42708153 -0.088627994 0.52344865 4282529860
0.42748445 -0.088493928 0.52345014 4282858573
0.42788735 -0.088359855 0.52345157 4282924366
0.42829028 -0.088225782 0.523453 4282858573
0.42869318 -0.088091709 0.52345443 4282858573
0.4290961 -0.087957636 0.52345586 4282660935
0.42949903 -0.087823562 0.52345729 4282595653
0.42990196 -0.087689497 0.52345872 4282661446
0.47909898 -0.085180014 0.51858795 4281284406
0.47946775 -0.085057303 0.51858926 4281350199
0.47974411 -0.084765896 0.51866281 4281481785
0.48011333 -0.084643036 0.51866412 4281745725
0.48048258 -0.084520161 0.51866543 4281746240
0.48080635 -0.084312707 0.51870292 4281154103
0.47407407 -0.015652239 0.54449087 4285825406
0.47468561 -0.015648186 0.54442048 4278652434
0.47532958 -0.015733048 0.54431385 4279046681
0.47590578 -0.015641049 0.54427958 4279506714
0.4765144 -0.015637964 0.54420912 4279506714
0.47715467 -0.015724063 0.54410255 4279966994
0.47779351 -0.015810639 0.54399592 4280427543
0.47839868 -0.015808716 0.54392546 4280756762
0.47897094 -0.015718013 0.54389119 4281546019
0.47957438 -0.015716657 0.54382074 4281743403
0.48017687 -0.015715614 0.54375029 4282006575
0.48077834 -0.015714914 0.54367977 4282269747
0.48137885 -0.015714541 0.54360932 4282533689
0.48194766 -0.015624985 0.54357505 4282600506
0.48251599 -0.015535578 0.54354078 4282403379
0.48311403 -0.015536025 0.54347032 4282600758
0.48362121 -0.015267536 0.54350841 4282929469
0.484218 -0.015268371 0.54343796 4283587399
0.48472545 -0.014999807 0.54347605 4283915862
0.42570564 -0.089260511 0.52293247 4283121222
0.42588186 -0.088902302 0.52304137 4282989636
0.42628455 -0.088768318 0.5230428 4282858050
0.42661247 -0.088559337 0.52308005 4282595138
0.42701536 -0.088425264 0.52308148 4282595653
0.42741829 -0.088291191 0.52308291 4282924620
0.42782122 -0.088157117 0.52308434 4282990413
0.42822412 -0.088023052 0.52308577 4282793034
0.42862704 -0.087888978 0.5230872 4282858573
0.42902994 -0.087754905 0.52308863 4282726724
0.47862273 -0.08503294 0.51828647 4280955441
0.47903845 -0.084994465 0.51825184 4281021234
0.47940719 -0.084871769 0.51825315 4281547063
0.47977594 -0.084749058 0.51825446 4281744442
0.48009869 -0.084541798 0.51829171 4282007867
0.48042196 -0.084334373 0.51832896 4281943617
0.48079121 -0.084211513 0.51833028 4281022004
0.47333789 -0.01529403 0.54410076 4285628029
0.47398469 -0.015378386 0.54399484 4285628027
0.47459632 -0.015374571 0.54392487 4283063132
0.47524044 -0.015459806 0.54381895 4279507745
0.47584987 -0.015456736 0.54374897 4279506712
0.47645831 -0.015453994 0.54367894 4279506712
0.47709846 -0.01554054 0.54357302 4280031760
0.47773719 -0.015627578 0.54346704 4280165141
0.47834218 -0.015625969 0.54339701 4280560153
0.47894621 -0.015624702 0.54332703 4281282847
0.47954923 -0.015623748 0.543257 4281743146
0.4801513 -0.015623122 0.54318702 4282006318
0.48075238 -0.015622839 0.54311699 4282204208
0.48132145 -0.015533328 0.54308295 4282598966
0.48192084 -0.015533596 0.54301292 4282599734
0.48251918 -0.015534177 0.54294288 4282403125
0.48308635 -0.015445322 0.54290885 4282468918
0.48359299 -0.015176877 0.5429467 4282863676
0.48415962 -0.015088186 0.54291266 4283390020
0.48469627 -0.01490961 0.54291457 4283849551
0.48520365 -0.014640912 0.54295248 4284838509
0.42775506 -0.087954387 0.52271712 4283056206
0.42815799 -0.087820314 0.52271855 4282858827
0.47713417 -0.085422426 0.51790923 4280757030
0.4774552 -0.085215613 0.51794624 4280757800
0.47865617 -0.085015982 0.51787877 4280889648
0.47897792 -0.084808931 0.51791579 4281021234
0.47934663 -0.08468622 0.5179171 4281415730
0.47976166 -0.084648117 0.5178827 4281744695
0.48003811 -0.084356129 0.51795542 4282007865
0.48040712 -0.084233359 0.51795673 4282008897
0.4807761 -0.084110573 0.51795805 4281152818
0.48114508 -0.083987787 0.51795936 4279703323
0.47392929 -0.015193209 0.54346311 4285366141
0.47454077 -0.015189737 0.54339355 4285037689
0.47518477 -0.015275419 0.54328829 4284575855
0.47579402 -0.015272677 0.54321873 4279505936
0.47640231 -0.015270263 0.54314923 4279703315
0.47700959 -0.015268162 0.54307967 4279703822
0.47764841 -0.015355572 0.54297435 4279967762
0.47828576 -0.015443489 0.54286909 4280230934
0.47888961 -0.015442535 0.54279953 4280822301
0.47949249 -0.015441909 0.54272997 4281414181
0.4801259 -0.015531123 0.54262465 4281677353
0.48072654 -0.015531242 0.54255509 4281941806
0.48132622 -0.015531689 0.54248548 4282401839
0.48189414 -0.015442684 0.54245168 4282533423
0.48246157 -0.015353873 0.54241782 4282599734
0.48305881 -0.01535514 0.54234827 4282599734
0.48359495 -0.015176728 0.54235017 4282797885
0.4841311 -0.014998317 0.54235208 4283258434
0.48466727 -0.01481992 0.54235399 4283717447
0.48517412 -0.014551252 0.54239166 4283522902
0.4767049 -0.085359588 0.51757181 4280428835
0.47707364 -0.085236892 0.51757318 4280691235
0.47749016 -0.085198417 0.51753902 4280756777
0.47781113 -0.084991485 0.5175758 4280888363
0.47859567 -0.084830567 0.51754296 4280954928
0.47896415 -0.084707946 0.51754427 4280955443
0.47933266 -0.084585324 0.51754558 4281284404
0.47965485 -0.084377974 0.51758236 4281613369
0.48002359 -0.084255278 0.51758367 4281811518
0.48039234 -0.084132582 0.51758498 4281811522
0.48080665 -0.084094837 0.51755083 4280888616
0.48112983 -0.083887175 0.5175876 4279704093
0.47445154 -0.014916241 0.54289818 4285037689
0.47512916 -0.015091285 0.54275811 4285234301
0.475705 -0.014999807 0.54272449 4278848780
0.47631335 -0.014997646 0.54265541 4279506710
0.47695351 -0.015084997 0.5425508 4279703822
0.4775922 -0.015172869 0.5424462 4279836176
0.4782294 -0.015261233 0.54234153 4280033555
0.47883311 -0.015260607 0.54227245 4280690715
0.47946763 -0.015349865 0.54216778 4281348645
0.4800691 -0.015349999 0.5420987 4281611817
0.48070091 -0.015440151 0.54199404 4281941552
0.48126912 -0.015351191 0.54196048 4282401839
0.48186764 -0.015352294 0.54189134 4282533423
0.48246518 -0.015353724 0.5418222 4282599734
0.48303142 -0.01526545 0.54178858 4282599734
0.48356709 -0.015087202 0.54179049 4282666299
0.48410276 -0.014908955 0.54179239 4283192641
0.48466802 -0.014820993 0.54175878 4283520836
0.48517409 -0.014552474 0.54179621 4283588180
0.48568064 -0.014283776 0.54183364 4284443489
0.47399604 -0.086656883 0.51701391 4280164640
0.47431329 -0.086451054 0.51705045 4280296226
0.47494924 -0.086038902 0.51712352 4280296226
0.47531724 -0.085916445 0.51712483 4280427812
0.47568524 -0.085793987 0.51712614 4280230437
0.47595567 -0.085503489 0.51719791 4280362793
0.47632414 -0.085380867 0.51719922 4280428586
0.47664434 -0.085174054 0.51723576 4280296996
0.47706115 -0.085135624 0.51720184 4280494626
0.47747749 -0.085097343 0.51716793 4280494890
0.4777506 -0.084805951 0.51723969 4280494890
0.47858223 -0.084729731 0.51717186 4280889135
0.4789505 -0.084607199 0.51717317 4281020982
0.47931874 -0.084484652 0.51717448 4281021234
0.47968701 -0.084362119 0.51717579 4281481785
0.48000914 -0.084154665 0.51721239 4281745729
0.48037764 -0.084032044 0.5172137 4280824123
0.48074615 -0.083909422 0.51721501 4280493607
0.48111466 -0.083786815 0.51721632 4279704093
0.47558263 -0.014637753 0.54226553 4283784288
0.47625747 -0.014814273 0.5421263 4279702797
0.4768647 -0.014812753 0.54205769 4279834383
0.47753608 -0.014990419 0.54191846 4279769613
0.47817317 -0.015079245 0.54181451 4279966992
0.47880876 -0.015168533 0.5417105 4280427797
0.47944292 -0.015258342 0.54160655 4280953884
0.48004398 -0.015258849 0.54153788 4281282849
0.48067543 -0.015349537 0.54143393 4281941036
0.48127428 -0.015350804 0.54136527 4282401839
0.4818413 -0.015262395 0.54133183 4282401839
0.48243845 -0.015264243 0.54126316 4282598966
0.48300421 -0.015176252 0.54122978 4282598966
0.4835394 -0.014998168 0.54123169 4282666299
0.48407456 -0.014820084 0.5412336 4282929982
0.48463935 -0.01473242 0.54120016 4283389250
0.4851743 -0.014554411 0.54120207 4283783756
0.48568007 -0.014285848 0.54123932 4284310100
0.47361904 -0.086677872 0.51664287 4280099098
0.47393578 -0.086472079 0.51667917 4280034077
0.47425294 -0.08626613 0.51671547 4280099617
0.47457063 -0.086060002 0.51675177 4280099617
0.47488883 -0.085853726 0.51678813 4280165410
0.47525683 -0.085731268 0.51678944 4280165410
0.47599286 -0.085486352 0.51679206 4280362793
0.47700065 -0.084950209 0.51686603 4280494628
0.47741702 -0.084912047 0.51683229 4280363302
0.47773767 -0.084704965 0.51686865 4280494888
0.47815353 -0.084666982 0.51683491 4280692267
0.47852176 -0.084544435 0.51683629 4280757549
0.47889003 -0.084421903 0.5168376 4280955189
0.47930491 -0.084384248 0.51680386 4281021234
0.47967291 -0.084261805 0.51680517 4281415992
0.48004094 -0.084139347 0.51680648 4281810498
0.48036304 -0.083931744 0.51684284 4280561464
0.48073131 -0.083809212 0.51684415 4280230437
0.48109955 -0.08368668 0.51684546 4279704093
0.47687444 -0.014808908 0.54145932 4279702294
0.47754526 -0.01498732 0.54132104 4279769356
0.47814935 -0.014987111 0.54125279 4279900942
0.47875246 -0.01498723 0.54118454 4280493333
0.47935462 -0.014987692 0.54111636 4280888091
0.48001903 -0.015168205 0.54097801 4281217056
0.4806501 -0.01525943 0.54087466 4281809193
0.48124856 -0.015261114 0.54080647 4282269996
0.4818151 -0.015173003 0.54077327 4282204203
0.48241183 -0.015175253 0.54070503 4282532662
0.48294675 -0.014997244 0.54070693 4282598455
0.483542 -0.014999986 0.54063869 4282797115
0.48407644 -0.01482214 0.54064059 4282864191
0.48464054 -0.014734849 0.54060745 4283126850
0.48517472 -0.014557093 0.54060936 4283782983
0.48567975 -0.014288634 0.54064631 4284111948
0.47355878 -0.086493194 0.51630837 4280033307
0.47387546 -0.086287275 0.51634443 4279902751
0.47419262 -0.086081207 0.51638055 4279902751
0.47451025 -0.08587496 0.51641661 4279968544
0.47487801 -0.085752577 0.51641792 4280033824
0.47620314 -0.085010022 0.51652753 4280231716
0.47657168 -0.084887415 0.51652884 4280297762
0.47694016 -0.084764794 0.51653016 4280363302
0.47735655 -0.084726766 0.51649672 4280363302
0.47772479 -0.084604219 0.51649803 4280363302
0.47814047 -0.084566459 0.51646453 4280495141
0.47850847 -0.084444001 0.51646584 4280625961
0.47887647 -0.084321544 0.51646715 4280889137
0.47929117 -0.084284097 0.51643366 4281020982
0.47970536 -0.084246814 0.51640022 4281481022
0.48002669 -0.084039345 0.51643628 4281678401
0.48039445 -0.083916962 0.51643759 4280560433
0.48076221 -0.083794594 0.5164389 4279900191
0.48108453 -0.083586797 0.51647502 4279506460
0.47812572 -0.014895484 0.54069203 4279901203
0.47869626 -0.014806181 0.54065907 4280164371
0.47933015 -0.014896885 0.54055643 4280755735
0.47999424 -0.015078068 0.54041898 4281084700
0.48062491 -0.015169829 0.54031634 4281676835
0.48122296 -0.015171915 0.54024857 4281940261
0.48185095 -0.015264571 0.54014593 4282269226
0.48241609 -0.015177071 0.54011297 4282466605
0.48298073 -0.015089735 0.54008001 4282862136
0.48354486 -0.015002549 0.54004705 4282862136
0.48410851 -0.014915526 0.54001415 4282732090
0.48464197 -0.014738023 0.54001606 4282863424
0.48520488 -0.014651254 0.53998309 4283585604
0.48567966 -0.014292195 0.54005468 4284111955
0.47318241 -0.086514398 0.51593798 4279967261
0.47349852 -0.086308524 0.51597387 4279967261
0.47381517 -0.086102486 0.51600969 4279968031
0.47413227 -0.085896283 0.51604557 4279902751
0.47444987 -0.085689902 0.51608145 4279902751
0.47481763 -0.085567534 0.51608276 4280033824
0.47513598 -0.085360929 0.51611865 4280099617
0.47655958 -0.084786534 0.51615846 4280231969
0.47692785 -0.084664002 0.51615977 4280363302
0.47729608 -0.08454147 0.51616108 4280363304
0.47775975 -0.084588543 0.51609325 4280363555
0.4782224 -0.084635958 0.51602542 4280495141
0.47849527 -0.084343791 0.51609588 4280625961
0.47886303 -0.084221423 0.51609719 4280823344
0.47932422 -0.084269315 0.51602936 4280955191
0.47973794 -0.08423233 0.5159961 4281415229
0.48010498 -0.0841102 0.51599741 4281481022
0.480472 -0.08398807 0.51599872 4280165162
0.48083901 -0.083865941 0.51600003 4279834398
0.47933781 -0.014896601 0.53996283 4280427288
0.48000133 -0.015078545 0.53982627 4280822046
0.48063141 -0.015170932 0.53972429 4281347872
0.48122877 -0.015173495 0.53965694 4281742882
0.48182517 -0.015176415 0.53958958 4281940261
0.48242056 -0.015179634 0.53952223 4282466092
0.483015 -0.01518321 0.53945488 4282730293
0.48354799 -0.015005857 0.53945678 4282730293
0.48411092 -0.014919207 0.53942406 4282731320
0.48467338 -0.01483272 0.53939134 4282993722
0.48523536 -0.014746398 0.53935862 4283387455
0.48573834 -0.014478356 0.53939515 4283782731
0.47312218 -0.086329848 0.51560372 4280033054
0.47343826 -0.086123854 0.51563936 4279967261
0.47375488 -0.085917681 0.51567501 4280033307
0.47407192 -0.08571136 0.51571065 4280099100
0.47438949 -0.08550486 0.5157463 4279967514
0.47475725 -0.085382491 0.51574761 4280033054
0.47507557 -0.085175753 0.51578325 4279902240
0.47681916 -0.084393948 0.51585847 4280231716
0.47723562 -0.084356174 0.51582545 4280297509
0.47769937 -0.0844035 0.5157581 4280363042
0.47806713 -0.084281117 0.51575941 4280363042
0.47848213 -0.084243849 0.51572639 4280691237
0.47889665 -0.08420673 0.51569331 4280494377
0.47935742 -0.08425504 0.51562595 4280757551
0.4797242 -0.084132999 0.51562726 4280954930
0.48009098 -0.084010944 0.51562858 4280889137
0.48045775 -0.083888903 0.51562989 4279967263
0.48082453 -0.083766863 0.5156312 4279703321
0.48063809 -0.01517275 0.53913355 4281216286
0.48123482 -0.015175834 0.53906667 4281742882
0.48183057 -0.015179217 0.5389998 4281743652
0.48242533 -0.015182957 0.53893286 4282400299
0.48298857 -0.015096337 0.53890038 4282664500
0.4835816 -0.015100643 0.53883344 4282730293
0.48414361 -0.015014455 0.53880095 4282730804
0.48470512 -0.014928415 0.53876841 4282993717
0.48526615 -0.014842555 0.53873593 4283256121
0.48576808 -0.014574707 0.53877223 4283651143
0.47306198 -0.086145297 0.51526946 4279967261
0.47342876 -0.086023241 0.51527077 4279835675
0.47374505 -0.085817039 0.51530617 4279967514
0.47406185 -0.085610673 0.51534158 4280033307
0.47437912 -0.085404143 0.51537704 4279967514
0.47469687 -0.085197449 0.51541245 4280033054
0.47759122 -0.084133402 0.51545703 4280297249
0.47800675 -0.084096074 0.51542425 4280363042
0.47846907 -0.084144145 0.51535732 4280559398
0.47888339 -0.084107235 0.51532447 4280493605
0.47929722 -0.084070489 0.51529169 4280690984
0.47971052 -0.084033906 0.51525885 4280757547
0.48003078 -0.083826393 0.51529431 4280428582
0.48124111 -0.015178889 0.53847778 4281610529
0.48186725 -0.015273392 0.53837711 4281743652
0.48243031 -0.01518701 0.53834486 4282006052
0.48299286 -0.015100777 0.53831255 4282663982
0.48361555 -0.015196443 0.53821188 4282795568
0.48417664 -0.015110701 0.53817964 4282927154
0.48470736 -0.014934093 0.53818148 4283124531
0.48529726 -0.014939681 0.53811502 4283190326
0.48579818 -0.014672056 0.53815109 4283454275
0.47368479 -0.085632369 0.51497167 4279967261
0.47405183 -0.085510239 0.51497298 4280033054
0.47436881 -0.085303664 0.51500815 4279967261
0.47468629 -0.085096925 0.51504338 4280033307
0.47799394 -0.083996296 0.51505518 4280297249
0.47840878 -0.083959341 0.51502258 4280493605
0.47882313 -0.083922565 0.51498997 4280493607
0.47928381 -0.083971456 0.51492351 4280625193
0.47965035 -0.08384949 0.51492482 4280625963
0.48193538 -0.015459329 0.53772229 4281612323
0.4824664 -0.015282631 0.5377242 4281809443
0.4830586 -0.015287757 0.53765815 4282466603
0.48364982 -0.015293196 0.53759217 4282795568
0.48420995 -0.015207902 0.53756011 4282927154
0.48476958 -0.015122771 0.53752804 4283058738
0.48529911 -0.014946565 0.53752989 4283190326
0.48585799 -0.014861688 0.53749782 4283126080
0.48256457 -0.015561134 0.53703785 4281743907
0.48312473 -0.015475959 0.53700602 4282072872
0.48368442 -0.015390947 0.53697419 4282730547
0.4842436 -0.015306115 0.5369423 4282730547
0.48480231 -0.015221432 0.53691047 4282796338
0.48533082 -0.015045568 0.53691238 4282927154
0.48588878 -0.014961123 0.53688049 4283125562
0.48638791 -0.014693826 0.53691614 4283388734
0.48266324 -0.015841112 0.53635424 4281481505
0.48316061 -0.015574247 0.53638965 4281613093
0.48374978 -0.015580937 0.5363245 4282598709
0.48424739 -0.015313983 0.53635991 4282664502
0.48480538 -0.015229672 0.53632826 4282796086
0.48533317 -0.015054047 0.53633016 4283058742
0.48586097 -0.014878422 0.53633201 4283256119
0.48638877 -0.014702797 0.53633392 4283651645
0.48214218 -0.01602447 0.53577125 4281282849
0.48270047 -0.015940219 0.53573984 4281481253
0.48322752 -0.015764832 0.53574175 4281612839
0.48375458 -0.015589446 0.53574359 4282401587
0.48428166 -0.015414059 0.5357455 4282730552
0.48483869 -0.01533021 0.53571409 4282730552
0.48533577 -0.015063301 0.53574926 4282796086
0.48592183 -0.015071303 0.53568459 4283125305
0.48638988 -0.014712542 0.53575301 4283651645
0.48688793 -0.014445305 0.53578818 4283717438
0.48103276 -0.016201153 0.53525388 4280361495
0.48162282 -0.016208082 0.53518963 4280690460
0.48214939 -0.016032875 0.53519154 4281151011
0.48270696 -0.015948966 0.5351603 4281480233
0.4832333 -0.015773833 0.53516221 4281611819
0.48379016 -0.015690163 0.53513104 4282269747
0.48428595 -0.015423566 0.53516597 4282730298
0.48481226 -0.015248433 0.53516781 4282927931
0.48533857 -0.015073285 0.53516972 4282927931
0.48586491 -0.014898151 0.53517163 4283059517
0.48639125 -0.014723018 0.53517348 4283520063
0.4868885 -0.014455914 0.5352084 4283651649
0.48041916 -0.016111329 0.53477162 4279703565
0.48100981 -0.016118348 0.53470784 4280229909
0.48156792 -0.016034409 0.53467691 4280624667
0.48209423 -0.015859276 0.53467882 4281151011
0.48271373 -0.015958458 0.53458214 4281480233
0.48323932 -0.015783578 0.53458405 4281611819
0.48373434 -0.015517071 0.53461874 4282203954
0.48429048 -0.015433788 0.5345878 4282598712
0.484786 -0.015167132 0.53462249 4282993470
0.48534167 -0.015084013 0.53459156 4282993724
0.48586723 -0.014909118 0.5345934 4283059517
0.48639283 -0.014734223 0.53459525 4283191101
0.4868893 -0.014467239 0.53463 4283454273
0.48039678 -0.016028613 0.53422606 4279506445
0.48098701 -0.016036034 0.53416276 4280032530
0.48151308 -0.015860975 0.53416461 4280164116
0.48210186 -0.015868887 0.53410131 4280887837
0.48268962 -0.015877128 0.53403795 4281151266
0.48318386 -0.015610754 0.5340724 4281480231
0.48373982 -0.015527666 0.53404164 4282137134
0.48429528 -0.015444756 0.53401095 4282597685
0.48482013 -0.015270114 0.53401279 4283190846
0.48534498 -0.015095472 0.5340147 4283059263
0.4858402 -0.014828771 0.53404915 4283059263
0.48639467 -0.014746174 0.5340184 4283190849
0.48689038 -0.014479309 0.53405291 4283388228
0.48034245 -0.015855029 0.53371382 4279506445
0.48093253 -0.015862763 0.53365088 4279901201
0.48145837 -0.015687793 0.53365278 4279966994
0.48204696 -0.015696034 0.5335899 4280822046
0.48260343 -0.015612915 0.53355938 4281216802
0.4832212 -0.015713513 0.53346407 4281414181
0.48374555 -0.01553902 0.53346598 4282006572
0.48426992 -0.015364543 0.53346783 4282400560
0.48479426 -0.015190065 0.53346968 4282993465
0.4853186 -0.015015587 0.53347158 4283190846
0.48587263 -0.014933288 0.53344107 4283190846
0.48639673 -0.014758885 0.53344291 4283125310
0.48686251 -0.014399797 0.53350955 4283256896
0.48032036 -0.015773162 0.53316981 4279309836
0.48087811 -0.01568976 0.53313953 4279638799
0.48146704 -0.015698165 0.53307706 4279638799
0.48205498 -0.015706897 0.53301466 4280624667
0.48257959 -0.01553233 0.5330165 4281281827
0.4831351 -0.015449673 0.53298622 4281414181
0.48372084 -0.015459135 0.53292376 4282006570
0.48427513 -0.015376881 0.53289348 4282532914
0.48479876 -0.015202641 0.53289533 4282927672
0.48535234 -0.015120625 0.53286505 4283190849
0.48590541 -0.015038788 0.53283471 4283191103
0.48642853 -0.014864713 0.53283656 4283059517
0.48033065 -0.015783399 0.5325948 4279309584
0.48085573 -0.015608668 0.53259665 4279507215
0.48144424 -0.01561749 0.53253466 4280229909
0.48203176 -0.015626654 0.53247261 4280427288
0.4825871 -0.015544176 0.53244257 4281085216
0.48314193 -0.015461877 0.53241253 4281282849
0.48372701 -0.015471846 0.53235048 4282006824
0.48428062 -0.015389964 0.53232038 4282270769
0.4848035 -0.015215963 0.53232229 4282533941
0.48535636 -0.015134335 0.53229219 4283257416
0.48590875 -0.015052855 0.53226209 4283389000
0.48643112 -0.014879018 0.53226399 4283125308
0.48034114 -0.015794396 0.53202111 4279309331
0.48089749 -0.01571174 0.53199124 4279506961
0.48145336 -0.015629217 0.53196138 4280164116
0.48200873 -0.015546888 0.53193158 4280427288
0.48259485 -0.015556768 0.53187001 4280887837
0.48314899 -0.015474841 0.53184015 4281347872
0.48373342 -0.015485302 0.53177857 4282006570
0.48425579 -0.01531148 0.53178042 4282139183
0.48480847 -0.015230045 0.53175056 4282533941
0.48536065 -0.015148759 0.53172076 4283454541
0.48588255 -0.014975101 0.53172261 4283454541
0.48643398 -0.014894068 0.53169274 4283190849
0.48695561 -0.014720485 0.53169459 4283387453
0.4809396 -0.015815765 0.53138763 4279309584
0.48149452 -0.015733719 0.531358 4279966739
0.4820174 -0.015559733 0.53135985 4280295704
0.48263419 -0.015662298 0.53126729 4281018653
0.48315632 -0.01548855 0.53126913 4281347872
0.48370928 -0.015407145 0.53123951 4281677607
0.48426172 -0.015325904 0.53120989 4282269747
0.48481369 -0.015244827 0.53118026 4282532919
0.48536515 -0.015163928 0.53115058 4283388750
0.48588634 -0.014990509 0.53115249 4285297515
0.48643705 -0.014909849 0.5311228 4283256642
0.48692864 -0.014643669 0.53115618 4283321660
0.48094994 -0.015828744 0.53081709 4279309584
0.481536 -0.015839189 0.53075641 4279900946
0.48205787 -0.015665531 0.53075826 4280229911
0.48264247 -0.015676469 0.53069758 4280952860
0.48319495 -0.015595362 0.5306682 4281413665
0.48371613 -0.015421942 0.53067005 4281611814
0.48426789 -0.015341088 0.53064066 4282269490
0.48481914 -0.015260383 0.53061122 4282532662
0.48533982 -0.015087128 0.53061306 4283453771
0.4858605 -0.014913872 0.53061497 4284179286
0.48638117 -0.014740616 0.53061682 4283125056
0.48687243 -0.014474407 0.5306499 4283321660
0.48099265 -0.015934616 0.53021681 4279309584
0.48154593 -0.01585339 0.53018767 4279769360
0.4820987 -0.015772328 0.53015846 4279966739
0.48261961 -0.015598983 0.53016031 4280690458
0.48320282 -0.01561068 0.53010011 4281413665
0.48372322 -0.015437514 0.53010195 4281546021
0.4842743 -0.015357018 0.53007275 4282138158
0.48482487 -0.015276685 0.5300436 4282335537
0.48531464 -0.015010834 0.5300765 4283189822
0.48586473 -0.014930665 0.5300473 4288057221
0.48638466 -0.014757663 0.53004915 4283845694
0.48687518 -0.014491558 0.53008205 4283386940
0.48158801 -0.015960738 0.52958941 4279571981
0.48217151 -0.015972599 0.52952963 4279900946
0.4826912 -0.015799671 0.52953148 4280624919
0.48321086 -0.015626743 0.52953333 4281085468
0.48376149 -0.015546516 0.52950436 4281414435
0.48428094 -0.015373677 0.52950621 4282006572
0.4848308 -0.015293717 0.52947724 4282269744
0.48531979 -0.015027985 0.5295099 4283320895
0.48583925 -0.014855132 0.52951181 4291280819
0.48638839 -0.014775425 0.52948284 4288123003
0.48687813 -0.014509439 0.5295155 4283518010
0.48218131 -0.015988886 0.52896422 4280164625
0.48270026 -0.015816212 0.52896607 4280427797
0.48325041 -0.015736297 0.52893734 4281085722
0.48373812 -0.015470847 0.52896976 4281348642
0.48431855 -0.01548402 0.52891046 4282137134
0.484837 -0.015311509 0.52891231 4282728758
0.48532522 -0.015045896 0.52894473 4283255102
0.48584393 -0.014873296 0.52894658 4289701787
0.48277256 -0.016019106 0.52834129 4280295959
0.48329026 -0.015846834 0.52834308 4280888094
0.48383898 -0.01576753 0.52831459 4281151268
0.48432571 -0.015502289 0.52834678 4282005550
0.48484343 -0.015330017 0.52834868 4282597687
0.48536116 -0.015157729 0.52835047 4282926652
0.48584884 -0.014892191 0.52838272 4286412396
0.4822652 -0.016209394 0.52777714 4279901203
0.48278219 -0.016037375 0.52777898 4280164375
0.48329917 -0.015865341 0.52778083 4280756510
0.48381615 -0.015693322 0.52778268 4281085218
0.48433313 -0.015521288 0.52778453 4282005552
0.48485011 -0.015349269 0.52778637 4282466103
0.48536709 -0.015177235 0.52778822 4282860861
0.48588407 -0.015005216 0.52779007 4285031513
0.48227578 -0.016228184 0.5272162 4279835410
0.48279205 -0.016056404 0.52721804 4280098582
0.48330829 -0.015884623 0.52721989 4280821276
0.48382452 -0.015712842 0.52722174 4281347620
0.48434079 -0.015541062 0.52722359 4281611310
0.4848876 -0.015462652 0.52719551 4282335033
0.48537326 -0.015197486 0.52722728 4282466619
0.48588949 -0.015025705 0.52722913 4283322180
0.48640573 -0.014853925 0.52723098 4285295720
0.486922 -0.014682144 0.52723277 4283715152
0.48231852 -0.016340792 0.52662694 4279703572
0.48283377 -0.016169339 0.52662879 4279835158
0.48331767 -0.015904635 0.52666032 4280493081
0.48383316 -0.015733108 0.52666217 4281216034
0.48437953 -0.015654966 0.52663434 4281348390
0.48489481 -0.015483513 0.52663612 4282138415
0.48541006 -0.015312061 0.52663797 4282204208
0.48589519 -0.015046954 0.5266695 4282730298
0.48641068 -0.014875412 0.52667135 4284440411
0.48689654 -0.014610052 0.52670288 4283781460
0.48287582 -0.016283274 0.52604127 4280164116
0.48335868 -0.016018763 0.52607262 4280427288
0.48387319 -0.015847564 0.52607447 4281018653
0.48438773 -0.015676349 0.52607626 4281348388
0.48490226 -0.015505135 0.5260781 4282072620
0.48538634 -0.015240222 0.52610946 4282204206
0.48587093 -0.014975131 0.52614075 4282861884
0.48638594 -0.014803767 0.5261426 4284242009
0.48690096 -0.014632389 0.52614439 4283715918
0.48738652 -0.014366984 0.52617574 4283255619
0.44298637 -0.09144415 0.50787169 4281018929
0.48288649 -0.016304761 0.52548486 4280032532
0.48340005 -0.016133875 0.52548671 4280427290
0.48388237 -0.015869409 0.52551776 4280953114
0.4843652 -0.015604794 0.52554882 4281413663
0.48487923 -0.015433744 0.52555066 4282006827
0.48539326 -0.015262693 0.52555251 4282138413
0.48584682 -0.014903829 0.52561283 4282598712
0.48639131 -0.014826611 0.52558541 4283782228
0.48687586 -0.0145614 0.52561653 4283519309
0.4873904 -0.0143902 0.52561837 4283190594
0.44263011 -0.091461942 0.50750673 4280887340
0.4828974 -0.016326994 0.52492976 4280032532
0.48341021 -0.016156361 0.52493155 4280427290
0.48389176 -0.015892014 0.52496243 4280953114
0.4844048 -0.015721291 0.52496427 4281347870
0.48488709 -0.015456706 0.52499515 4281941034
0.48540038 -0.015285909 0.52499694 4282270001
0.48588341 -0.015021071 0.52502781 4282533173
0.48636693 -0.014756069 0.52505869 4283782479
0.48688072 -0.014585108 0.52506053 4283454025
0.48736498 -0.014319867 0.52509135 4283059265
0.44329247 -0.091558039 0.50703025 4280952879
0.44409469 -0.091395333 0.5070042 4280887086
0.44453061 -0.091354527 0.50697684 4281017902
0.48246056 -0.016707554 0.52431655 4279243021
0.48294035 -0.016443655 0.52434719 4280031508
0.48342064 -0.016179591 0.52437782 4280426266
0.4839327 -0.016009197 0.52437961 4281018394
0.48444477 -0.015838802 0.52438146 4281347357
0.48492604 -0.015574411 0.5244121 4281809443
0.48537722 -0.015215784 0.52447152 4282138667
0.48589003 -0.015045151 0.52447337 4282467632
0.48637277 -0.014780268 0.52450401 4283519814
0.48688582 -0.014609545 0.52450585 4283388228
0.44169709 -0.091780476 0.50672013 4281150769
0.44206312 -0.091658682 0.50672138 4281084976
0.44250083 -0.09161742 0.50669426 4281019183
0.44286662 -0.0914957 0.50669557 4280953133
0.44323242 -0.09137398 0.50669688 4281084719
0.44366914 -0.091333039 0.50666976 4280952879
0.44410533 -0.091292277 0.50664264 4280887086
0.44447064 -0.091170721 0.50664389 4280689707
0.44483593 -0.091049165 0.5066452 4280952363
0.44527116 -0.091008723 0.50661808 4280820773
0.48244071 -0.016637564 0.52379316 4279242768
0.48295179 -0.016467512 0.52379501 4279769106
0.48343128 -0.016203567 0.52382541 4280229657
0.48391128 -0.015939459 0.52385581 4280952347
0.48442286 -0.015769228 0.52385765 4281544990
0.48493445 -0.015599012 0.52385944 4281874464
0.48538482 -0.015240371 0.52391845 4282335015
0.48589689 -0.015069976 0.5239203 4282598187
0.48640895 -0.014899582 0.52392209 4283519811
0.48689115 -0.014634743 0.52395248 4283256642
0.48740345 -0.014464274 0.52395433 4283189822
0.44097757 -0.091920242 0.5063557 4281150517
0.44134337 -0.091798522 0.50635701 4281084976
0.44170916 -0.091676801 0.50635827 4281150769
0.44207495 -0.091555089 0.50635958 4281019183
0.44251245 -0.091514021 0.5063327 4280887597
0.44287801 -0.091392383 0.50633401 4280953133
0.44324356 -0.091270745 0.50633532 4281083949
0.44368005 -0.09123002 0.50630838 4281018156
0.44404536 -0.091108464 0.50630969 4281018156
0.44448113 -0.091067985 0.50628281 4280886570
0.44484618 -0.09094651 0.50628406 4280952363
0.44521123 -0.090825036 0.50628537 4280689957
0.44557631 -0.090703562 0.50628668 4280492578
0.48245314 -0.016661912 0.52324235 4278914826
0.48293161 -0.016398162 0.52327251 4279638031
0.48344219 -0.016228274 0.5232743 4279966996
0.48395279 -0.01605837 0.52327615 4280755481
0.48443225 -0.015794307 0.52330631 4281610011
0.48494309 -0.015624315 0.52330816 4281808412
0.4854233 -0.015360028 0.52333832 4282334504
0.48590398 -0.015095547 0.52336848 4282466090
0.4864153 -0.014925405 0.52337033 4283386942
0.48689672 -0.014660686 0.52340049 4283256639
0.48737866 -0.014395803 0.52343071 4283059260
0.44099024 -0.091816641 0.50599432 4281216312
0.44135579 -0.091695003 0.50599563 4281084724
0.44172132 -0.091573365 0.50599694 4281019699
0.44215888 -0.091532432 0.50597024 4280888113
0.44252414 -0.091410875 0.50597155 4280888113
0.44288945 -0.091289319 0.50597286 4280887343
0.443326 -0.091248721 0.50594616 4281019183
0.44362009 -0.091046214 0.50597548 4280821802
0.44398537 -0.09092465 0.50597674 4280821802
0.44442117 -0.090884298 0.50595009 4280756011
0.44478625 -0.090762824 0.50595134 4280756011
0.4452213 -0.09072271 0.5059247 4280559398
0.44558612 -0.090601318 0.50592595 4280362789
0.48243365 -0.016593039 0.52272093 4278718217
0.48294348 -0.016423374 0.52272278 4279507215
0.48345333 -0.016253725 0.52272457 4279770387
0.48396319 -0.016084075 0.52272642 4280427288
0.4844107 -0.015725836 0.52278447 4281281312
0.48492104 -0.015556023 0.52278632 4281545503
0.48540074 -0.01529175 0.52281624 4282269224
0.48594174 -0.01521638 0.52278996 4282466603
0.48642188 -0.014951944 0.52281988 4283124020
0.48693249 -0.014782041 0.52282172 4283256119
0.48744309 -0.014612153 0.52282357 4282993719
0.48789477 -0.014252543 0.52288163 4283255869
0.44056466 -0.091754347 0.50565988 4281281596
0.44100296 -0.091713294 0.50563341 4281215801
0.44136828 -0.091591738 0.50563473 4281018931
0.4417336 -0.091470182 0.50563604 4280953906
0.44209889 -0.091348626 0.50563729 4280756527
0.44246417 -0.091227069 0.5056386 4280756527
0.44282949 -0.091105513 0.50563991 4280756529
0.44326609 -0.091065034 0.50561345 4280888113
0.44363114 -0.09094356 0.50561476 4280690988
0.44399619 -0.090822086 0.50561607 4280756781
0.44436124 -0.090700611 0.50561738 4280625195
0.44479659 -0.090660542 0.50559092 4280625195
0.4451614 -0.09053915 0.50559223 4280559400
