# .PCD v0.7 - Point Cloud Data file format
VERSION 0.7
FIELDS x y z rgb
SIZE 4 4 4 4
TYPE F F F U
COUNT 1 1 1 1
WIDTH 968
HEIGHT 1
VIEWPOINT 0 0 0 1 0 0 0
POINTS 968
DATA ascii
0.45023936 -0.018275008 0.64280587 4283980108
0.45084178 -0.018543676 0.64273417 4284045901
0.45144373 -0.018812194 0.64266253 4283717190
0.45207605 -0.018935293 0.64273489 4283585602
0.45269319 -0.019131109 0.64273524 4283454016
0.45332623 -0.019254446 0.64280766 4283520063
0.45027861 -0.018258601 0.64195752 4283980108
0.45086506 -0.018599987 0.64181423 4283980108
0.45146573 -0.018868238 0.64174277 4283651143
0.45209685 -0.01899083 0.64181495 4283519811
0.45271274 -0.019186243 0.6418153 4283454018
0.45336056 -0.019236475 0.64195931 4283322430
0.45399314 -0.019359544 0.64203143 4283322430
0.45464271 -0.019410312 0.64217544 4284044100
0.45151785 -0.018779606 0.64096844 4283651397
0.45213276 -0.018974707 0.6409688 4283454018
0.45273191 -0.0192426 0.64089763 4283322432
0.45337859 -0.019292206 0.64104116 4283190844
0.45402622 -0.019342124 0.64118469 4283190844
0.45467487 -0.019392326 0.64132822 4284044100
0.45530775 -0.019515336 0.64140016 4284637520
0.45597509 -0.019493714 0.64161533 4284637520
0.45660946 -0.0196172 0.64168727 4284309330
0.45150855 -0.01898402 0.63991004 4283717190
0.45215282 -0.019032583 0.64005315 4283519811
0.45276648 -0.019227296 0.64005351 4283256639
0.45341223 -0.019276321 0.64019656 4283125051
0.45404267 -0.019398436 0.64026833 4283190844
0.4547067 -0.019375339 0.64048278 4283913284
0.45533863 -0.019497931 0.64055449 4284637007
0.4560051 -0.019475609 0.64076895 4284702800
0.45663851 -0.019598648 0.64084065 4284505682
0.45730746 -0.019577116 0.64105517 4284111696
0.4515447 -0.018970564 0.63906819 4283717188
0.45217246 -0.019091681 0.63913971 4283454270
0.45280075 -0.019212961 0.63921118 4283256891
0.45344558 -0.019261435 0.63935387 4283454270
0.4540751 -0.019383118 0.63942534 4283716672
0.45473823 -0.019359335 0.63963914 4283979331
0.4553692 -0.019481465 0.63971061 4284506706
0.45601773 -0.019531131 0.63985324 4284572499
0.45664996 -0.019653648 0.63992476 4284177746
0.4573178 -0.019631356 0.64013857 4284111698
0.45098445 -0.018690765 0.63829875 4283782981
0.4515959 -0.018884763 0.63829905 4283717188
0.45222297 -0.019005537 0.63837034 4283454270
0.4528347 -0.019199625 0.63837069 4283322684
0.4534786 -0.019247532 0.63851285 4283520063
0.45410717 -0.019368768 0.63858414 4283716670
0.45476943 -0.0193443 0.63879728 4284110663
0.45539945 -0.019466028 0.63886857 4284637522
0.45604712 -0.019515097 0.63901073 4284637522
0.45667839 -0.019637197 0.63908201 4284111951
0.45734534 -0.01961422 0.6392951 4283980367
0.45103619 -0.018605947 0.63753092 4283454527
0.45163149 -0.01887317 0.63746059 4283454270
0.45227325 -0.018920124 0.63760233 4283256891
0.45290011 -0.019040689 0.63767338 4283256891
0.45352748 -0.019161403 0.63774443 4283454270
0.45415533 -0.019282296 0.63781548 4283848256
0.45480034 -0.019330278 0.63795722 4284373065
0.4554463 -0.019378558 0.63809896 4284636755
0.45607615 -0.019500062 0.63817 4284636755
0.45670646 -0.01962173 0.63824105 4284177741
0.45737255 -0.019598082 0.63845348 4283980619
0.45111805 -0.018374592 0.63690543 4283257146
0.45172852 -0.018568277 0.63690579 4283256887
0.45233899 -0.018761978 0.63690615 4283191094
0.45294946 -0.018955663 0.6369065 4283256889
0.45355994 -0.019149363 0.63690686 4283454268
0.45420328 -0.01919654 0.63704813 4283913538
0.45486429 -0.01917088 0.6372599 4284373067
0.45549291 -0.019291863 0.63733071 4284570962
0.45612204 -0.019413009 0.63740158 4284636755
0.45675167 -0.019534305 0.63747239 4284374096
0.45741713 -0.019510046 0.63768411 4283914824
0.45118463 -0.018217251 0.63621014 4283125812
0.45179459 -0.018410787 0.63621044 4283060019
0.45240456 -0.018604323 0.6362108 4282928433
0.45301455 -0.01879786 0.63621116 4283059765
0.45364076 -0.018917933 0.63628179 4283191351
0.45428392 -0.018964797 0.63642263 4283848254
0.4549281 -0.019011974 0.63656348 4284242249
0.45553929 -0.019205898 0.63656384 4284637009
0.45618495 -0.019253552 0.63670468 4284637009
0.45679665 -0.01944764 0.63670504 4284242762
0.45746148 -0.019422755 0.63691616 4283980867
0.45126635 -0.017986491 0.63558578 4283125560
0.45186052 -0.018253759 0.63551605 4282993972
0.45248577 -0.0183734 0.63558644 4282862640
0.4530955 -0.018566862 0.6355868 4283060019
0.45370522 -0.018760324 0.63558716 4282994226
0.45434797 -0.018806785 0.63572752 4283454520
0.45499173 -0.018853545 0.63586795 4283717692
0.45561945 -0.018973976 0.63593835 4284375370
0.4562304 -0.019167826 0.6359387 4284441163
0.4568764 -0.019215316 0.63607907 4284046405
0.45750558 -0.019336224 0.63614947 4283849281
0.45815328 -0.019384235 0.63628983 4284179036
0.45133263 -0.017830014 0.63489199 4283257918
0.45192629 -0.018097252 0.63482261 4282928949
0.45255107 -0.01821661 0.6348927 4282928433
0.45316032 -0.018409908 0.63489306 4283191094
0.45376953 -0.018603221 0.63489342 4283125301
0.45439532 -0.018722892 0.63496357 4283454520
0.45505521 -0.018695638 0.63517332 4283651899
0.45568249 -0.018815786 0.63524348 4284112198
0.45629296 -0.019009471 0.63524383 4284243784
0.45693851 -0.019056544 0.63538378 4283980610
0.45756727 -0.019177169 0.63545394 4283586109
0.45821455 -0.019224808 0.63559389 4283851103
0.45138341 -0.017748162 0.63412964 4283455043
0.45197627 -0.01801528 0.63406038 4282929469
0.45260036 -0.018134296 0.63413036 4282994746
0.45320886 -0.018327355 0.63413072 4283125562
0.4538337 -0.018446594 0.63420057 4283191355
0.45445904 -0.018565997 0.63427055 4283520061
0.45511854 -0.018538207 0.63447958 4283651647
0.45572826 -0.018731669 0.63447994 4284177991
0.45637268 -0.018778116 0.63461947 4284375370
0.45700046 -0.018898278 0.63468939 4283717438
0.45764661 -0.018945262 0.63482887 4283388732
0.45137233 -0.017964095 0.63309115 4283520836
0.4519791 -0.018156618 0.63309151 4282995516
0.45260173 -0.018275023 0.63316125 4283060539
0.45320874 -0.01846762 0.63316154 4283125562
0.45384854 -0.018512309 0.63330066 4283388734
0.45448929 -0.01855734 0.63343966 4283520318
0.45514795 -0.018528864 0.6336481 4283586111
0.45580807 -0.018500865 0.63385648 4284177991
0.45643494 -0.01862061 0.63392615 4283980869
0.45706227 -0.01874052 0.63399589 4283651904
0.457708 -0.018787086 0.63413495 4283191355
0.45134526 -0.018256143 0.63198674 4283521088
0.45195004 -0.01844804 0.63198709 4283257916
0.45258671 -0.018491462 0.63212568 4283060539
0.45322436 -0.018535197 0.63226426 4283060539
0.45386297 -0.018579274 0.6324029 4283323711
0.45450258 -0.01862365 0.63254148 4283389250
0.45516014 -0.018594414 0.6327492 4283651906
0.45581913 -0.018565655 0.63295698 4283915848
0.4564622 -0.018611133 0.63309556 4283718985
0.45712394 -0.018583238 0.63330328 4283390020
0.45776922 -0.018629417 0.63344187 4283125308
0.45192039 -0.018741414 0.63088626 4283257916
0.45255515 -0.018783987 0.63102442 4282995516
0.45319089 -0.018826842 0.63116252 4283127102
0.45386055 -0.01872167 0.63143849 4283192895
0.45451549 -0.018691197 0.63164556 4283323711
0.45517188 -0.018661201 0.63185263 4283521090
0.455847 -0.018557727 0.63212854 4283850055
0.45647171 -0.018676519 0.6321978 4283784008
0.45713231 -0.018647864 0.63240486 4283586629
0.45065787 -0.018804938 0.62965095 4283522121
0.45125821 -0.018995419 0.62965131 4283324742
0.45189011 -0.019036785 0.62978899 4283126848
0.45250693 -0.019152954 0.62985802 4283126848
0.4531568 -0.01912047 0.63006443 4283126848
0.45382464 -0.01901415 0.63033944 4283126848
0.45449448 -0.018908456 0.63061452 4283258434
0.45516628 -0.018803403 0.63088953 4283718469
0.4558228 -0.018773019 0.63109595 4283981639
0.45648083 -0.018743142 0.63130236 4283849803
0.45714033 -0.018713728 0.63150871 4283718217
0.45061553 -0.019178614 0.62848932 4282997320
0.45122921 -0.019293621 0.6285581 4282734402
0.45187497 -0.019259438 0.62876379 4282734402
0.45250618 -0.019300342 0.62890106 4282602814
0.45313841 -0.019341528 0.62903833 4282537021
0.45378813 -0.019308612 0.62924397 4282603586
0.45445612 -0.0192018 0.62951815 4282669379
0.45514315 -0.019021332 0.62986076 4283326025
0.45579806 -0.018990055 0.63006645 4283719500
0.45645446 -0.018959239 0.63027215 4283784780
0.44997656 -0.019365415 0.62733138 4282603845
0.45060316 -0.01940459 0.62746817 4282013507
0.45123073 -0.019444048 0.62760496 4281620800
0.45185933 -0.01948382 0.62774175 4281620800
0.45248887 -0.019523934 0.62787855 4281686077
0.45313576 -0.019489706 0.62808359 4281620282
0.45378414 -0.01945594 0.62828863 4281620284
0.45441714 -0.019497126 0.62842542 4281883456
0.45508531 -0.019389808 0.62869865 4282671689
0.45573813 -0.019357473 0.62890369 4283130443
0.45002589 -0.019293278 0.62658578 4280703032
0.45063642 -0.019407034 0.62665415 4280375350
0.45123184 -0.019595951 0.62665451 4280048182
0.451859 -0.019635022 0.62679082 4279916596
0.45248714 -0.019674405 0.62692714 4280047928
0.4531163 -0.019714102 0.62706351 4279982389
0.45376304 -0.019679427 0.62726784 4280113975
0.4543944 -0.019719824 0.62740421 4280113975
0.45504388 -0.019685999 0.62760854 4280245820
0.45569485 -0.01965265 0.62781292 4281362509
0.45005977 -0.019297168 0.62577379 4280113457
0.45068479 -0.0193353 0.62590969 4279982387
0.45127946 -0.019523978 0.62591004 4279917107
0.45189005 -0.0196376 0.62597817 4279653935
0.45251727 -0.019676417 0.62611407 4279589174
0.45312911 -0.019790441 0.6261822 4279523381
0.4537414 -0.019904628 0.62625027 4279655480
0.45437112 -0.019944236 0.62638617 4279589689
0.45498466 -0.020058811 0.62645435 4279523896
0.45563352 -0.020024374 0.62665802 4280707659
0.45628387 -0.019990429 0.62686169 4281558602
0.44951513 -0.019038349 0.62503082 4279392049
0.45009336 -0.019302055 0.62496358 4279589426
0.45071745 -0.019339606 0.62509906 4279458353
0.45132685 -0.019452721 0.62516689 4279195951
0.45193672 -0.019566 0.62523484 4279130158
0.4525471 -0.019679427 0.62530273 4279130419
0.45317441 -0.019718006 0.62543821 4278802738
0.45376933 -0.019906759 0.62543851 4278868531
0.4543812 -0.020020649 0.6255064 4279000117
0.45497635 -0.020209491 0.62550676 4279065910
0.45558894 -0.020323619 0.62557465 4280248902
0.45620203 -0.020437911 0.62564254 4280379973
0.448957 -0.018856451 0.6242218 4278802742
0.44954944 -0.019044429 0.62422216 4278736949
0.45014188 -0.019232392 0.62422252 4278999607
0.45074981 -0.019344911 0.62429017 4278999605
0.45135826 -0.019457594 0.62435782 4278933810
0.45196718 -0.019570425 0.62442553 4278933810
0.45257661 -0.019683421 0.62449318 4278671152
0.45318654 -0.01979658 0.62456083 4278540333
0.45379695 -0.019909874 0.62462854 4278672689
0.45440787 -0.020023331 0.6246962 4278672689
0.45501927 -0.020136967 0.62476385 4278804275
0.45563114 -0.020250738 0.62483156 4279724353
0.45626128 -0.020289928 0.62496656 4280118338
0.44902158 -0.018712178 0.62354922 4278737462
0.44959846 -0.018975735 0.62348247 4278671669
0.45022076 -0.019012153 0.62361699 4278803001
0.45081294 -0.019200057 0.62361729 4278868535
0.45140514 -0.019387946 0.62361765 4278736947
0.45199734 -0.019575834 0.62361801 4278868533
0.45262209 -0.019613057 0.62375259 4278605359
0.45319825 -0.019876376 0.62368584 4278737712
0.45382425 -0.019913986 0.62382036 4278738993
0.45445123 -0.019951895 0.62395489 4278476591
0.4550274 -0.020215213 0.62388813 4278673970
0.4556556 -0.020253539 0.62402272 4279527744
0.44908598 -0.018568397 0.62287748 4278672187
0.44967744 -0.018756062 0.62287784 4278606394
0.45028424 -0.018867955 0.62294501 4278803771
0.45086035 -0.019131377 0.62287849 4278672185
0.45146763 -0.019243434 0.62294573 4278540853
0.45205933 -0.019431174 0.62294602 4278540851
0.45266736 -0.019543439 0.62301326 4278409265
0.45325929 -0.019731253 0.62301362 4278475562
0.45386803 -0.019843757 0.62308085 4278476073
0.45447731 -0.01995644 0.62314808 4278411052
0.45506975 -0.020144418 0.62314844 4278608431
0.45567974 -0.020257324 0.62321568 4279331902
0.44855931 -0.018237621 0.62220633 4278869828
0.44915026 -0.018425137 0.62220663 4278541114
0.44975635 -0.018536657 0.62227362 4278541114
0.45034754 -0.018724233 0.62227398 4278803771
0.45093876 -0.018911809 0.62227434 4278672185
0.45152995 -0.019099399 0.62227464 4278475060
0.45212117 -0.019286975 0.62227499 4278475058
0.45271236 -0.019474566 0.62227535 4278409265
0.45332018 -0.019586623 0.62234235 4278475308
0.4539116 -0.019774288 0.62234271 4278476075
0.45453727 -0.019811258 0.62247634 4278541868
0.45511186 -0.020074353 0.62241 4278607661
0.45572117 -0.020186886 0.62247699 4279331902
0.44865325 -0.017942488 0.62166923 4278870079
0.4492293 -0.018206164 0.62160313 4278541114
0.44983518 -0.018317491 0.62166989 4278541114
0.45041072 -0.018581018 0.62160385 4278606907
0.45100141 -0.018768445 0.62160414 4278475321
0.45159212 -0.018955871 0.6216045 4278409526
0.45218283 -0.019143298 0.6216048 4278343733
0.45275712 -0.019406408 0.62153876 4278409526
0.45336425 -0.019518137 0.62160552 4278475823
0.45397186 -0.019630015 0.62167227 4278476075
0.45457995 -0.019742042 0.62173909 4278214443
0.45515376 -0.020005018 0.62167299 4278477615
0.4487325 -0.017723724 0.62106597 4278935611
0.44930825 -0.017987445 0.62100005 4278540853
0.44989869 -0.018174797 0.62100041 4278606646
0.45048916 -0.018362135 0.62100077 4278606646
0.45104823 -0.018701628 0.62086868 4278540599
0.45165414 -0.01881282 0.6209352 4278474806
0.45224434 -0.019000083 0.62093556 4278474806
0.45281813 -0.019263193 0.6208697 4278474806
0.45342478 -0.019374624 0.62093627 4278475569
0.45401499 -0.019561887 0.62093663 4278476075
0.45460522 -0.019749165 0.62093693 4278280236
0.45519543 -0.019936427 0.62093729 4278674745
0.4487969 -0.017581701 0.62039709 4279000630
0.44937211 -0.017845407 0.62033147 4278540333
0.44996208 -0.018032596 0.62033182 4278606126
0.45053655 -0.018296063 0.6202662 4278737712
0.45114201 -0.018406972 0.62033248 4278606126
0.4517 -0.018746391 0.62020087 4278540333
0.45228946 -0.01893343 0.62020123 4278671665
0.45287895 -0.019120455 0.62020159 4278605872
0.45345169 -0.019383356 0.6201359 4278540851
0.45404091 -0.019570321 0.62013626 4278540849
0.45463014 -0.019757271 0.62013662 4278607409
0.45521939 -0.019944221 0.62013698 4278805304
0.45584404 -0.019980058 0.62026924 4278936890
0.44886115 -0.0174402 0.61972922 4278935091
0.44945085 -0.017627314 0.61972952 4278606378
0.45004058 -0.017814428 0.61972988 4278672171
0.45059925 -0.018154308 0.61959875 4278737964
0.45120424 -0.018264964 0.61966479 4278737710
0.45176166 -0.018604457 0.61953366 4278606124
0.45235065 -0.018791333 0.61953402 4278671917
0.45293963 -0.018978208 0.61953437 4278606124
0.45351183 -0.01924108 0.61946893 4278737712
0.45410055 -0.019427866 0.61946929 4278737712
0.45470655 -0.019538835 0.61953533 4278672689
0.45531306 -0.019649953 0.61960149 4278936120
0.45592004 -0.01976122 0.61966753 4279199292
0.45656353 -0.019721419 0.61986518 4278936120
0.44830683 -0.017265871 0.61893082 4278935611
0.44891042 -0.017375916 0.61899668 4278672435
0.44949937 -0.017562807 0.61899698 4278606378
0.45008835 -0.017749682 0.61899734 4278737964
0.45066178 -0.01801306 0.61893213 4278803244
0.45123467 -0.018276289 0.61886698 4278737451
0.45180708 -0.018539369 0.61880177 4278606124
0.45237902 -0.0188023 0.61873657 4278737712
0.45298356 -0.018912658 0.61880243 4278671919
0.45355499 -0.019175425 0.61873722 4278737712
0.45416003 -0.019285947 0.61880314 4278671917
0.45476559 -0.019396603 0.61886901 4278606894
0.45537162 -0.019507438 0.61893487 4279002167
0.45597816 -0.019618437 0.61900079 4279199546
0.45660323 -0.019653857 0.61913216 4278936120
0.45726585 -0.019538254 0.61939466 4278936122
0.44835657 -0.017202705 0.61819983 4278935357
0.44894454 -0.017389268 0.61820018 4278606905
0.44951743 -0.017652631 0.61813521 4278409778
0.45012054 -0.017762393 0.61820084 4278475571
0.45069292 -0.018025592 0.61813587 4278606894
0.45124894 -0.018365189 0.61800557 4278671917
0.45182008 -0.018627986 0.61794066 4278540849
0.45240709 -0.018814236 0.61794096 4278540849
0.45299408 -0.019000486 0.61794132 4278540849
0.45358109 -0.019186735 0.61794162 4278606642
0.45420229 -0.019220665 0.61807263 4278606896
0.45480713 -0.019330978 0.61813825 4278607409
0.45543006 -0.01936543 0.61826921 4279067960
0.45605397 -0.019400209 0.61840016 4279199546
0.45667887 -0.019435301 0.61853111 4279001913
0.4573414 -0.019319147 0.61879271 4279067195
0.44839138 -0.017217323 0.61740512 4279066173
0.44894856 -0.017557576 0.6172753 4278738493
0.44953507 -0.017743677 0.6172756 4278409526
0.45012158 -0.017929763 0.61727595 4278541112
0.45070809 -0.018115848 0.61727631 4278606644
0.4512628 -0.018455327 0.61714649 4278540849
0.45183265 -0.01871787 0.6170817 4278540849
0.45241845 -0.018903717 0.61708206 4278540849
0.45300421 -0.01908958 0.61708236 4278540849
0.45360684 -0.019199058 0.6171478 4278606642
0.45421001 -0.019308701 0.61721325 4278540849
0.45486581 -0.019189864 0.6174739 4278607409
0.45547068 -0.019300073 0.61753935 4279067706
0.45611182 -0.019258291 0.61773491 4279199292
0.45675442 -0.019216999 0.61793053 4279001913
0.45741689 -0.019100279 0.61819124 4279001915
0.44841117 -0.017310172 0.61654735 4279065924
0.448982 -0.017573148 0.61648279 4278803522
0.44956753 -0.017758936 0.61648315 4278605624
0.45013759 -0.018021658 0.6164186 4279129910
0.45072287 -0.018207356 0.61641896 4279327289
0.45129222 -0.01846987 0.61635447 4279849781
0.45184487 -0.018808946 0.61622506 4279915061
0.45242938 -0.018994406 0.61622542 4279915059
0.45301393 -0.019179881 0.61622572 4280046131
0.45363232 -0.019212365 0.61635578 4280046131
0.45425171 -0.019245163 0.61648583 4279588144
0.45488948 -0.019201919 0.61668074 4278868785
0.45552877 -0.019159153 0.61687571 4279198009
0.45616952 -0.019116879 0.61707062 4279461181
0.45681173 -0.019075051 0.61726552 4279067195
0.45747387 -0.018957689 0.61752534 4279067195
0.45813796 -0.018840924 0.6177851 4280510026
0.44898513 -0.017744184 0.61556286 4279523133
0.44956917 -0.017929479 0.61556321 4280767805
0.45013773 -0.018191889 0.6154989 4282342210
0.45072153 -0.01837711 0.61549926 4282342210
0.45128936 -0.018639266 0.61543494 4282340925
0.45187289 -0.018824413 0.61543524 4282077753
0.45245644 -0.019009575 0.6154356 4282208826
0.45303997 -0.019194722 0.61543596 4282077240
0.45365745 -0.01922664 0.61556554 4281879861
0.45429313 -0.019182324 0.61575985 4281945654
0.45494777 -0.019062042 0.61601865 4281095475
0.45556897 -0.019095138 0.61614829 4280573241
0.45620909 -0.019052237 0.61634254 4280573241
0.4568871 -0.01885736 0.61666608 4279656250
0.45753068 -0.018815577 0.61686033 4279394363
0.45821315 -0.0186221 0.6171838 4280312647
0.44844961 -0.017499506 0.61483848 4280505664
0.44901788 -0.017761961 0.61477447 4280964930
0.44960093 -0.017946944 0.61477476 4282079302
0.45016846 -0.018209144 0.61471069 4282734918
0.45075125 -0.018394068 0.61471105 4282734918
0.45131806 -0.018656045 0.61464697 4282865220
0.45188433 -0.018917859 0.6145829 4282602300
0.45248318 -0.019025713 0.61464763 4282733886
0.45308247 -0.019133732 0.61471236 4282404408
0.4536823 -0.019241914 0.61477715 4282404408
0.45431709 -0.019196928 0.61497068 4282667834
0.4549709 -0.019075811 0.61522865 4282274873
0.45560893 -0.019031867 0.61542225 4282211390
0.45626643 -0.018911928 0.61568022 4282079804
0.45694414 -0.018716291 0.61600262 4280179514
0.45758736 -0.018673956 0.61619622 4279590459
0.45826951 -0.01847972 0.61651862 4280115530
0.44791532 -0.017256051 0.61411548 4282410068
0.44848305 -0.017518461 0.61405164 4281814331
0.44905028 -0.017780721 0.6139878 4282340675
0.44961703 -0.018042803 0.61392397 4282734918
0.45019886 -0.018227413 0.61392426 4283063115
0.45076486 -0.018489271 0.61386043 4282997322
0.45133036 -0.01875098 0.61379659 4282930502
0.45191169 -0.018935427 0.61379695 4282733123
0.45250958 -0.01904285 0.61386144 4282798914
0.45309114 -0.019227371 0.6138618 4282601535
0.45372385 -0.019181311 0.61405468 4282667328
0.45435804 -0.019135714 0.61424756 4282930754
0.45497617 -0.019167304 0.61437631 4282996545
0.45564866 -0.018969297 0.61469758 4283522637
0.45630556 -0.018848658 0.61495465 4283391051
0.45696446 -0.018728614 0.61521173 4281947452
0.44796407 -0.017198414 0.61339414 4282868566
0.44851619 -0.017538413 0.61326659 4281878843
0.44909751 -0.01772286 0.61326694 4282733634
0.44966346 -0.017984837 0.61320329 4283062851
0.45022893 -0.01824668 0.61313963 4283390535
0.45079392 -0.01850833 0.61307609 4283390535
0.4513745 -0.018692538 0.61307639 4283061316
0.45195508 -0.018876761 0.61307675 4282929730
0.45255226 -0.018983841 0.613141 4282929730
0.45313311 -0.019168124 0.61314136 4282733121
0.45374811 -0.019198433 0.61326963 4282733121
0.45438141 -0.019152164 0.61346185 4282996547
0.45501623 -0.019106343 0.61365408 4283062338
0.45565251 -0.019061014 0.6138463 4283720016
0.45630834 -0.018939465 0.61410248 4283522637
0.45698446 -0.018741965 0.61442262 4282340160
0.44746035 -0.016801208 0.61280131 4283917399
0.44802728 -0.017063633 0.61273789 4283127883
0.44859371 -0.017325893 0.61267453 4282139705
0.44915962 -0.017588004 0.61261111 4283126600
0.44970968 -0.017927602 0.61248398 4283520838
0.45029002 -0.018111736 0.61248434 4283586629
0.45083857 -0.018450871 0.6123572 4283324227
0.45140228 -0.018712282 0.61229378 4283126848
0.45198187 -0.018896177 0.61229414 4283126848
0.4525781 -0.019002795 0.61235821 4283126848
0.4531748 -0.019109592 0.61242229 4282798396
0.45378914 -0.019139424 0.61255008 4282929982
0.45440447 -0.019169584 0.61267787 4283193154
0.4550384 -0.019123077 0.61286944 4283324740
0.45565596 -0.019153953 0.61299723 4283850832
0.4562926 -0.019108325 0.6131888 4283719248
0.44697127 -0.016326234 0.61227244 4284248674
0.44752395 -0.016666949 0.61214578 4284113495
0.44810501 -0.016851321 0.61214608 4283125828
0.44867113 -0.017113626 0.6120829 4282335285
0.44922161 -0.017453641 0.61195624 4283323209
0.44978651 -0.017715544 0.61189306 4283586631
0.45033523 -0.018055007 0.61176634 4283718985
0.45089889 -0.018316537 0.61170316 4283390533
0.45146206 -0.018577904 0.61163998 4283193154
0.45204118 -0.01876165 0.61164033 4283127361
0.45262027 -0.018945396 0.61164069 4283061568
0.45321628 -0.01905182 0.61170453 4283061568
0.45381281 -0.019158408 0.61176836 4283127361
0.45442721 -0.019187987 0.61189574 4283324740
0.45502496 -0.019294977 0.61195958 4283785039
0.455659 -0.019248113 0.61215043 4284179286
0.45631269 -0.019124806 0.61240482 4284047700
0.45706034 -0.018617913 0.61297679 4283784528
0.44649613 -0.015772879 0.61180687 4284249705
0.44704947 -0.016114071 0.61168063 4284249190
0.44761631 -0.016376749 0.61161768 4284506709
0.44818267 -0.016639262 0.61155468 4282663480
0.44876349 -0.016823545 0.61155504 4282334515
0.44929865 -0.017241776 0.61136556 4283125826
0.44986326 -0.017503738 0.61130255 4283520838
0.45041165 -0.017843366 0.61117631 4283718987
0.45095909 -0.018182695 0.61105007 4283390533
0.45152169 -0.018444017 0.61098713 4283258947
0.45208386 -0.018705204 0.61092418 4283127361
0.45267892 -0.018811196 0.61098778 4283061570
0.45325753 -0.018994778 0.61098814 4282929982
0.45387053 -0.019023657 0.61111504 4283193154
0.45444965 -0.019207403 0.61111534 4283390533
0.45506415 -0.019236729 0.61124229 4283785039
0.45566168 -0.01934351 0.61130595 4284179797
0.4563143 -0.019219324 0.61155939 4284113491
0.45706105 -0.018710926 0.61212933 4283850319
0.44597924 -0.015454859 0.61115164 4284446831
0.44654655 -0.015717804 0.61108887 4283592287
0.44712764 -0.015902162 0.61108923 4283854682
0.44769418 -0.016164884 0.61102653 4284572756
0.44826025 -0.016427428 0.61096376 4282006318
0.44881079 -0.016768008 0.610838 4281874732
0.4493756 -0.017030165 0.61077523 4283257664
0.44992441 -0.017370209 0.61064947 4283456067
0.45047224 -0.017709941 0.6105237 4283850571
0.45103508 -0.017971456 0.61046094 4283587401
0.45158118 -0.018310621 0.61033517 4283587401
0.45212629 -0.018649489 0.61020935 4283192641
0.45272067 -0.018755123 0.61027277 4283192643
0.45331553 -0.018860906 0.61033618 4282995262
0.45392811 -0.018889382 0.61046261 4283193154
0.45450673 -0.019072965 0.61046296 4283522119
0.45508534 -0.019256562 0.61046326 4283982672
0.45569992 -0.019285664 0.61058974 4284245331
0.45631549 -0.019315064 0.61071622 4284179538
0.44605786 -0.015243232 0.61056042 4284380525
0.44663894 -0.015427589 0.61056077 4283460955
0.44720569 -0.015690506 0.61049831 4283789143
0.44777197 -0.015953258 0.61043578 4284376145
0.44833773 -0.016215861 0.61037326 4281874986
0.44890302 -0.016478285 0.61031079 4281809193
0.44943717 -0.016897038 0.61012262 4283389250
0.45000097 -0.017159015 0.6100601 4283587653
0.45054847 -0.017498896 0.60993475 4283916364
0.45107895 -0.017916471 0.60974658 4283653192
0.45162421 -0.018255651 0.60962123 4283455813
0.45218506 -0.01851669 0.6095587 4283192641
0.45274541 -0.018777579 0.60949624 4283126848
0.45333931 -0.01888293 0.60955942 4283127102
0.45393372 -0.018988431 0.6096226 4283193408
0.45454615 -0.019016564 0.6097486 4283588166
0.45514178 -0.019122466 0.60981178 4284113745
0.45573792 -0.019228548 0.60987496 4284376145
0.45638937 -0.019102886 0.61012661 4284179536
0.44615024 -0.014953017 0.61003232 4284446318
0.4467172 -0.015216142 0.60997009 4283855199
0.44729805 -0.015400425 0.60997039 4283920727
0.44786426 -0.015663296 0.60990816 4284509014
0.44841516 -0.016004518 0.60978323 4282007345
0.44898012 -0.016267017 0.60972095 4281809966
0.44951394 -0.016686052 0.60953343 4283585607
0.45007744 -0.016948074 0.6094712 4283784526
0.45060879 -0.01736632 0.60928369 4284047950
0.45115474 -0.017705992 0.60915875 4283915594
0.45169967 -0.018045351 0.60903388 4283718215
0.45224366 -0.018384382 0.60890901 4283389252
0.45280346 -0.018645227 0.60884666 4283257666
0.45339692 -0.018750295 0.60890967 4283192893
0.45397353 -0.018933252 0.60890996 4283259199
0.45456776 -0.019038573 0.60897291 4283588164
0.45514464 -0.019221604 0.60897326 4284245842
0.45573956 -0.019327149 0.60903621 4284639317
0.45646316 -0.018890962 0.60953748 4284310606
0.44624263 -0.014662802 0.60950422 4284577134
0.4467954 -0.015004903 0.60937983 4284117604
0.44737598 -0.015189126 0.60938013 4283986270
0.44794193 -0.015452042 0.60931814 4284443741
0.44849247 -0.015793443 0.60919368 4282139701
0.44905719 -0.016055971 0.60913157 4281942322
0.44959062 -0.01647532 0.60894477 4283454791
0.45015386 -0.016737372 0.60888273 4283850319
0.45068485 -0.017155915 0.60869586 4284047952
0.45121431 -0.017573997 0.60850906 4284046410
0.45175868 -0.017913431 0.60838461 4283849031
0.4523021 -0.018252552 0.60826015 4283520068
0.45286137 -0.018513367 0.60819811 4283191101
0.45342016 -0.018774018 0.60813606 4283192895
0.45403051 -0.018800959 0.60826117 4283259201
0.45460665 -0.018983752 0.60826147 4283588166
0.45518279 -0.019166559 0.60826182 4284311637
0.45588562 -0.018806055 0.60869884 4284574294
0.44574022 -0.014267385 0.60891366 4284444002
0.44630712 -0.014530733 0.60885185 4284838760
0.44687352 -0.014793947 0.60879004 4284510049
0.44745386 -0.014978081 0.60879034 4284313184
0.4480195 -0.015241042 0.60872853 4284050782
0.44856974 -0.015582606 0.60860455 4282402875
0.44911897 -0.015923873 0.60848051 4282600254
0.44966725 -0.016264811 0.60835654 4283718215
0.45021451 -0.016605437 0.6082325 4283916114
0.45074487 -0.017024204 0.60804635 4284245081
0.45127374 -0.01744248 0.60786021 4284111694
0.45181757 -0.017782003 0.60773623 4283782729
0.45234373 -0.018199444 0.60755002 4283453246
0.4529022 -0.01846014 0.60748821 4283322430
0.45347735 -0.018642634 0.60748851 4283388480
0.45405251 -0.018825129 0.60748887 4283455043
0.45462766 -0.019007608 0.60748923 4283784008
0.45520282 -0.019190103 0.60748953 4284245844
0.44581884 -0.014056563 0.60832387 4283849803
0.44638544 -0.014319971 0.60826224 4283455045
0.44693732 -0.014662325 0.60813868 4283718215
0.4475027 -0.014925346 0.60807711 4283455815
0.4480823 -0.015109241 0.60807741 4283653707
0.44863194 -0.01545091 0.60795391 4282600506
0.44919583 -0.015713453 0.60789227 4282666299
0.44974378 -0.016054556 0.60776871 4283455043
0.450275 -0.016474009 0.60758322 4283653192
0.45082071 -0.016814411 0.60745966 4284113745
0.45133302 -0.017311469 0.60721231 4283849549
0.45187625 -0.017651096 0.60708869 4283586377
0.45241851 -0.01799041 0.60696518 4283322432
0.4529767 -0.018251151 0.60690355 4283256639
0.45353442 -0.018511727 0.60684192 4283256639
0.45410907 -0.018694058 0.60684228 4283455045
0.45464838 -0.019032434 0.60671872 4283915596
0.45524046 -0.019136667 0.60678101 4284507479
0.44759485 -0.014635876 0.60755032 4283455043
0.44813016 -0.015057027 0.60736555 4283390020
0.44869399 -0.01531969 0.60730416 4282732090
0.44925737 -0.015582204 0.60724276 4282797883
0.44978923 -0.016002253 0.60705793 4283389250
0.45035109 -0.01626429 0.60699654 4283455043
0.45086446 -0.016762242 0.60675001 4283587399
0.45139214 -0.017180949 0.60656524 4283718215
0.45193478 -0.017520681 0.60644209 4283455043
0.45249322 -0.017781615 0.6063807 4283059258
0.45301718 -0.018199161 0.60619593 4283125053
0.45357409 -0.018459618 0.60613453 4283125053
0.45414799 -0.01864171 0.60613489 4283520068
0.45472193 -0.018823817 0.60613519 4283717447
0.45529583 -0.01900591 0.60613549 4284309584
0.447687 -0.014346406 0.6070236 4283126330
0.44820738 -0.01484713 0.60677797 4283192895
0.44874087 -0.015268087 0.60659385 4282863676
0.44930342 -0.015530497 0.60653269 4282863676
0.44984996 -0.015871719 0.60641003 4283192641
0.45041132 -0.016133726 0.60634887 4283389250
0.45094007 -0.016553178 0.60616469 4283389504
0.45146737 -0.016972199 0.60598058 4283455297
0.45200971 -0.01731208 0.60585791 4283323711
0.45255107 -0.017651647 0.60573524 4283059510
0.45309144 -0.017990887 0.60561264 4283191096
0.45366535 -0.018172994 0.60561293 4283059769
0.45422173 -0.018433437 0.60555178 4283256894
0.45479542 -0.018615454 0.60555208 4283388480
0.44649306 -0.014405221 0.60594475 4282863160
0.44705608 -0.014667898 0.60588384 4283059767
0.44763321 -0.014851019 0.60588419 4283257916
0.44819552 -0.015113473 0.60582322 4283323711
0.44877237 -0.015296504 0.60582358 4282929723
0.44933394 -0.015558705 0.6057626 4282929723
0.44987941 -0.015899837 0.60564041 4283192895
0.45043972 -0.016161665 0.6055795 4283323711
0.45099953 -0.01642333 0.60551858 4283126332
0.45154253 -0.016763687 0.60539639 4283520320
0.45208454 -0.017103732 0.60527414 4283454527
0.45262557 -0.017443478 0.60515195 4282993974
0.45318267 -0.017704263 0.60509104 4283125560
0.45373929 -0.0179649 0.60503006 4283059767
0.45431295 -0.018146932 0.60503042 4283257148
0.44655657 -0.014276251 0.60529792 4282863158
0.44707593 -0.014777705 0.60505414 4282994744
0.4476372 -0.015039966 0.6049934 4283257916
0.44821283 -0.015222609 0.60499376 4283323709
0.4488036 -0.015325874 0.60505509 4283060537
0.44939485 -0.015429303 0.60511649 4283060537
0.44997099 -0.015612096 0.60511684 4283060537
0.45054713 -0.015794903 0.6051172 4283257144
0.45109105 -0.016135827 0.60499537 4283191355
0.45165032 -0.016397461 0.60493469 4283388734
0.45215929 -0.016895637 0.60469085 4283257148
0.45270002 -0.017235532 0.60456908 4283059769
0.45327392 -0.017417639 0.60456944 4283125562
0.45384783 -0.017599732 0.60456979 4283191353
0.44709536 -0.014888749 0.60422665 4282929723
0.44768471 -0.014991418 0.6042878 4282995514
0.44824469 -0.01525341 0.6042273 4283323709
0.44883451 -0.015356243 0.60428846 4283126330
0.44939399 -0.015618071 0.60422796 4283060537
0.44998431 -0.015721068 0.60428911 4283126330
0.45057511 -0.015824229 0.60435027 4283257916
0.45115027 -0.016006708 0.60435057 4283256894
0.45170903 -0.016268283 0.60429013 4283256894
0.45226726 -0.016529739 0.60422963 4283191101
0.45280814 -0.016869962 0.60410833 4283125562
0.45338231 -0.017052144 0.60410869 4283191355
0.45409557 -0.016603962 0.60459554 4283257918
0.44662631 -0.014339477 0.60376465 4282864443
0.44714335 -0.014841318 0.6035226 4282930236
0.44771725 -0.01502341 0.6035229 4282930236
0.44829118 -0.015205503 0.60352325 4283127102
0.44888029 -0.015307993 0.60358417 4282995516
0.44945446 -0.015490159 0.60358453 4283192893
0.45006001 -0.015513405 0.603706 4283127100
0.45063466 -0.015695736 0.60370636 4283257918
0.4512741 -0.015560836 0.60394907 4283126078
0.45184973 -0.015743479 0.60394943 4283256894
0.4524087 -0.016005278 0.60388917 4283256894
0.45300102 -0.016108781 0.60395008 4283125562
0.4472636 -0.01439473 0.60312176 4282930502
0.44779375 -0.014816672 0.60294098 4283061316
0.44838241 -0.014918879 0.60300171 4283126850
0.44895634 -0.015100971 0.60300201 4283192643
0.44731128 -0.014348149 0.60241926 4282930502
0.44788495 -0.014530167 0.60241961 4283127109
0.44842854 -0.014872074 0.60229963 4283126850
0.44903231 -0.014894202 0.60242027 4283192643
0.4496215 -0.014996439 0.60248077 4283126850
0.4502112 -0.015098825 0.60254121 4282995264
0.44794652 -0.014403954 0.60177839 4282929732
0.44853476 -0.014505759 0.60183865 4283192389
0.4491235 -0.014607698 0.60189891 4283192389
0.44968161 -0.01486963 0.6018393 4282995264
0.45025504 -0.015051574 0.60183966 4283126850
0.45087662 -0.014994249 0.60201973 4282995264
0.4514671 -0.015096739 0.60207999 4283257666
0.44862592 -0.014219373 0.60131752 4283061318
0.44919935 -0.014401317 0.60131788 4283192902
0.44978836 -0.014503211 0.60137784 4282995010
0.45037791 -0.014605269 0.60143793 4282995010
0.45103234 -0.01438798 0.60173672 4283126596
0.38576478 -0.0086325407 0.53754151 4288979109
0.38624477 -0.0088819116 0.53750205 4289308074
0.38671005 -0.0090295374 0.53750229 4289044902
0.38718927 -0.00927867 0.53746289 4288978855
0.38766804 -0.0095276535 0.53742343 4289044648
0.38583881 -0.0084000528 0.53711843 4289176488
0.38630432 -0.0085477531 0.53711867 4289308074
0.3867698 -0.0086954534 0.53711897 4289045670
0.38724926 -0.0089447945 0.53707975 4288914084
0.38772821 -0.0091939718 0.53704053 4288914082
0.38820669 -0.009443 0.53700131 4289044898
0.38541752 -0.0078157485 0.53677356 4288585119
0.38589817 -0.0080655813 0.53673458 4289177256
0.38637832 -0.0083152652 0.5366956 4289243049
0.38684383 -0.0084629655 0.5366959 4289177254
0.38732323 -0.0087124258 0.53665692 4288914335
0.38778847 -0.0088600516 0.53665721 4289176989
0.38828057 -0.0092108846 0.53657895 4289176989
0.38873219 -0.0092568099 0.53661847 4288979610
0.38549161 -0.0075830221 0.53635007 4288716703
0.38600144 -0.0080372095 0.53623331 4289308840
0.38648105 -0.0082868636 0.5361945 4289506219
0.38693196 -0.0083324462 0.53623378 4288915109
0.38741106 -0.0085819513 0.53619504 4288652188
0.38787609 -0.0087294877 0.53619534 4288914587
0.3883411 -0.008877039 0.53619558 4289176989
0.38881922 -0.0091262311 0.53615683 4289242782
0.38558051 -0.0074525923 0.53588778 4288783006
0.38607541 -0.0078048408 0.53581041 4289177511
0.38654065 -0.0079524517 0.53581071 4289309097
0.38700593 -0.0081000775 0.53581095 4288980902
0.3874712 -0.0082477033 0.53581125 4288981155
0.38795 -0.0084972531 0.53577268 4288980385
0.38841504 -0.0086447895 0.53577298 4289045921
0.38888004 -0.0087923408 0.53577328 4289045921
0.3851738 -0.0069696903 0.53550279 4288454809
0.38566932 -0.0073224008 0.5354259 4288717213
0.38613483 -0.0074701011 0.5354262 4289111718
0.38660035 -0.0076178014 0.53542644 4289243304
0.38707989 -0.0078677237 0.53538811 4289046695
0.38754517 -0.0080153346 0.53538841 4288915362
0.38801041 -0.0081629604 0.53538871 4289046178
0.38848895 -0.0084125549 0.53535038 4288980385
0.38894093 -0.0084581971 0.53538918 4289046178
0.38523287 -0.0066343248 0.53511763 4288651937
0.38574335 -0.0070899278 0.53500283 4288782753
0.38620886 -0.0072376132 0.53500313 4289045925
0.38668859 -0.0074877292 0.53496504 4289045925
0.38715386 -0.007635355 0.53496528 4289111718
0.38761914 -0.0077829659 0.53496557 4288848546
0.38808438 -0.0079305917 0.53496581 4289111461
0.38856289 -0.0081803203 0.53492773 4288913312
0.38902789 -0.0083278567 0.53492802 4289308070
0.38533691 -0.0066069812 0.53461766 4288717730
0.38581735 -0.0068574399 0.53457975 4288980132
0.38628286 -0.0070051402 0.53458005 4289177254
0.38674837 -0.0071528405 0.53458035 4289111461
0.38721386 -0.0073005259 0.53458059 4289111461
0.38767937 -0.0074482262 0.53458083 4288848546
0.38814488 -0.0075959265 0.53458112 4289176484
0.3886236 -0.0078458488 0.53454328 4289044898
0.38908887 -0.0079934746 0.53454351 4288913312
0.38539606 -0.0062714964 0.53423226 4288914082
0.38587672 -0.0065221488 0.53419465 4289177254
0.38635686 -0.0067726523 0.53415698 4289374116
0.38680822 -0.0068176985 0.53419518 4289374116
0.38727397 -0.0069654882 0.53419542 4289176737
0.38775337 -0.0072157383 0.53415781 4289045919
0.38821888 -0.0073634386 0.53415805 4289111461
0.38868439 -0.0075111389 0.53415835 4289242277
0.38547012 -0.0060387552 0.53380877 4289045668
0.38593614 -0.0061866194 0.53380901 4289373863
0.38643089 -0.0065401644 0.5337339 4289308070
0.38688225 -0.0065850914 0.53377187 4289242277
0.38736188 -0.0068355501 0.53373444 4289177507
0.38781375 -0.0068806559 0.53377241 4289177507
0.38829291 -0.0071309507 0.53373504 4289111461
0.38874525 -0.0071762055 0.53377295 4289045668
0.38601023 -0.0059538782 0.53338552 4289373350
0.38646188 -0.0059987605 0.53342324 4289373350
0.38692811 -0.0061466992 0.53342354 4289307557
0.3874082 -0.0063974559 0.53338635 4289373865
0.38788781 -0.0066480339 0.53334916 4289177256
0.38834023 -0.0066931546 0.53338683 4289045668
0.38606977 -0.0056179613 0.53299922 4289373350
0.38655031 -0.0058690012 0.53296226 4289307559
0.3870163 -0.0060168654 0.53296256 4289373352
0.38748229 -0.0061647147 0.5329628 4289308072
0.3879483 -0.0063125789 0.5329631 4289045670
0.41587099 -0.035236046 0.49848735 4282530088
0.41625354 -0.035357416 0.49848759 4282004004
0.41554928 -0.034923628 0.49813947 4282924076
0.41593182 -0.035044998 0.49813971 4282529318
0.41631433 -0.035166368 0.49813992 4282201637
0.41669688 -0.035287738 0.49814016 4281938211
0.41707939 -0.035409123 0.49814036 4281477662
0.41561279 -0.034518629 0.49783713 4282858283
0.41599423 -0.034747064 0.49781469 4282529318
0.41637701 -0.034868509 0.49781492 4282529834
0.4167577 -0.035096705 0.49779248 4282134826
0.41714022 -0.03521806 0.49779272 4281477671
0.41752276 -0.035339445 0.49779293 4280688925
0.41790527 -0.035460815 0.49779317 4280228374
0.41528952 -0.034312993 0.49746639 4282990899
0.4156723 -0.034434438 0.49746659 4282858029
0.41605508 -0.034555882 0.49746683 4282858029
0.41643786 -0.034677342 0.49746704 4282660150
0.4168185 -0.034905642 0.49744484 4281870901
0.41720104 -0.035027027 0.49744505 4281215533
0.41758355 -0.035148397 0.49744529 4280688927
0.4179661 -0.035269767 0.49744549 4280359962
0.41535038 -0.034121826 0.4971185 4282727475
0.41573316 -0.034243271 0.49711874 4283054895
0.41611427 -0.034471869 0.49709675 4282989102
0.41649678 -0.034593225 0.49709696 4282658865
0.4168815 -0.034607619 0.4971194 4281871155
0.41726187 -0.034835979 0.4970974 4281280813
0.41764438 -0.034957349 0.49709764 4280952097
0.41802692 -0.035078719 0.49709785 4280491546
0.41840944 -0.035200089 0.49709809 4280030225
0.41541123 -0.033930659 0.49677062 4282662449
0.41579255 -0.034159452 0.49674886 4283054895
0.4161751 -0.034280807 0.4967491 4282989102
0.41655567 -0.034509361 0.49672735 4282724908
0.41694015 -0.034523562 0.49674955 4282199597
0.41732022 -0.034751952 0.49672779 4281412397
0.4177025 -0.034873232 0.496728 4281017890
0.4180848 -0.034994528 0.49672824 4280557339
0.41846707 -0.035115823 0.49672845 4280096272
0.41885278 -0.035130411 0.49675065 4280096018
0.41585338 -0.033968389 0.49640122 4282661934
0.41623417 -0.034197137 0.4963797 4282661934
0.41661644 -0.034318432 0.49637991 4282595629
0.41699874 -0.034439728 0.49638015 4282200871
0.41738102 -0.034561023 0.49638036 4281674789
0.41776329 -0.034682319 0.49638057 4281149728
0.41814557 -0.034803599 0.49638081 4280623384
0.41852784 -0.034924895 0.49638101 4280031249
0.41891015 -0.03504619 0.49638125 4279833100
0.41629314 -0.034113735 0.49601072 4282596656
0.41667724 -0.034127504 0.49603248 4282464557
0.41705722 -0.034356147 0.49601117 4282069797
0.41743925 -0.034477368 0.49601141 4281740580
0.41782129 -0.034598589 0.49601161 4281149728
0.41820332 -0.034719795 0.49601182 4280689177
0.41858536 -0.034841016 0.49601206 4280096788
0.4189674 -0.034962237 0.49601227 4280030227
0.41935319 -0.034976557 0.49603403 4279636752
0.41635206 -0.034030557 0.49564222 4282596143
0.41673386 -0.034151703 0.49564245 4282398764
0.41711566 -0.034272835 0.49564266 4282070051
0.41749743 -0.034393966 0.4956429 4281609759
0.41787922 -0.034515113 0.49564311 4281018907
0.41826099 -0.034636244 0.49564332 4280821528
0.41864279 -0.034757376 0.49564356 4280426518
0.41902459 -0.034878522 0.49564376 4280030997
0.41941017 -0.034892648 0.49566531 4279833882
0.41679034 -0.034176379 0.49525329 4282530350
0.41717163 -0.034297362 0.49525353 4281938978
0.41755292 -0.034418344 0.49525374 4281675802
0.41793421 -0.034539312 0.49525395 4281412634
0.4183155 -0.034660295 0.49525419 4281149462
0.41869679 -0.034781277 0.4952544 4280689429
0.41907808 -0.03490226 0.49525464 4280163348
0.41684663 -0.034201533 0.49486506 4282662449
0.41722745 -0.034322351 0.4948653 4282004769
0.41761088 -0.034335554 0.49488637 4281675802
0.41798905 -0.034564003 0.49486572 4281412634
0.41837299 -0.034577355 0.49488682 4280952601
0.41875064 -0.034805655 0.49486616 4280886808
0.41913146 -0.034926474 0.49486637 4280228626
0.41951224 -0.035047293 0.49486661 4279899924
0.41690063 -0.034335107 0.49445707 4282727475
0.41728312 -0.034347847 0.49447793 4282398250
0.41766343 -0.034468517 0.49447817 4281806879
0.41804373 -0.034589186 0.49447837 4281084185
0.41842723 -0.03460224 0.49449924 4280821267
0.41880435 -0.034830511 0.49447882 4280821267
0.41918465 -0.03495118 0.49447903 4280163083
0.41695881 -0.034253344 0.49409127 4282858801
0.41733864 -0.03437385 0.49409148 4282726445
0.41771844 -0.03449437 0.49409172 4281477660
0.41809827 -0.034614876 0.49409193 4280952853
0.41847807 -0.034735382 0.49409214 4280623886
0.41885787 -0.034855887 0.49409238 4280558093
0.4192377 -0.034976393 0.49409258 4280229130
0.41739398 -0.034400344 0.49370593 4282530088
0.41777331 -0.034520701 0.49370617 4281214742
0.41815263 -0.034641057 0.49370638 4280754704
0.41853192 -0.034761399 0.49370658 4280557325
0.41891477 -0.034773976 0.493727 4280491532
0.41929433 -0.034894407 0.49372721 4280229130
0.41967389 -0.035014838 0.49372745 4280227606
0.41669154 -0.034186929 0.49332085 4282794033
0.41707036 -0.034307122 0.49332106 4282530602
0.41744918 -0.03442733 0.4933213 4282399016
0.41783082 -0.034439385 0.49334148 4281214742
0.41820988 -0.034559667 0.49334168 4280688911
0.41858894 -0.034679934 0.49334189 4280491532
0.41897157 -0.034692317 0.49336207 4280491532
0.41934711 -0.034920484 0.49334234 4280228876
0.41973019 -0.034933031 0.49336252 4279899411
0.41637108 -0.033986092 0.49295661 4282794803
0.41674966 -0.034106225 0.49295682 4282663219
0.41712824 -0.034226328 0.49295706 4282334252
0.41750681 -0.034346461 0.49295726 4282071080
0.41788822 -0.034358323 0.4929772 4281215255
0.41826707 -0.034478515 0.49297744 4280754191
0.41864589 -0.034598723 0.49297765 4280359946
0.41902471 -0.034718916 0.49297786 4280359946
0.41940352 -0.034839109 0.4929781 4280228878
0.4164294 -0.033905715 0.49259305 4283319352
0.41680986 -0.033917144 0.49261278 4282859061
0.41718844 -0.034037262 0.49261299 4282400045
0.41756701 -0.03415738 0.4926132 4282005287
0.41794559 -0.034277499 0.49261343 4281150232
0.41832417 -0.034397617 0.49261364 4280952599
0.41870272 -0.034517735 0.49261385 4280622866
0.41908133 -0.034637839 0.49261409 4280754452
0.41686785 -0.033836812 0.49224943 4282924854
0.41724619 -0.033956856 0.49224964 4282400047
0.41762722 -0.0339683 0.49226916 4282071082
0.41800576 -0.034088418 0.49226937 4281281564
0.41838434 -0.034208536 0.49226958 4281280544
0.41876292 -0.034328654 0.49226981 4280819995
0.41730389 -0.033876687 0.49188673 4282596404
0.41768467 -0.033887938 0.49190602 4282399025
0.41806301 -0.034007981 0.49190623 4281675304
0.41843814 -0.03423658 0.49188739 4281740330
0.41774207 -0.033807829 0.49154335 4282333234
0.41812015 -0.033927783 0.49154356 4281610281
0.4170197 0.0014850646 0.49303406 4282397748
0.41747111 0.0013418347 0.49303433 4282266162
0.41792014 0.0010883063 0.493018 4281477673
0.41836867 0.00083492696 0.49300167 4281412132
0.41881961 0.00069184601 0.49300194 4281017120
0.41663834 0.001743108 0.49260718 4282858551
0.41708952 0.0015999377 0.49260744 4282397748
0.4175407 0.0014567971 0.49260771 4282266162
0.41798943 0.0012032092 0.49259159 4281477673
0.41844305 0.0011704862 0.49260822 4281412132
0.41889131 0.00091706216 0.49259213 4281017120
0.41670835 0.0018576533 0.492181 4282858551
0.41716126 0.001825273 0.49219739 4282397748
0.41761243 0.0016821325 0.49219766 4282266162
0.41806114 0.0014284253 0.49218178 4281477673
0.41851208 0.0012853444 0.49218205 4281412132
0.41896302 0.0011422783 0.49218231 4281017120
0.4176819 0.0017967075 0.4917717 4282266162
0.41813284 0.0016536266 0.49177197 4281477673
0.41858098 0.0013999641 0.49175629 4281412132
