# .PCD v0.7 - Point Cloud Data file format
VERSION 0.7
FIELDS x y z rgb
SIZE 4 4 4 4
TYPE F F F U
COUNT 1 1 1 1
WIDTH 1071
HEIGHT 1
VIEWPOINT 0 0 0 1 0 0 0
POINTS 1071
DATA ascii
0.41521725 0.028434016 0.53129596 4279372048
0.41509989 0.027726956 0.5308466 4279372048
0.41494009 0.027071103 0.53048611 4279175948
0.41486055 0.026306555 0.52994788 4279242518
0.414698 0.025646932 0.52958739 4279176977
0.41449377 0.025039576 0.52931571 4279308563
0.41495529 0.021736801 0.52610087 4279442204
0.41494244 0.020844921 0.52538466 4279114522
0.41472873 0.020224594 0.52511281 4279178778
0.41447458 0.019658208 0.52492988 4279636251
0.4142592 0.019035585 0.52465796 4279504665
0.4675127 0.066321716 0.50355619 4279570948
0.46697026 0.065906584 0.5038169 4279374602
0.46654302 0.065431006 0.50389993 4279440395
0.46605912 0.064986914 0.50407189 4279308555
0.46557581 0.064543657 0.50424379 4279176975
0.46514982 0.064069763 0.50432688 4279176975
0.46466762 0.063627966 0.50449884 4278914054
0.46418598 0.063187003 0.50467074 4278848012
0.46370494 0.06274689 0.5048427 4278848012
0.46322456 0.062307596 0.50501466 4278913546
0.46268886 0.061901674 0.50527549 4279045389
0.46226561 0.061431535 0.50535858 4279440398
0.46178705 0.060994767 0.5055306 4279902238
0.46130908 0.060558826 0.50570261 4279902238
0.46083176 0.060123727 0.50587463 4279968033
0.46035504 0.059689462 0.50604659 4280098847
0.45982391 0.059289806 0.50630748 4280098328
0.45934856 0.058857426 0.50647956 4280229657
0.45892853 0.05839169 0.50656271 4280295450
0.42695683 0.062956423 0.54581195 4278783759
0.4266088 0.062589206 0.54589629 4278850065
0.42626107 0.062222406 0.54598057 4278850063
0.42596394 0.061815768 0.54597592 4278850316
0.42566678 0.061409123 0.54597127 4278521618
0.42536965 0.061002485 0.54596668 4278521618
0.42502266 0.060636729 0.54605103 4278718479
0.42472568 0.0602303 0.54604638 4278850065
0.4244287 0.059823863 0.54604173 4278850065
0.42418107 0.059375919 0.54594815 4278783761
0.42388391 0.058969274 0.5459435 4278783761
0.42363584 0.058520697 0.54584992 4278718997
0.42338744 0.058071703 0.54575634 4278785042
0.42308998 0.05766464 0.54575169 4278783757
0.42284113 0.057215028 0.54565811 4278915343
0.42259198 0.056764983 0.54556453 4278915347
0.42239082 0.056271546 0.5453819 4278783757
0.4221409 0.055820458 0.54528832 4278981136
0.42193866 0.055325553 0.5451057 4279112457
0.42168796 0.054873422 0.54501206 4278915078
0.421437 0.054420874 0.54491842 4279111428
0.42123324 0.053923883 0.54473579 4279243269
0.42102885 0.05342605 0.54455316 4279112455
0.42082387 0.052927382 0.54437053 4279046662
0.42066532 0.052383222 0.54409885 4279046662
0.42041206 0.051927537 0.54400522 4279178250
0.420252 0.051381283 0.54373354 4279177745
0.42004439 0.050879061 0.54355085 4279243019
0.41983619 0.050375998 0.54336816 4279243019
0.41967368 0.049826406 0.54309642 4279374859
0.41946411 0.049321458 0.54291373 4279309836
0.41929993 0.048769556 0.542642 4278783240
0.41908899 0.04826273 0.54245925 4278717447
0.4189688 0.047661997 0.54209852 4278782470
0.41880187 0.047106333 0.54182673 4278782217
0.418634 0.046549425 0.54155493 4278520585
0.41846526 0.045991242 0.54128313 4278586378
0.41834065 0.045384437 0.54092228 4278652173
0.4182148 0.04477597 0.54056144 4278782987
0.41804299 0.044213608 0.54028964 4278783759
0.41791487 0.043601997 0.53992873 4278783759
0.41778553 0.042988718 0.53956783 4278914577
0.41765496 0.042373754 0.53920686 4279308054
0.41752318 0.041757114 0.5388459 4279176979
0.41739017 0.041138813 0.53848493 4279045393
0.41729981 0.040469788 0.53803492 4279045393
0.41716418 0.039847925 0.53767395 4278455575
0.4170709 0.039174929 0.53722388 4278652688
0.41697609 0.038499832 0.5367738 4278652688
0.4168365 0.037872531 0.53641272 4278652173
0.41673881 0.03719347 0.53596258 4278717716
0.41663957 0.036512308 0.53551239 4279045911
0.41649601 0.035879567 0.53515124 4279111704
0.41639388 0.035194434 0.53470105 4278783257
0.41624773 0.03455814 0.5343399 4278717718
0.41610032 0.033920169 0.5339787 4278914577
0.4159939 0.033229187 0.53352839 4278914577
0.41584393 0.032587655 0.53316712 4278520587
0.41573459 0.031892695 0.53271687 4278717198
0.41558203 0.031247608 0.53235555 4279175948
0.4154698 0.030548669 0.53190517 4279241741
0.41531461 0.029900029 0.53154385 4279373079
0.41524076 0.029144518 0.53100443 4279438874
0.41508281 0.028492115 0.53064305 4279372048
0.41492367 0.027838036 0.53028166 4279372048
0.4147633 0.027182296 0.52992028 4279175948
0.41468301 0.026417993 0.52938068 4279242518
0.41460088 0.025651179 0.52884108 4279176977
0.46672177 0.066094346 0.50327241 4279374602
0.46618056 0.065680236 0.50353384 4279440395
0.46575403 0.065205425 0.50361717 4279308555
0.46527112 0.06476222 0.50378954 4279176975
0.46478879 0.064319856 0.50396192 4279176975
0.46436352 0.063846715 0.50404519 4278914054
0.46388224 0.063405812 0.50421762 4278848012
0.46340159 0.062965743 0.50439 4278848012
0.46292156 0.062526509 0.50456244 4278913546
0.46238631 0.062120557 0.50482392 4279045389
0.46190763 0.061683215 0.50499636 4279440398
0.46142957 0.061246701 0.5051688 4279902238
0.46095213 0.060811028 0.50534123 4279902238
0.46053052 0.060342908 0.50542462 4279968033
0.46005416 0.059908696 0.50559711 4280098847
0.45963332 0.059441626 0.50568044 4280098328
0.45910326 0.059042789 0.50594205 4280229657
0.45862871 0.058611088 0.50611454 4280295450
0.42640918 0.06274005 0.54545885 4278850065
0.42606157 0.062373176 0.54554337 4278850063
0.42576441 0.061966538 0.54553878 4278850316
0.42541724 0.061600283 0.5456233 4278521618
0.42512023 0.061193854 0.54561865 4278521618
0.42482325 0.060787417 0.545614 4278718479
0.42452627 0.06038098 0.54560941 4278850065
0.42422926 0.059974551 0.54560477 4278850065
0.42393228 0.059568122 0.54560018 4278783761
0.4236353 0.059161693 0.54559553 4278783761
0.42338726 0.058713406 0.54550171 4278718997
0.42309013 0.058306761 0.54549706 4278785042
0.42284164 0.057857841 0.54540324 4278783757
0.42264131 0.057366028 0.54522026 4278915343
0.42239207 0.056916066 0.54512644 4278915347
0.42209432 0.056508586 0.54512179 4278783757
0.42189264 0.056014888 0.54493868 4278981136
0.42169034 0.055520341 0.5447557 4279112457
0.42143971 0.0550685 0.54466182 4278915078
0.42118877 0.054616235 0.54456794 4279111428
0.42093754 0.054163553 0.54447412 4279243269
0.42078051 0.053622141 0.54420185 4279112455
0.42048123 0.053212568 0.54419714 4279046662
0.4203698 0.052624695 0.54383564 4279046662
0.42016357 0.052124716 0.54365253 4279178250
0.42000335 0.051578909 0.54338014 4279177745
0.41979569 0.051077053 0.54319704 4279243019
0.41963381 0.050528936 0.5429247 4279243019
0.41942477 0.050025195 0.54274154 4279374859
0.41926122 0.049474783 0.54246914 4279309836
0.41905084 0.048969157 0.54228598 4278783240
0.41888559 0.048416443 0.54201353 4278717447
0.41876501 0.047816023 0.54165184 4278782470
0.41859776 0.04726059 0.54137945 4278782217
0.41838431 0.046750784 0.54119623 4278520585
0.41826051 0.046145968 0.54083449 4278586378
0.41809052 0.045586772 0.54056203 4278652173
0.41796443 0.044978812 0.54020023 4278782987
0.41783711 0.044369191 0.53983849 4278783759
0.41770858 0.043757886 0.53947669 4278783759
0.41757882 0.043144912 0.53911489 4278914577
0.41749206 0.042481914 0.5386638 4279308054
0.41731566 0.041913934 0.53839123 4279176979
0.41722614 0.041247182 0.53794008 4279045393
0.41709137 0.040627308 0.53757817 4279045393
0.41699892 0.03995657 0.53712702 4278455575
0.41690499 0.039283745 0.53667581 4278652688
0.41680953 0.038608834 0.5362246 4278652688
0.41666937 0.037981629 0.53586262 4278652173
0.41657099 0.037302747 0.53541136 4278717716
0.41647109 0.036621764 0.53496003 4279045911
0.41632697 0.035989128 0.53459799 4279111704
0.41622415 0.035304174 0.53414667 4278783257
0.41607744 0.034667984 0.53378463 4278717718
0.4159295 0.034030117 0.53342247 4278914577
0.41578034 0.033390582 0.53306043 4278914577
0.41567189 0.032697879 0.53260899 4278520587
0.41556188 0.032003097 0.53215754 4278717198
0.41545036 0.031306215 0.53170604 4279175948
0.41533732 0.030607246 0.53125453 4279241741
0.41518143 0.029958501 0.53089231 4279373079
0.41506547 0.029255562 0.53044081 4279438874
0.41490698 0.028603256 0.53007853 4279372048
0.41470641 0.028002225 0.52980554 4279372048
0.41454563 0.02734679 0.52944326 4279175948
0.41442418 0.026636317 0.52899164 4279242518
0.41460198 0.02285213 0.52566636 4279442204
0.46647331 0.066282108 0.50272799 4279374602
0.46581849 0.065929152 0.50316858 4279440141
0.46539241 0.065454692 0.50325215 4279308555
0.46490997 0.06501174 0.503425 4279176975
0.46448463 0.064538315 0.50350851 4279176975
0.46405962 0.064065307 0.50359207 4278914054
0.46352252 0.063656196 0.50385422 4278848012
0.46304238 0.063216388 0.50402707 4278848012
0.46256286 0.06277743 0.50419992 4278913546
0.46208394 0.062339291 0.50437278 4279045389
0.46160564 0.061902002 0.50454569 4279440398
0.46112794 0.061465546 0.50471854 4279902238
0.46065086 0.061029926 0.50489151 4279902238
0.46022952 0.06056194 0.50497508 4279968033
0.45975351 0.06012778 0.50514799 4280098847
0.45927808 0.059694462 0.50532091 4280098328
0.45885795 0.059228152 0.50540459 4280229657
0.45838362 0.058796287 0.5055775 4280295450
0.45790994 0.05836527 0.50575042 4280294934
0.42631033 0.062811524 0.54484272 4278850065
0.42586204 0.062523946 0.54510617 4278850063
0.42556489 0.062117308 0.54510158 4278850316
0.42521784 0.061750978 0.54518634 4278521618
0.42492086 0.061344542 0.54518169 4278521618
0.42462385 0.060938105 0.5451771 4278718479
0.42432687 0.060531676 0.54517245 4278850065
0.42398056 0.060166404 0.54525721 4278850065
0.42368373 0.059760176 0.54525256 4278783761
0.42343587 0.059312381 0.54515857 4278783761
0.42313892 0.058905944 0.54515392 4278718997
0.4228906 0.058457531 0.54505992 4278785042
0.42264202 0.058008686 0.54496586 4278783757
0.42234471 0.057601839 0.54496121 4278915343
0.42214388 0.057109758 0.54477775 4278915347
0.42189437 0.056659669 0.54468369 4278783757
0.42159665 0.056252189 0.54467905 4278981136
0.42139447 0.055758223 0.54449552 4279112457
0.42119163 0.055263415 0.544312 4278915078
0.42094076 0.05481144 0.54421794 4279111428
0.42073688 0.05431518 0.54403442 4279243269
0.42048523 0.053862154 0.54394037 4279112455
0.42032731 0.05332014 0.54366738 4279046662
0.42012161 0.052821361 0.54348385 4279046662
0.41996199 0.052277036 0.5432108 4279178250
0.41975492 0.051776379 0.54302728 4279177745
0.41959363 0.05122976 0.54275423 4279243019
0.41938519 0.050727211 0.54257065 4279243019
0.41922221 0.050178289 0.5422976 4279374859
0.41901237 0.04967387 0.54211402 4279309836
0.41884774 0.049122646 0.54184091 4278783240
0.41868216 0.048570156 0.5415678 4278717447
0.41856116 0.047970057 0.54120529 4278782470
0.41839361 0.047414854 0.54093212 4278782217
0.41817996 0.046905205 0.54074848 4278520585
0.41805577 0.046300694 0.54038584 4278586378
0.41793033 0.045694508 0.54002321 4278652173
0.41780367 0.045086659 0.53966057 4278782987
0.41767582 0.044477127 0.53929788 4278783759
0.41750231 0.043913774 0.53902465 4278783759
0.41741639 0.043253049 0.53857243 4278914577
0.41728485 0.042638503 0.53820974 4279308054
0.41715211 0.042022288 0.53784698 4279176979
0.41701812 0.041404389 0.53748423 4279045393
0.4168829 0.040784821 0.53712142 4279045393
0.41683346 0.040065378 0.53657961 4278455575
0.41669554 0.03944204 0.5362168 4278652688
0.41659954 0.038767517 0.53576446 4278652688
0.41650203 0.0380909 0.53531206 4278652173
0.416403 0.037412196 0.53485966 4278717716
0.41630241 0.036731377 0.53440726 4279045911
0.41615772 0.036098853 0.53404433 4279111704
0.41605425 0.035414085 0.53359187 4278783257
0.41590697 0.034777984 0.53322887 4278717718
0.41580057 0.034089237 0.53277636 4278914577
0.41565073 0.033449583 0.53241336 4278914577
0.41554144 0.032756865 0.53196084 4278520587
0.41538894 0.032113649 0.53159773 4278717198
0.41527677 0.03141696 0.53114516 4279175948
0.41516304 0.030718163 0.53069252 4279241741
0.41500658 0.030069523 0.53032941 4279373079
0.41484892 0.029419206 0.52996624 4279438874
0.41469002 0.028767213 0.52960312 4279372048
0.41452989 0.028113551 0.52923995 4279372048
0.41432795 0.027511284 0.52896631 4279175948
0.41424641 0.026747912 0.52842402 4279242518
0.41431871 0.024891429 0.52680206 4279308563
0.41443071 0.023849711 0.52581191 4279374356
0.41445965 0.022911638 0.52500081 4279442204
0.46557054 0.066116534 0.50262529 4279440395
0.46508783 0.065672807 0.50279856 4279308555
0.46460578 0.065229923 0.50297183 4279176975
0.46418071 0.064756624 0.50305557 4279176975
0.4636997 0.064315207 0.5032289 4278914054
0.46321929 0.063874617 0.50340217 4278848012
0.46273953 0.063434869 0.5035755 4278848012
0.46220458 0.06302803 0.5038383 4278913546
0.4617818 0.062557876 0.5039221 4279045389
0.46124837 0.062153138 0.50418496 4279440398
0.46077117 0.061716944 0.50435835 4279902238
0.4603498 0.06124866 0.50444216 4279902238
0.45992869 0.060780808 0.50452602 4279968033
0.45945305 0.060346708 0.50469935 4280098847
0.45903271 0.059879899 0.50478321 4280098328
0.45855811 0.059447259 0.5049566 4280229657
0.45808414 0.059015468 0.50512999 4280295450
0.45766503 0.058550313 0.50521386 4280294934
0.45719212 0.05811999 0.50538731 4280294934
0.42566252 0.062674716 0.54466903 4278850063
0.42531541 0.062308103 0.54475397 4278850316
0.42501843 0.061901666 0.54474938 4278521618
0.42472142 0.061495237 0.54474473 4278521618
0.42437494 0.061129466 0.54482973 4278718479
0.42412746 0.060682371 0.54473543 4278850065
0.42378128 0.060317017 0.54482043 4278850065
0.42348441 0.059910789 0.54481584 4278783761
0.42318758 0.059504569 0.54481125 4278783761
0.42289072 0.059098348 0.5448066 4278718997
0.4226425 0.05865021 0.54471231 4278785042
0.42239395 0.058201663 0.54461801 4278783757
0.4221451 0.057752684 0.54452378 4278915343
0.42189592 0.057303295 0.54442948 4278915347
0.42164648 0.056853496 0.54433525 4278783757
0.4213967 0.056403272 0.54424095 4278981136
0.42114663 0.055952623 0.54414666 4279112457
0.42089626 0.055501565 0.54405236 4278915078
0.42069292 0.055006489 0.54386842 4279111428
0.42053622 0.054466799 0.54359478 4279243269
0.42028448 0.054013856 0.54350042 4279112455
0.42007932 0.053516284 0.54331648 4279046662
0.4198736 0.053017862 0.54313248 4279046662
0.41966721 0.052518614 0.54294848 4279178250
0.41950667 0.051973693 0.54267478 4279177745
0.41934526 0.051427513 0.54240108 4279243019
0.41913673 0.050925337 0.54221702 4279243019
0.41901961 0.050331391 0.54185367 4279374859
0.41880959 0.049827121 0.54166961 4279309836
0.41864461 0.049276128 0.54139584 4278783240
0.41847876 0.048723876 0.54112208 4278717447
0.41835734 0.048124082 0.54075861 4278782470
0.41818947 0.047569111 0.54048479 4278782217
0.4179756 0.047059618 0.54030073 4278520585
0.417851 0.046455421 0.53993714 4278586378
0.41772518 0.045849539 0.53957367 4278652173
0.41759813 0.045242004 0.53921008 4278782987
0.41746983 0.044632785 0.53884649 4278783759
0.41734034 0.044021897 0.5384829 4278783759
0.4172096 0.043409333 0.53811932 4278914577
0.41707766 0.042795092 0.53775567 4279308054
0.41694447 0.042179182 0.53739202 4279176979
0.4168101 0.041561596 0.53702837 4279045393
0.41671801 0.040893525 0.53657496 4279045393
0.41662443 0.04022336 0.53612155 4278455575
0.4165293 0.039551109 0.53566808 4278652688
0.41643265 0.038876757 0.5352146 4278652688
0.41633448 0.038200311 0.53476107 4278652173
0.41623476 0.037521787 0.5343076 4278717716
0.41613352 0.036841169 0.53385401 4279045911
0.41598827 0.036208726 0.53349018 4279111704
0.41588414 0.035524137 0.53303659 4278783257
0.41577846 0.03483744 0.532583 4278717718
0.41562924 0.034199573 0.53221911 4278914577
0.41547883 0.033560023 0.53185517 4278914577
0.41536885 0.032867476 0.53140152 4278520587
0.41521579 0.032224372 0.53103751 4278717198
0.41510296 0.031527855 0.5305838 4279175948
0.41498858 0.030829236 0.53013003 4279241741
0.41487265 0.030128539 0.52967632 4279373079
0.41471428 0.02947811 0.52931225 4279438874
0.41455466 0.028826013 0.52894819 4279372048
0.41435316 0.02822502 0.52867389 4279372048
0.41415077 0.027622782 0.52839947 4279175948
0.41410881 0.026806466 0.52776611 4279242518
0.41414511 0.025880381 0.5269531 4279242518
0.46532258 0.066303909 0.50208193 4279440395
0.46478349 0.065890774 0.50234538 4279308555
0.46435824 0.065416984 0.50242937 4279176975
0.46387696 0.064974777 0.50260311 4279176975
0.46339631 0.064533405 0.50277686 4278914054
0.46291628 0.064092875 0.50295061 4278848012
0.46238104 0.06368497 0.50321412 4278848012
0.46190238 0.063246325 0.50338787 4278913546
0.46142432 0.062808514 0.50356168 4279045389
0.46100226 0.062339112 0.50364572 4279440398
0.46052527 0.061902761 0.50381953 4279902238
0.46010399 0.061434418 0.50390351 4279902238
0.45962808 0.060999528 0.50407737 4279968033
0.45920753 0.060532212 0.50416142 4280098847
0.4586781 0.060132265 0.50442505 4280098328
0.45820403 0.059699893 0.50459886 4280229657
0.45783916 0.059200585 0.50459319 4280295450
0.45736602 0.058769464 0.50476706 4280294934
0.45694745 0.058304884 0.5048511 4280294934
0.42556304 0.062745996 0.54405212 4278850063
0.42516586 0.062418848 0.54422718 4278850316
0.42481899 0.062052354 0.54431236 4278521618
0.42452201 0.061645925 0.54430777 4278521618
0.42417562 0.061280072 0.54439294 4278718479
0.42387879 0.060873851 0.54438835 4278850065
0.42358196 0.060467631 0.54438376 4278850065
0.42323613 0.060102612 0.54446894 4278783761
0.42293948 0.0596966 0.54446435 4278783761
0.42269143 0.059248962 0.54436982 4278718997
0.4223946 0.058842734 0.54436523 4278785042
0.42214608 0.058394469 0.54427075 4278783757
0.42189729 0.057945788 0.54417622 4278915347
0.4216482 0.057496682 0.54408175 4278915347
0.4213509 0.057089835 0.5440771 4278783757
0.42114905 0.056597233 0.54389274 4278981136
0.42089903 0.056146868 0.54379821 4279112457
0.42064869 0.055696093 0.54370368 4278915078
0.42044532 0.055201389 0.54351926 4279111428
0.42019424 0.054749563 0.54342473 4279243269
0.41998979 0.054253399 0.54324031 4279112455
0.41983157 0.053712271 0.54296601 4279046662
0.41962576 0.053214222 0.54278159 4279046662
0.41946584 0.052670777 0.54250723 4279178250
0.41930503 0.052126095 0.54223287 4279177745
0.41909707 0.051625118 0.54204839 4279243019
0.41893455 0.051078126 0.54177403 4279243019
0.41877112 0.050529875 0.54149961 4279374859
0.41856104 0.050025977 0.54131508 4279309836
0.41844153 0.04942961 0.54095078 4278783240
0.41827536 0.048877597 0.54067636 4278717447
0.41815352 0.048278108 0.54031199 4278782470
0.41798535 0.047723368 0.54003751 4278782217
0.41781625 0.047167391 0.53976297 4278520585
0.41769108 0.046563283 0.53939861 4278586378
0.41756469 0.045957528 0.53903413 4278652173
0.41743708 0.045350075 0.53866971 4278782987
0.41730821 0.044740953 0.53830522 4278783759
0.41713393 0.04417786 0.53803062 4278783759
0.4170028 0.043565601 0.53766614 4278914577
0.41687042 0.042951673 0.5373016 4279308054
0.41678062 0.042287752 0.53684711 4279176979
0.41668925 0.041621745 0.53639263 4279045393
0.41655293 0.041002378 0.53602803 4279045393
0.41645867 0.040332399 0.53557348 4278455575
0.41636288 0.03966032 0.53511888 4278652688
0.41626555 0.038986154 0.53466427 4278652688
0.41616672 0.038309895 0.53420967 4278652173
0.41606635 0.037631534 0.533755 4278717716
0.41596442 0.036951095 0.53330034 4279045911
0.41586101 0.036268562 0.53284562 4279111704
0.41571382 0.035634339 0.5324809 4278783257
0.41560748 0.034947827 0.53202617 4278717718
0.4154577 0.034310065 0.53166139 4278914577
0.41534847 0.033619568 0.53120655 4278914577
0.41523769 0.032926999 0.53075176 4278520587
0.41508394 0.032283776 0.53038687 4278717198
0.41492897 0.031638898 0.53002203 4279175948
0.41481388 0.030940466 0.52956712 4279241741
0.41465631 0.030292019 0.52920222 4279373079
0.41449749 0.029641911 0.52883726 4279438874
0.41433749 0.02899012 0.5284723 4279372048
0.41409513 0.028442077 0.52828729 4279372048
0.41397336 0.027734444 0.52783227 4279175948
0.41393054 0.026918449 0.52719736 4279242518
0.46513125 0.066460818 0.50144863 4279440395
0.46453586 0.066077918 0.50180274 4279308555
0.46405435 0.065634921 0.50197691 4279176975
0.46362963 0.06516169 0.50206113 4279176975
0.46320522 0.064688876 0.50214535 4278914054
0.46266934 0.064279474 0.50240952 4278848012
0.46213442 0.063871339 0.50267369 4278848012
0.46165597 0.063432537 0.50284791 4278913546
0.46117812 0.06299457 0.50302213 4279045389
0.46070087 0.062557437 0.50319636 4279440398
0.46027938 0.062088594 0.50328064 4279902238
0.45980322 0.061652914 0.50345492 4279902238
0.45938247 0.061185122 0.5035392 4279968033
0.45890737 0.060750917 0.50371349 4280164640
0.45848742 0.060284168 0.50379777 4280098328
0.45795906 0.059885025 0.50406206 4280229657
0.45753998 0.059419513 0.50414634 4280295450
0.45712125 0.058954433 0.50423068 4280294934
0.45664889 0.058523998 0.50440502 4280294934
0.45623091 0.058059961 0.5044893 4280032278
0.42491657 0.062609486 0.54388005 4278850316
0.42456999 0.062243134 0.54396546 4278521618
0.42432261 0.06179662 0.54387081 4278521618
0.4239763 0.061430693 0.54395622 4278718479
0.4236303 0.061065182 0.54404169 4278850065
0.42333364 0.06065917 0.5440371 4278850065
0.42303693 0.060253151 0.54403245 4278783761
0.42274028 0.059847139 0.54402781 4278783761
0.42244357 0.059441119 0.54402316 4278718997
0.42219529 0.058993354 0.5439285 4278785042
0.42194667 0.058545165 0.54383373 4278783757
0.4216978 0.058096558 0.54373908 4278915347
0.42140064 0.05768992 0.54373443 4278915347
0.42115128 0.05724068 0.54363966 4278783757
0.42094922 0.056748234 0.54345489 4278981136
0.42069909 0.05629795 0.54336011 4279112457
0.42044866 0.05584725 0.54326534 4278915078
0.42029226 0.055309273 0.54299045 4279111428
0.41999391 0.054900959 0.5429858 4279243269
0.41983613 0.054361105 0.54271078 4279112455
0.41958401 0.05390811 0.54261601 4279046662
0.41942471 0.053366154 0.54234099 4279046662
0.41921809 0.052867427 0.5421561 4279178250
0.4190571 0.05232317 0.54188108 4279177745
0.41889518 0.051777668 0.54160607 4279243019
0.41873237 0.051230907 0.54133099 4279243019
0.41852283 0.050728202 0.54114604 4279374859
0.41835833 0.050179154 0.5408709 4279309836
0.4182384 0.049583092 0.54050571 4278783240
0.41807193 0.04903131 0.54023057 4278717447
0.41794968 0.048432134 0.53986537 4278782470
0.41778123 0.047877632 0.53959018 4278782217
0.41761181 0.047321886 0.53931504 4278520585
0.41748625 0.046718091 0.53894973 4278586378
0.41735941 0.046112642 0.53858435 4278652173
0.41723138 0.045505494 0.53821903 4278782987
0.41710216 0.044896685 0.5378536 4278783759
0.41692755 0.04433383 0.5375784 4278783759
0.41683996 0.043674052 0.53712285 4278914577
0.41670704 0.043060236 0.53675741 4279308054
0.41661656 0.042396493 0.53630179 4279176979
0.41648102 0.041779108 0.5359363 4279045393
0.41638762 0.041111395 0.53548062 4279045393
0.4162927 0.040441595 0.535025 4278455575
0.41619623 0.039769694 0.53456926 4278652688
0.41609827 0.0390957 0.53411353 4278652688
0.41599876 0.038419619 0.53365779 4278652173
0.4158977 0.037741445 0.53320205 4278717716
0.41579515 0.037061177 0.5327462 4279045911
0.41569105 0.036378816 0.5322904 4279111704
0.41554332 0.035744712 0.53192472 4278783257
0.4154363 0.035058364 0.53146887 4278717718
0.41528594 0.034420699 0.53110313 4278914577
0.41517603 0.033730395 0.53064728 4278914577
0.4150646 0.03303799 0.5301913 4278520587
0.41491029 0.032394886 0.52982557 4278717198
0.41475472 0.031750098 0.52945977 4279175948
0.41463903 0.031051837 0.52900374 4279241741
0.41443998 0.030455507 0.52872813 4279373079
0.41432151 0.029753491 0.52827209 4279438874
0.41407973 0.029206656 0.52808666 4279372048
0.41395867 0.028501071 0.52763057 4279372048
0.4642882 0.066265061 0.50126004 4279308555
0.46375066 0.065852717 0.50152487 4279176975
0.4633823 0.065348595 0.50151914 4279176975
0.46290207 0.064906918 0.50169379 4278914054
0.46242243 0.064466074 0.50186843 4278848012
0.46183217 0.064089343 0.50222349 4278848012
0.46135408 0.063650593 0.50239813 4278913546
0.46087658 0.063212678 0.50257283 4279045389
0.46045488 0.062743336 0.50265729 4279440398
0.46003348 0.062274411 0.50274181 4279902238
0.45955753 0.061838582 0.50291651 4279902238
0.4591369 0.061370708 0.50300103 4279968033
0.458662 0.060936347 0.50317574 4280098847
0.45813331 0.060536146 0.50344074 4280098328
0.45765984 0.060103662 0.50361544 4280229657
0.457241 0.059638299 0.50370002 4280295450
0.45682251 0.059173346 0.50378454 4280294934
0.45640433 0.058708817 0.50386906 4280294934
0.45598644 0.058244705 0.50395364 4280032278
0.42476684 0.062720381 0.54335284 4278850316
0.42437068 0.062393755 0.54352874 4278521618
0.42402446 0.062027745 0.54361439 4278521618
0.42377698 0.061581306 0.5435195 4278718479
0.4234311 0.061215714 0.54360521 4278850065
0.42313442 0.060809702 0.54360056 4278850065
0.42283773 0.06040369 0.54359591 4278783761
0.42254105 0.059997678 0.54359126 4278783761
0.42224437 0.059591666 0.54358667 4278718997
0.42199597 0.059143968 0.54349172 4278785042
0.42169914 0.05873774 0.54348707 4278783757
0.42145026 0.058289424 0.54339218 4278915347
0.42120111 0.057840683 0.54329723 4278915347
0.42095166 0.057391524 0.54320228 4278783757
0.42070189 0.056941949 0.54310727 4278981136
0.42045179 0.056491964 0.54301238 4279112457
0.42024863 0.0559984 0.54282707 4278915078
0.42004487 0.055504017 0.54264176 4279111428
0.41984048 0.055008791 0.54245645 4279243269
0.41958871 0.054556489 0.54236144 4279112455
0.41938326 0.054059803 0.54217613 4279046662
0.41922367 0.053518087 0.54190046 4279046662
0.41906312 0.052975111 0.54162478 4279178250
0.41885555 0.05247549 0.54143941 4279177745
0.4186933 0.051930219 0.54116368 4279243019
0.41843849 0.051473744 0.54106867 4279243019
0.41832045 0.050881147 0.54070258 4279374859
0.41815564 0.050332323 0.54042679 4279309836
0.4180353 0.049736574 0.54006064 4278783240
0.41786849 0.049185023 0.53978485 4278717447
0.41774589 0.04858616 0.5394187 4278782470
0.41757709 0.048031889 0.53914285 4278782217
0.41740739 0.047476374 0.53886706 4278520585
0.41728139 0.046872891 0.53850079 4278586378
0.41715416 0.046267748 0.53813457 4278652173
0.41702572 0.04566092 0.53776836 4278782987
0.41689605 0.045052417 0.53740203 4278783759
0.41672117 0.044489793 0.53712618 4278783759
0.41663307 0.04383041 0.53666943 4278914577
0.41654342 0.04316894 0.53621274 4279308054
0.41640872 0.042553544 0.53584635 4279176979
0.41631618 0.041888095 0.53538966 4279045393
0.41622213 0.041220568 0.53493285 4279045393
0.41608346 0.040599734 0.5345664 4278455575
0.41602939 0.039879218 0.53401923 4278652688
0.41593075 0.039205402 0.5335623 4278652688
0.41583055 0.0385295 0.53310549 4278652173
0.41572887 0.037851505 0.53264856 4278717716
0.41562563 0.037171423 0.53219163 4279045911
0.41552085 0.036489248 0.5317347 4279111704
0.41537255 0.035855226 0.53136814 4278783257
0.4152649 0.03516908 0.53091115 4278717718
0.41515571 0.034480825 0.5304541 4278717718
0.41500342 0.033841372 0.53008747 4278914577
0.41484988 0.033200242 0.52972084 4278520587
0.41469514 0.032557443 0.52935416 4278717198
0.41453922 0.031912968 0.52898747 4279175948
0.41442299 0.031215094 0.52853036 4279241741
0.41422361 0.030618995 0.52825403 4279373079
0.41406399 0.029969506 0.52788734 4279438874
0.41390315 0.02931834 0.52752054 4279372048
0.41370076 0.028718047 0.52724421 4279372048
0.46355945 0.066008903 0.50089246 4279176975
0.46307898 0.06556645 0.50106752 4279176975
0.46265492 0.065093674 0.50115222 4278914054
0.46211982 0.064684033 0.50141776 4278848012
0.46164116 0.064244077 0.50159287 4278848012
0.46116313 0.063804962 0.50176799 4278913546
0.46063048 0.063398659 0.50203353 4279045389
0.46015382 0.062961429 0.50220871 4279440398
0.45973265 0.062492639 0.50229341 4279902238
0.45931181 0.062024258 0.50237811 4279902238
0.45883667 0.061589114 0.50255328 4279968033
0.45836216 0.06115482 0.50272846 4280164640
0.45788825 0.060721353 0.5029037 4280098328
0.4573608 0.060322158 0.5031693 4280229657
0.45694226 0.059856921 0.50325406 4280295450
0.45647016 0.059425965 0.50342929 4280294934
0.45610607 0.0589277 0.50342357 4280294934
0.45568842 0.058463722 0.50350839 4280032278
0.45527112 0.058000162 0.50359321 4279966994
0.42417139 0.062544368 0.54309201 4278521618
0.42382526 0.062178284 0.5431779 4278521618
0.42352858 0.061772272 0.54317331 4278718479
0.42318296 0.061406806 0.54325914 4278850065
0.42288643 0.061001003 0.54325455 4278850065
0.42263854 0.060554221 0.54315937 4278783761
0.42224485 0.060230576 0.54333586 4278783761
0.42204517 0.059742197 0.54315019 4278718997
0.42174846 0.059336185 0.54314554 4278785042
0.42149985 0.058888361 0.54305041 4278783757
0.42125088 0.058440112 0.54295516 4278915347
0.42100161 0.05799146 0.54286003 4278915347
0.42075205 0.057542376 0.54276484 4278783757
0.42054957 0.057050236 0.54257911 4278981136
0.42029923 0.056600109 0.54248393 4279112457
0.42009574 0.0561065 0.5422982 4278915078
0.41984463 0.05565533 0.54220295 4279111428
0.41964006 0.055160254 0.54201722 4279243269
0.41938818 0.054708034 0.54192197 4279112455
0.41918254 0.054211505 0.54173625 4279046662
0.41902259 0.053670019 0.54145992 4279046662
0.41886175 0.053127274 0.54118347 4279178250
0.41865396 0.052627817 0.54099768 4279177745
0.41849142 0.052082777 0.5407213 4279243019
0.41828227 0.051581427 0.54053545 4279243019
0.41816366 0.050988927 0.54016846 4279374859
0.41799837 0.050440125 0.53989208 4279309836
0.4178322 0.049890064 0.53961563 4278783240
0.41766509 0.049338743 0.53933913 4278717447
0.41754204 0.048740186 0.53897208 4278782470
0.41737294 0.048186153 0.53869557 4278782217
0.41724759 0.047584452 0.53832847 4278520585
0.41707653 0.047027692 0.53805196 4278586378
0.41694891 0.046422862 0.5376848 4278652173
0.41682005 0.045816347 0.53731763 4278782987
0.41668999 0.045208156 0.53695047 4278783759
0.41655868 0.044598296 0.5365833 4278783759
0.4164699 0.043939099 0.53612542 4278914577
0.416336 0.043325685 0.53575826 4279308054
0.41624433 0.042662509 0.53530037 4279176979
0.41615114 0.041997246 0.53484249 4279045393
0.41605639 0.041329883 0.53438461 4279045393
0.41591716 0.040709153 0.53401726 4278455575
0.41586238 0.039988898 0.53346866 4278652688
0.41576305 0.039315261 0.53301072 4278652688
0.4156622 0.038639545 0.53255272 4278652173
0.41555983 0.037961721 0.53209466 4278717716
0.41541371 0.037331574 0.53172725 4279045911
0.41530842 0.036649793 0.53126919 4279111704
0.4152016 0.035965897 0.53081107 4278783257
0.4150933 0.03527993 0.53035295 4278717718
0.41494182 0.034642458 0.52998543 4278717718
0.41483057 0.033952504 0.52952731 4278914577
0.41459388 0.033413507 0.52934098 4278520587
0.41448003 0.03272 0.52888274 4278717198
0.41432369 0.032075837 0.52851522 4279175948
0.41420695 0.031378351 0.52805698 4279241741
0.41400728 0.030782491 0.52778 4279373079
0.41384727 0.030133307 0.52741235 4279438874
0.41372639 0.029430173 0.52695405 4279372048
0.46331203 0.06619589 0.50035024 4279176975
0.46283174 0.065753281 0.50052577 4279176975
0.46240777 0.06528043 0.50061071 4278914054
0.46187299 0.064870551 0.5008769 4278848012
0.46139455 0.064430438 0.50105244 4278848012
0.46080616 0.064054556 0.50140929 4278913546
0.46043947 0.063552737 0.50140357 4279045389
0.45990789 0.063147254 0.50166988 4279440398
0.45948687 0.062678382 0.50175476 4279902238
0.4590115 0.062242456 0.50193042 4279902238
0.45853668 0.061807372 0.50210601 4279968033
0.45806253 0.061373115 0.50228167 4280164640
0.45758897 0.060939714 0.50245726 4280098328
0.45711601 0.060507134 0.50263292 4280229657
0.45664367 0.060075387 0.50280857 4280295450
0.45622569 0.05961071 0.50289357 4280294934
0.45580801 0.059146434 0.50297856 4280294934
0.45539063 0.058682583 0.50306356 4280032278
0.45492029 0.058253556 0.50323927 4279966994
0.42362607 0.062328815 0.54274142 4278521618
0.42328036 0.061963066 0.54282749 4278718479
0.42298383 0.061557263 0.5428229 4278850065
0.42268729 0.06115146 0.54281825 4278850065
0.42234224 0.060786553 0.54290438 4278783761
0.42209426 0.060339853 0.54280901 4278783761
0.42179772 0.05993405 0.54280436 4278718997
0.42154926 0.059486717 0.54270899 4278785042
0.42130053 0.059038967 0.54261363 4278783757
0.42105144 0.058590807 0.54251826 4278915347
0.42080209 0.058142222 0.54242283 4278915347
0.42055243 0.057693221 0.5423274 4278783757
0.42034978 0.057201236 0.54214126 4278981136
0.42009932 0.056751184 0.54204583 4279112457
0.41989562 0.05625774 0.54185963 4278915078
0.41969126 0.055763438 0.54167342 4279111428
0.41943961 0.055311725 0.54157799 4279243269
0.41923422 0.05481597 0.54139179 4279112455
0.41898179 0.054363206 0.54129636 4279046662
0.41882154 0.053821951 0.54101932 4279046662
0.4186604 0.053279445 0.54074228 4279178250
0.41845241 0.052780136 0.54055601 4279177745
0.41828957 0.052235335 0.54027891 4279243019
0.41812581 0.051689267 0.54000187 4279243019
0.41800666 0.051096871 0.53963399 4279374859
0.4177956 0.050593376 0.53944767 4279309836
0.41762909 0.050043546 0.5391705 4278783240
0.41750669 0.049446762 0.53880262 4278717447
0.41733822 0.048894212 0.53852546 4278782470
0.41716883 0.04834041 0.53824824 4278782217
0.41704306 0.047739021 0.53788024 4278520585
0.4169161 0.047135957 0.53751224 4278586378
0.41678792 0.046531215 0.53714418 4278652173
0.41665849 0.045924798 0.53677613 4278782987
0.41652784 0.045316726 0.53640807 4278783759
0.41639599 0.044706956 0.53603995 4278783759
0.41626289 0.044095531 0.53567183 4278914577
0.41617209 0.04343462 0.53521287 4279308054
0.41607976 0.04277163 0.53475392 4279176979
0.41598588 0.042106539 0.53429484 4279045393
0.41589049 0.041439369 0.53383589 4279045393
0.41575068 0.040818729 0.53346765 4278455575
0.41565239 0.04014758 0.53300858 4278652688
0.41559514 0.039425276 0.5324586 4278652688
0.4154512 0.038799003 0.53209031 4278652173
0.41534832 0.038121559 0.53163111 4278717716
0.41524389 0.037442043 0.53117198 4279045911
0.41513795 0.036760442 0.53071278 4279111704
0.41503048 0.036076725 0.53025353 4278914843
0.4148798 0.03544125 0.52988517 4278717718
0.41472793 0.034804083 0.52951676 4278717718
0.41461617 0.034114525 0.5290575 4278914577
0.41442049 0.033524737 0.52877986 4278520587
0.41426492 0.032882556 0.52841139 4278717198
0.41414905 0.03218735 0.52795208 4278782991
0.41395015 0.031593174 0.52767444 4279241741
0.41375035 0.030997753 0.5273968 4279373079
0.41363049 0.030297101 0.52693737 4279438874
0.4625845 0.065940112 0.49998403 4279176975
0.46210504 0.065498173 0.50015998 4278914054
0.46162617 0.065057077 0.50033605 4278848012
0.46109259 0.064648211 0.5006029 4278848012
0.46055996 0.064240612 0.50086981 4278913546
0.46008325 0.063802443 0.50104582 4279045389
0.45966199 0.063333079 0.501131 4279440398
0.45918635 0.062896371 0.50130701 4279902238
0.45876586 0.06242805 0.50139225 4279902238
0.45829129 0.061992809 0.50156832 4279968033
0.45781732 0.061558396 0.50174439 4280164640
0.4572899 0.061157912 0.50201136 4280098328
0.4568173 0.060725391 0.50218749 4280229657
0.45634532 0.060293704 0.50236356 4280295450
0.45592758 0.059829153 0.5024488 4280294934
0.45551017 0.059365012 0.50253403 4280294934
0.45503971 0.058935419 0.50271016 4280032278
0.45462304 0.05847232 0.5027954 4279966994
0.4230324 0.062153719 0.5424822 4278718479
0.42278475 0.06170772 0.54238659 4278850065
0.42243963 0.06134253 0.54247296 4278850065
0.42214325 0.060936935 0.54246831 4278783761
0.42189515 0.06049031 0.5423727 4278783761
0.42164674 0.060043275 0.5422771 4278718997
0.42135006 0.059637256 0.54227251 4278785042
0.42110121 0.059189588 0.5421769 4278783757
0.42085204 0.058741495 0.54208124 4278915347
0.42060256 0.058292992 0.54198563 4278915347
0.42035282 0.057844065 0.54189003 4278783757
0.42014992 0.057352237 0.5417034 4278981136
0.4198994 0.056902267 0.54160774 4279112457
0.41969547 0.056408972 0.54142112 4278915078
0.41949093 0.055914834 0.54123443 4279111428
0.41923916 0.055463187 0.54113877 4279243269
0.41903356 0.05496759 0.54095209 4279112455
0.41882733 0.054471157 0.54076546 4279046662
0.4186205 0.053973883 0.54057872 4279046662
0.41845906 0.053431608 0.54030102 4279178250
0.41829669 0.05288808 0.54002333 4279177745
0.41813338 0.052343294 0.53974557 4279243019
0.41792363 0.051842049 0.53955883 4279243019
0.41780406 0.051249966 0.53919005 4279374859
0.41759279 0.050746627 0.53900325 4279309836
0.41747105 0.050151609 0.53863442 4278783240
0.41730317 0.049600556 0.53835666 4278717447
0.4171344 0.049048245 0.53807878 4278782470
0.41696471 0.048494667 0.53780091 4278782217
0.41683853 0.047893591 0.53743207 4278520585
0.41671115 0.047290832 0.53706312 4278586378
0.41658252 0.046686411 0.53669417 4278652173
0.41649672 0.046033427 0.53623414 4278782987
0.41636553 0.045425437 0.53586519 4278783759
0.4161894 0.044863075 0.53558725 4278783759
0.41609943 0.044204451 0.53512716 4278914577
0.41600797 0.043543726 0.53466713 4279308054
0.41591495 0.042880908 0.53420699 4279176979
0.41582042 0.042215995 0.53374684 4279045393
0.41568142 0.041597351 0.53337777 4279045393
0.415584 0.040928468 0.53291756 4278455575
0.41548502 0.040257491 0.53245735 4278652688
0.41538453 0.039584421 0.53199708 4278652688
0.41528252 0.038909264 0.53153682 4278652173
0.41522112 0.038182624 0.53098547 4278717716
0.41511589 0.037503064 0.53052521 4278783509
0.41496727 0.03687124 0.53015596 4279111704
0.41485912 0.036187708 0.52969563 4278914843
0.41466635 0.035602562 0.5294174 4278717718
0.41451406 0.034965709 0.52904809 4278717718
0.41440177 0.034276538 0.5285877 4278914577
0.41420579 0.033686981 0.5283094 4278652173
0.41400889 0.033096179 0.52803111 4278717198
0.41385186 0.032452852 0.5276618 4279175948
0.41373423 0.031756356 0.52720129 4279241741
0.46185797 0.065684855 0.49961871 4278914054
0.46132398 0.065274715 0.49988624 4278848012
0.4608461 0.064834505 0.5000627 4278848012
0.46031374 0.064426668 0.50033027 4278913546
0.45983726 0.063988343 0.50050676 4279045389
0.45936134 0.06355086 0.50068325 4279440398
0.45888606 0.063114211 0.50085974 4279902238
0.45846581 0.062646016 0.50094521 4279902238
0.4579916 0.062210828 0.5011217 4279968033
0.45751801 0.061776474 0.50129825 4280164640
0.45699102 0.061375961 0.50156587 4280098328
0.45651877 0.060943484 0.50174242 4280229657
0.45604718 0.060511865 0.50191903 4280295450
0.45562971 0.060047433 0.50200444 4280294934
0.45521253 0.059583433 0.50208992 4280294934
0.45479566 0.059119843 0.50217533 4280032278
0.45432603 0.058690935 0.50235194 4279966994
0.42248836 0.061938822 0.54213268 4278850065
0.42224061 0.061492912 0.54203689 4278850065
0.42194426 0.06108731 0.54203224 4278783761
0.42169604 0.060640767 0.54193646 4278783761
0.4213995 0.060234964 0.54193181 4278718997
0.42115086 0.059787795 0.54183602 4278785042
0.42090189 0.059340201 0.54174018 4278783757
0.42065263 0.05889219 0.54164433 4278915347
0.42045051 0.058401763 0.54145724 4278915347
0.42020047 0.057952709 0.54136139 4278783757
0.41999722 0.057460822 0.54117429 4278981136
0.41974646 0.057010718 0.54107845 4279112457
0.41954213 0.056517363 0.54089135 4278915078
0.4192906 0.056066215 0.54079545 4279111428
0.41908523 0.055571407 0.54060835 4279243269
0.41887927 0.055075757 0.54042125 4279112455
0.41867268 0.054579265 0.54023409 4279046662
0.4184655 0.054081932 0.54004693 4279046662
0.41825768 0.053583771 0.53985977 4279178250
0.41809499 0.053040482 0.53958142 4279177745
0.41793141 0.052495927 0.53930295 4279243019
0.4177669 0.051950119 0.53902453 4279243019
0.41760147 0.051403061 0.53874612 4279374859
0.41743511 0.050854743 0.53846765 4279309836
0.41726786 0.050305173 0.53818917 4278783240
0.41709965 0.049754351 0.5379107 4278717447
0.41693056 0.049202263 0.53763217 4278782470
0.41680509 0.048602954 0.53726232 4278782217
0.41663396 0.048048161 0.53698385 4278520585
0.4165504 0.047399327 0.53652275 4278586378
0.41642123 0.046794996 0.5361529 4278652173
0.41629085 0.046188995 0.53578305 4278782987
0.41615924 0.045581326 0.53541315 4278783759
0.41602638 0.04497198 0.53504324 4278783759
0.41593578 0.04431352 0.53458208 4278914577
0.41580033 0.043700621 0.53421211 4279308054
0.41566369 0.043086044 0.53384221 4279176979
0.41561177 0.042373665 0.53328967 4279045393
0.41551521 0.041707054 0.53282833 4279045393
0.4154171 0.041038349 0.53236699 4278455575
0.41531748 0.040367559 0.53190571 4278652688
0.41521633 0.039694682 0.53144431 4278652688
0.41515583 0.038970582 0.53089166 4278717966
0.41500938 0.038342625 0.53052157 4278717716
0.41498747 0.037564412 0.52987754 4278783509
0.41475463 0.037031934 0.52968997 4279111704
0.41464597 0.036348797 0.52922851 4278914843
0.41449434 0.035713732 0.5288583 4278717718
0.41430017 0.035127342 0.52857941 4278717718
0.41418737 0.03443855 0.5281179 4278914577
0.41399109 0.033849232 0.52783895 4278652173
0.41383469 0.03320767 0.52746868 4278717198
0.41363642 0.032615647 0.52718973 4279175948
0.46113253 0.06543012 0.49925429 4278848012
0.46054447 0.065052047 0.49961382 4278848012
0.46001258 0.064644188 0.4998821 4278913546
0.45953643 0.064205915 0.50005901 4279045389
0.45906088 0.063768476 0.50023597 4279440398
0.45858598 0.06333188 0.50041294 4279902238
0.458166 0.062863827 0.50049853 4279902238
0.45769215 0.062428683 0.50067556 4279968033
0.45716485 0.062027104 0.5009439 4280164640
0.45669234 0.06159386 0.50112087 4280098328
0.45622048 0.061161444 0.50129783 4280229657
0.45574921 0.060729861 0.50147486 4280295450
0.45527858 0.060299121 0.50165188 4280294934
0.45486182 0.059835449 0.50173759 4280294934
0.45439225 0.059406176 0.50191462 4280032278
0.45397624 0.058943562 0.50200033 4279966994
0.42228946 0.062089123 0.54169685 4278850065
0.42204162 0.061643288 0.54160082 4278850065
0.42174524 0.061237693 0.54159617 4278783761
0.42149693 0.060791224 0.54150015 4278783761
0.42124835 0.060344346 0.54140413 4278718997
0.42095166 0.059938326 0.54139948 4278785042
0.42070261 0.059490815 0.5413034 4278783757
0.4205007 0.059001178 0.54111588 4278915343
0.42025089 0.058552608 0.5410198 4278915347
0.42004788 0.05806151 0.54083228 4278783757
0.4197973 0.057611905 0.5407362 4278981136
0.41959327 0.05711934 0.54054868 4279112457
0.41938862 0.056625918 0.54036111 4278915078
0.41913682 0.056174651 0.54026502 4279111428
0.4189311 0.055679783 0.54007745 4279243269
0.41867852 0.055227458 0.53998137 4279112455
0.41847172 0.054731123 0.53979373 4279046662
0.41826433 0.054233946 0.53960615 4279046662
0.41810212 0.053691924 0.53932709 4279178250
0.41789335 0.053192876 0.53913951 4279177745
0.41777492 0.052604131 0.53876889 4279243019
0.41756463 0.052102983 0.53858125 4279243019
0.41739887 0.051556155 0.53830218 4279374859
0.41723222 0.051008068 0.53802299 4279309836
0.41710952 0.050413467 0.53765237 4278783240
0.41694087 0.049862668 0.53737324 4278717447
0.41677132 0.04931061 0.53709406 4278782470
0.41660085 0.048757292 0.53681481 4278782217
0.41647372 0.048156619 0.53644413 4278520585
0.41634536 0.047554284 0.53607345 4278586378
0.41621578 0.046950266 0.53570271 4278652173
0.41608495 0.046344578 0.5353319 4278782987
0.41595295 0.045737214 0.53496116 4278783759
0.4158197 0.045128182 0.53459036 4278783759
0.41572857 0.044470109 0.53412807 4278914577
0.41563594 0.043809943 0.53366566 4279308054
0.4154987 0.043195479 0.5332948 4279176979
0.41544604 0.04248336 0.53274095 4279045393
0.41534877 0.041816927 0.53227854 4279045393
0.41529259 0.041100003 0.53172457 4278455575
0.41514972 0.040477782 0.53135359 4278652688
0.41504788 0.039805077 0.53089112 4278652688
0.41498667 0.039081231 0.5303371 4278717966
0.41488162 0.038404144 0.52987456 4278717716
0.41477504 0.037724949 0.52941203 4278783509
0.41458362 0.037142977 0.52913249 4279111704
0.41443282 0.036509879 0.52876139 4278914843
0.41423941 0.035925195 0.52848184 4278717718
0.41408628 0.035288967 0.52811074 4278717718
0.41393197 0.034651063 0.52773964 4278914577
0.41377637 0.034011483 0.52736849 4278652173
0.46024305 0.065269426 0.49916542 4278848012
0.45971161 0.064861551 0.49943435 4278913546
0.4592905 0.064391747 0.49952018 4279045389
0.45876065 0.063985951 0.49978912 4279440398
0.45828605 0.063549399 0.49996656 4279902238
0.45775786 0.063145921 0.50023556 4279902238
0.45739284 0.062646404 0.50022984 4279968033
0.45681208 0.062277436 0.50059038 4280164640
0.4563939 0.061811596 0.50067627 4280098328
0.45586872 0.06141229 0.50094533 4280229657
0.45545149 0.060947716 0.50103116 4280295450
0.45492786 0.060550496 0.50130022 4280294934
0.45445833 0.060120858 0.50147772 4280294934
0.45398939 0.059692055 0.50165522 4280032278
0.45357397 0.059229985 0.50174117 4279966994
0.45315886 0.058768339 0.50182712 4279835408
0.4223868 0.062644809 0.54126561 4278718479
0.42209056 0.062239431 0.54126102 4278850065
0.42184263 0.061793678 0.54116476 4278850065
0.42154625 0.061388075 0.54116011 4278783761
0.42129785 0.060941681 0.54106385 4278783761
0.42100132 0.060535878 0.54105926 4278718997
0.42075247 0.060088873 0.54096293 4278785042
0.42050329 0.059641428 0.54086667 4278783757
0.4203012 0.059151947 0.54067874 4278915343
0.42005125 0.05870346 0.54058242 4278915347
0.41984808 0.058212519 0.54039443 4278783757
0.41959739 0.057762988 0.5402981 4278981136
0.41939315 0.057270572 0.54011011 4279112457
0.41918829 0.056777313 0.53992212 4278915078
0.41893637 0.056326114 0.5398258 4279111428
0.41873044 0.055831403 0.5396378 4279243269
0.41852391 0.05533585 0.53944975 4279112455
0.41827077 0.054882981 0.53935343 4279046662
0.41806316 0.054385953 0.53916538 4279046662
0.41790065 0.053844169 0.53888559 4279178250
0.41773719 0.053301133 0.53860587 4279177745
0.41757283 0.052756846 0.53832608 4279243019
0.41736233 0.052255847 0.53813803 4279243019
0.41719627 0.051709257 0.53785825 4279374859
0.41702932 0.051161401 0.5375784 4279309836
0.41690621 0.050567105 0.53720689 4278783240
0.41673726 0.050016537 0.53692704 4278717447
0.41656739 0.04946471 0.5366472 4278782470
0.4164409 0.048865817 0.53627563 4278782217
0.41626906 0.048311271 0.53599572 4278520585
0.41614032 0.047709242 0.53562409 4278586378
0.41601032 0.047105536 0.53525245 4278652173
0.41587907 0.046500161 0.53488076 4278782987
0.4157902 0.045846246 0.53441739 4278783759
0.41565639 0.045237303 0.5340457 4278783759
0.4155646 0.044579424 0.53358221 4278914577
0.41547129 0.043919437 0.53311872 4279308054
0.41537642 0.043257363 0.53265524 4279176979
0.41528004 0.042593203 0.53219175 4279045393
0.41518214 0.04192695 0.53172821 4279045393
0.41512519 0.041210279 0.53117287 4278455575
0.41502407 0.040539622 0.53070927 4278455575
0.4149214 0.039866894 0.53024566 4278652688
0.41481727 0.039192051 0.52978206 4278717966
0.41466969 0.038564295 0.52941012 4278717716
0.41456258 0.037885495 0.52894646 4278783509
0.41437089 0.037303753 0.52866626 4279111704
0.41421965 0.036670968 0.52829427 4278914843
0.41406718 0.036036521 0.52792227 4278717718
0.41387242 0.035450593 0.52764201 4278717718
0.41371766 0.034813002 0.52727002 4278914577
0.45941085 0.065078758 0.49898705 4278913546
0.45888081 0.064672105 0.49925667 4279242768
0.4584606 0.064203262 0.49934274 4279440398
0.45798638 0.063766778 0.4995206 4279902238
0.45745865 0.063363269 0.49979025 4279902238
0.4569858 0.062928654 0.49996814 4279968033
0.45645973 0.062527448 0.50023782 4280164640
0.45604196 0.062061951 0.50032395 4280098328
0.45551741 0.061662823 0.50059366 4280229657
0.45504719 0.061231777 0.50077152 4280295450
0.45452434 0.060834959 0.50104129 4280294934
0.45410854 0.060372189 0.50112748 4280294934
0.4535872 0.059977457 0.50139719 4280032278
0.45317233 0.059515938 0.50148332 4279966994
0.42213941 0.062835 0.54092169 4278718479
0.42189169 0.062389731 0.54082513 4278850065
0.42164361 0.061944053 0.54072869 4278850065
0.42134726 0.061538458 0.54072404 4278783761
0.42105085 0.061132863 0.54071945 4278783761
0.42084992 0.060645416 0.54053104 4278718997
0.42055324 0.060239404 0.54052645 4278785042
0.420304 0.059792042 0.54042995 4278783757
0.42010167 0.059302717 0.54024148 4278915343
0.41985166 0.058854304 0.54014498 4278915347
0.41964823 0.05836352 0.53995657 4278783757
0.41939747 0.057914063 0.53986001 4278981136
0.41919303 0.057421803 0.5396716 4279112457
0.41898796 0.056928702 0.53948313 4278915078
0.41873595 0.056477584 0.53938657 4279111428
0.41852981 0.055983022 0.5391981 4279243269
0.41832307 0.055487625 0.53900969 4279112455
0.41806984 0.055034831 0.53891307 4279046662
0.41786203 0.054537967 0.5387246 4279046662
0.41769919 0.053996414 0.53844416 4279178250
0.41753542 0.053453609 0.53816372 4279177745
