# .PCD v0.7 - Point Cloud Data file format
VERSION 0.7
FIELDS x y z rgb
SIZE 4 4 4 4
TYPE F F F U
COUNT 1 1 1 1
WIDTH 1046
HEIGHT 1
VIEWPOINT 0 0 0 1 0 0 0
POINTS 1046
DATA ascii
0.42687443 -0.038175181 0.55806595 4284043848
0.42729363 -0.038518295 0.55790651 4284701778
0.42759669 -0.038940504 0.55790406 4284833366
0.42801678 -0.039284885 0.55774462 4284240200
0.42837882 -0.039668813 0.55766368 4284240200
0.42879999 -0.040014669 0.55750424 4283384121
0.43334308 -0.039599374 0.55309796 4278717198
0.43371493 -0.039996982 0.5530169 4278914056
0.4339079 -0.040506691 0.5531714 4278914056
0.43422002 -0.040941529 0.55316889 4278783240
0.43447214 -0.041413173 0.55324489 4278849033
0.43472391 -0.041884392 0.55332088 4278914824
0.43497542 -0.042355195 0.55339694 4278782987
0.43516612 -0.042861745 0.55355144 4278782987
0.43535623 -0.04336746 0.55370593 4278782989
0.43566731 -0.043800816 0.55370343 4278783761
0.43585649 -0.044305272 0.55385798 4278717966
0.43610618 -0.044773549 0.55393398 4278717964
0.43629432 -0.045276523 0.55408853 4278717964
0.43654323 -0.045743749 0.55416453 4278979849
0.43673033 -0.046245255 0.55431908 4278784010
0.43697852 -0.046711423 0.55439514 4278718997
0.43722636 -0.047177173 0.55447114 4279046412
0.43741193 -0.047676578 0.55462575 4278915347
0.43765903 -0.048141271 0.55470175 4278783761
0.43784356 -0.048639193 0.5548563 4278652434
0.43808991 -0.049102843 0.55493236 4279111176
0.43833596 -0.04956606 0.55500841 4279242762
0.43858171 -0.050028861 0.55508447 4279242762
0.43876427 -0.050524049 0.55523908 4279111176
0.43907231 -0.050953202 0.55523658 4279177226
0.43931717 -0.051414743 0.55531263 4278915848
0.43956172 -0.051875867 0.55538869 4278915078
0.43986946 -0.052304596 0.55538619 4279045383
0.44011354 -0.052765086 0.55546224 4279045383
0.44035733 -0.053225152 0.5555383 4278783238
0.44060081 -0.053684801 0.55561435 4278915078
0.4409081 -0.054112896 0.55561191 4279243016
0.4412154 -0.054540999 0.55560941 4279373832
0.44145828 -0.054999799 0.55568552 4279373832
0.44176543 -0.055427689 0.55568302 4279111178
0.44200784 -0.055885866 0.55575907 4279111954
0.44231486 -0.056313545 0.55575663 4279045391
0.4425568 -0.056771085 0.55583268 4279242764
0.4427985 -0.057228208 0.5559088 4279242764
0.44303986 -0.057684902 0.55598485 4278914824
0.44328094 -0.058141187 0.55606091 4278981136
0.4435873 -0.058568023 0.55605847 4278981136
0.44376218 -0.059052467 0.55621314 4279112205
0.44400233 -0.059507489 0.5562892 4279177998
0.44417611 -0.059990473 0.55644387 4279046410
0.44441551 -0.060444433 0.55651999 4279243016
0.44472098 -0.060870007 0.55651748 4279243271
0.44495994 -0.061323345 0.5565936 4279374598
0.4451986 -0.061776251 0.55666971 4279308805
0.44543695 -0.062228739 0.55674583 4279308555
0.44567502 -0.062680811 0.55682194 4279046412
0.44591275 -0.063132457 0.556898 4278914575
0.44621748 -0.063556984 0.55689561 4279243540
0.44652221 -0.063981503 0.55689311 4279177747
0.44682693 -0.064406022 0.55689067 4279111954
0.44713163 -0.064830549 0.55688822 4279177745
0.4473685 -0.065280929 0.55696428 4279243791
0.44767305 -0.06570524 0.55696189 4279242768
0.44797763 -0.06612955 0.55695939 4279242768
0.44835055 -0.066528641 0.55687839 4279243012
0.44865528 -0.06695316 0.55687594 4279309066
0.44902861 -0.067352876 0.55679488 4279374857
0.44933349 -0.067777604 0.55679244 4279111952
0.44970733 -0.068177946 0.55671138 4279111952
0.44994324 -0.068627074 0.55678749 4279439892
0.45031738 -0.069027834 0.55670643 4279440149
0.45062241 -0.069452778 0.55670398 4279374607
0.45099699 -0.06985417 0.55662298 4279440400
0.45130217 -0.07027933 0.55662048 4279506193
0.45160735 -0.070704475 0.55661803 4279440400
0.45191252 -0.071129635 0.55661559 4279571480
0.4522177 -0.071554787 0.55661309 4279834650
0.45245257 -0.072002441 0.55668926 4279506193
0.45268714 -0.072449669 0.55676538 4279637779
0.45292142 -0.072896473 0.55684149 4279506714
0.45315537 -0.07334286 0.55691767 4279441439
0.45338905 -0.073788829 0.55699378 4279375898
0.45369348 -0.074212924 0.55699134 4279441691
0.45392668 -0.07465826 0.55706751 4279441691
0.45423096 -0.075082146 0.55706501 4279703321
0.45453522 -0.075506039 0.55706257 4280097050
0.45491117 -0.075909331 0.5569815 4280032280
0.4552874 -0.076313041 0.55690044 4279900698
0.45566392 -0.076717176 0.55681938 4279834905
0.4562571 -0.077061825 0.55650246 4279769365
0.45670697 -0.077447668 0.55634284 4279834650
0.45730227 -0.07779526 0.55602586 4280032029
0.45775366 -0.078183204 0.55586618 4280032029
0.45820564 -0.078572005 0.5557065 4280032029
0.45858535 -0.078980558 0.55562538 4280163613
0.45896536 -0.079389527 0.55554432 4280229657
0.45941883 -0.07978043 0.55538458 4280295702
0.45972627 -0.080208734 0.55538213 4280164116
0.46010721 -0.080618978 0.55530101 4280427286
0.46048844 -0.081029631 0.55521989 4280230164
0.46072239 -0.08147601 0.55529606 4280362004
0.46103001 -0.081904538 0.55529356 4280362004
0.46141165 -0.082315825 0.5552125 4280427797
0.46171942 -0.082744561 0.55520999 4280624665
0.46202716 -0.083173282 0.55520749 4280886817
0.46240944 -0.083585419 0.55512643 4280886819
0.46271735 -0.084014356 0.55512393 4281018405
0.46310008 -0.084427126 0.5550428 4281215784
0.4634831 -0.084840305 0.55496168 4281083947
0.46379131 -0.085269667 0.55495918 4281216303
0.46409953 -0.085699029 0.55495667 4282005300
0.46433228 -0.086143732 0.55503285 4282136886
0.4647159 -0.086557761 0.55495173 4282793533
0.46494836 -0.087002039 0.55502784 4282858564
0.46525639 -0.087431185 0.5550254 4282925388
0.46564052 -0.087845847 0.55494428 4286348155
0.46587253 -0.088289499 0.55502045 4285953397
0.46610421 -0.088732727 0.55509663 4286216826
0.41920933 0.027719304 0.52144408 4279047446
0.41931677 0.026848346 0.52191269 4279112724
0.41946676 0.026038319 0.52230275 4279440149
0.41961524 0.025230378 0.52269286 4279309333
0.41976219 0.024424583 0.52308297 4279506712
0.41995248 0.023678631 0.52339447 4279506712
0.42009658 0.022876829 0.52378452 4279243538
0.42023915 0.022077098 0.52417469 4279309584
0.4204255 0.021336645 0.52448618 4279244308
0.42056519 0.020540923 0.52487636 4279439897
0.42070341 0.019747317 0.52526653 4279308311
0.42084008 0.018955797 0.5256567 4279439901
0.42097527 0.018166408 0.52604687 4279505687
0.42115498 0.017435193 0.52635843 4279309335
0.4212411 0.016593903 0.52682722 4279177749
0.42137176 0.015810832 0.52721745 4279177747
0.42150089 0.015029848 0.52760768 4279177747
0.42162853 0.014250964 0.52799797 4279636501
0.42189497 0.013639316 0.52815229 4279374350
0.41628623 -0.0039123148 0.54470921 4286082656
0.41661406 -0.0043690354 0.54470658 4285227851
0.41694191 -0.004825756 0.54470396 4285030218
0.41722053 -0.0053341612 0.54477996 4284635462
0.41754824 -0.0057906806 0.54477727 4284635462
0.41792542 -0.0061959326 0.54469597 4285096525
0.41830289 -0.0066016167 0.54461473 4283978055
0.4186309 -0.0070585459 0.54461205 4283583551
0.41900885 -0.0074648559 0.54453075 4282728760
0.4194372 -0.0078211725 0.54437077 4282662967
0.41986614 -0.0081783384 0.54421085 4282005552
0.42034611 -0.0084863454 0.54397219 4281807656
0.42087755 -0.0087458342 0.54365492 4281477914
0.42146087 -0.0089574456 0.54325891 4281148949
0.42209661 -0.0091217905 0.54278427 4279768325
0.42273414 -0.0092886612 0.54230958 4279243266
0.42327115 -0.0095559433 0.54199225 4278782720
0.42386067 -0.009776175 0.54159623 4278782720
0.42429733 -0.01014407 0.5414362 4278651652
0.42478621 -0.010464504 0.54119748 4278717447
0.42517248 -0.010882385 0.54111612 4278651654
0.42550713 -0.011348583 0.54111344 4278651654
0.42573762 -0.011910133 0.54126811 4278914308
0.42601973 -0.012423381 0.54134405 4278848515
0.42619681 -0.013030708 0.54157734 4278717198
0.42642552 -0.013589732 0.54173207 4278717966
0.4266009 -0.014194749 0.54196537 4278783761
0.42677543 -0.014798507 0.54219878 4278783761
0.42694902 -0.015400998 0.54243213 4278981140
0.4271217 -0.016002238 0.54266548 4279046159
0.42729348 -0.016602188 0.54289889 4279046159
0.42757124 -0.017109327 0.54297489 4279111952
0.4277415 -0.017707199 0.54320824 4279111952
0.42801833 -0.018213071 0.5432843 4278586891
0.42829484 -0.018718526 0.54336035 4278915345
0.42486319 -0.036417991 0.55802161 4283977794
0.42522255 -0.036798418 0.55794048 4283912001
0.42552471 -0.03721936 0.55793798 4283912255
0.42582685 -0.037640311 0.5579356 4283912514
0.42618683 -0.038021572 0.55785441 4283978309
0.42654711 -0.038403258 0.55777323 4283978309
0.42696577 -0.038746104 0.55761337 4284504653
0.42738506 -0.039089799 0.55745345 4284570964
0.42774653 -0.039473161 0.55737233 4284109643
0.42810833 -0.039856955 0.55729115 4284241229
0.4284704 -0.040241167 0.55720997 4283451198
0.42912713 -0.040434778 0.55673516 4279768077
0.43325889 -0.040300347 0.55286735 4278783240
0.43357071 -0.04073476 0.55286479 4278717447
0.43382275 -0.041206114 0.55294108 4278783240
0.43413442 -0.041640311 0.55293852 4278848780
0.43438601 -0.042111047 0.55301476 4279045894
0.43463734 -0.04258135 0.55309099 4278849031
0.43476757 -0.043123439 0.5533247 4278849031
0.43501797 -0.043592483 0.55340093 4278782989
0.43526804 -0.044061095 0.55347717 4278717714
0.43545699 -0.044564769 0.55363214 4278717968
0.43570632 -0.045032345 0.55370843 4278652171
0.43595538 -0.045499481 0.55378461 4278782987
0.4361428 -0.046001047 0.55393964 4278914573
0.43632966 -0.046501771 0.55409467 4278783759
0.4365775 -0.046967238 0.55417091 4278719251
0.43676326 -0.047466494 0.55432594 4279046412
0.43701032 -0.047930904 0.55440217 4278783761
0.43719506 -0.048428677 0.5545572 4278783761
0.43744135 -0.048892036 0.55463344 4278718227
0.43762502 -0.049388342 0.55478847 4279241992
0.43787056 -0.04985065 0.55486476 4279373578
0.43811584 -0.050312534 0.55494106 4279241992
0.43836078 -0.050774008 0.55501735 4279241992
0.43860543 -0.05123505 0.55509359 4279045640
0.43884978 -0.051695675 0.55516988 4278718982
0.43915707 -0.05212377 0.55516738 4278784262
0.43940097 -0.052583762 0.55524367 4278979847
0.43964458 -0.053043336 0.55531996 4278979847
0.43988785 -0.053502485 0.55539626 4278849031
0.4401947 -0.053929955 0.55539382 4278915076
0.44043756 -0.054388478 0.55547011 4279111176
0.44074422 -0.054815732 0.55546761 4279373832
0.4409866 -0.055273615 0.5555439 4279242246
0.44122869 -0.055731088 0.55562019 4279242764
0.44153506 -0.056157924 0.55561775 4278914575
0.44177669 -0.05661476 0.5556941 4279045391
0.44201803 -0.057071164 0.5557704 4279177228
0.44225904 -0.057527162 0.55584669 4279177228
0.44249976 -0.057982732 0.55592299 4278914824
0.44280553 -0.058408726 0.55592048 4278850063
0.44304579 -0.058863673 0.55599684 4278915596
0.44322011 -0.059346929 0.55615199 4279112205
0.44345963 -0.059800819 0.55622828 4279177998
0.44369882 -0.060254287 0.55630457 4279046410
0.44400388 -0.060679227 0.55630213 4279243273
0.4442426 -0.061132066 0.55637848 4279309064
0.44448107 -0.061584476 0.55645478 4279374600
0.44471923 -0.06203647 0.55653113 4279242772
0.44495708 -0.062488049 0.55660748 4279242772
0.44519463 -0.062939197 0.55668378 4279111956
0.44543186 -0.063389935 0.55676013 4278849813
0.44573599 -0.063813612 0.55675769 4279046933
0.44604009 -0.064237289 0.55675524 4279046161
0.44627675 -0.064687178 0.5568316 4279046161
0.44658071 -0.065110654 0.55682915 4279177747
0.44681692 -0.065559909 0.55690551 4279177749
0.44718868 -0.065957591 0.55682421 4279242770
0.44749263 -0.06638106 0.55682176 4279177745
0.44786483 -0.066779375 0.55674052 4279111952
0.44816893 -0.067203052 0.55673808 4279177747
0.44847307 -0.067626737 0.55673563 4279177745
0.4487772 -0.068050414 0.55673313 4278981140
0.4490813 -0.068474099 0.55673075 4278981140
0.44945443 -0.068873674 0.55664945 4279439892
0.44982785 -0.069273673 0.55656815 4279440149
0.45013225 -0.069697775 0.5565657 4279243540
0.45050612 -0.0700984 0.55648446 4279440147
0.45088029 -0.07049945 0.55640316 4279440147
0.45118502 -0.070923969 0.55640072 4279309081
0.45148975 -0.071348488 0.55639827 4279572257
0.45179445 -0.071773015 0.55639583 4279769114
0.4520992 -0.072197542 0.55639338 4279506445
0.45233357 -0.072644264 0.55646968 4279638031
0.45256764 -0.073090583 0.55654609 4279375126
0.45287207 -0.073514685 0.55654359 4279178519
0.45303488 -0.073981941 0.5566988 4279375896
0.45333898 -0.074405625 0.55669636 4279441689
0.45357203 -0.074850462 0.55677277 4279441689
0.45394725 -0.075252987 0.55669147 4279638298
0.45425135 -0.075676665 0.55668902 4279900700
0.45455545 -0.076100342 0.55668658 4279769114
0.45500302 -0.076483391 0.55652642 4279769884
0.45537931 -0.076887384 0.55644512 4279704091
0.45589989 -0.077252023 0.55620623 4279769365
0.45634925 -0.07763759 0.55604607 4279899158
0.45679921 -0.078024 0.55588591 4279966234
0.45724976 -0.078411259 0.55572581 4279966234
0.45770091 -0.078799367 0.55556566 4279834650
0.45800716 -0.079225995 0.55556315 4279966234
0.45845923 -0.079615355 0.55540299 4280097301
0.45883882 -0.080023982 0.55532169 4280163348
0.45921874 -0.080433026 0.55524039 4280163348
0.45952559 -0.080860503 0.55523789 4280294934
0.45983243 -0.081287973 0.55523545 4280229909
0.46013927 -0.081715435 0.55523294 4280164371
0.46044609 -0.082142897 0.5552305 4280164371
0.46082693 -0.082553223 0.55514914 4280295957
0.4611339 -0.082980901 0.55514669 4280427543
0.46151519 -0.083391838 0.55506533 4280624667
0.46189672 -0.083803199 0.55498397 4280558628
0.46220404 -0.084231295 0.55498153 4280624421
0.46258605 -0.084643297 0.55490017 4280756007
0.46296838 -0.085055709 0.55481887 4280887595
0.46327597 -0.085484229 0.55481637 4280888363
0.46365875 -0.085897274 0.55473506 4281151018
0.46396649 -0.086326011 0.55473256 4281216811
0.46427423 -0.086754747 0.55473006 4281742896
0.464582 -0.087183468 0.55472761 4281939505
0.46496552 -0.087597571 0.55464625 4282070331
0.4651975 -0.088040933 0.55472267 4283319362
0.46550524 -0.088469669 0.55472016 4283516741
0.46573675 -0.088912405 0.55479658 4285163362
0.46612072 -0.089327127 0.55471516 4286085236
0.41920769 0.025855526 0.52175111 4279440151
0.41935667 0.025047973 0.52214229 4279244310
0.41950417 0.024242535 0.52253354 4279244310
0.41965014 0.023439184 0.52292478 4279244310
0.4198395 0.022695452 0.52323711 4279112724
0.42002761 0.021953389 0.52354956 4279244561
0.42021453 0.021213025 0.52386194 4279178515
0.4203549 0.020417452 0.52425325 4279374358
0.42049378 0.01962401 0.52464449 4279308565
0.4206768 0.018889099 0.52495694 4279374104
0.42085856 0.018155888 0.52526939 4279505944
0.42103913 0.01742436 0.52558184 4279309335
0.42117244 0.016638696 0.5259732 4279177747
0.42125797 0.015799522 0.52644336 4279177747
0.42138809 0.015018299 0.52683473 4279177747
0.42156324 0.014294326 0.52714723 4279439890
0.41572946 -0.0036170781 0.54422444 4284768595
0.41605732 -0.0040738061 0.54422182 4286082656
0.41638514 -0.0045305267 0.54421914 4285162058
0.4166151 -0.0050908849 0.54437423 4284897862
0.41694263 -0.0055471808 0.5443716 4284635462
0.41731942 -0.0059521049 0.54429007 4284635462
0.41759771 -0.0064597949 0.54436636 4285162833
0.4179748 -0.0068651289 0.54428482 4284043589
0.41835219 -0.00727088 0.54420328 4283582524
0.41877973 -0.0076265037 0.54404289 4282530863
0.41920787 -0.0079829693 0.54388249 4282465070
0.41973689 -0.0082400218 0.54356432 4281610277
0.42016655 -0.0085985959 0.54340386 4281609507
0.42074814 -0.0088088959 0.54300678 4281214488
0.42138189 -0.0089717805 0.54253078 4280753937
0.42270568 -0.0092560947 0.54149985 4278979847
0.42329392 -0.009475641 0.54110271 4278717445
0.42383248 -0.0097459555 0.54078448 4278717445
0.42426956 -0.010114841 0.54062396 4278520836
0.4247072 -0.010484561 0.54046345 4278586378
0.42504215 -0.010951184 0.54046077 4278651652
0.42527348 -0.011513427 0.54061586 4278717445
0.4256081 -0.011979625 0.54061317 4278980101
0.4258385 -0.012540609 0.54076827 4278914306
0.42601603 -0.01314792 0.54100227 4278717196
0.42619267 -0.01375398 0.54123628 4278782989
0.42636842 -0.014358774 0.54147029 4278783759
0.42654324 -0.014962308 0.54170436 4278783759
0.42671713 -0.015564576 0.54193842 4278981138
0.42689013 -0.016165592 0.54217243 4278914573
0.42706227 -0.016765326 0.54240644 4279045389
0.42723346 -0.017363809 0.54264057 4279112205
0.42751068 -0.017870031 0.5427168 4279112205
0.42762673 -0.01851169 0.54302979 4278652684
0.4279567 -0.018971361 0.5430271 4278981138
0.42482364 -0.036445424 0.55733573 4284240706
0.42489707 -0.037027732 0.55764908 4284175173
0.42519894 -0.037448257 0.55764663 4284043841
0.42555833 -0.03782896 0.55756527 4284043587
0.42591804 -0.038210101 0.55748391 4283977794
0.42627805 -0.038591646 0.55740249 4284043587
0.42663836 -0.038973615 0.55732107 4284306761
0.42699897 -0.039356008 0.55723971 4284307274
0.42735991 -0.039738819 0.55715835 4284372813
0.42772114 -0.040122047 0.55707693 4283979079
0.42814124 -0.040467367 0.55691659 4283321149
0.42862076 -0.040775388 0.55667728 4280163348
0.43274432 -0.040640399 0.55279851 4278717194
0.43317443 -0.040999591 0.55263805 4278717194
0.43348581 -0.041433379 0.55263555 4278783240
0.43379718 -0.041867167 0.55263305 4278979849
0.43404859 -0.042337403 0.55270946 4278980101
0.43429968 -0.042807207 0.55278599 4279177480
0.43442994 -0.043348648 0.55302036 4278980101
0.4346801 -0.0438172 0.55309677 4278849033
0.43493003 -0.04428532 0.5531733 4278652173
0.43511888 -0.04478842 0.55332869 4278717968
0.435368 -0.045255497 0.55340517 4278782989
0.43561685 -0.045722149 0.55348164 4278848782
0.43580419 -0.046223149 0.55363709 4279046161
0.4359296 -0.046757855 0.55387151 4278914323
0.43611562 -0.047256954 0.55402696 4278915093
0.43636262 -0.04772108 0.55410349 4278784010
0.43654758 -0.048218712 0.55425894 4278783759
0.43679383 -0.048681781 0.55433547 4278915345
0.43697771 -0.049177937 0.55449092 4278783761
0.43722323 -0.049639963 0.55456746 4279111178
0.43746841 -0.050101563 0.55464393 4279373327
0.4376508 -0.050595611 0.55479944 4279242764
0.43795794 -0.051023498 0.55479693 4279242764
0.43813938 -0.051516287 0.55495244 4279045642
0.43844622 -0.051943757 0.55494994 4278718728
0.43868995 -0.052403264 0.55502647 4278718728
0.43893331 -0.052862331 0.555103 4278784010
0.43917644 -0.053320989 0.55517948 4278718217
0.43941921 -0.053779222 0.55525601 4278718217
0.43972546 -0.05420585 0.55525357 4278915078
0.43996781 -0.054663442 0.5553301 4278914575
0.44020984 -0.055120632 0.55540657 4279111178
0.44057995 -0.05551628 0.55532515 4279242764
0.44075733 -0.056003384 0.55548066 4279242511
0.44106311 -0.056429379 0.55547822 4278914575
0.44130424 -0.056885302 0.55555475 4278914575
0.44154507 -0.057340797 0.55563128 4279046159
0.4417856 -0.057795882 0.55570781 4279046159
0.44202581 -0.058250532 0.55578434 4279046412
0.44226575 -0.058704771 0.55586094 4278850316
0.44243997 -0.059187453 0.55601645 4278850314
0.44267911 -0.059640631 0.55609298 4279112205
0.442918 -0.060093403 0.55616957 4279177745
0.44315654 -0.060545735 0.55624616 4279046159
0.44346082 -0.060969628 0.55624366 4279046412
0.44369891 -0.061421342 0.55632025 4279308812
0.44393671 -0.061872624 0.55639678 4279243016
0.44424069 -0.0622961 0.55639434 4279176977
0.44447803 -0.062746748 0.55647093 4279242770
0.44471508 -0.063196994 0.55654752 4278980888
0.44495183 -0.063646808 0.55662405 4278849815
0.44518828 -0.064096197 0.55670059 4278981653
0.44549167 -0.064518824 0.5566982 4279046163
0.44579503 -0.064941451 0.5566957 4279046163
0.44609839 -0.065364078 0.55669332 4279177749
0.44633406 -0.065812424 0.55676985 4278980888
0.4467051 -0.066209339 0.55668837 4279242768
0.44694048 -0.066657253 0.55676496 4279243538
0.44731185 -0.0670546 0.55668348 4279243538
0.44768348 -0.067452356 0.556602 4279243540
0.44798699 -0.067875192 0.55659962 4279046933
0.44829053 -0.068298027 0.55659711 4278980886
0.44859403 -0.068720862 0.55659467 4279374099
0.44896641 -0.069119677 0.55651319 4279439892
0.44933912 -0.069518901 0.55643171 4279440149
0.44971216 -0.069918558 0.55635023 4279243288
0.45001611 -0.070342027 0.55634779 4279440149
0.45038956 -0.070742317 0.55626631 4279440149
0.45069367 -0.071165994 0.5562638 4279374878
0.4509978 -0.071589671 0.55626136 4279441441
0.45137185 -0.071990788 0.55617988 4279703321
0.45167613 -0.072414681 0.55617744 4279703563
0.45191014 -0.072860718 0.55625403 4279769356
0.45214391 -0.073306315 0.55633062 4279440400
0.45244786 -0.073729791 0.55632818 4279375126
0.45268112 -0.074174762 0.55640477 4279375894
0.45298493 -0.074598014 0.55640233 4279441687
0.45321774 -0.075042367 0.55647892 4279507480
0.4535926 -0.075444534 0.55639744 4279507484
0.45396769 -0.075847141 0.5563159 4279769884
0.45434311 -0.076250158 0.55623436 4279704091
0.45464724 -0.076673836 0.55623198 4279769884
0.45509487 -0.077057458 0.5560714 4279704091
0.4555431 -0.077441916 0.55591083 4279703319
0.45591986 -0.077846825 0.55582929 4279833878
0.45636916 -0.078232765 0.55566871 4279899673
0.45681906 -0.078619532 0.55550814 4279899673
0.45712453 -0.079045109 0.55550563 4279703066
0.45750266 -0.079451919 0.55542409 4280031257
0.45780832 -0.079877704 0.55542165 4280097301
0.45818692 -0.080285139 0.55534011 4280031762
0.45856583 -0.080692999 0.55525857 4280031762
0.45887175 -0.08111921 0.55525613 4280097555
0.45917767 -0.081545413 0.55525362 4280032530
0.45955718 -0.081954114 0.55517209 4280164373
0.45986325 -0.082380526 0.55516964 4280164375
0.4602432 -0.082789868 0.5550881 4280230168
0.46062344 -0.08319962 0.55500656 4280427547
0.4610782 -0.083593138 0.55484593 4280427036
0.46138489 -0.084020391 0.55484343 4280427044
0.46184051 -0.08441516 0.55468279 4280558630
0.46222216 -0.084826805 0.55460125 4280690216
0.46260405 -0.085238874 0.55451965 4280690216
0.46298626 -0.085651368 0.55443811 4280690984
0.4632937 -0.086079679 0.55443561 4280888616
0.46367639 -0.086492799 0.55435407 4280888616
0.46398398 -0.086921319 0.55435157 4281414185
0.46429157 -0.08734984 0.55434912 4281545771
0.46467486 -0.087763801 0.55426753 4282005047
0.46483094 -0.08822123 0.55442321 4282530361
0.46513838 -0.088649541 0.55442077 4283056705
0.46552193 -0.089063928 0.55433917 4283123266
0.46575326 -0.089506164 0.55441582 4285229155
0.4660607 -0.089934476 0.55441332 4286807158
0.41909811 0.024865568 0.52159178 4279441689
0.41924614 0.024060503 0.5219841 4279178778
0.41939265 0.023257524 0.52237642 4279112985
0.4195824 0.02251409 0.5226897 4278981399
0.41981584 0.021829531 0.52292395 4279309333
0.41995829 0.021032244 0.52331632 4279178515
0.42014441 0.020293847 0.52362967 4279440400
0.42032933 0.019557148 0.52394295 4279440400
0.42055857 0.01887849 0.52417725 4279637779
0.4207412 0.018144935 0.52449059 4279374354
0.42092267 0.017413065 0.524804 4279178517
0.42101097 0.016571403 0.52527547 4279046931
0.4211897 0.015843317 0.52558887 4278981136
0.42132095 0.015061617 0.52598131 4278981136
0.41489294 -0.0028123409 0.5436632 4284569167
0.4151727 -0.0033218563 0.54373968 4285161554
0.41550055 -0.0037785769 0.54373699 4285819484
0.41577986 -0.0042874664 0.54381347 4285425494
0.41610754 -0.0047439784 0.54381084 4284899138
0.41643524 -0.0052004904 0.54380816 4284570173
0.41671392 -0.0057085305 0.54388463 4284570185
0.41704148 -0.0061648339 0.54388201 4284964943
0.4174183 -0.0065700337 0.54380023 4284768593
0.41779542 -0.0069756508 0.54371852 4283649090
0.41812328 -0.0074323714 0.54371583 4283385659
0.41855058 -0.0077881441 0.54355502 4282530350
0.41907829 -0.0080442429 0.5432359 4282464557
0.41960722 -0.0083020106 0.54291683 4281675041
0.42008716 -0.0086113065 0.54267681 4281806113
0.42061836 -0.0088722333 0.54235774 4281345562
0.42120123 -0.0090854242 0.54195952 4280753425
0.42214018 -0.0089562386 0.54100746 4279110925
0.42272717 -0.0091751069 0.54060924 4278783240
0.42326468 -0.0094448775 0.54029006 4278652424
0.42380345 -0.0097163245 0.53997087 4278652424
0.42418963 -0.010134578 0.53988904 4278520838
0.42457613 -0.010553241 0.5398072 4278586378
0.42485982 -0.011068232 0.53988361 4278717445
0.42519492 -0.011535063 0.53988093 4278717445
0.42537445 -0.012144469 0.54011559 4278980099
0.42560506 -0.012705304 0.54027116 4278849285
0.42578292 -0.013312392 0.54050589 4278782989
0.42595986 -0.013918236 0.54074055 4278782987
0.4261359 -0.014522806 0.54097521 4278914573
0.42625844 -0.015172586 0.54128909 4279046159
0.42643252 -0.015774429 0.54152381 4279177747
0.4266057 -0.016374998 0.54175854 4278849033
0.42672488 -0.017020151 0.54207236 4279045642
0.42694932 -0.017572351 0.54222798 4279112203
0.42711976 -0.018169135 0.54246271 4279046410
0.42739636 -0.018674232 0.54253918 4278718730
0.42756528 -0.019268908 0.54277396 4278981138
0.42462915 -0.037216589 0.55727947 4284175173
0.42493087 -0.037636906 0.55727696 4284043841
0.42529002 -0.038017474 0.55719543 4284043587
0.42559189 -0.038438 0.55719298 4283977794
0.42589372 -0.038858518 0.55719054 4283977794
0.42636928 -0.039161719 0.55695057 4284306759
0.42667156 -0.039582871 0.55694813 4284372552
0.42703208 -0.039965346 0.55686653 4284373065
0.4273929 -0.040348224 0.55678493 4283979079
0.42775401 -0.040731534 0.55670333 4283386942
0.42835006 -0.040963031 0.55630493 4280952610
0.4334006 -0.042130306 0.55240762 4278914056
0.43371153 -0.042563453 0.55240512 4278979847
0.43396243 -0.043032765 0.55248183 4279177480
0.43415287 -0.043537617 0.5526377 4278980101
0.434403 -0.044005871 0.55271441 4278914826
0.4345924 -0.044509247 0.55287027 4278717966
0.43478119 -0.045011774 0.5530262 4278783761
0.4350301 -0.045478359 0.55310285 4278848780
0.43521783 -0.045979418 0.55325878 4278848782
0.43546599 -0.046444938 0.55333549 4279046161
0.43559146 -0.04697901 0.55357057 4279111956
0.43577734 -0.047477528 0.55372649 4278915093
0.43596265 -0.047975227 0.55388242 4278914826
0.43614733 -0.048472077 0.55403835 4278981138
0.43639326 -0.048934445 0.55411506 4279046159
0.43663886 -0.049396396 0.55419177 4278783759
0.43682206 -0.049891129 0.55434769 4279046159
0.43706691 -0.05035203 0.55442441 4279045911
0.43731147 -0.050812498 0.55450118 4279176979
0.43749315 -0.051305145 0.5546571 4279176979
0.43773693 -0.05176457 0.55473387 4278979598
0.43798041 -0.052223571 0.55481058 4278915594
0.43828666 -0.052650198 0.55480814 4278915343
0.43852973 -0.053108558 0.55488485 4278981138
0.43877247 -0.053566515 0.55496162 4278718217
0.43895143 -0.054055363 0.55511761 4278718217
0.43925703 -0.054481149 0.5551151 4278915078
0.4394989 -0.054937832 0.55519187 4278914573
0.43974042 -0.055394098 0.55526865 4279045642
0.44010985 -0.055788979 0.55518693 4279176975
0.44028682 -0.0562751 0.55534291 4279176975
0.44052762 -0.056730315 0.55541968 4278783761
0.44083264 -0.057155259 0.55541724 4278718227
0.44107297 -0.057609834 0.55549401 4279046159
0.441313 -0.058063999 0.55557078 4279046159
0.44155273 -0.058517732 0.55564755 4279046159
0.44172698 -0.05900006 0.55580354 4278783759
0.44196594 -0.05945275 0.55588031 4278850065
0.44220462 -0.059905015 0.55595708 4278849813
0.44250861 -0.060328484 0.55595469 4279111706
0.44268104 -0.060808286 0.55611068 4279045913
0.4429847 -0.061231337 0.55610824 4278914573
0.44322234 -0.061682127 0.55618501 4279046410
0.44345963 -0.0621325 0.55626178 4279373832
0.44369665 -0.062582448 0.55633861 4279177228
0.44393334 -0.063031979 0.55641538 4279243021
0.44416976 -0.063481085 0.55649221 4279111956
0.44440585 -0.063929781 0.55656898 4278980886
0.44464162 -0.064378045 0.55664581 4278980888
0.44494423 -0.064799622 0.55664337 4279111702
0.44524685 -0.065221198 0.55664092 4279045909
0.44548205 -0.065668628 0.55671775 4279177749
0.44585204 -0.066064343 0.55663604 4279111954
0.44615465 -0.066485927 0.55663359 4279046159
0.44645727 -0.066907495 0.55663115 4279243538
0.44682792 -0.067304067 0.55654943 4279243538
0.44713068 -0.067725852 0.55654705 4279046931
0.44743344 -0.068147637 0.5565446 4278981401
0.4477362 -0.068569429 0.55654216 4278915608
0.44803897 -0.068991214 0.55653971 4279242518
0.44841051 -0.069389038 0.556458 4279308311
0.44878232 -0.069787294 0.55637628 4279112726
0.44908541 -0.070209503 0.55637383 4279112474
0.44945771 -0.070608377 0.55629218 4279309335
0.44983029 -0.071007691 0.5562104 4279309335
0.45013368 -0.071430318 0.55620795 4279505944
0.45043701 -0.071852945 0.55620551 4279375644
0.45081022 -0.072253086 0.55612385 4279506714
0.45111373 -0.072675928 0.55612135 4279703319
0.45134711 -0.073120832 0.55619818 4279703319
0.4516505 -0.073543459 0.55619574 4279571476
0.45188341 -0.073987722 0.55627257 4279637528
0.45218664 -0.074410141 0.55627012 4279375375
0.45248985 -0.074832559 0.55626768 4279572754
0.45286393 -0.075233974 0.55618596 4279770133
0.45323837 -0.075635798 0.55610424 4279572756
0.45361304 -0.076038055 0.55602252 4279770135
0.45391673 -0.076461099 0.55602008 4279834655
0.45436341 -0.076843813 0.55585909 4279638046
0.454739 -0.077247337 0.55577731 4279572253
0.45518672 -0.077631518 0.55561626 4279242772
0.4555631 -0.078036077 0.55553454 4279439124
0.45593977 -0.078441069 0.55545282 4279373327
0.45631674 -0.078846477 0.55537105 4279439371
0.45662162 -0.079271205 0.5553686 4279439371
0.45699906 -0.079677254 0.55528688 4279702284
0.45723137 -0.080120675 0.55536366 4279636499
0.45760912 -0.080527142 0.55528194 4279505940
0.45791411 -0.080952078 0.55527949 4279637526
0.45829231 -0.08135917 0.55519772 4279506961
0.45859748 -0.081784323 0.55519527 4279967764
0.45890266 -0.082209483 0.55519283 4279967764
0.45928144 -0.08261741 0.55511105 4279967766
0.45966056 -0.083025768 0.55502927 4279836180
0.46011388 -0.083417743 0.55486822 4280361243
0.46056777 -0.08381056 0.55470711 4280557852
0.46094805 -0.084220596 0.55462539 4280361249
0.46132869 -0.084631063 0.55454361 4280230435
0.46178412 -0.085025989 0.5543825 4280296228
0.46224016 -0.085421748 0.55422139 4280427812
0.46262196 -0.085833892 0.55413961 4280428065
0.46300405 -0.086246453 0.55405784 4280822305
0.46338648 -0.086659439 0.55397606 4280756512
0.46369392 -0.08708775 0.55397356 4281019684
0.46400136 -0.087516055 0.55397111 4281216804
0.4643088 -0.087944366 0.55396861 4281480235
0.46454054 -0.08838696 0.55404544 4281611567
0.46492368 -0.088800997 0.55396366 4281677360
0.46515512 -0.089243151 0.55404049 4282597184
0.46546239 -0.089671262 0.55403799 4283386438
0.46569335 -0.09011279 0.55411482 4283516743
0.41922414 0.023190975 0.52166951 4279309333
0.41936997 0.022390068 0.52206302 4279309081
0.41951427 0.021591246 0.52245653 4279375644
0.41974699 0.0209084 0.52269143 4279113239
0.41993368 0.020170093 0.5230056 4279178517
0.4201192 0.019433469 0.52331984 4279244310
0.42034888 0.018754825 0.5235548 4279440143
0.42057765 0.018077448 0.52378976 4279374099
0.42071414 0.017289579 0.52418327 4279243540
0.42089495 0.016559482 0.52449757 4279375128
0.42107454 0.015831068 0.52481186 4278981140
0.41433594 -0.0025169775 0.5431782 4284306770
0.41466391 -0.0029739141 0.54317552 4285160534
0.41489565 -0.0035358593 0.5433315 4285688664
0.41527164 -0.0039400756 0.54324955 4285754457
0.41555104 -0.0044488907 0.54332626 4284964941
0.41587871 -0.0049054027 0.54332358 4284504390
0.41615766 -0.005413577 0.54340029 4284307011
0.41648522 -0.0058698803 0.54339767 4284702300
0.41681275 -0.0063261837 0.54339498 4285162851
0.41714031 -0.006782487 0.54339236 4284176469
0.41756651 -0.0071371496 0.54323101 4283189572
0.41794384 -0.0075432658 0.54314911 4282794555
0.41842073 -0.0078489929 0.54290843 4282333484
0.41894832 -0.0081057996 0.54258847 4282070312
0.41942719 -0.0084142685 0.54234779 4281805341
0.42000714 -0.0086244717 0.54194844 4281804828
0.42078954 -0.0086385384 0.54123175 4280622101
0.42147392 -0.0087550804 0.54067373 4280161550
0.4220593 -0.0089728534 0.54027438 4279177228
0.42269689 -0.0091437995 0.53979564 4278586378
0.42323464 -0.0094147027 0.53947556 4278586378
0.42372254 -0.0097358078 0.53923488 4278521098
0.4241091 -0.010154754 0.5391528 4278455305
0.42444465 -0.010622218 0.53915012 4278586378
0.42472872 -0.011137553 0.53922677 4278849031
0.42501253 -0.011652455 0.53930336 4278783238
0.42519251 -0.012261868 0.53953874 4278849283
0.4254235 -0.012822762 0.53969473 4278782987
0.42560181 -0.013429843 0.53993011 4278782987
0.42572704 -0.014082484 0.54024482 4278914573
0.42585105 -0.014733449 0.54055953 4279176975
0.42597383 -0.015382722 0.54087424 4279242768
0.42614809 -0.015984125 0.54110962 4279111954
0.42632145 -0.016584255 0.541345 4279111952
0.42638794 -0.017274678 0.54173911 4279111952
0.42666537 -0.017780751 0.54181588 4279046410
0.42683601 -0.018377095 0.54205126 4278914824
0.42700571 -0.018972188 0.54228669 4278718730
0.42722809 -0.019521087 0.54244274 4278914573
0.42739612 -0.020113856 0.54267824 4279242768
0.42447555 -0.037325129 0.55675149 4284372554
0.42466301 -0.037825398 0.55690777 4284109380
0.42496455 -0.038245499 0.55690539 4284175173
0.42532361 -0.038626149 0.55682355 4284175173
0.42568296 -0.039007217 0.55674171 4284043587
0.42604259 -0.039388701 0.55665988 4284306499
0.4263446 -0.039809436 0.55665743 4284175427
0.42676279 -0.040152952 0.5564962 4284175427
0.42712337 -0.040535703 0.55641437 4283977544
0.42748421 -0.040918872 0.55633253 4283845958
0.42807958 -0.041150533 0.55593312 4282202677
0.43232447 -0.041564882 0.55226803 4278717447
0.4326942 -0.041960478 0.55218613 4278783240
0.43306428 -0.042356476 0.55210423 4278783238
0.43337491 -0.042789206 0.55210167 4278980101
0.43362561 -0.043258034 0.55217862 4279045894
0.43381596 -0.043762311 0.5523349 4278914824
0.43406591 -0.044230074 0.55241185 4278914824
0.43425521 -0.044732876 0.5525682 4278718217
0.43450439 -0.045199595 0.55264509 4278915596
0.43469262 -0.045700923 0.55280143 4278914826
0.43494105 -0.046166584 0.55287838 4278914577
0.43506727 -0.046701059 0.55311418 4279046163
0.43525368 -0.04719986 0.55327052 4279177747
0.4354395 -0.04769782 0.55342686 4279177745
0.43562472 -0.048194945 0.55358326 4279243021
0.43580928 -0.048691221 0.55373961 4279046159
0.43599331 -0.049186654 0.55389595 4278914573
0.43623859 -0.049647897 0.55397296 4278914573
0.43642151 -0.050141871 0.5541293 4279046159
0.43666601 -0.050602049 0.55420625 4279111702
0.4368479 -0.051094547 0.55436265 4279111956
0.43709168 -0.051553674 0.55443966 4278914575
0.43733513 -0.052012391 0.55451661 4278914575
0.43757826 -0.052470684 0.55459356 4278915596
0.43782109 -0.052928567 0.55467057 4278915596
0.43806368 -0.053386018 0.55474752 4279111952
0.43830591 -0.053843051 0.55482447 4278718217
0.43854785 -0.054299667 0.55490148 4278784010
0.43878949 -0.054755859 0.55497849 4278915076
0.43909454 -0.055180803 0.55497599 4278914826
0.4393357 -0.055636358 0.555053 4279045642
0.43964058 -0.056061089 0.55505055 4279045642
0.43981719 -0.056546211 0.55520695 4279045642
0.44012177 -0.056970522 0.55520451 4278783759
0.44036189 -0.057424612 0.55528152 4278718481
0.44060171 -0.057878274 0.55535853 4279111178
0.44084126 -0.058331527 0.55543554 4279046159
0.44108048 -0.058784343 0.55551255 4279177745
0.44131941 -0.059236743 0.5555895 4278783761
0.441558 -0.059688732 0.55566651 4278850065
0.44179633 -0.060140286 0.55574352 4278915608
0.44203436 -0.060591429 0.55582052 4279045659
0.44227207 -0.061042141 0.55589753 4279045659
0.44250947 -0.061492443 0.55597454 4278914575
0.44274658 -0.061942317 0.55605161 4279112203
0.44298339 -0.062391777 0.55612862 4279373830
0.44315362 -0.062868066 0.55628508 4279242762
0.44338968 -0.063316464 0.55636215 4279242762
0.44362545 -0.063764453 0.55643916 4279111954
0.44386089 -0.064212002 0.55651617 4279111956
0.44416291 -0.064632744 0.55651373 4279111706
0.4443979 -0.065079674 0.5565908 4279045909
0.44469976 -0.0655002 0.55658835 4278914323
0.4450016 -0.065920718 0.55658591 4279243538
0.44530344 -0.066341244 0.55658346 4279111952
0.44560531 -0.066761769 0.55658102 4279046159
0.44590718 -0.067182288 0.55657864 4279112722
0.44627693 -0.067577876 0.55649668 4279046929
0.44657892 -0.06799861 0.55649424 4279046929
0.44688094 -0.068419345 0.55649185 4278981140
0.44718295 -0.068840079 0.55648941 4278915608
0.44748494 -0.069260813 0.55648696 4279111702
0.44785562 -0.069657668 0.55640507 4279111702
0.44815779 -0.070078611 0.55640262 4279047446
0.44845992 -0.070499554 0.55640018 4278981401
0.4488312 -0.070897251 0.55631828 4279309333
0.44913352 -0.071318403 0.55631578 4279506714
0.44943583 -0.071739562 0.5563134 4279375128
0.44987729 -0.072115473 0.55615193 4279506714
0.4501102 -0.072559468 0.556229 4279637528
0.45041263 -0.072980829 0.55622655 4279703321
0.45071509 -0.073402196 0.55622411 4279834650
0.45101756 -0.073823556 0.55622166 4279703064
0.45131999 -0.074244931 0.55621922 4279768855
0.45169294 -0.074644923 0.55613732 4279506191
0.45199555 -0.075066507 0.55613488 4279506961
0.45243976 -0.075446218 0.55597341 4279704340
0.4528136 -0.075847492 0.55589145 4279638547
0.45325884 -0.076228663 0.55572999 4279900951
0.45363343 -0.076630995 0.55564809 4279900191
0.45400834 -0.077033743 0.55556613 4279374878
0.45445511 -0.077417023 0.55540466 4279309085
0.45475906 -0.077840492 0.55540216 4279176979
0.45520675 -0.078225046 0.55524075 4279242515
0.455511 -0.078648932 0.55523825 4279110925
0.45581526 -0.079072818 0.5552358 4279111430
0.45619184 -0.079477891 0.55515385 4279111430
0.45642382 -0.079920605 0.55523092 4279505416
0.4567281 -0.080344498 0.55522847 4279505166
0.45703238 -0.080768384 0.55522597 4279243540
0.45733663 -0.08119227 0.55522352 4279375375
0.45764089 -0.081616163 0.55522108 4279506961
0.45794517 -0.082040057 0.55521864 4279836948
0.45824945 -0.08246395 0.55521619 4279836948
0.45862722 -0.082870699 0.55513418 4279967766
0.4590053 -0.083277859 0.55505222 4279835928
0.45945749 -0.083668724 0.55489075 4280229916
0.45991027 -0.084060431 0.55472922 4280361245
0.46036369 -0.084452972 0.55456769 4280229916
0.46081769 -0.084846355 0.55440617 4280295709
0.46134672 -0.085224718 0.55416512 4280427295
0.46180207 -0.085619994 0.5540036 4280295456
0.46225804 -0.086016111 0.55384201 4280361502
0.46263975 -0.086428337 0.55376005 4280756258
0.46302176 -0.086840972 0.55367804 4280690465
0.4633289 -0.087268859 0.55367553 4280756003
0.46363604 -0.087696753 0.55367303 4281215782
0.46401864 -0.088110231 0.55359101 4281348388
0.46432596 -0.088538334 0.55358857 4281282852
0.46455747 -0.088980421 0.55366564 4281282852
0.46486461 -0.089408308 0.55366313 4281743148
0.4650957 -0.08984977 0.5537402 4282203200
0.46540266 -0.090277448 0.55373776 4282399555
0.41930231 0.021467239 0.52183044 4279441439
0.41949064 0.020727545 0.52214557 4279047966
0.41967776 0.01998955 0.5224607 4279178265
0.41990882 0.01930964 0.52269632 4279178265
0.42009369 0.018574804 0.52301145 4279374097
0.42036825 0.017953649 0.52316749 4279374099
0.4205966 0.017277539 0.52340317 4279308561
0.42073253 0.016491517 0.52379787 4279572507
0.41363621 -0.0023808032 0.5429318 4283320899
0.41405919 -0.0027313977 0.54277003 4284504651
0.41438705 -0.0031881183 0.54276741 4285095509
0.41471487 -0.0036448464 0.54276478 4285688664
0.41494638 -0.0042060167 0.54292119 4285557078
0.4152739 -0.00466232 0.54291856 4284767562
0.41564992 -0.0050668269 0.54283637 4284438599
0.4159776 -0.0055233389 0.54283375 4284372806
0.4163053 -0.0059798509 0.54283106 4284964189
0.41658404 -0.0064875335 0.54290801 4285293154
0.4169116 -0.0069438368 0.54290533 4284044883
0.4173376 -0.0072986484 0.54274362 4282729793
0.4177148 -0.0077048391 0.54266143 4282466619
0.41824093 -0.0079604611 0.54234052 4282202668
0.41881794 -0.0081676692 0.54194009 4281807910
0.4193466 -0.0084268674 0.54161918 4281543707
0.41992649 -0.008638069 0.54121876 4281477146
0.42075855 -0.0086039528 0.54042047 4281148181
0.4213925 -0.0087711364 0.53994048 4279833100
0.42207867 -0.0088917911 0.53938079 4278848782
0.4226658 -0.0091130808 0.53898031 4278586382
0.42320371 -0.0093851313 0.53865933 4278652175
0.42369193 -0.0097072944 0.53841794 4278521100
0.42397687 -0.010223605 0.53849477 4278455307
0.42431271 -0.010691486 0.53849208 4278520585
0.42459723 -0.011207171 0.53856897 4278914824
0.42477843 -0.011817604 0.53880489 4278849031
0.42501038 -0.0123794 0.53896141 4278915078
0.42518994 -0.012987532 0.53919739 4278586378
0.42536858 -0.013594389 0.53943342 4278782987
0.42549422 -0.014246732 0.53974903 4279046412
0.42561865 -0.014897399 0.54006469 4279242770
0.42574185 -0.015546374 0.5403803 4279242770
0.42586386 -0.016193673 0.54069591 4279046161
0.42603737 -0.01679337 0.540932 4278915343
0.42615712 -0.017437518 0.54124767 4278981136
0.42638165 -0.017989002 0.54140419 4278915594
0.42644614 -0.018675461 0.54179943 4278916109
0.426669 -0.019224629 0.54195595 4278850316
0.42694476 -0.019728102 0.5420329 4278914826
0.42705935 -0.020365082 0.54234856 4279177228
0.42733407 -0.020867087 0.54242551 4279177998
0.42760843 -0.02136866 0.54250246 4279177226
0.42445242 -0.037973948 0.55645943 4284372552
0.42475399 -0.038394049 0.55645704 4284503624
0.42505553 -0.03881415 0.5564546 4284306245
0.4253571 -0.039234251 0.55645216 4284240452
0.42571634 -0.0396154 0.55637008 4284306245
0.42613372 -0.039958209 0.55620843 4284175175
0.42643571 -0.040378943 0.55620599 4284306761
0.42685401 -0.040723026 0.55604434 4284043335
0.42727292 -0.041067943 0.55588257 4283845956
0.42786774 -0.041299969 0.55548203 4282268722
0.43132508 -0.041581966 0.55244619 4278652175
0.43193018 -0.041828312 0.55204552 4278586631
0.43235874 -0.042186707 0.55188382 4278586631
0.43272841 -0.042582363 0.55180162 4278717445
0.43303871 -0.043014675 0.55179912 4278783490
0.43328923 -0.043483004 0.55187631 4278979840
0.43353945 -0.0439509 0.55195343 4279111430
0.43372923 -0.044453979 0.5521102 4279111430
0.43397868 -0.044920832 0.55218732 4278784008
0.43422782 -0.045387253 0.55226445 4278915594
0.43441612 -0.04588823 0.55242127 4278915594
0.43460381 -0.046388358 0.55257809 4278915343
0.43473002 -0.046922177 0.55281448 4278783757
0.43491635 -0.047420412 0.55297136 4279177998
0.43510208 -0.047917806 0.55312812 4278915596
0.43528718 -0.048414357 0.553285 4279046412
0.43547171 -0.048910066 0.55344176 4279046159
0.43565559 -0.049404934 0.55359864 4279046159
0.43583891 -0.04989896 0.55375546 4279111952
0.4360216 -0.050392143 0.55391228 4278914573
0.43626577 -0.050851613 0.55398947 4279111952
0.43644741 -0.051343329 0.55414629 4279243021
0.43669081 -0.051801763 0.55422354 4278914323
0.43693393 -0.052259773 0.55430073 4278914323
0.4371767 -0.052717373 0.55437791 4279112724
0.43741924 -0.053174533 0.55445516 4279046412
0.43766141 -0.053631291 0.55453229 4279112203
0.43784022 -0.054118991 0.55468917 4279046412
0.43814492 -0.054543518 0.55468673 4278914826
0.4383862 -0.054998994 0.55476391 4278915076
0.43862721 -0.055454068 0.55484116 4278914824
0.4388679 -0.055908706 0.55491841 4278915078
0.43917218 -0.056332596 0.5549159 4279045640
0.43941242 -0.056786615 0.55499315 4279045640
0.43965232 -0.057240203 0.5550704 4279177228
0.43989199 -0.05769337 0.55514759 4279176975
0.44013131 -0.058146123 0.55522484 4279176199
0.44043496 -0.058569171 0.55522239 4279177226
0.44060907 -0.059050351 0.55537927 4279308812
0.44084749 -0.059501834 0.55545652 4278915095
0.44108561 -0.059952907 0.55553377 4278981140
0.44132343 -0.060403548 0.55561101 4278981140
0.44156092 -0.060853776 0.5556882 4279111956
0.44179815 -0.061303575 0.55576545 4279177749
0.44203508 -0.06175296 0.5558427 4278783761
0.44227168 -0.062201917 0.55591995 4279046410
0.44250798 -0.062650457 0.55599725 4279177480
0.44267786 -0.063125752 0.55615413 4279243016
0.44291341 -0.063573234 0.55623138 4279046159
0.44314864 -0.064020298 0.55630869 4279046159
0.4433836 -0.064466946 0.55638593 4278981140
0.44361824 -0.064913169 0.55646318 4279308565
0.44391948 -0.065332852 0.55646074 4278915345
0.44422072 -0.065752536 0.55645835 4279243273
0.44452199 -0.066172212 0.55645591 4279309066
0.44475588 -0.066617385 0.55653322 4279177226
0.44505697 -0.06703686 0.55653077 4279176977
0.44535807 -0.067456335 0.55652833 4278981902
0.44572699 -0.06785094 0.55644619 4278981902
0.44602823 -0.068270624 0.55644375 4279177996
0.44632947 -0.068690307 0.55644131 4278915078
0.44663075 -0.069109984 0.55643892 4279046410
0.44686356 -0.069553688 0.55651617 4278981389
0.44723326 -0.069949351 0.55643404 4279047182
0.44760323 -0.070345432 0.5563519 4279112975
0.44790462 -0.070765331 0.55634946 4279243540
0.44820601 -0.071185224 0.55634701 4279571478
0.44850743 -0.071605116 0.55634463 4279506712
0.44880882 -0.072025008 0.55634218 4279309333
0.44911021 -0.072444893 0.55633974 4279309331
0.44941163 -0.072864786 0.5563373 4279703315
0.44978279 -0.07326255 0.55625516 4279637526
0.45008433 -0.073682651 0.55625272 4279506712
0.45045596 -0.074081063 0.55617058 4279506712
0.45075768 -0.074501373 0.55616814 4279506712
0.45112976 -0.074900404 0.556086 4279702292
0.45157266 -0.075278789 0.55592412 4279637777
0.45201617 -0.075658016 0.55576223 4279506963
0.45253116 -0.076017424 0.55552059 4279770135
0.45290506 -0.076418988 0.5554384 4279637779
0.45335037 -0.076800734 0.55527651 4279701529
0.45372504 -0.077203341 0.55519438 4279177247
0.45409995 -0.07760638 0.55511212 4279111454
0.45447522 -0.078009829 0.55502999 4278913553
0.45477906 -0.078433089 0.55502754 4278848010
0.45508286 -0.078856342 0.5550251 4278782987
0.4553867 -0.079279602 0.5550226 4278914054
0.4556905 -0.079702869 0.55502021 4278848261
0.45592198 -0.080144674 0.55509746 4278979592
0.45622563 -0.080567718 0.55509502 4279241994
0.45652932 -0.080990769 0.55509257 4279176979
0.45676017 -0.081431724 0.55516988 4279177747
0.4570637 -0.081854574 0.55516744 4279309333
0.45736721 -0.08227741 0.55516499 4279836447
0.45767075 -0.082700245 0.55516255 4279902238
0.45804763 -0.083106011 0.55508029 4279835675
0.45842487 -0.083512202 0.55499816 4279966744
0.4588024 -0.083918817 0.5549159 4280164123
0.45925409 -0.084309399 0.55475396 4280229916
0.45970637 -0.08470083 0.55459201 4280099100
0.46015924 -0.085093103 0.55443007 4280034077
0.46068704 -0.085470416 0.55418831 4280165663
0.46121573 -0.08584898 0.55394655 4280230433
0.46167076 -0.086244196 0.55378461 4280230686
0.46212634 -0.086640269 0.5536226 4280625442
0.46258259 -0.087037176 0.5534606 4280493856
0.4629643 -0.08744967 0.55337834 4280624164
0.46334636 -0.087862596 0.55329615 4281215784
0.46365336 -0.088290274 0.5532937 4281413413
0.46396035 -0.088717952 0.5532912 4281348388
0.46426734 -0.089145638 0.5532887 4281282595
0.46449852 -0.089587018 0.55336601 4281545767
0.46488133 -0.090000995 0.55328375 4281808190
0.46518832 -0.090428673 0.55328131 4281873731
0.4134075 -0.0025421456 0.54244483 4284766796
0.41373503 -0.0029984489 0.54244214 4284767560
0.41411036 -0.0034021884 0.54235971 4285161554
0.41439012 -0.0039110556 0.54243684 4285623134
0.41466957 -0.004419513 0.54251397 4285228376
0.4150452 -0.0048236623 0.54243159 4284176204
0.41537273 -0.0052799657 0.54242897 4284438345
0.41570026 -0.0057362765 0.54242629 4284635464
0.41602781 -0.0061925724 0.54242367 4284898644
0.41640419 -0.0065977946 0.54234123 4284767058
0.41673186 -0.0070543066 0.54233861 4283255617
0.4171578 -0.0074094683 0.54217637 4282598457
0.41758436 -0.0077654794 0.54201418 4282203701
0.41815975 -0.0079715699 0.54161263 4281743146
0.41868711 -0.0082298219 0.54129088 4281414181
0.41926539 -0.0084399134 0.54088926 4281149978
0.42062664 -0.0086687803 0.53976697 4279965706
0.42136061 -0.0087384358 0.53912598 4279504400
0.42204666 -0.008860454 0.5385648 4278848532
0.42268434 -0.0090341941 0.53808331 4278651921
0.4231213 -0.0094047263 0.53792107 4278651921
0.42355889 -0.0097760931 0.53775877 4278586380
0.42384425 -0.010292754 0.53783584 4278521100
0.42412931 -0.010808989 0.53791291 4278586378
0.42436284 -0.011372536 0.53806984 4278914573
0.42459571 -0.011935242 0.53822672 4278782987
0.42477649 -0.012544394 0.53846335 4278849031
0.42500806 -0.013105206 0.53862029 4278717966
0.42513534 -0.013758942 0.53893679 4278717964
0.4252094 -0.014457658 0.53933311 4278915596
0.4253341 -0.01510781 0.53964961 4279243021
0.4254576 -0.015756279 0.53996611 4279308814
0.4256323 -0.016357034 0.54020286 4278914826
0.42575353 -0.017002337 0.54051942 4278981389
0.4259263 -0.01760035 0.54075617 4278915345
0.42599237 -0.018287912 0.54115254 4278914824
0.42621607 -0.01883778 0.54130954 4279047434
0.42638594 -0.019431785 0.54154629 4278915848
0.42655495 -0.020024531 0.54178309 4278981389
0.42677653 -0.020571448 0.54194009 4278981389
0.42699751 -0.021117523 0.54209703 4278981138
0.4272179 -0.021662757 0.54225403 4278914325
0.42738372 -0.022251077 0.54249084 4279045911
0.42754859 -0.022838138 0.54272765 4279504913
0.42448631 -0.038582116 0.55608851 4284504392
0.4247877 -0.039002009 0.55608606 4284240706
0.42514652 -0.0393828 0.55600381 4284240706
