# .PCD v0.7 - Point Cloud Data file format
VERSION 0.7
FIELDS x y z rgb
SIZE 4 4 4 4
TYPE F F F U
COUNT 1 1 1 1
WIDTH 1046
HEIGHT 1
VIEWPOINT 0 0 0 1 0 0 0
POINTS 1046
DATA ascii
0.42250729 -0.029017299 0.58317363 4282661422
0.42303795 -0.029108539 0.58311009 4282596143
0.42358318 -0.028952584 0.58286089 4282661420
0.42412546 -0.028879657 0.58267355 4282661420
0.42468473 -0.02856034 0.58230054 4282661934
0.42698222 -0.026883036 0.58049887 4281742882
0.42757031 -0.026405245 0.58000201 4281874468
0.42813572 -0.026255965 0.57975274 4281940261
0.4286893 -0.026270762 0.57962722 4281610529
0.42925102 -0.026204243 0.57943982 4281150232
0.42979938 -0.026301309 0.57937622 4281150232
0.43036357 -0.026235625 0.57918882 4281611814
0.43092132 -0.026251778 0.57906324 4281677607
0.43148005 -0.026268288 0.57893777 4281677612
0.43202299 -0.026447579 0.57893598 4281677612
0.43259183 -0.0263834 0.57874858 4281546798
0.43313554 -0.026562929 0.57874686 4281678384
0.43370658 -0.02649951 0.5785594 4281941556
0.4342604 -0.026598379 0.57849574 4281941051
0.43481469 -0.026697397 0.57843214 4281612086
0.43536946 -0.026796609 0.57836848 4281940532
0.43592474 -0.026895955 0.57830489 4281808946
0.43649083 -0.02691488 0.5781793 4282005802
0.43704736 -0.027014658 0.5781157 4281873962
0.43761519 -0.027034163 0.57799011 4281874732
0.43816185 -0.027214676 0.57798839 4281874732
0.43871984 -0.027314916 0.57792473 4281743146
0.4392783 -0.02741532 0.57786107 4280163870
0.43981361 -0.027676091 0.57792127 4279637526
0.44036052 -0.027856678 0.57791948 4279309066
0.44090742 -0.028037265 0.57791775 4279177480
0.44144177 -0.028297707 0.5779779 4278980101
0.44197559 -0.028557971 0.5780381 4279638031
0.44249591 -0.028897762 0.57816017 4279703824
0.44301522 -0.029237241 0.57828224 4279375629
0.44353354 -0.029576376 0.57840437 4279309836
0.44407848 -0.029756323 0.57840264 4279244041
0.44460937 -0.030015618 0.57846284 4279244041
0.44515407 -0.030195475 0.57846105 4279308812
0.44568419 -0.030454531 0.57852125 4279045635
0.44622865 -0.030634314 0.57851952 4279243014
0.44677308 -0.030814081 0.57851779 4279374602
0.4473328 -0.030914903 0.57845414 4279440395
0.44792402 -0.030858129 0.57826662 4279440395
0.4484852 -0.030959427 0.57820296 4279637002
0.44907889 -0.030903488 0.57801545 4279900174
0.4496578 -0.03092663 0.57788992 4280295700
0.45025417 -0.03087157 0.5777024 4280493331
0.45083529 -0.030895457 0.57757676 4280558608
0.45141742 -0.030919686 0.57745117 4280295436
0.45198327 -0.031022534 0.57738751 4279899911
0.45258456 -0.030969083 0.57719994 4279768077
0.45313418 -0.031150565 0.57719821 4279702543
0.45370176 -0.031253994 0.57713455 4282598462
0.45426983 -0.031357571 0.57707083 4282203704
0.4548384 -0.031461313 0.57700717 4282138156
0.45538872 -0.031643033 0.57700545 4282269226
0.45595804 -0.031747028 0.57694173 4282334506
0.45650861 -0.031928822 0.57694 4282268713
0.4570592 -0.032110631 0.57693827 4282400560
0.4576295 -0.03221494 0.57687455 4281807919
0.47174779 -0.026293114 0.56903362 4281018655
0.47230476 -0.026561022 0.5690937 4281085216
0.47288635 -0.026753068 0.56909186 4281216802
0.47346795 -0.026945114 0.56909001 4281546796
0.47404951 -0.027137145 0.56908816 4281415212
0.4746311 -0.027329192 0.56908631 4281546024
0.47521269 -0.027521238 0.56908447 4281545767
0.47582063 -0.027637959 0.56902063 4281545767
0.47645563 -0.027679652 0.56889486 4282202668
0.47709161 -0.027721658 0.5687691 4282400299
0.47772858 -0.027763993 0.56864333 4283255608
0.4783119 -0.02795659 0.56864148 4283847745
0.47895032 -0.027999416 0.56851572 4283979331
0.47953415 -0.028192192 0.56851387 4284438858
0.48017406 -0.028235495 0.56838804 4284902237
0.48081496 -0.028279126 0.56826228 4284771936
0.41718948 -0.025957912 0.5815295 4279966742
0.41770485 -0.026798993 0.58202463 4281414183
0.41821408 -0.027721897 0.58258188 4282598709
0.41873354 -0.028145 0.58276653 4282204208
0.41925684 -0.028401658 0.58282697 4282401587
0.41977963 -0.028658152 0.58288741 4283321660
0.42030513 -0.028831661 0.58288574 4283780928
0.42083064 -0.029005185 0.58288407 4283582522
0.42135978 -0.029096067 0.5828203 4283055149
0.42188552 -0.029269665 0.58281863 4282857770
0.42241958 -0.029278278 0.58269268 4282661422
0.42295021 -0.029369622 0.58262891 4282661422
0.42349064 -0.029296502 0.58244091 4282661420
0.42403254 -0.029223844 0.58225286 4282661420
0.42458105 -0.029069513 0.58200276 4282530348
0.42748052 -0.026672438 0.57950962 4281742882
0.4280524 -0.026441962 0.57919729 4281808675
0.42861983 -0.026293889 0.57894707 4281413152
0.42917505 -0.02630949 0.57882112 4281280794
0.42973125 -0.026325434 0.57869518 4281150232
0.43029603 -0.026260331 0.57850707 4281546021
0.43084657 -0.026358262 0.57844323 4281677607
0.43140572 -0.02637516 0.57831722 4281677612
0.43196586 -0.0263924 0.57819128 4281677612
0.43252698 -0.026409969 0.57806528 4281743407
0.43308026 -0.026508793 0.57800138 4281940786
0.43364307 -0.026526913 0.57787544 4282138165
0.43419757 -0.02662614 0.5778116 4282137913
0.43475255 -0.026725531 0.5777477 4281742902
0.43531784 -0.02674447 0.5776217 4281808946
0.43587407 -0.026844293 0.5775578 4281743153
0.43644109 -0.026863784 0.57743186 4281940009
0.43699855 -0.026963994 0.57736796 4281874216
0.43756729 -0.026984066 0.57724196 4281874732
0.43812597 -0.027084678 0.57717806 4281874732
0.43867385 -0.027265593 0.57717633 4281282852
0.43922174 -0.027446494 0.5771746 4280558881
0.43976963 -0.027627409 0.57717288 4279440147
0.44031748 -0.027808324 0.57717109 4279243273
0.44086537 -0.027989239 0.57716936 4279177480
0.44140074 -0.028249875 0.57722974 4278914308
0.4419356 -0.028510347 0.57729018 4279177480
0.44244397 -0.0289298 0.57747483 4279440650
0.44295084 -0.029348746 0.57765949 4279375627
0.44346973 -0.029687822 0.57778203 4279244041
0.44398767 -0.030026555 0.57790458 4279178248
0.4445326 -0.030206501 0.57790285 4279178248
0.44613791 -0.030904308 0.57802194 4279177478
0.44668233 -0.031084076 0.57802022 4279243273
0.44727248 -0.031027362 0.57783204 4279308555
0.44783312 -0.031128615 0.57776815 4279308812
0.44842568 -0.031072691 0.57757998 4279309066
0.44900379 -0.031095862 0.57745397 4279440652
0.44958284 -0.031119332 0.57732791 4279769617
0.45017937 -0.031064719 0.57713974 4280164368
0.45076066 -0.031088948 0.57701367 4280361745
0.45134291 -0.03111349 0.57688761 4280164366
0.45190898 -0.031216547 0.57682371 4279900426
0.45249298 -0.03124164 0.57669765 4279768075
0.45306027 -0.031345114 0.57663375 4279834383
0.45362806 -0.031448722 0.57656986 4281545771
0.45419633 -0.031552523 0.57650596 4281743150
0.45474666 -0.031734243 0.57650417 4282006570
0.45531568 -0.031838268 0.57644027 4282269226
0.45588517 -0.031942442 0.57637638 4282137640
0.45643601 -0.032124326 0.57637459 4282203433
0.45698684 -0.032306224 0.57637286 4282268972
0.47169998 -0.02643016 0.56837749 4281018140
0.47225747 -0.026698098 0.56843781 4281282079
0.47283956 -0.026890308 0.56843597 4281347872
0.47342163 -0.027082503 0.56843412 4281677353
0.47402927 -0.027199298 0.56837004 4281677353
0.4745858 -0.027466908 0.56843042 4281742630
0.47516787 -0.027659118 0.56842852 4281808421
0.47577626 -0.027776152 0.5683645 4281742628
0.47641164 -0.027818248 0.56823826 4283123252
0.47702128 -0.027935669 0.56817424 4283452215
0.47763136 -0.028053269 0.56811023 4283649846
0.47826922 -0.028096169 0.56798398 4283847225
0.47885305 -0.028288946 0.56798214 4284307001
0.47946459 -0.028407022 0.56791806 4284439110
0.48010468 -0.028450653 0.56779182 4285100386
0.48077402 -0.028420076 0.56760341 4285297765
0.4176091 -0.027393699 0.58179051 4281150759
0.41812202 -0.028149143 0.58222514 4282598457
0.41864586 -0.028405845 0.58228576 4282335535
0.41917184 -0.028579518 0.58228409 4282532914
0.41969782 -0.028753206 0.58228242 4283255608
0.42022383 -0.028926894 0.58228076 4283845948
0.42074981 -0.029100567 0.58227909 4283582006
0.42127579 -0.029274255 0.58227742 4283055149
0.42180565 -0.02936548 0.5822134 4282857770
0.42233598 -0.029456869 0.58214939 4282661422
0.4228712 -0.029466152 0.58202302 4282399275
0.42340738 -0.029475749 0.58189672 4282398762
0.42394453 -0.029485673 0.58177036 4282398762
0.42447251 -0.029660001 0.58176863 4282201896
0.42848876 -0.027051017 0.57882667 4281215255
0.42909187 -0.026496634 0.57826388 4281083417
0.42966285 -0.02635026 0.57801276 4281216286
0.43022826 -0.026285782 0.577824 4281413665
0.43078732 -0.026302934 0.57769758 4281480235
0.43133932 -0.026401475 0.5776335 4281546028
0.43190008 -0.026419193 0.57750708 4281677614
0.43246186 -0.026437238 0.57738066 4281940532
0.43302462 -0.026455596 0.57725418 4282006325
0.43357933 -0.026555032 0.5771901 4282137654
0.43413451 -0.026654646 0.57712603 4282072118
0.43469971 -0.026673824 0.57699955 4281808948
0.43526593 -0.026693329 0.57687312 4281743155
0.43582308 -0.026793569 0.57680905 4281742896
0.43638074 -0.026893988 0.57674491 4281743150
0.4369494 -0.026914299 0.57661843 4281677355
0.43750829 -0.027015135 0.57655436 4281808941
0.43807867 -0.027036026 0.57642794 4281743148
0.43862754 -0.027217254 0.57642615 4280691485
0.43916491 -0.027478412 0.57648677 4279836180
0.43972525 -0.027579725 0.57642269 4279308812
0.44027412 -0.027760968 0.5764209 4279243273
0.44082299 -0.027942196 0.57641917 4279045894
0.44134691 -0.028282642 0.57654214 4278914308
0.44186983 -0.028622761 0.5766651 4279045892
0.44237879 -0.029042006 0.57685047 4279177226
0.4428995 -0.029381409 0.57697344 4279046664
0.44952399 -0.031233907 0.57670307 4279505934
0.45010448 -0.031258121 0.57657659 4279769358
0.45070258 -0.031204447 0.5763877 4280032782
0.45125145 -0.03138569 0.57638597 4279966989
0.45185179 -0.031332716 0.57619709 4279900942
0.45243618 -0.031358242 0.57607055 4279769356
0.45298627 -0.031539887 0.57606882 4279899659
0.45355427 -0.031643718 0.57600468 4280689427
0.45412272 -0.031747699 0.57594055 4280952599
0.45467332 -0.031929508 0.57593882 4282334765
0.45522392 -0.032111302 0.57593703 4282334767
0.45581225 -0.032138124 0.57581055 4281742376
0.45636332 -0.032320097 0.57580876 4281544997
0.47167653 -0.026492074 0.56765807 4281084185
0.47221002 -0.02683568 0.56778097 4281545503
0.47281763 -0.026952595 0.56771678 4281677089
0.47337517 -0.027220413 0.56777728 4281874214
0.47395775 -0.027412787 0.56777543 4282005287
0.47456607 -0.02752994 0.56771117 4282596908
0.47514889 -0.027722374 0.56770933 4282925610
0.47575796 -0.027839765 0.56764507 4283122989
0.47639403 -0.027882352 0.56751841 4283517231
0.47700435 -0.028000146 0.5674541 4283714612
0.47761512 -0.028118089 0.56738985 4283978034
0.47822642 -0.02823621 0.56732559 4283846448
0.47883821 -0.028354511 0.56726134 4284175925
0.47945046 -0.028472945 0.56719702 4284834120
0.48009121 -0.028517067 0.56707036 4285230686
0.41803852 -0.028244317 0.58161908 4282532666
0.41856524 -0.028418243 0.58161741 4282532914
0.41908938 -0.028674901 0.58167827 4282598707
0.4196187 -0.028766096 0.58161402 4283386424
0.42014235 -0.029022574 0.58167493 4283649083
0.42067215 -0.029113948 0.58161068 4283384627
0.42119887 -0.029287875 0.58160901 4283187248
0.42172942 -0.029379472 0.58154476 4282792490
0.42225641 -0.029553488 0.58154309 4282529834
0.42279202 -0.029563144 0.58141631 4282530088
0.42332405 -0.029655233 0.58135206 4282464809
0.42386138 -0.029665485 0.58122528 4282399016
0.42439967 -0.029676035 0.58109844 4282201383
0.43071219 -0.026410624 0.5770753 4281218603
0.43128064 -0.026347563 0.57688582 4281349419
0.43184233 -0.026365846 0.57675892 4281546798
0.43240499 -0.026384458 0.57663208 4281809716
0.43295991 -0.026484117 0.57656777 4281875509
0.43352431 -0.02650328 0.57644087 4282072118
0.43408045 -0.026603326 0.57637656 4282006325
0.43464658 -0.026623085 0.5762496 4281743153
0.43520394 -0.026723534 0.57618529 4281611567
0.43577176 -0.026743844 0.57605839 4281677614
0.43633038 -0.02684471 0.57599407 4281743148
0.43688947 -0.02694574 0.57592976 4281677355
0.43745977 -0.026966855 0.57580286 4281743146
0.43802008 -0.027068287 0.57573849 4281743146
0.43856969 -0.027249768 0.57573676 4280494106
0.43911928 -0.027431235 0.57573497 4279770385
0.43966889 -0.027612716 0.57573324 4279309066
0.44021851 -0.027794197 0.57573152 4279243273
0.44076809 -0.027975678 0.57572973 4279045894
0.45292979 -0.03165713 0.57544088 4279900174
0.45348039 -0.031838939 0.5754391 4280163344
0.45404908 -0.031943128 0.57537472 4280426516
0.45461825 -0.03204748 0.57531035 4280755733
0.45516932 -0.032229453 0.57530862 4280887321
0.47216243 -0.026973754 0.56712329 4282400810
0.47274548 -0.027166277 0.56712145 4282400810
0.47335377 -0.027283534 0.56705695 4282598959
0.47393706 -0.027476147 0.56705511 4282861363
0.4745461 -0.027593672 0.56699061 4282795057
0.47515565 -0.027711347 0.56692612 4282925869
0.47573942 -0.027904108 0.56692427 4283123248
0.47637615 -0.027947173 0.56679714 4283517495
0.47701386 -0.027990565 0.56667 4283583549
0.47762561 -0.028108969 0.56660557 4283846975
0.47826505 -0.028152928 0.56647837 4283846975
0.47887802 -0.02827175 0.56641388 4284241731
0.47946376 -0.028465167 0.56641203 4284637261
0.4801054 -0.028509855 0.56628489 4285229657
0.41743311 -0.02791734 0.58082545 4280886819
0.41795695 -0.028257206 0.58094931 4282532664
0.41848439 -0.028431386 0.58094764 4282795836
0.41901186 -0.028605551 0.58094597 4282796086
0.41953933 -0.028779715 0.5809443 4283189815
0.42006677 -0.02895388 0.58094263 4283321399
0.42059425 -0.02912806 0.58094096 4282926123
0.42112526 -0.02921994 0.58087647 4282794537
0.42165297 -0.02939418 0.5808748 4282596393
0.42218471 -0.029486313 0.58081031 4282135844
0.42271695 -0.029578596 0.58074582 4282398500
0.42324513 -0.029753014 0.58074415 4282530088
0.42377335 -0.029927433 0.58074248 4282398502
0.42430654 -0.030020028 0.58067799 4282070051
0.42484552 -0.0300311 0.58055079 4281412128
0.43067551 -0.026114285 0.57613814 4281217829
0.43122962 -0.02621381 0.57607359 4281677612
0.43178427 -0.026313484 0.57600904 4281612591
0.43234783 -0.026332662 0.57588172 4281808946
0.43291238 -0.026352182 0.57575434 4281940532
0.43346897 -0.026452497 0.57568979 4281677360
0.43402606 -0.02655299 0.57562524 4281611567
0.43459308 -0.026573315 0.57549787 4281677614
0.4351514 -0.026674226 0.57543337 4281611821
0.43572012 -0.026695102 0.575306 4281611821
0.43627965 -0.026796401 0.57524145 4281611819
0.4368397 -0.026897877 0.57517689 4281481003
0.43740022 -0.026999503 0.57511234 4281481003
0.43796125 -0.027101308 0.57504779 4281415210
0.43852276 -0.027203262 0.57498324 4280295961
0.43906191 -0.027464747 0.57504427 4279769617
0.43961227 -0.027646482 0.57504249 4279178248
0.4401626 -0.027828202 0.57504076 4279244041
0.4407008 -0.028089359 0.57510185 4279045892
0.4423382 -0.028713495 0.57515937 4278783238
0.47213933 -0.027036995 0.56640184 4282466090
0.47272313 -0.027229771 0.56639999 4282531883
0.47330692 -0.027422547 0.56639814 4282795568
0.47391617 -0.027540252 0.56633341 4282926641
0.47450021 -0.027733102 0.56633157 4282795055
0.4751102 -0.02785106 0.56626683 4282925873
0.47574684 -0.027894378 0.56613928 4283123252
0.47638446 -0.027938008 0.56601167 4283452217
0.47702307 -0.027981982 0.56588411 4283583551
0.47763574 -0.028100833 0.56581938 4283912516
0.47827607 -0.028145343 0.56569183 4283846723
0.47886258 -0.028339013 0.56568992 4284241479
0.47947675 -0.028458357 0.56562519 4284176710
0.48017508 -0.028355122 0.56537187 4285229657
0.41735047 -0.027930945 0.58015394 4280886819
0.41787511 -0.028270841 0.58027822 4282598457
0.41840783 -0.028280094 0.58015054 4282927422
0.41893402 -0.028537169 0.58021188 4282730041
0.41946521 -0.028629243 0.58014715 4282926902
0.41999391 -0.028803825 0.58014548 4283124533
0.42052585 -0.028896153 0.58008081 4282598187
0.42105481 -0.029070809 0.58007914 4282335015
0.42158374 -0.029245466 0.58007741 4282202920
0.42211267 -0.029420123 0.58007574 4282202150
0.42264161 -0.029594779 0.58007407 4282006054
0.42317504 -0.029687613 0.58000934 4282202150
0.42370421 -0.029862344 0.58000767 4282333736
0.42423341 -0.03003709 0.580006 4281741345
0.42476782 -0.030130222 0.57994127 4281083935
0.42529726 -0.030305043 0.5799396 4281413665
0.43061522 -0.026061997 0.57538688 4281742376
0.43117821 -0.026081264 0.57525909 4281743148
0.43173403 -0.026181474 0.5751943 4281677360
0.43229875 -0.026201308 0.57506651 4281743153
0.43285578 -0.02630192 0.57500172 4281808695
0.43341333 -0.026402697 0.57493699 4281479983
0.43397135 -0.026503637 0.5748722 4281349167
0.43452984 -0.026604742 0.57480741 4281480751
0.4350985 -0.026625872 0.57467961 4281546544
0.43565825 -0.026727378 0.57461482 4281480751
0.4362185 -0.026829064 0.57455003 4281481005
0.43677923 -0.026930884 0.57448524 4281415982
0.43734044 -0.027032882 0.57442045 4281350187
0.43790215 -0.027135044 0.57435572 4281021222
0.43845323 -0.027317017 0.57435393 4279967261
0.43900433 -0.027498975 0.57435215 4279572756
0.43953216 -0.027839914 0.57447648 4279244043
0.44009462 -0.027942315 0.57441169 4279178250
0.44064546 -0.028124198 0.57440996 4279243016
0.44117156 -0.028464571 0.5745343 4279045637
0.44172192 -0.02864629 0.57453251 4278849285
0.4422594 -0.02890709 0.57459378 4278652422
0.47270054 -0.027293995 0.56567717 4282070564
0.47328508 -0.02748701 0.56567532 4282991149
0.47389501 -0.027605087 0.56561041 4282991662
0.47453108 -0.027648479 0.56548238 4282991664
0.47514224 -0.027766958 0.56541741 4282925871
0.4757539 -0.027885631 0.56535244 4283124020
0.47636604 -0.028004438 0.56528753 4283189815
0.47703195 -0.027974352 0.56509638 4283452987
0.47764558 -0.028093651 0.56503147 4283846975
0.47825968 -0.028213114 0.5649665 4283912768
0.47890165 -0.028258443 0.56483847 4284110145
0.47951701 -0.028378323 0.5647735 4284373319
0.48027211 -0.028127745 0.56439316 4284768856
0.41673663 -0.027853191 0.57954592 4280032278
0.4172658 -0.028027937 0.57954425 4280426268
0.417795 -0.028202668 0.57954258 4282203958
0.41832864 -0.028212503 0.57941443 4282730302
0.41885832 -0.028387398 0.5794127 4282731072
0.419388 -0.028562292 0.57941103 4282730302
0.41991767 -0.028737202 0.57940936 4282862138
0.42045057 -0.028829977 0.57934445 4282138667
0.42098048 -0.029004946 0.57934272 4282072874
0.4215104 -0.029179931 0.57934105 4281743655
0.42204031 -0.029354915 0.57933939 4281743398
0.42257023 -0.029529899 0.57933772 4282006570
0.42310461 -0.029623166 0.57927275 4282137386
0.42363477 -0.029798225 0.57927108 4282137386
0.42416495 -0.029973298 0.57926941 4281675554
0.42469513 -0.030148357 0.57926768 4281084450
0.42522529 -0.030323416 0.57926601 4281414435
0.43007302 -0.025103018 0.57406628 4281676837
0.43058515 -0.025688052 0.57438082 4281742630
0.43114215 -0.025788784 0.57431579 4281743148
0.4316915 -0.025970176 0.57431406 4281677360
0.43224087 -0.026151583 0.57431233 4281743153
0.43279886 -0.026252642 0.5742473 4281611569
0.43335733 -0.026353866 0.57418227 4281545776
0.43392539 -0.026375085 0.57405406 4281480753
0.43448511 -0.026476711 0.57398903 4281415730
0.43503571 -0.02665852 0.57398731 4281415730
0.435606 -0.02668047 0.57385904 4281349935
0.43616718 -0.026782587 0.57379401 4281415728
0.43672884 -0.026884869 0.57372904 4281547568
0.43728042 -0.027066991 0.57372725 4281547568
0.437832 -0.027249128 0.57372546 4280626464
0.43838358 -0.02743125 0.57372373 4279704089
0.43893513 -0.027613387 0.573722 4279375377
0.43948671 -0.027795509 0.57372022 4279178250
0.44001463 -0.028136209 0.57384503 4279178250
0.44056571 -0.028318182 0.57384324 4279243016
0.44109216 -0.028658375 0.57396799 4279045637
0.44165531 -0.028761134 0.57390296 4278849285
0.47336343 -0.027252629 0.56469798 4282859817
0.47392434 -0.027521044 0.56475937 4283057196
0.47456154 -0.027565062 0.56463093 4282991662
0.47514805 -0.027758732 0.56462908 4282925869
0.47576064 -0.027877837 0.56456387 4283254836
0.47640008 -0.027922615 0.56443542 4283124020
0.47706708 -0.027893305 0.56424361 4283387192
0.47768188 -0.028013125 0.56417847 4283781180
0.47832426 -0.028058872 0.56404996 4283846973
0.47894031 -0.028179094 0.56398475 4284110143
0.47955686 -0.028299496 0.56391954 4284242501
0.48020169 -0.028346062 0.56379104 4284834388
0.41718271 -0.028042883 0.57887024 4280229659
0.4177165 -0.02805306 0.57874161 4282072372
0.4182491 -0.028145865 0.57867646 4282467130
0.41877976 -0.028321087 0.57867479 4282599486
0.41931042 -0.02849631 0.57867312 4282731070
0.41984403 -0.028589472 0.57860798 4282731322
0.42037809 -0.028682768 0.57854283 4282007081
0.42090583 -0.028940082 0.57860458 4281743909
0.42144039 -0.029033542 0.57853943 4281940009
0.42197156 -0.029208928 0.57853776 4282137134
0.42249855 -0.029465988 0.57859951 4282137134
0.42303386 -0.029559702 0.57853436 4281939755
0.423565 -0.029735088 0.5785327 4281940009
0.42409617 -0.029910475 0.57853097 4281543968
0.42463246 -0.030004516 0.57846582 4281085223
0.42516387 -0.030179992 0.57846415 4282664507
0.43054682 -0.025396585 0.57343459 4281808169
0.43109766 -0.025578469 0.57343286 4281742378
0.43164042 -0.025840744 0.57349461 4281546026
0.43219933 -0.025942236 0.57342935 4281611819
0.43275017 -0.02612412 0.57342762 4281546026
0.433301 -0.026306018 0.57342589 4281480233
0.4338609 -0.026407853 0.57336062 4281480751
0.4344213 -0.026509851 0.57329541 4281415728
0.43498221 -0.026611999 0.57323015 4281481521
0.4355436 -0.026714325 0.57316494 4281415728
0.43610546 -0.026816815 0.57309967 4281481521
0.43666786 -0.026919454 0.57303447 4281744695
0.43720961 -0.027181402 0.57309616 4281349937
0.43777245 -0.027284205 0.57303095 4280363040
0.43831372 -0.027545974 0.57309264 4279638547
0.43886578 -0.027728274 0.57309091 4279375375
0.43940634 -0.02798979 0.5731526 4279374857
0.43995816 -0.028172001 0.57315087 4279374857
0.44049793 -0.028433293 0.57321262 4279243273
0.44102496 -0.028773427 0.57333779 4278980101
0.47397855 -0.027363509 0.56384265 4282860330
0.47459158 -0.027482882 0.56377721 4282926123
0.47520512 -0.027602434 0.56371182 4282926123
0.47581917 -0.027722135 0.56364644 4283057455
0.47643369 -0.027842 0.56358099 4283123248
0.4771018 -0.027813464 0.56338859 4283518006
0.47771782 -0.027933836 0.56332314 4283649592
0.47833431 -0.028054342 0.56325769 4283912764
0.47897857 -0.028100982 0.56312877 4284044350
0.47959629 -0.028221905 0.56306338 4284176706
0.48024228 -0.028269112 0.5629344 4284768847
0.48091727 -0.028242856 0.56274194 4285558363
0.4176338 -0.028069243 0.57806581 4281743150
0.41816711 -0.028162435 0.57800043 4282532666
0.41869852 -0.028337896 0.57799876 4282599484
0.41923517 -0.028349265 0.57786971 4282731068
0.41976708 -0.028524905 0.57786798 4282599736
0.42030209 -0.028618649 0.57780266 4282270771
0.42083424 -0.028794363 0.57780093 4281612323
0.42136636 -0.028970078 0.5777992 4282135851
0.42189851 -0.029145792 0.57779753 4282202414
0.42242652 -0.029403061 0.57785952 4282137388
0.42295843 -0.029578686 0.57785785 4281940009
0.42349032 -0.029754326 0.57785618 4281939496
0.4240222 -0.029929951 0.57785445 4281543968
0.42455408 -0.030105576 0.57785279 4281545523
0.42995539 -0.024924383 0.57248706 4282005550
0.43048525 -0.025348082 0.57267642 4281873964
0.43103707 -0.025530294 0.57267463 4281677357
0.43158889 -0.025712505 0.57267284 4281546028
0.43214071 -0.025894716 0.57267112 4281611821
0.43269253 -0.026076928 0.57266939 4281546028
0.43324435 -0.026259139 0.5726676 4281480235
0.43379617 -0.026441351 0.57266581 4281611567
0.43436655 -0.026463866 0.57253671 4281611567
0.43491885 -0.026646242 0.57253492 4281546544
0.43548095 -0.02674894 0.57246947 4281481005
0.43604353 -0.026851773 0.57240403 4281612337
0.43660659 -0.026954785 0.57233858 4281809465
0.43715963 -0.027137399 0.57233679 4281348914
0.43771267 -0.027320012 0.572335 4280297249
0.43825474 -0.027581915 0.57239699 4279507731
0.43879628 -0.027843654 0.57245892 4279507215
0.43934885 -0.028026119 0.57245713 4279374857
0.43988967 -0.02828759 0.57251906 4279374857
0.44039401 -0.028785795 0.5727722 4279243273
0.47464675 -0.027327433 0.56285751 4282925869
0.47526172 -0.027447596 0.56279194 4282925869
0.4758772 -0.027567908 0.56272626 4283057455
0.47649315 -0.027688369 0.56266063 4283123248
0.47713611 -0.027734861 0.56253123 4283452213
0.47775328 -0.027855739 0.56246561 4283386420
0.47839797 -0.027902782 0.56233621 4283781180
0.47901639 -0.028024077 0.56227058 4283978559
0.47960782 -0.028219372 0.56226867 4284241731
0.48025471 -0.028267145 0.56213927 4284833870
0.41755086 -0.028086156 0.57738864 4281347368
0.41808486 -0.02817969 0.57732308 4282400056
0.41861701 -0.028355405 0.57732135 4282533689
0.41915435 -0.028367281 0.57719183 4282730552
0.4196898 -0.028461322 0.57712626 4282598712
0.42022267 -0.028637275 0.57712454 4282203954
0.42075557 -0.028813228 0.57712287 4281742376
0.42128843 -0.028989181 0.57712114 4282135853
0.4218213 -0.029165134 0.57711947 4282070830
0.42234603 -0.029503956 0.57724559 4282202414
0.42287841 -0.029679745 0.57724392 4282070828
0.4234108 -0.029855534 0.5772422 4282398764
0.42394799 -0.029950157 0.57717657 4282135592
0.42933181 -0.024774566 0.57179207 4281874216
0.42987058 -0.025118023 0.57191813 4282005548
0.43042338 -0.025300562 0.57191634 4282137136
0.43097618 -0.025483102 0.57191461 4281873712
0.43152097 -0.025745764 0.57197678 4281677360
0.4320735 -0.025928229 0.57197499 4281611567
0.43262607 -0.026110679 0.57197326 4281414958
0.43317863 -0.026293129 0.57197148 4281545774
0.4337402 -0.026395783 0.57190579 4281479981
0.43430221 -0.026498586 0.57184011 4281545774
0.43485528 -0.0266812 0.57183838 4281480751
0.43542778 -0.026704699 0.57170874 4281414958
0.43599129 -0.026807979 0.57164305 4281611567
0.43653488 -0.027070254 0.57170522 4281546544
0.4370884 -0.027253032 0.57170343 4281151786
0.43764195 -0.027435809 0.57170171 4280230433
0.4381955 -0.027618587 0.57169992 4279770135
0.43873781 -0.02788043 0.57176208 4279309836
0.4392682 -0.02822113 0.57188821 4279244041
0.43979761 -0.028561488 0.57201433 4279244041
0.44032604 -0.028901532 0.57214046 4279309064
0.47413594 -0.026903942 0.56187302 4282202148
0.47467592 -0.027247816 0.56199914 4282925356
0.47531784 -0.027294204 0.56186926 4282991149
0.47590876 -0.027489319 0.56186736 4283057455
0.47655213 -0.027536213 0.56173754 4283123248
0.47717002 -0.027657479 0.56167167 4283451954
0.47778839 -0.027778879 0.56160581 4283386161
0.47843421 -0.027826563 0.56147599 4283649081
0.47908103 -0.027874604 0.56134611 4283978561
0.47970137 -0.027996659 0.56128025 4284241733
0.4803499 -0.028045252 0.56115037 4284768077
0.41799825 -0.028361619 0.57677257 4282268472
0.41853523 -0.028373674 0.57664263 4282533689
0.41907066 -0.028467834 0.57657683 4282664759
0.4196094 -0.028480425 0.57644683 4282598457
0.42014301 -0.028656632 0.5764451 4282203699
0.42067662 -0.028832823 0.57644343 4281741863
0.42121023 -0.029009029 0.57644176 4281937959
0.42174006 -0.029266626 0.57650417 4282201131
0.42226535 -0.029605359 0.57663071 4282266924
0.42280251 -0.029700086 0.57656491 4282266924
0.42333111 -0.029957265 0.57662737 4282596143
0.42925358 -0.024888292 0.57115805 4281940009
0.42980012 -0.025151402 0.57122046 4281874734
0.43034619 -0.025414348 0.57128286 4282072113
0.43089175 -0.025677145 0.57134521 4281742896
0.43144479 -0.025859758 0.57134342 4281742896
0.43200606 -0.025962442 0.57127756 4281808689
0.43255091 -0.026225001 0.57133996 4281545774
0.43311265 -0.026327834 0.57127404 4281545774
0.4336749 -0.02643086 0.57120812 4281545774
0.43423766 -0.026534036 0.5711422 4281545774
0.43479145 -0.026716888 0.57114041 4281809200
0.4353646 -0.026740864 0.57101035 4281677360
0.43592882 -0.026844531 0.57094443 4281677614
0.43647316 -0.027106911 0.57100683 4281546796
0.43703786 -0.027210742 0.57094091 4281217831
0.43758172 -0.027472958 0.57100332 4280099352
0.43813598 -0.027655974 0.57100153 4279835156
0.4386791 -0.027917966 0.57106394 4279440398
0.43921033 -0.028258666 0.57119048 4279440398
0.4397172 -0.028756604 0.57144535 4279374605
0.47473013 -0.027095154 0.56107426 4282203431
0.47532207 -0.027290612 0.56107235 4282662951
0.4759399 -0.027411982 0.56100631 4282860330
0.47655827 -0.027533516 0.56094021 4282991914
0.47717708 -0.027655214 0.5608741 4283057196
0.47782308 -0.027703226 0.56074381 4283320368
0.47844315 -0.027825326 0.56067771 4283451702
0.47911799 -0.027800262 0.56048322 4283912003
0.47979435 -0.027775645 0.56028867 4284109382
0.48041686 -0.027898565 0.56022257 4284438347
0.48109567 -0.027874783 0.56002802 4284964689
0.41844872 -0.028556183 0.57609123 4282993217
0.41898686 -0.028568849 0.57596081 4282927672
0.41952324 -0.028663471 0.57589477 4282136357
0.42005709 -0.028839752 0.57589304 4282004771
0.42059422 -0.028934598 0.575827 4281937951
0.4211283 -0.029110953 0.57582533 4281937951
0.42165491 -0.02944985 0.57595235 4282069797
0.42218852 -0.029626057 0.57595062 4282004004
0.42272213 -0.029802248 0.57594895 4282004004
0.42862087 -0.024819463 0.57052493 4282136357
0.42916822 -0.025082707 0.57058752 4282071080
0.42971507 -0.025345773 0.57065016 4282138163
0.43026885 -0.02552864 0.57064837 4282269751
0.43081495 -0.025791481 0.57071102 4281874736
0.43137643 -0.025894359 0.57064486 4282072115
0.43192202 -0.026157036 0.57070744 4282202929
0.43247557 -0.026339814 0.57070571 4282006320
0.43303779 -0.026442945 0.57063961 4281743407
0.43360049 -0.02654624 0.57057345 4281809200
0.43417284 -0.026570216 0.57044291 4281940786
0.43472734 -0.026753321 0.57044113 4282072372
0.43530118 -0.026777789 0.57031065 4282007097
0.43585619 -0.026961058 0.57030886 4281809718
0.4364112 -0.027144328 0.57030714 4281809198
0.43696624 -0.027327597 0.57030535 4281611819
0.43752125 -0.027510867 0.57030356 4280230166
0.43807626 -0.027694121 0.57030177 4279966739
0.43862015 -0.027956232 0.57036442 4279440652
0.43912944 -0.028454408 0.57062018 4279374605
0.47527471 -0.027436063 0.56040251 4282662951
0.47591889 -0.027483776 0.56027174 4282794535
0.47653791 -0.027605668 0.56020546 4282926121
0.47713107 -0.027801529 0.56020355 4283122735
0.47777745 -0.027849957 0.56007278 4283320114
0.47845173 -0.027825072 0.55987763 4283582774
0.47915456 -0.027727127 0.559618 4283846462
0.47985938 -0.027629837 0.55935836 4284109382
0.48051095 -0.027679965 0.55922759 4284306761
0.48119134 -0.027657121 0.55903238 4285095761
0.41890535 -0.028588817 0.57527936 4281611819
0.4194397 -0.028765261 0.57527769 4281413915
0.41997701 -0.028860316 0.57521141 4281084950
0.4205116 -0.029036835 0.57520968 4281215253
0.4210462 -0.029213354 0.57520801 4281346326
0.4215771 -0.02947104 0.57527089 4282334004
0.42211145 -0.029647484 0.57526916 4284374616
0.42853516 -0.025014162 0.56995374 4282465322
0.4290897 -0.025197268 0.56995201 4282268711
0.42963707 -0.025460377 0.57001483 4282531631
0.43018395 -0.025723338 0.57007766 4282662965
0.43073797 -0.02590628 0.57007587 4282531379
0.43129203 -0.026089221 0.57007414 4282531379
0.43185419 -0.026192471 0.5700078 4282531633
0.43240845 -0.026375502 0.57000601 4282400560
0.43297136 -0.026479006 0.56993961 4282203697
0.43352589 -0.026662111 0.56993788 4282335285
0.43409866 -0.026686504 0.56980693 4282269492
0.43465367 -0.026869759 0.56980515 4282269749
0.4352279 -0.026894629 0.56967413 4282402107
0.43579325 -0.026998952 0.56960779 4282270267
0.436349 -0.02718246 0.56960601 4281941302
0.43690476 -0.027365968 0.56960428 4281941302
0.43746051 -0.027549475 0.56960249 4281283106
0.43801627 -0.027732998 0.5696007 4280164371
0.43856093 -0.027995199 0.56966352 4279506445
0.47522718 -0.02758202 0.55973172 4282662951
0.4758459 -0.027703956 0.5596652 4282794537
0.47646517 -0.027826056 0.55959868 4282860328
0.47711122 -0.027874663 0.55946749 4283254834
0.47778487 -0.027849972 0.55927163 4283320627
0.47848681 -0.02775228 0.5590111 4283386422
0.47919071 -0.027655229 0.55875057 4283846462
0.47989661 -0.027558818 0.55849004 4284240706
0.4805769 -0.027536348 0.55829418 4284503878
0.48131427 -0.027367979 0.55796891 4285095245
0.42789459 -0.025025934 0.56938386 4283123000
0.42844936 -0.025209129 0.56938213 4282925621
0.42899728 -0.025472268 0.56944513 4282860080
0.42955181 -0.025655374 0.5694434 4283056946
0.43010631 -0.025838479 0.56944168 4282925873
0.43066084 -0.026021585 0.56943989 4282794033
0.43121538 -0.02620469 0.5694381 4282794033
0.43176991 -0.026387796 0.56943631 4282859826
0.43232441 -0.026570901 0.56943458 4282465838
0.43288752 -0.026674613 0.569368 4282465840
0.43345994 -0.026699156 0.56923658 4282466101
0.4340243 -0.026803255 0.56917 4282400308
0.43458912 -0.026907533 0.56910336 4282203697
0.43515444 -0.027011961 0.56903678 4282203954
0.43572026 -0.027116552 0.5689702 4282401335
0.43628657 -0.027221307 0.56890357 4282401337
0.43684307 -0.027405068 0.56890178 4282269751
0.43739957 -0.027588829 0.56890005 4281611560
0.43796685 -0.027693912 0.56883347 4280295702
0.44603536 -0.011032805 0.55358028 4279111956
0.44666317 -0.011157855 0.55351353 4278914826
0.45405698 -0.013517067 0.55342519 4278848780
0.45463911 -0.013873771 0.55355293 4278979847
0.45523697 -0.014153391 0.55361581 4278915078
0.45585126 -0.014356241 0.55361384 4279243273
0.45646557 -0.01455909 0.55361187 4279308812
0.45713219 -0.014532506 0.55341536 4279374605
0.47579867 -0.027850688 0.55899334 4282794285
0.47641838 -0.027973086 0.55892658 4282860076
0.47706485 -0.028022066 0.55879492 4283123252
0.47779194 -0.027850971 0.55846858 4283320631
0.4784947 -0.027754098 0.55820715 4283451963
0.47919944 -0.027657852 0.55794573 4283780928
0.47990614 -0.027562276 0.5576843 4284175425
0.48066986 -0.027321026 0.55729306 4284307011
0.481381 -0.02722691 0.55703163 4284898632
0.48209411 -0.027133435 0.55677021 4285030220
0.42781478 -0.025141031 0.56874681 4283320127
0.42836347 -0.025404319 0.56881005 4283122748
0.42891848 -0.025587574 0.56880826 4283320379
0.42946646 -0.025850624 0.56887156 4283451190
0.43002853 -0.025954112 0.56880474 4283451704
0.43058354 -0.026137382 0.56880295 4283319864
0.43113858 -0.026320651 0.56880122 4283319864
0.43169358 -0.026503921 0.56879944 4283188278
0.43225688 -0.026607811 0.56873262 4283122748
0.43282071 -0.026711881 0.5686658 4282860094
0.43338498 -0.026816115 0.56859899 4282991934
0.43394977 -0.026920512 0.56853217 4282860348
0.43452436 -0.026946023 0.56840026 4282728760
0.43509036 -0.027050838 0.56833345 4282860344
0.43565688 -0.027155802 0.56826663 4282991930
0.43621385 -0.027339727 0.56826484 4282860344
0.43678111 -0.027444929 0.56819803 4282202927
0.43734884 -0.027550295 0.56813121 4281148960
0.43789557 -0.027812913 0.56819451 4280294934
0.44524205 -0.011602029 0.55341101 4279243021
0.44589403 -0.01157102 0.55321383 4279111954
0.44653428 -0.011618212 0.55308175 4279045642
0.4471755 -0.011665761 0.55294967 4278783761
0.44780403 -0.011791185 0.55288261 4278717968
0.45269302 -0.013569757 0.55299711 4278913803
0.45329165 -0.013849512 0.55306023 4278586380
0.45388979 -0.014129117 0.55312335 4278717966
0.45448744 -0.014408574 0.55318648 4278652171
0.45506793 -0.014764443 0.55331469 4278914824
0.45568126 -0.014966965 0.55331272 4279177480
0.45631173 -0.015093058 0.55324566 4279308809
0.45696008 -0.015142933 0.55311358 4279308809
0.45757416 -0.015345693 0.55311161 4279505418
0.45820612 -0.015472263 0.55304456 4279440141
0.4588567 -0.015522897 0.55291247 4279768855
0.47642344 -0.027973548 0.55812335 4282860078
0.47704455 -0.028096542 0.55805635 4283057205
0.47774568 -0.027999654 0.55779403 4283122998
0.47847551 -0.027830154 0.55746663 4283451965
0.47918081 -0.027734637 0.55720425 4283649342
0.47996983 -0.027420476 0.5567466 4284044354
0.48078975 -0.027034417 0.55622381 4284241733
0.48150268 -0.026941419 0.55596143 4284767048
0.48221761 -0.026849076 0.55569911 4284964429
0.48290622 -0.026830181 0.55550182 4285621853
0.42773482 -0.025256619 0.56810874 4283451713
0.42828405 -0.025519937 0.56817222 4283254334
0.42883956 -0.025703356 0.56817049 4283386172
0.42939508 -0.025886789 0.5681687 4283385911
0.42994329 -0.026149794 0.56823218 4283517497
0.43050608 -0.026253641 0.56816518 4283319864
0.4310616 -0.026437074 0.56816339 4283385657
0.43161708 -0.026620507 0.56816161 4283385657
0.43218085 -0.026724711 0.56809461 4283385918
0.43274513 -0.026829064 0.5680275 4282860346
0.43330985 -0.026933566 0.5679605 4283123518
0.43388408 -0.026959255 0.56782818 4282991932
0.43444085 -0.027143091 0.56782639 4282860344
0.43500707 -0.027248114 0.56775934 4282926137
0.43557379 -0.027353272 0.56769228 4282926137
0.43615097 -0.027379915 0.56755996 4282662965
0.43671891 -0.027485505 0.5674929 4282135851
0.4372769 -0.027669743 0.56749111 4280819482
0.44511449 -0.012061611 0.5529812 4279242768
0.44574001 -0.012186185 0.55291396 4279046161
0.44636601 -0.012310937 0.55284673 4278914826
0.44699252 -0.012435839 0.5527795 4278914575
0.44763318 -0.012483463 0.55264699 4278652173
0.44824699 -0.012686148 0.55264497 4278652171
0.44887498 -0.012811527 0.55257773 4278717194
0.44950342 -0.012937084 0.5525105 4278783238
0.45011774 -0.013139933 0.55250853 4278848515
0.45071715 -0.013419822 0.55257189 4278848515
0.45131606 -0.013699561 0.55263519 4278849285
0.45191449 -0.013979122 0.55269861 4278848782
0.45249677 -0.014335319 0.55282724 4278848782
0.45312575 -0.01446104 0.55275995 4278651921
0.4537068 -0.014816836 0.55288863 4278783507
0.45428687 -0.015172318 0.55301726 4278717964
0.45489922 -0.015374511 0.55301529 4278915594
0.45551157 -0.015576705 0.55301332 4278981641
0.45612389 -0.015778899 0.55301142 4279177478
0.45673624 -0.015981093 0.55300945 4279177478
0.45734859 -0.016183287 0.55300748 4279374600
0.45797879 -0.01630941 0.55294025 4279308812
0.45860946 -0.016435683 0.55287302 4279440149
0.45922229 -0.016638041 0.55287105 4279637528
0.45987231 -0.016688749 0.55273849 4279769114
0.46048561 -0.016891271 0.55273652 4280427042
0.46113712 -0.016942471 0.55260396 4280296479
0.47712886 -0.027878508 0.55705512 4282925871
0.47777864 -0.027929142 0.55692255 4283122998
0.47850949 -0.027760655 0.55659401 4283386170
0.47929674 -0.027446851 0.55613476 4283517756
0.480169 -0.026915222 0.55547953 4283846721
0.48093644 -0.026676849 0.55508554 4284044354
0.48159602 -0.026730716 0.55495298 4284438597
0.48228455 -0.026712179 0.55475503 4284701255
0.48300272 -0.026621461 0.55449176 4285358415
0.42766094 -0.025292918 0.56740433 4283321149
0.42820445 -0.025636047 0.56753355 4283255356
0.4287672 -0.025740042 0.56746626 4283386170
0.42931646 -0.026003242 0.56752998 4283451704
0.42987245 -0.026186824 0.56752825 4283386424
0.43042845 -0.026370421 0.56752646 4283254584
0.43098444 -0.026554018 0.56752467 4283320377
0.43154842 -0.026658401 0.56745744 4283385657
0.43211287 -0.026762947 0.56739014 4283385657
0.43267784 -0.026867688 0.56732285 4283254584
0.43323457 -0.027051523 0.56732106 4282992182
0.43380922 -0.027077615 0.56718832 4282992182
0.43437564 -0.027182817 0.56712103 4283189561
0.43494257 -0.027288184 0.56705379 4282992182
0.43550998 -0.027393714 0.5669865 4282729012
0.43606794 -0.027577966 0.56698471 4282334254
0.43663609 -0.027683735 0.56691742 4281412382
0.43720475 -0.027789667 0.56685019 4280097553
0.44432545 -0.012629539 0.55281639 4279243542
0.44494918 -0.01275368 0.55274892 4279243542
0.44558632 -0.012800395 0.55261594 4279111702
0.44619817 -0.013002425 0.55261397 4278915345
0.44683677 -0.013049647 0.552481 4278783759
0.4474355 -0.013329163 0.55254459 4278848782
0.44806144 -0.013454035 0.55247712 4278848782
0.44868791 -0.013579056 0.55240965 4278783240
0.4493005 -0.013781324 0.55240768 4278849285
0.44991308 -0.013983607 0.55240571 4278914308
0.4505108 -0.01426281 0.55246925 4278980101
0.45110804 -0.014541835 0.55253285 4279045894
0.4517048 -0.01482071 0.55259645 4278914575
0.45230103 -0.015099436 0.55265999 4278915345
0.45289677 -0.015377983 0.55272359 4278717968
0.45349205 -0.015656367 0.55278718 4278783757
0.45408684 -0.015934572 0.55285072 4278717964
0.4546977 -0.016136289 0.55284882 4278915594
0.45530856 -0.016337991 0.55284685 4278915848
0.45591941 -0.016539708 0.55284488 4279046660
0.45653027 -0.01674141 0.55284297 4279112453
0.45714116 -0.016943112 0.55284101 4279309064
0.45775202 -0.017144829 0.55283904 4279308814
0.45836288 -0.017346531 0.55283713 4279243540
0.45897374 -0.017548233 0.55283517 4279440149
0.45956606 -0.017825648 0.55289876 4279637528
0.46017668 -0.018027276 0.55289686 4280295458
0.4607873 -0.018228903 0.55289489 4280428065
0.46137863 -0.018506005 0.55295849 4280296477
0.46194991 -0.018858299 0.55308759 4280821794
0.47957346 -0.02672334 0.55466831 4283451963
0.48028582 -0.026631251 0.55440414 4283846721
0.48100016 -0.026539803 0.55413997 4283978307
0.4816888 -0.026521713 0.55394137 4284372806
0.48235103 -0.026576728 0.55380833 4284504390
0.48304239 -0.026559517 0.55360973 4284767562
0.42813113 -0.025673091 0.56682825 4283189563
0.42868119 -0.025936395 0.56689215 4283321147
0.42924464 -0.026040763 0.56682467 4283451704
0.42980134 -0.026224598 0.56682289 4283583290
0.43035066 -0.026487663 0.56688684 4283320377
0.43091485 -0.02659227 0.56681937 4283320377
0.43147159 -0.026776105 0.56681758 4283254584
0.43203649 -0.026880965 0.56675005 4283254584
0.4326019 -0.026985958 0.56668258 4283122998
0.43316779 -0.027091116 0.5666151 4282992182
0.43373418 -0.027196437 0.56654757 4282992182
0.43430105 -0.027301937 0.5664801 4282992182
0.43485904 -0.02748619 0.56647831 4282926391
0.43542665 -0.027591914 0.56641078 4282465070
0.43599474 -0.027697802 0.56634331 4282136105
0.43656334 -0.027803853 0.56627578 4280951831
0.44417417 -0.013243049 0.55252075 4279374354
0.44478428 -0.013444513 0.55251884 4279374354
0.44540727 -0.013568521 0.55245113 4279111702
0.44601762 -0.013770074 0.55244923 4279046681
0.446628 -0.013971612 0.55244726 4278783759
0.44725195 -0.014095947 0.55237961 4278718217
0.44786257 -0.014297575 0.55237764 4278718217
0.44848728 -0.014422148 0.55230993 4278849031
0.44909814 -0.014623851 0.55230796 4278849031
0.449709 -0.014825568 0.55230606 4278914826
0.45029023 -0.015180886 0.55243558 4279243540
0.45090058 -0.015382424 0.55243361 4279309333
0.45148033 -0.01573725 0.55256319 4279046929
0.45207468 -0.016015187 0.55262703 4278981138
0.45266849 -0.016292974 0.5526908 4278717964
0.45327789 -0.016494185 0.55268884 4278783757
0.45387098 -0.016771734 0.55275267 4278717964
0.45448011 -0.01697287 0.55275077 4278784008
0.45508927 -0.017174006 0.5527488 4278915848
0.4556984 -0.017375141 0.55274689 4279046664
0.45630753 -0.017576292 0.55274493 4279046664
0.45691669 -0.017777428 0.55274296 4279112457
0.45750806 -0.018054396 0.55280679 4279243538
0.45811695 -0.018255442 0.55280489 4279243542
0.45872584 -0.018456504 0.55280292 4279703064
0.45931622 -0.018733129 0.55286676 4279505690
0.45990613 -0.019009605 0.55293059 4279637276
0.46049553 -0.019285932 0.55299437 4280624674
0.4610652 -0.019637421 0.55312395 4280756510
0.46167284 -0.01983808 0.55312204 4280493083
0.46228051 -0.020038724 0.55312014 4281281324
0.47968781 -0.026440173 0.55359024 4283451450
0.48040199 -0.026349232 0.55332518 4283846208
0.48109075 -0.026331559 0.55312592 4284043587
0.4818362 -0.02616924 0.55279505 4284306759
0.48252845 -0.026152745 0.55259573 4284504138
0.48313782 -0.02635397 0.55259383 4284635724
0.42694855 -0.025263101 0.56605917 4283649860
0.4275001 -0.025526792 0.56612331 4283321662
0.42805758 -0.025710866 0.56612158 4283124283
0.42860842 -0.025974303 0.56618571 4283255354
0.42916563 -0.026158303 0.56618392 4283386424
0.42972288 -0.026342303 0.56618214 4283583290
0.43028009 -0.026526302 0.56618041 4283385911
0.43083733 -0.026710302 0.56617862 4283320118
0.43139455 -0.026894301 0.56617683 4283123252
0.43195993 -0.026999414 0.56610912 4283254838
0.43252578 -0.027104706 0.56604141 4283057205
0.43309212 -0.027210161 0.56597364 4283254584
0.43365011 -0.027394414 0.56597191 4283122998
0.43421718 -0.027500093 0.56590414 4282926389
0.43477538 -0.02768442 0.56590241 4282794805
0.43535283 -0.027711958 0.56576872 4282398764
0.4359214 -0.027818143 0.56570095 4282069799
0.43649045 -0.027924508 0.56563324 4280688659
0.44399858 -0.014010549 0.55235887 4279243791
0.44460723 -0.014211535 0.55235696 4279243791
0.44521588 -0.014412507 0.55235505 4279177749
0.44583759 -0.014536262 0.5522871 4279177495
0.44644648 -0.014737323 0.55228519 4278915345
0.44704181 -0.015015438 0.55234921 4278718217
0.44765046 -0.01521641 0.5523473 4278718217
0.44827315 -0.015340492 0.55227935 4278914824
0.44886777 -0.015618369 0.55234337 4278849033
0.44947642 -0.015819341 0.55234146 4279046161
0.45007029 -0.016097009 0.55240548 4279178265
0.45067871 -0.016297892 0.55240357 4279375644
0.45125657 -0.016651839 0.55253357 4279046929
0.45186448 -0.016852573 0.5525316 4278915343
0.45245662 -0.01712966 0.55259567 4278717964
0.45304829 -0.017406568 0.55265969 4278915343
0.45365569 -0.017607138 0.55265778 4278783757
0.45426312 -0.017807707 0.55265582 4278784008
0.45487052 -0.018008277 0.55265391 4278981641
0.45547795 -0.018208846 0.552652 4279046664
0.45606813 -0.018485293 0.55271602 4279112457
0.45667532 -0.018685788 0.55271411 4279178250
0.45728248 -0.018886268 0.55271214 4279243538
0.45787168 -0.019162387 0.55277622 4279505687
0.4584786 -0.019362792 0.55277425 4279703064
0.45906708 -0.019638672 0.55283833 4279440151
0.45965505 -0.019914374 0.55290234 4279440151
0.46024251 -0.020189896 0.55296642 4280492831
0.4608103 -0.020540506 0.55309641 4280953632
0.46141598 -0.020740509 0.55309451 4280427290
0.46202168 -0.020940512 0.5530926 4281084717
0.46278691 -0.020540729 0.55256277 4280953131
0.47935334 -0.025521636 0.55211449 4283123516
0.47993565 -0.025795475 0.55217856 4283255102
0.48059872 -0.025851294 0.55204463 4283649344
0.48126274 -0.025907427 0.55191064 4283912514
0.48190019 -0.026036367 0.55184269 4284109893
0.48256594 -0.026093081 0.5517087 4284373065
0.48317656 -0.026294708 0.55170679 4284438858
0.48381549 -0.02642411 0.55163884 4284833616
0.42687324 -0.025301233 0.56535089 4283650375
0.42741945 -0.025644451 0.56548148 4283387201
0.42798379 -0.02574937 0.56541353 4283321408
0.42852876 -0.026092157 0.56554413 4283321149
0.42909336 -0.02619718 0.56547618 4283451965
0.42965132 -0.026381418 0.56547439 4283451450
0.43020195 -0.026644647 0.56553876 4283385911
0.43075967 -0.026828811 0.56553698 4283188532
0.43132523 -0.026934147 0.56546903 4283188532
0.43188319 -0.027118385 0.56546724 4283188532
0.43244949 -0.02722396 0.56539929 4283123252
0.43299913 -0.027486876 0.56546372 4283254838
0.43357477 -0.027514085 0.56532955 4283122998
0.43414229 -0.027620062 0.5652616 4283057205
0.43471032 -0.027726203 0.56519365 4282859313
0.4352597 -0.02798903 0.56525809 4281740834
0.43583804 -0.028017178 0.56512392 4281148697
0.44382352 -0.014776617 0.55219972 4279177996
0.44441816 -0.015054405 0.55226398 4279177745
0.44503784 -0.015177608 0.55219591 4279177745
0.44563201 -0.015455216 0.55226016 4279177998
0.4462522 -0.015578583 0.55219197 4279046159
0.44683236 -0.015933007 0.55232245 4278914826
0.44743901 -0.016133323 0.55232054 4279046410
0.4480457 -0.016333655 0.55231857 4278914824
0.44865239 -0.016533986 0.55231667 4279046410
0.44925907 -0.016734317 0.55231476 4279177996
0.44985104 -0.017011181 0.55237901 4279572507
0.45045745 -0.017211422 0.55237705 4279572507
0.45104867 -0.017488062 0.55244136 4279243540
0.45163938 -0.017764539 0.55250561 4279111952
0.45222959 -0.018040866 0.55256987 4279046931
0.45283529 -0.018240854 0.55256796 4279112724
0.45344099 -0.018440858 0.55256599 4279112724
0.45403022 -0.018716857 0.55263031 4278915856
0.45463568 -0.018916771 0.55262834 4278981900
0.45524114 -0.0191167 0.55262643 4279309834
0.45584658 -0.019316614 0.55262446 4279309836
0.45643461 -0.019592196 0.55268878 4279244043
0.4570221 -0.019867614 0.55275303 4279243538
0.45762706 -0.020067379 0.55275112 4279570706
0.45821384 -0.020342559 0.55281544 4279571729
0.45880014 -0.020617574 0.55287969 4279505942
0.45938593 -0.020892426 0.55294394 4279374356
0.45997125 -0.021167099 0.55300826 4280294429
0.46053687 -0.021516725 0.55313873 4280953634
0.46110153 -0.021866024 0.55326927 4280492829
0.46166521 -0.022215009 0.55339974 4280690210
0.46230751 -0.022264242 0.55326539 4280953382
0.46278965 -0.022911966 0.55366075 4281282353
0.46339116 -0.023110583 0.55365884 4281677883
0.47890568 -0.024895191 0.55089736 4282201131
0.47946417 -0.025242448 0.55102789 4282662197
0.48002172 -0.025589392 0.55115843 4283056955
0.48065937 -0.02571851 0.55109024 4283254332
0.48132479 -0.025775418 0.55095583 4283583549
0.48196366 -0.025904939 0.55088764 4283912514
0.48260304 -0.026034638 0.55081946 4284307526
0.4832429 -0.026164502 0.55075127 4284439112
0.48385501 -0.026366606 0.5507493 4284768077
