# .PCD v0.7 - Point Cloud Data file format
VERSION 0.7
FIELDS x y z rgb
SIZE 4 4 4 4
TYPE F F F U
COUNT 1 1 1 1
WIDTH 1065
HEIGHT 1
VIEWPOINT 0 0 0 1 0 0 0
POINTS 1065
DATA ascii
0.41708314 -0.026729539 0.50819236 4279963657
0.41759396 -0.026536584 0.50807321 4279306496
0.41797161 -0.026185513 0.50803614 4278783492
0.41848397 -0.025990456 0.50791705 4278783492
0.4189299 -0.025716141 0.50783896 4278718479
0.41924143 -0.025285333 0.5078429 4278390549
0.41968825 -0.025009736 0.50776482 4278456077
0.42000008 -0.024578527 0.50776881 4278258698
0.42024392 -0.024070129 0.50781375 4279045637
0.40947273 0.0072510988 0.51897901 4280954638
0.40981579 0.0075543225 0.51894146 4281150732
0.41015911 0.0078579783 0.51890397 4281019146
0.41057545 0.0080913603 0.51882553 4280887321
0.41106519 0.0082551241 0.51870614 4280822298
0.41162881 0.0083498806 0.51854581 4280164371
0.41219366 0.0084463358 0.51838553 4279966992
0.41275972 0.008544445 0.51822525 4279702532
0.41332698 0.008644253 0.51806498 4279636741
0.41382188 0.0088151544 0.51794571 4278521351
0.41431773 0.0089873075 0.51782638 4278521351
0.41481444 0.0091607273 0.51770711 4278324493
0.41516399 0.0094729885 0.51766968 4278390549
0.41543967 0.0098542348 0.51767313 4278586645
0.41571537 0.010235488 0.51767665 4278520852
0.41599107 0.010616742 0.51768011 4278651925
0.41611746 0.011133879 0.5177654 4278651405
0.41624326 0.01165019 0.51785076 4278652674
0.41636842 0.012165666 0.51793605 4279176192
0.4164179 0.012747616 0.51806223 4279241984
0.41639125 0.013395406 0.51822931 4279241216
0.41643873 0.013974637 0.51835549 4278717445
0.41640979 0.014619276 0.51852256 4278782987
0.4163796 0.015262254 0.51868957 4279110660
0.41627234 0.015969805 0.51889753 4278848261
0.41616359 0.016675271 0.51910543 4278847760
0.41612947 0.017312773 0.51927245 4278913553
0.41601783 0.018014252 0.51948029 4279045393
0.41598111 0.018648177 0.51964724 4278783492
0.41594321 0.019280449 0.51981425 4278980352
0.41598088 0.019846015 0.51994026 4279045890
0.41594064 0.020475134 0.52010721 4278849031
0.41605341 0.020973384 0.52019233 4278652422
0.41608828 0.021535173 0.52031833 4278718215
0.41604489 0.022159882 0.52048522 4279308565
0.41607785 0.022718951 0.52061123 4279110677
0.41610986 0.023276754 0.52073717 4278914573
0.41606313 0.023896836 0.52090406 4278784008
0.41609317 0.024451911 0.52102995 4279045640
0.41612232 0.025005728 0.52115589 4278782468
0.41607225 0.025621198 0.52132273 4278586891
0.41609943 0.026172273 0.52144861 4278325002
0.4160471 0.026784599 0.52161539 4278783240
0.41607228 0.027332962 0.52174127 4278784010
0.41601765 0.027942121 0.52190804 4278587914
0.4160409 0.028487757 0.52203393 4278652674
0.41598397 0.029093772 0.52220058 4278586881
0.41600525 0.029636666 0.52232647 4279242244
0.41602558 0.030178316 0.52245229 4279439112
0.41604498 0.030718684 0.52257812 4279112455
0.41606349 0.031257808 0.52270389 4278718465
0.41608107 0.031795681 0.52282971 4278718469
0.41609779 0.032332271 0.52295548 4278652676
0.41611356 0.03286761 0.52308124 4278521351
0.41612843 0.033401698 0.52320701 4278980101
0.4161424 0.033934519 0.52333272 4279177984
0.41615543 0.03446608 0.52345848 4279374850
0.4160867 0.035055719 0.52362502 4278979847
0.41609776 0.035584554 0.52375078 4278914054
0.41610792 0.03611213 0.52387649 4279241984
0.41603586 0.036697157 0.52404296 4278979840
0.41604406 0.037221998 0.52416861 4278389512
0.41605133 0.037745588 0.52429432 4278390017
0.41605771 0.03826791 0.52441996 4278651401
0.41606313 0.038788974 0.52454561 4278980101
0.41606769 0.039308779 0.52467126 4279177480
0.41615355 0.039769866 0.52475601 4278979842
0.41615641 0.040287375 0.52488166 4278979842
0.41615838 0.040803611 0.52500725 4279242511
0.41607675 0.041375399 0.5251736 4278717718
0.41607672 0.041888915 0.52529919 4278651921
0.41607583 0.042401165 0.52542478 4278783507
0.41607398 0.042912148 0.52555031 4278784262
0.41598794 0.043477863 0.52571666 4278390549
0.41606757 0.043930352 0.52580136 4278719750
0.41597944 0.044493116 0.52596772 4278784768
0.41605753 0.044943511 0.52605242 4278520836
0.41613507 0.045393057 0.52613711 4279045633
0.41612792 0.045896694 0.52626258 4279045633
0.41620407 0.046344347 0.52634722 4278783240
0.41627961 0.046791181 0.52643192 4278586643
0.41627005 0.04729145 0.52655739 4278652436
0.41634423 0.047736384 0.52664202 4278848014
0.41633296 0.048234351 0.52676743 4278782989
0.4163208 0.048731074 0.5268929 4278717196
0.41639286 0.049173057 0.52697748 4278390797
0.41637903 0.049667463 0.52710289 4278784262
0.41636431 0.050160602 0.5272283 4279243012
0.41634864 0.050652489 0.52735364 4278913807
0.4163321 0.05114311 0.52747899 4278913803
0.41640049 0.051580064 0.52756357 4279045389
0.41638228 0.052068368 0.52768892 4278979849
0.41636312 0.052555434 0.52781427 4278847510
0.4164294 0.052989446 0.52789879 4278455323
0.4164086 0.053474188 0.52802414 4278193943
0.4163869 0.053957678 0.52814943 4278520585
0.41645104 0.054388747 0.52823395 4278914306
0.41634071 0.054920867 0.5284 4278980099
0.41640335 0.055349842 0.52848446 4278719750
0.41637814 0.055828504 0.52860975 4278652424
0.41643941 0.056255586 0.52869421 4279045132
0.41650009 0.056681827 0.52877867 4279046177
0.41656017 0.057107225 0.52886319 4278194461
0.4166196 0.057531804 0.52894765 4278194461
0.41667843 0.057955526 0.52903211 4278587665
0.41673666 0.058378413 0.52911657 4279175938
0.4167943 0.058800451 0.52920103 4279175940
0.41685134 0.059221655 0.52928543 4278718217
0.41690773 0.059642032 0.52936983 4278783492
0.41696355 0.060061559 0.52945429 4278783492
0.41701877 0.060480237 0.52953869 4279372545
0.41707334 0.06089808 0.52962309 4279767042
0.41712731 0.061315089 0.52970749 4279506184
0.41718072 0.061731264 0.52979189 4278785293
0.41714397 0.06219396 0.529917 4278522649
0.41719598 0.062608242 0.53000134 4278588442
0.41715756 0.063068643 0.53012645 4278915860
0.41716814 0.063939109 0.53033584 4279177730
0.41703683 0.064442255 0.53050166 4279046664
0.41717562 0.064805388 0.53054523 4279374082
0.41722357 0.065213993 0.53062958 4278652422
0.41736162 0.065576062 0.53067315 4278718215
0.41749933 0.06593772 0.53071678 4278849285
0.41763675 0.066298954 0.53076035 4278849283
0.4177739 0.066659771 0.53080398 4279242496
0.4179107 0.067020163 0.53084755 4279505408
0.41804725 0.067380138 0.53089112 4279636993
0.41818345 0.067739703 0.53093469 4279113728
0.41831937 0.068098843 0.53097826 4278916352
0.418455 0.068457551 0.53102183 4278915328
0.41859031 0.068815842 0.5310654 4279504150
0.41881758 0.06913013 0.53106833 4279438357
0.41895241 0.069487795 0.53111184 4279766041
0.41908696 0.069845043 0.53115541 4279046163
0.41922122 0.070201866 0.53119898 4278325266
0.41944802 0.070515513 0.53120184 4278654470
0.4195818 0.070871718 0.53124541 4279374855
0.41980845 0.071185157 0.53124827 4279243269
0.41994178 0.071540721 0.53129178 4280093958
0.42007482 0.071895868 0.53133535 4279571979
0.42030114 0.072208896 0.53133821 4279442694
0.42043373 0.072563417 0.53138173 4279640576
0.42056602 0.072917506 0.53142524 4280035333
0.4703781 0.067514613 0.51388901 4278848534
0.47076881 0.067883775 0.51385206 4278718231
0.4710609 0.0682877 0.51385576 4278850065
0.47135299 0.068691626 0.51385945 4279309316
0.4717443 0.069061607 0.51382256 4279309316
0.47203654 0.069465742 0.51382625 4279045890
0.47242832 0.069836363 0.51378936 4279438090
0.47272068 0.070240706 0.51379305 4279044632
0.47311291 0.070611954 0.51375616 4279307804
0.47350544 0.070983618 0.51371926 4279374354
0.47389829 0.071355708 0.51368237 4279440395
0.47429138 0.071728215 0.51364547 4279571207
0.4745844 0.0721334 0.51364917 4279112205
0.47487739 0.072538584 0.51365286 4279243791
0.47527114 0.072911933 0.51361603 4278916889
0.47566518 0.073285699 0.51357913 4279834648
0.47595847 0.073691308 0.51358283 4280032010
0.47635299 0.0740657 0.51354599 4280823559
0.47664642 0.074471511 0.51354969 4282402591
0.47704139 0.074846543 0.51351279 4283587115
0.47723332 0.075283147 0.51355708 4283650625
0.47773039 0.075628236 0.51347965 4284633938
0.4126249 -0.030149639 0.50933087 4282335267
0.41280216 -0.029562175 0.50941634 4282269728
0.41310954 -0.029137045 0.50942022 4282137636
0.41341698 -0.028711915 0.50942409 4281941034
0.41379008 -0.028367117 0.5093872 4282264348
0.41409764 -0.027941778 0.50939113 4282461727
0.41453716 -0.027676255 0.50931346 4282265111
0.41497731 -0.027409911 0.50923586 4281937431
0.41541806 -0.027142733 0.50915819 4281607197
0.41592586 -0.02695398 0.50903988 4281344025
0.41643459 -0.026763976 0.5089215 4280620306
0.41694421 -0.026572719 0.50880313 4279437313
0.41738784 -0.026301548 0.50872552 4279306496
0.41789913 -0.026107967 0.50860721 4278783492
0.41834414 -0.025834903 0.50852966 4278783492
0.41878974 -0.025561005 0.50845206 4278718479
0.41916847 -0.025208443 0.50841528 4278390549
0.41954747 -0.024855465 0.50837845 4278456077
0.41985899 -0.024424657 0.50838238 4278258698
0.42010254 -0.023916677 0.50842708 4279045637
0.40939578 0.007321611 0.5194816 4280954638
0.40973866 0.0076246262 0.51944435 4281150732
0.41008186 0.0079280585 0.51940709 4281019146
0.41049802 0.0081612468 0.51932913 4280887321
0.41098762 0.0083248019 0.51921052 4280822298
0.41162404 0.0083490908 0.5190106 4280164371
0.41218889 0.0084455311 0.51885134 4279966992
0.41275492 0.0085436404 0.51869214 4279702532
0.41332218 0.0086434484 0.51853287 4279636741
0.41381708 0.0088143498 0.51841438 4278521351
0.4143129 0.0089865029 0.51829582 4278521351
0.41480961 0.0091599077 0.51817733 4278324493
0.41523319 0.0094033852 0.51809949 4278390549
0.41550905 0.0097848475 0.51810294 4278586645
0.41571054 0.010234684 0.51814711 4278520852
0.41598624 0.01061593 0.51815057 4278651925
0.41618729 0.011065125 0.51819474 4278651405
0.41623843 0.011649385 0.51832014 4278652674
0.41636363 0.012164861 0.51840496 4279176192
0.4164882 0.012679495 0.51848972 4279241984
0.41646171 0.013327494 0.51865578 4279241216
0.41635856 0.014040731 0.51886249 4278717445
0.41632944 0.014685161 0.51902848 4278782987
0.41637483 0.015261456 0.51915383 4279110660
0.4162676 0.015969008 0.51936048 4278848261
0.41608286 0.016740531 0.51960772 4278847760
0.41604859 0.017377831 0.51977372 4278913553
0.41601312 0.018013462 0.51993966 4279045393
0.41597643 0.018647395 0.5201056 4278783492
0.4159385 0.019279659 0.52027148 4278980352
0.41597617 0.019845232 0.52039677 4279045890
0.41601288 0.020409547 0.520522 4278849031
0.41604871 0.020972602 0.52064729 4278652422
0.41608363 0.021534391 0.52077246 4278718215
0.41611764 0.022094935 0.52089775 4279308565
0.4160732 0.022718169 0.52106357 4279110677
0.41610521 0.023275971 0.52118874 4278914573
0.41613635 0.023832522 0.52131397 4278784008
0.41616654 0.024387807 0.52143914 4279045640
0.41611773 0.025004961 0.5216049 4278782468
0.41606766 0.025620423 0.52177066 4278586891
0.41609484 0.026171505 0.52189577 4278325002
0.41604251 0.026783831 0.52206153 4278783240
0.41606772 0.027332194 0.52218664 4278784010
0.41601312 0.027941354 0.52235234 4278587914
0.41595727 0.028548852 0.52251804 4278652674
0.41597944 0.029093005 0.52264309 4278586881
0.41600072 0.029635906 0.52276814 4279242244
0.41610053 0.030116327 0.5228526 4279439112
0.41604048 0.030717932 0.52301824 4279112455
0.41605899 0.031257048 0.52314329 4278718465
0.4160766 0.031794921 0.52326828 4278718469
0.41609329 0.032331519 0.52339327 4278652676
0.41618931 0.03280668 0.52347767 4278521351
0.41620436 0.033340976 0.52360272 4278980101
0.41621849 0.033874005 0.52372766 4279177984
0.41623169 0.034405783 0.52385265 4279374850
0.41616309 0.034995645 0.52401817 4278979847
0.41617435 0.035524681 0.5241431 4278914054
0.41610348 0.036111385 0.52430856 4279241984
0.41611275 0.036637694 0.52443349 4278979840
0.41612113 0.037162758 0.52455842 4278389512
0.41612852 0.037686557 0.5246833 4278390017
0.41613507 0.038209081 0.52480817 4278651401
0.41614068 0.038730368 0.52493304 4278980101
0.41614538 0.039250381 0.52505791 4279177480
0.41623139 0.039711684 0.52514219 4278979842
0.41623443 0.040229395 0.525267 4278979842
0.41623658 0.040745847 0.52539182 4279242511
0.41623777 0.041261025 0.52551663 4278717718
0.41615522 0.041831575 0.52568197 4278651921
0.41615444 0.042344034 0.52580678 4278783507
0.41615278 0.042855226 0.52593154 4278784262
0.41606691 0.043421157 0.52609682 4278390549
0.4161467 0.043873854 0.52618104 4278719750
0.41614234 0.044381268 0.52630579 4278784768
0.41622075 0.044832081 0.52638996 4278520836
0.41621464 0.0453372 0.52651471 4279045633
0.4162077 0.045841038 0.5266394 4279045633
0.41628399 0.046288908 0.52672356 4278783240
0.41635969 0.046735942 0.52680773 4278586643
0.41643476 0.047182135 0.52689189 4278652436
0.41642463 0.047681578 0.52701652 4278848014
0.41641352 0.048179761 0.52714115 4278782989
0.4164865 0.048623011 0.52722526 4278717196
0.41647375 0.049118884 0.52734995 4278390797
0.4164601 0.049613498 0.52747452 4278784262
0.41644549 0.050106853 0.52759916 4279243012
0.41651559 0.050546117 0.52768326 4278913807
0.41649935 0.051037163 0.52780783 4278913803
0.41648218 0.051526941 0.52793241 4279045389
0.41646409 0.052015476 0.52805698 4278979849
0.41653132 0.052450746 0.52814102 4278847510
0.41651157 0.052936956 0.5282656 4278455323
0.41649091 0.053421915 0.52839011 4278193943
0.416556 0.053854242 0.52847409 4278520585
0.41644686 0.054388054 0.52863914 4278914306
0.41651046 0.054818287 0.52872312 4278980099
0.41648632 0.05529841 0.52884763 4278719750
0.41646126 0.055777282 0.52897209 4278652424
0.41652268 0.05620458 0.52905607 4279045132
0.41649598 0.056681134 0.52918053 4279046177
0.41664374 0.057056643 0.52922398 4278194461
0.41670334 0.05748143 0.52930796 4278194461
0.41676235 0.057905361 0.52939188 4278587665
0.4168207 0.058328465 0.52947581 4279175938
0.41687852 0.058750711 0.52955973 4279175940
0.41693568 0.059172124 0.52964365 4278718217
0.41699225 0.059592709 0.52972758 4278783492
0.41704822 0.060012445 0.5298115 4278783492
0.41710359 0.060431346 0.52989537 4279372545
0.41715834 0.060849398 0.52997929 4279767042
0.41721249 0.061266616 0.53006315 4279506184
0.41726601 0.061682999 0.53014702 4278785293
0.41722944 0.062145911 0.53027135 4278522649
0.4172816 0.062560394 0.53035522 4278588442
0.41724333 0.063021004 0.53047949 4278915860
0.41720414 0.063480347 0.53060383 4279243776
0.41716409 0.063938431 0.5307281 4279177730
0.41721338 0.064348936 0.53081191 4279046664
0.41726205 0.064758591 0.53089571 4279374082
0.41740069 0.065121517 0.5309391 4279110912
0.41753906 0.06548401 0.53098243 4278718215
0.4176771 0.065846078 0.53102577 4278849285
0.41781485 0.066207737 0.5310691 4278849283
0.41795227 0.066568971 0.53111243 4279242496
0.41799808 0.06697464 0.53119624 4279505408
0.41822624 0.067290179 0.5311991 4279636993
0.41836274 0.067650154 0.53124243 4279113728
0.41849899 0.068009712 0.53128576 4278916352
0.41863489 0.06836886 0.5313291 4278915328
0.41877049 0.068727575 0.53137237 4279504150
0.41890582 0.069085866 0.5314157 4279438357
0.41904086 0.06944374 0.53145897 4279766041
0.4192681 0.06975802 0.53146189 4279046163
0.41940266 0.070115268 0.53150517 4278325266
0.41953689 0.070472099 0.53154844 4278654470
0.41967082 0.070828505 0.53159177 4279374855
0.41980448 0.071184494 0.53163505 4279243269
0.42003113 0.071497932 0.53163791 4280093958
0.42025778 0.071811378 0.53164077 4279571979
0.42039078 0.072166517 0.53168404 4279442694
0.42061731 0.072479755 0.5316869 4279640576
0.47076371 0.06788291 0.51435053 4278718231
0.47115472 0.068252482 0.51431388 4278850065
0.47144693 0.068656608 0.51431757 4279309316
0.47183841 0.069026813 0.51428092 4279309316
0.4722302 0.069397435 0.51424426 4279045890
0.47252274 0.069801986 0.51424795 4279438090
0.47291493 0.070173234 0.5142113 4279044632
0.47330749 0.070544899 0.5141747 4279307804
0.47360033 0.070949867 0.5141784 4279374354
0.4739933 0.071322173 0.5141418 4279440395
0.47428626 0.071727358 0.51414549 4279571207
0.47467971 0.072100282 0.51410884 4279112205
0.47497284 0.072505675 0.51411253 4279243791
0.47526598 0.072911069 0.51411629 4278916889
0.47566006 0.073284842 0.51407963 4279834648
0.4760544 0.073659033 0.51404303 4280032010
0.47634786 0.074064836 0.51404673 4280823559
0.47674266 0.07443966 0.51401013 4282402591
0.47703624 0.074845679 0.51401383 4283587115
0.47732985 0.075251706 0.51401758 4283650625
0.47772527 0.075627372 0.51398098 4284633938
0.4123767 -0.030657485 0.50981164 4282335008
0.41255444 -0.030069381 0.50989652 4282400801
0.41273153 -0.029482096 0.50998145 4282269728
0.41303879 -0.02905719 0.50998533 4282137890
0.41341159 -0.028712809 0.50994873 4281875238
0.41365331 -0.028207347 0.50999308 4282002972
0.41402641 -0.027862549 0.50995648 4282200351
0.41446579 -0.027597249 0.50987935 4282068502
0.41490579 -0.027331114 0.50980222 4281937431
0.41534638 -0.027064145 0.50972515 4281476376
0.41585401 -0.026875615 0.50960755 4280949269
0.41636255 -0.026685804 0.50948995 4280488718
0.41680527 -0.026415899 0.50941288 4279371520
0.41731551 -0.026223809 0.50929528 4279240960
0.4177596 -0.025951982 0.50921822 4278783490
0.41820431 -0.025679335 0.50914121 4278717697
0.41864961 -0.025405854 0.50906414 4278718477
0.41896051 -0.024975896 0.50906807 4278455827
0.41933906 -0.024623543 0.50903153 4278390284
0.41965011 -0.024193376 0.50903547 4278258698
0.41996115 -0.02376321 0.5090394 4278979847
0.42027223 -0.023333043 0.50904334 4278850067
0.40890437 0.0071612597 0.52006114 4281085200
0.40924662 0.0074634403 0.52002412 4280954638
0.40966159 0.0076949447 0.51994669 4281085452
0.41000462 0.0079981536 0.51990968 4280953866
0.4104206 0.0082311332 0.51983225 4280756503
0.41098285 0.0083239973 0.519674 4280822298
0.41154629 0.0084185451 0.51951575 4280230418
0.41218409 0.0084447265 0.51931715 4279967246
0.41275012 0.0085428506 0.51915896 4279702532
0.41339082 0.0085730255 0.51896036 4279570948
0.41388583 0.0087441206 0.51884258 4278521351
0.4143818 0.0089164823 0.51872486 4278521351
0.41487867 0.0090901107 0.51860714 4278324493
0.41522837 0.0094025731 0.51857018 4278390549
0.41550422 0.0097840428 0.5185737 4278520850
0.41578007 0.010165498 0.51857716 4278520850
0.41598141 0.010615125 0.51862103 4278586645
0.41618246 0.011064313 0.51866496 4278520589
0.4163084 0.01158084 0.51874924 4278652674
0.41635883 0.012164056 0.51887387 4279176192
0.4164834 0.01267869 0.51895809 4279176192
0.41638166 0.013393797 0.51916349 4279110400
0.41635376 0.014039934 0.51932853 4278717445
0.41632468 0.014684364 0.51949352 4278782987
0.41621867 0.015393615 0.51969886 4279110660
0.41611114 0.016100749 0.5199042 4278848261
0.41607809 0.016739741 0.52006912 4278781967
0.41604388 0.017377034 0.52023405 4278913553
0.41600841 0.018012665 0.52039897 4278979598
0.41597173 0.018646605 0.52056384 4278783492
0.41601044 0.019213647 0.52068835 4278980352
0.41604823 0.019779444 0.52081287 4279046144
0.41608512 0.020343959 0.52093732 4278849031
0.41612113 0.020907231 0.52106184 4278652422
0.41615617 0.021469243 0.52118629 4278718215
0.41611296 0.022094153 0.5213511 4279111956
0.4161461 0.022653431 0.52147555 4279110677
0.41610059 0.023275197 0.5216403 4278914573
0.41613173 0.023831747 0.52176476 4278784008
0.41608393 0.024450369 0.5219295 4278849031
0.41611314 0.025004186 0.52205384 4278651652
0.41606307 0.025619656 0.52221859 4278586891
0.41609025 0.026170738 0.52234292 4278325002
0.41603792 0.026783064 0.52250761 4278783240
0.41606313 0.027331427 0.522632 4278914826
0.41600853 0.027940594 0.52279663 4278522121
0.41603178 0.028486229 0.52292097 4278652674
0.41605413 0.029030591 0.52304524 4278586881
0.41607553 0.029573709 0.52316952 4279045635
0.41609603 0.030115567 0.52329379 4279373832
0.41611558 0.030656151 0.52341807 4279112457
0.4161343 0.031195484 0.52354234 4278718465
0.41615206 0.031733565 0.52366656 4278718469
0.41624901 0.032209978 0.52375048 4278652676
0.4162651 0.032745741 0.5238747 4278586629
0.41628027 0.033280246 0.52399892 4278980099
0.41629457 0.033813491 0.52412307 4279046144
0.41630793 0.034345478 0.52424729 4279243521
0.4162395 0.034935549 0.5244118 4278980101
0.41625091 0.035464801 0.52453595 4278914308
0.41618022 0.03605172 0.5247004 4279241984
0.41618961 0.036578253 0.52482456 4278848512
0.41619816 0.037103511 0.52494866 4278389512
0.41612411 0.037685812 0.52511311 4278455810
0.41613066 0.038208343 0.5252372 4278717447
0.41621822 0.038671762 0.52532095 4278849285
0.41622305 0.039191984 0.52544504 4279046664
0.41622704 0.039710946 0.52556908 4278979842
0.41631246 0.040171415 0.52565289 4278914304
0.41631472 0.040688083 0.52577692 4279176975
0.41631609 0.041203484 0.52590096 4278717716
0.41623372 0.041774228 0.52606523 4278651921
0.41623312 0.042286903 0.52618927 4278717714
0.4162316 0.042798311 0.52631325 4278784008
0.41622919 0.043308459 0.52643728 4278324756
0.41622585 0.043817356 0.52656126 4278522373
0.41630518 0.044269428 0.52664495 4278718720
0.41630018 0.044776008 0.52676886 4278520836
0.41629428 0.045281336 0.52689278 4278980097
0.41637149 0.045730464 0.52697647 4278914304
0.41636392 0.046233468 0.52710038 4278652171
0.41643977 0.046680711 0.52718401 4278586643
0.41643053 0.04718142 0.52730793 4278586643
0.41650501 0.047626764 0.52739155 4278717198
0.41649407 0.048125163 0.52751541 4278782989
0.41648224 0.048622295 0.52763927 4278717196
0.4165546 0.049064711 0.5277229 4278390795
0.41662636 0.049506277 0.52780646 4278784260
0.41661209 0.050000057 0.52793032 4279243014
0.41659692 0.05049257 0.52805412 4278913807
0.41658086 0.050983831 0.52817792 4278979596
0.4166497 0.051421411 0.52826148 4279045389
0.41663194 0.051910363 0.52838528 4278979849
0.41661331 0.052398041 0.52850908 4278716694
0.41659373 0.052884474 0.52863282 4278390043
0.41657323 0.053369641 0.52875662 4278193943
0.41655183 0.053853542 0.52888036 4278454792
0.41652951 0.054336205 0.5290041 4278914306
0.41650629 0.054817587 0.52912784 4278980099
0.41648215 0.055297717 0.52925152 4278719750
0.41654435 0.055726066 0.52933496 4278652422
0.41660595 0.056153573 0.52941841 4279045132
0.41666692 0.056580238 0.52950186 4279046431
0.4167273 0.057006061 0.5295853 4278391581
0.41678709 0.057431042 0.52966875 4278259995
0.41684622 0.057855204 0.52975219 4278522385
0.41690475 0.058278508 0.52983558 4279175938
0.41696268 0.058700979 0.52991903 4279044867
0.41702005 0.059122592 0.53000242 4278718217
0.41707677 0.059543386 0.5300858 4278652676
0.41713291 0.059963338 0.53016919 4278586883
0.41718841 0.060382448 0.53025258 4279241984
0.41724333 0.060800709 0.53033596 4279767555
0.41729763 0.061218143 0.53041929 4279506184
0.41726196 0.061682321 0.53054285 4278850316
0.41731489 0.062097862 0.53062624 4278522647
0.41736722 0.062512554 0.53070956 4278588440
0.41732913 0.062973373 0.53083313 4278785042
0.41738009 0.063386187 0.53091645 4279243521
0.41734031 0.063844681 0.53103995 4279374852
0.41729963 0.06430193 0.53116345 4279046664
0.41734844 0.064711802 0.53124672 4279243012
0.41748726 0.065074928 0.53128982 4278979840
0.4177165 0.065391943 0.53129274 4278718215
0.41776395 0.065799929 0.531376 4278718469
0.41790187 0.066161789 0.5314191 4278849281
0.41803944 0.066523232 0.53146219 4279176449
0.41817674 0.066884257 0.53150523 4279440128
0.41831374 0.067244865 0.53154832 4279505920
0.41845042 0.067605048 0.53159136 4279244544
0.41858679 0.067964822 0.53163445 4278916352
0.41872287 0.068324164 0.53167748 4278718720
0.41885862 0.068683103 0.53172058 4279504150
0.41899407 0.06904161 0.53176361 4279438357
0.41922164 0.069356307 0.53176647 4279766039
0.41935664 0.069714181 0.53180951 4279242770
0.41949138 0.070071638 0.53185254 4278456338
0.41971862 0.070385918 0.53185546 4278523398
0.41975987 0.070785291 0.53193861 4279374855
0.41998684 0.071099155 0.53194153 4279177476
0.42012048 0.071455143 0.53198457 4279962885
0.42034727 0.07176879 0.53198743 4279506186
0.42048046 0.072124153 0.5320304 4279573256
0.47095615 0.06781292 0.51476878 4278718231
0.47124854 0.068217263 0.51477247 4278850065
0.47154093 0.068621606 0.51477617 4279309316
0.47193253 0.068992019 0.51473981 4279375109
0.47222507 0.06939657 0.51474351 4279046144
0.47271669 0.069734082 0.51466703 4279438090
0.47310919 0.070105754 0.51463068 4278979096
0.47340217 0.070510939 0.51463437 4279242268
0.47369516 0.070916116 0.51463807 4279374356
0.47398815 0.071321309 0.51464176 4279374602
0.47438145 0.071694031 0.5146054 4279505414
0.47467458 0.072099417 0.5146091 4279112205
0.47506833 0.072472766 0.51457274 4279243791
0.47546238 0.072846532 0.51453638 4278982169
0.47575581 0.07325235 0.51454008 4279834648
0.47604924 0.073658168 0.51454383 4280032010
0.47644392 0.074032769 0.51450747 4280823307
0.4767375 0.074438795 0.51451117 4282402339
0.47713262 0.074814029 0.51447481 4283586863
0.47742635 0.075220272 0.51447856 4283454270
0.47782192 0.075596139 0.51444221 4284503636
0.41230637 -0.030577004 0.51037729 4282465822
0.41248396 -0.029989094 0.51046169 4282531615
0.41266093 -0.029402032 0.51054609 4282269726
0.41303343 -0.029058084 0.51050973 4281874718
0.41327512 -0.028552622 0.51055384 4281808675
0.41364795 -0.028208256 0.51051748 4281741599
0.41402102 -0.027863443 0.51048112 4281938978
0.41432846 -0.027438313 0.51048499 4282069533
0.41483423 -0.027252316 0.51036817 4281740822
0.41527468 -0.026985541 0.51029158 4281083154
0.41578215 -0.026797235 0.51017475 4280556046
0.41629055 -0.026607633 0.51005793 4280095495
0.41673312 -0.026337937 0.50998139 4279240448
0.41724318 -0.026146054 0.50986457 4278978560
0.41762006 -0.025796011 0.50982827 4278782720
0.41806445 -0.025523782 0.50975168 4278848513
0.4184421 -0.025172681 0.50971538 4278849283
0.41882005 -0.024821177 0.50967908 4278586891
0.41913065 -0.024391636 0.50968301 4278455307
0.41944125 -0.023962095 0.50968695 4278586378
0.4198198 -0.023609757 0.50965065 4278717964
0.40875554 0.0073035061 0.52060235 4281019155
0.40916967 0.0075339526 0.52052546 4280954384
0.4095121 0.0078363419 0.52048868 4280954638
0.40992737 0.0080682635 0.52041179 4280888845
0.41034323 0.0083010048 0.52033484 4280756755
0.4109053 0.0083936602 0.52017766 4280625171
0.41161451 0.0083474815 0.51994014 4280098830
0.41217932 0.0084439218 0.51978296 4279901451
0.41289186 0.0084023625 0.5195455 4279768325
0.41338599 0.0085722059 0.51942849 4279504903
0.41395462 0.0086738914 0.51927137 4278586631
0.41445071 0.0088464618 0.51915437 4278586631
0.41494769 0.0090202987 0.51903743 4278390282
0.41529757 0.0093329847 0.51900077 4278390032
0.41557357 0.0097146481 0.51900429 4278586382
0.41577524 0.010164693 0.51904792 4278586382
0.41605106 0.010546155 0.51905137 4278586641
0.41625226 0.010995567 0.519095 4278455309
0.41630358 0.011580028 0.51921892 4278652676
0.416354 0.012163252 0.51934278 4278914049
0.41647857 0.012677878 0.51942652 4278979842
0.41637686 0.013393 0.51963061 4278979842
0.41627359 0.014106028 0.51983476 4278586631
0.41624436 0.014750257 0.51999867 4278652173
0.4161064 0.016099952 0.52036667 4278717445
0.41599739 0.016805008 0.52057064 4278651151
0.41596299 0.017442092 0.52073455 4278716944
0.41600367 0.018011875 0.52085829 4278849033
0.41596702 0.018645816 0.52102214 4278849285
0.41608235 0.019147642 0.52110577 4278783744
0.41604355 0.019778661 0.52126962 4278980099
0.41608047 0.020343177 0.5213933 4278849285
0.41611645 0.020906448 0.52151704 4278783492
0.41615152 0.021468461 0.52164072 4278849285
0.41610831 0.022093371 0.52180445 4278914573
0.41614145 0.022652648 0.52192813 4278913805
0.41609597 0.023274422 0.52209187 4278718217
0.41612709 0.023830973 0.52221549 4278718215
0.41607934 0.024449594 0.52237922 4278652422
0.41610852 0.025003411 0.52250284 4278520836
0.41605848 0.025618881 0.52266651 4278652424
0.41608566 0.026169971 0.52279007 4278521098
0.41603336 0.026782297 0.52295375 4278782987
0.41605857 0.027330659 0.52307731 4278914573
0.41608286 0.027877755 0.52320087 4278586893
0.41602725 0.02848547 0.52336448 4278652684
0.41604957 0.029029831 0.52348799 4278455305
0.416071 0.029572949 0.52361149 4278848261
0.4160915 0.030114807 0.52373499 4278979847
0.41619071 0.030594379 0.52381843 4278784010
0.41612977 0.031194732 0.52398199 4278718469
0.41622749 0.03167221 0.52406538 4278652676
0.41624451 0.032209225 0.52418882 4278586883
0.41634089 0.03268481 0.5242722 4278652676
0.41635621 0.033219524 0.52439564 4278849283
0.41637063 0.033752993 0.52451909 4278914560
0.41638416 0.03428518 0.52464247 4279177476
0.41639677 0.034816116 0.52476585 4278980101
0.41632748 0.035404921 0.52492929 4278914308
0.41633809 0.035933129 0.52505267 4278914304
0.4162665 0.03651879 0.5252161 4278651904
0.4162752 0.037044272 0.52533942 4278521098
0.41620132 0.037626781 0.5255028 4278586883
0.41620803 0.038149528 0.52562618 4278914056
0.41629574 0.038613148 0.52570939 4278979847
0.41630074 0.039133586 0.52583271 4279045640
0.41630486 0.039652765 0.52595603 4279045640
0.41639045 0.040113442 0.52603924 4278914573
0.41639286 0.040630318 0.52616251 4279111702
0.41639441 0.041145928 0.52628577 4278848530
0.41631222 0.041716889 0.52644908 4278586380
0.41631177 0.042229772 0.52657229 4278717966
0.4163104 0.042741396 0.52669555 4278849031
0.41630813 0.043251753 0.52681875 4278390286
0.41630495 0.043760866 0.52694196 4278587144
0.41638446 0.044213139 0.5270251 4278652928
0.41629589 0.044775285 0.5271883 4278521090
0.41637388 0.045225464 0.52727145 4278652676
0.4163672 0.045729741 0.52739459 4278914306
0.41644382 0.046178028 0.52747774 4278651923
0.41651985 0.04662548 0.52756083 4278586643
0.41651073 0.047126405 0.52768397 4278652434
0.41658539 0.047571965 0.52776706 4278717196
0.41657463 0.048070565 0.52789021 4278782987
0.41664791 0.048514232 0.52797329 4278782987
0.41663545 0.049010538 0.52809638 4278522121
0.4167074 0.049452312 0.52817941 4278784262
0.4166933 0.049946301 0.52830249 4279111430
0.41667825 0.05043903 0.52842551 4278848782
0.41674805 0.050877884 0.5285086 4278652173
0.41673139 0.051368296 0.52863157 4278783759
0.41679978 0.051805243 0.52871466 4278849033
0.41669527 0.052345358 0.52887762 4278716944
0.41676217 0.052780204 0.52896065 4278520600
0.41665551 0.053317368 0.5291236 4278324754
0.41672093 0.053750128 0.52920657 4278586631
0.41661215 0.054284349 0.52936953 4279045894
0.41667598 0.054715008 0.5294525 4278980101
0.41656512 0.055246286 0.5296154 4278653189
0.41662747 0.055674843 0.52969837 4278652422
0.4167766 0.056052253 0.52974135 4278979849
0.41675031 0.05652944 0.52986425 4278915608
0.41689855 0.056905583 0.52990723 4278521622
0.41695863 0.057330988 0.52999008 4278521622
0.41701812 0.057755552 0.53007305 4278652171
0.41707695 0.058179289 0.5301559 4279110145
0.41713521 0.058602177 0.53023881 4279044865
0.41719282 0.059024222 0.53032172 4278783238
0.41724989 0.059445426 0.53040457 4278586883
0.41721755 0.059914231 0.53052741 4278586883
0.41727322 0.06033355 0.53061026 4279242242
0.41723925 0.060800023 0.53073311 4279570946
0.41729355 0.061217457 0.53081596 4279505414
0.4174366 0.061586462 0.53085881 4278915596
0.41740033 0.062049806 0.5309816 4278522383
0.41745284 0.062464707 0.53106445 4278653969
0.4174149 0.062925734 0.53118718 4278785042
0.41755599 0.063292012 0.53123003 4279046664
0.41751653 0.063750945 0.53135282 4279243019
0.41756642 0.064162277 0.53143561 4279046410
0.41761571 0.064572781 0.5315184 4279111428
0.41766441 0.064982444 0.53160113 4278979842
0.41780323 0.06534557 0.53164399 4278718215
0.41794172 0.065708272 0.53168684 4278718469
0.41807991 0.066070572 0.53172964 4278849281
0.41821781 0.066432431 0.53177249 4279045633
0.41835541 0.066793874 0.53181529 4279439616
0.4184927 0.067154899 0.53185809 4279505408
0.41862971 0.067515507 0.53190094 4279244544
0.41876638 0.067875698 0.53194374 4279047168
0.41890275 0.068235464 0.53198653 4278849536
0.41903883 0.068594813 0.53202933 4279439124
0.41917461 0.068953738 0.53207213 4279241745
0.41931006 0.069312252 0.53211492 4279438609
0.41944522 0.069670342 0.53215772 4279308304
0.41967279 0.069985047 0.53216058 4278521872
0.41980749 0.070342496 0.53220338 4278719752
0.4199419 0.070699528 0.53224617 4278785545
0.42007601 0.07105615 0.53228891 4279046662
0.42030311 0.071370222 0.53229177 4279701001
0.42043674 0.07172621 0.53233457 4279440393
0.47104979 0.067777492 0.51522791 4278718229
0.47134233 0.068182044 0.51523161 4278850065
0.47173393 0.068552449 0.51519549 4278915858
0.47212586 0.068923272 0.51515937 4279440645
0.4724187 0.069328249 0.51516306 4279046144
0.47281104 0.069699705 0.51512694 4279241743
0.47310406 0.070104897 0.51513064 4278783257
0.47349688 0.070476979 0.51509458 4278980636
0.47379002 0.070882373 0.51509827 4279374356
0.47408316 0.071287774 0.51510197 4279308555
0.47447661 0.071660697 0.51506585 4279505418
0.47476989 0.0720663 0.51506954 4278981389
0.4750632 0.072471902 0.5150733 4279047182
0.47545722 0.072845668 0.51503718 4278916889
0.47575068 0.073251486 0.51504087 4279834648
0.47614518 0.073625877 0.51500481 4279901196
0.47653997 0.074000701 0.51496869 4280888591
0.4768337 0.074406937 0.51497239 4282336037
0.47722897 0.074782372 0.51493633 4283586613
0.47752288 0.07518883 0.51494002 4283191353
0.47781676 0.075595275 0.51494378 4284373587
0.41217119 -0.030415133 0.51098239 4282400799
0.41234845 -0.029827654 0.51106632 4282269213
0.41252512 -0.029241011 0.51115018 4282269213
0.4128319 -0.028816715 0.51115406 4281874205
0.41313872 -0.028392434 0.51115793 4281873955
0.41351119 -0.028048486 0.51112181 4281741345
0.41388398 -0.027704105 0.51108569 4281872931
0.41432306 -0.027439222 0.51100957 4281806877
0.41476274 -0.027173504 0.51093352 4281346326
0.41520298 -0.026906952 0.51085746 4281083154
0.41571033 -0.026718855 0.51074141 4280424974
0.41621855 -0.026529461 0.51062536 4279964423
0.41666096 -0.026259974 0.51054931 4279109376
0.41710398 -0.025989652 0.51047325 4278913280
0.41748056 -0.025640026 0.51043725 4278782720
0.41792464 -0.025368214 0.51036119 4278782720
0.41830197 -0.025017545 0.51032513 4278980099
0.41854462 -0.024510831 0.510369 4278783240
0.41885459 -0.024082124 0.51037294 4278586380
0.40894836 0.0077470839 0.521106 4280954386
0.40936267 0.007977739 0.52102959 4280954386
0.40985012 0.0081383586 0.5209133 4280954386
0.4102658 0.0083708912 0.52083695 4280690964
0.41097334 0.0083224028 0.52060097 4280625171
0.41160974 0.0083466768 0.52040488 4280098830
0.41232076 0.0083030313 0.52016896 4279835658
0.4130336 0.0082618743 0.51993304 4280097290
0.41360146 0.0083625168 0.51977694 4279635719
0.41409692 0.0085342377 0.51966077 4279438340
0.41459334 0.0087072402 0.5195446 4278520836
0.41501677 0.0089505017 0.51946831 4278455558
0.41536677 0.0092633814 0.51943189 4278521100
0.41564292 0.0096452609 0.51943535 4278586380
0.41591907 0.01002714 0.51943886 4278586380
0.41612071 0.010477185 0.51948225 4278521102
0.41624743 0.010994755 0.51956546 4278455307
0.41637355 0.011511482 0.51964873 4278587396
0.41634917 0.01216244 0.51981169 4278782722
0.41647378 0.012677073 0.5198949 4278848515
0.41629681 0.01345931 0.52013761 4278979590
0.41626883 0.014105223 0.52030051 4278586631
0.41616404 0.014816143 0.52050328 4278717966
0.41610163 0.016099155 0.52082908 4278783238
0.41606864 0.016738147 0.52099192 4278782991
0.41595829 0.017441303 0.52119464 4278782991
0.41599897 0.018011086 0.52131766 4278783240
0.41603875 0.018579595 0.52144063 4278849285
0.41607764 0.019146852 0.52156353 4278783488
0.41619235 0.019647844 0.52164662 4278783492
0.41615269 0.02027759 0.52180946 4278783238
0.41618884 0.02084107 0.52193236 4278783492
0.41614687 0.021467678 0.52209508 4278783492
0.41610366 0.022092596 0.5222578 4278848780
0.4161368 0.022651874 0.52238071 4278782987
0.41609132 0.023273647 0.52254343 4278652424
0.4161225 0.023830198 0.52266628 4278784010
0.41607472 0.024448819 0.52282894 4278652424
0.4161039 0.025002643 0.52295178 4278586631
0.41605389 0.025618114 0.52311444 4278652171
0.41608107 0.026169196 0.52323723 4278586378
0.41610736 0.026719041 0.52336001 4278652173
0.41613275 0.027267613 0.5234828 4278848780
0.41607833 0.027876988 0.5236454 4278652173
0.41610172 0.02842284 0.52376819 4278652173
0.41612419 0.028967425 0.52389091 4278521100
0.41614577 0.029510744 0.52401364 4278848010
0.41616645 0.030052818 0.52413636 4278979849
0.41618621 0.030593619 0.52425909 4278718730
0.41620505 0.03113316 0.52438182 4278653189
0.41630292 0.031610847 0.52446467 4278653189
0.41632009 0.032148086 0.52458733 4278521603
0.41641665 0.032623872 0.52467024 4278587396
0.41643214 0.033158801 0.52479285 4278783490
0.41644672 0.033692479 0.52491552 4278783488
0.41646039 0.034224875 0.52503818 4278915076
0.41639233 0.034815364 0.52520061 4278849285
0.41640401 0.035345055 0.52532321 4278783492
0.41641483 0.035873465 0.52544576 4278914306
0.41634339 0.036459334 0.52560818 4278651904
0.41635221 0.036985017 0.52573073 4278520585
0.41627854 0.03756775 0.52589309 4278586629
0.4162854 0.038090706 0.52601564 4278848263
0.41629136 0.03861241 0.52613819 4278979849
0.41637844 0.039075188 0.52622092 4279045642
0.41638267 0.039594576 0.52634346 4279046159
0.41646844 0.040055461 0.52642614 4279046163
0.41638851 0.040629581 0.52658844 4279045911
0.41639006 0.041145198 0.52671093 4278848530
0.41639069 0.041659541 0.52683342 4278717194
0.41647339 0.042116232 0.52691609 4278782987
0.41647232 0.042628281 0.52703851 4278783238
0.41638708 0.043195039 0.52720076 4278520848
0.41646755 0.043648586 0.52728343 4278586891
0.41646373 0.044156857 0.5274058 4278652674
0.41645908 0.044663854 0.52752823 4278521088
0.41645348 0.045169599 0.52765059 4278652674
0.416531 0.04561916 0.52773321 4278783492
0.41652375 0.046122596 0.52785563 4278717718
0.41659993 0.046570249 0.52793819 4278455827
0.41659099 0.047071375 0.52806056 4278521872
0.41666579 0.047517151 0.52814317 4278717194
0.41665518 0.048015967 0.52826548 4278652171
0.41672862 0.04845985 0.52834803 4278652171
0.41671634 0.048956357 0.52847034 4278521868
0.4167884 0.049398355 0.52855289 4278718469
0.41685987 0.049839504 0.52863544 4278979590
0.41684517 0.050332651 0.52875769 4278848784
0.41682956 0.050824538 0.52888 4278652175
0.41681302 0.051315174 0.52900225 4278783761
0.41688162 0.051752336 0.52908474 4278914056
0.41686341 0.052240655 0.52920699 4278848010
0.41684431 0.052727714 0.52932918 4278586132
0.41682428 0.053213522 0.52945143 4278324752
0.41680336 0.053698063 0.52957362 4278586631
0.41678154 0.054181337 0.52969581 4278718217
0.41667184 0.054714307 0.5298577 4278980101
0.41673511 0.055144124 0.52994013 4278587396
0.41671056 0.055623621 0.53006226 4278586629
0.41685981 0.056001231 0.53010499 4278979849
0.41683376 0.056478642 0.53022712 4278783761
0.41698211 0.056854993 0.5302698 4278586641
0.41704232 0.057280615 0.53035223 4278586641
0.41710198 0.057705387 0.53043461 4278783238
0.41724914 0.058080062 0.53047729 4279044865
0.41730767 0.058503374 0.53055966 4279110658
0.41727719 0.058974691 0.53068173 4278783492
0.41733438 0.059396103 0.5307641 4278521090
0.417391 0.059816688 0.53084648 4278521090
0.41735804 0.060284644 0.53096855 4278979842
0.41741329 0.060703337 0.53105086 4279505666
0.41737869 0.061168984 0.53117287 4279504903
0.41743255 0.061585777 0.53125519 4278981389
0.41748577 0.06200175 0.5313375 4278522381
0.41753843 0.062416866 0.53141981 4278653967
0.41759047 0.062831149 0.53150213 4278719760
0.41764188 0.063244581 0.53158444 4279046410
0.4176026 0.063703731 0.53170639 4279243021
0.41774291 0.064068958 0.53174901 4278914824
0.41779253 0.064479873 0.53183126 4279045892
0.41784155 0.06488996 0.53191352 4278914306
0.41798064 0.065253504 0.53195608 4278784008
0.41811946 0.06561663 0.53199869 4278849283
0.41825795 0.065979332 0.53204125 4279045894
0.41839617 0.066341624 0.53208381 4278849033
0.41853404 0.066703498 0.53212637 4278849033
0.41867167 0.067064941 0.53216892 4279439873
0.41880897 0.067425966 0.53221148 4279375104
0.41894594 0.067786574 0.53225404 4279243521
0.41908264 0.068146765 0.5322966 4278980099
0.41921902 0.068506524 0.53233916 4279373578
0.41935509 0.06886588 0.53238165 4279373578
0.41949087 0.069224805 0.53242421 4279373832
0.41962633 0.069583312 0.53246677 4279177480
0.41976148 0.069941401 0.53250927 4278718481
0.41989636 0.070299074 0.53255183 4278850314
0.42012393 0.070613772 0.53255469 4278850314
0.42025834 0.070970811 0.53259718 4278915848
0.42039245 0.071327426 0.53263974 4279308809
0.4206197 0.071641706 0.5326426 4279374600
0.47153506 0.068112463 0.5156517 4278915345
0.47192696 0.068483293 0.51561588 4279046931
0.47221994 0.068888478 0.51561958 4279374857
0.47261232 0.069259927 0.51558369 4279177476
0.47290546 0.069665328 0.51558739 4279110925
0.47329828 0.07003741 0.51555157 4278914843
0.47359157 0.070443019 0.51555526 4278980636
0.47388488 0.070848621 0.51555896 4279374358
0.47427833 0.071221553 0.51552314 4279374348
0.47457176 0.071627364 0.51552683 4279177480
0.4748652 0.072033182 0.51553053 4278981900
0.47515863 0.072438993 0.51553428 4279047693
0.47555283 0.072812974 0.5154984 4278785817
0.47584644 0.073219001 0.5155021 4279375896
0.47624105 0.073593602 0.51546627 4279835408
0.47653481 0.073999837 0.51547003 4280887571
0.47692993 0.074375071 0.51543415 4282269224
0.47722381 0.074781507 0.5154379 4283388730
0.47751772 0.075187966 0.5154416 4283125310
0.47791344 0.075564042 0.51540577 4284440409
0.41197103 -0.030171871 0.51162624 4282335267
0.41221291 -0.0296662 0.51166987 4282332957
0.41245452 -0.029160947 0.5117135 4282332957
0.41282654 -0.028817624 0.51167762 4282070301
0.41306782 -0.028312773 0.51172125 4281938976
0.41344014 -0.027969033 0.51168537 4281741599
0.41381276 -0.027624875 0.51164955 4281741599
0.41425169 -0.027360216 0.51157397 4281412634
0.41469121 -0.027094707 0.51149839 4281017874
0.41519761 -0.026907861 0.51138312 4280820495
0.41563851 -0.02664046 0.51130754 4280031758
0.41608 -0.026372224 0.51123202 4279571207
0.41658881 -0.026182011 0.51111674 4279044867
0.41696477 -0.025833234 0.51108098 4278848258
0.41734105 -0.02548404 0.51104516 4278782722
0.41771764 -0.025134414 0.51100934 4278782722
0.41802716 -0.024706349 0.51101327 4278848515
0.41833672 -0.024278283 0.5110172 4278717447
0.41864625 -0.023850217 0.51102108 4278652173
0.40887141 0.0078175962 0.52160579 4281084948
0.4092856 0.0080480427 0.52152991 4281019155
0.40962785 0.0083502233 0.52149367 4281084948
0.41011575 0.0085114688 0.52137816 4280755733
0.41082299 0.0084625334 0.52114373 4280361745
0.41160497 0.0083458871 0.52086967 4280164366
0.4124622 0.0081621259 0.52055603 4279835401
0.41317534 0.0081214011 0.52032167 4279835401
0.4137435 0.0082224458 0.52016664 4279243016
0.41423923 0.008394599 0.52005118 4278979844
0.41473591 0.0085680187 0.51993579 4278782468
0.41508579 0.0088806897 0.51989967 4278651652
0.41550997 0.0091249794 0.51982391 4278586631
0.41578642 0.0095072836 0.51982737 4278586380
0.41606286 0.0098895878 0.51983088 4278586380
0.41619036 0.010408215 0.51991361 4278586895
0.41631722 0.010925993 0.51999635 4278521100
0.41636872 0.01151067 0.52011865 4278455810
0.41641933 0.012094103 0.52024102 4278521090
0.41646898 0.012676269 0.52036333 4278586883
0.41629201 0.013458505 0.52060443 4278848263
0.41626403 0.014104426 0.52076632 4278717447
0.41615927 0.014815345 0.52096784 4278586380
0.41609693 0.016098358 0.52129149 4278652171
0.4160639 0.016737357 0.52145338 4278782989
0.41602969 0.017374657 0.52161515 4278782989
0.41607055 0.017944649 0.5217374 4278652171
0.41618696 0.01844795 0.52181995 4278783238
0.41614956 0.019080848 0.52198172 4278783490
0.41618767 0.019647054 0.52210391 4278717697
0.41622493 0.020212002 0.52222604 4278849031
0.41618416 0.020840287 0.5223878 4278783492
0.41621941 0.021402508 0.52250993 4278783492
0.41617638 0.022027642 0.52267164 4278652422
0.41613215 0.022651091 0.52283335 4278652422
0.41608667 0.023272865 0.522995 4278587142
0.41611785 0.023829415 0.52311707 4278718477
0.41614807 0.024384715 0.52323914 4278652684
0.41609931 0.025001869 0.52340078 4278652684
0.41612756 0.025554433 0.52352279 4278586891
0.41607648 0.026168428 0.52368438 4278586631
0.41610277 0.026718274 0.52380645 4278782989
0.41612816 0.027266845 0.5239284 4278652173
0.41615266 0.02781415 0.52405041 4278652684
0.4161762 0.028360218 0.52417243 4278652684
0.41619885 0.028905012 0.52429438 4278520850
0.41622058 0.029448539 0.52441633 4278586380
0.41624141 0.029990815 0.52453828 4278717964
0.41626132 0.030531839 0.52466023 4278586891
0.41628033 0.031071588 0.52478212 4278652935
0.41629842 0.031610087 0.52490407 4278718980
0.41639569 0.032086939 0.52498639 4278521601
0.41649237 0.032562934 0.52506876 4278587396
0.41650802 0.033098072 0.52519065 4278652676
0.4165228 0.033631951 0.52531254 4278652674
0.41653663 0.03416457 0.52543437 4278783490
0.41646871 0.034755275 0.52559578 4278783492
0.4164806 0.035285167 0.52571762 4278783492
0.41649154 0.035813794 0.52583945 4278849031
0.41642028 0.036399879 0.5260008 4278718469
0.41642925 0.036925785 0.52612257 4278586629
0.41643736 0.037450418 0.52624434 4278718215
0.41644451 0.037973806 0.52636611 4278848515
0.41636884 0.038553789 0.5265274 4278848515
0.4164561 0.039016791 0.52660966 4278849031
0.41646051 0.039536387 0.52673137 4278914575
0.41646406 0.040054724 0.52685308 4278783761
0.41646665 0.040571816 0.52697486 4279046161
0.41646838 0.041087642 0.52709657 4278848784
0.41646916 0.041602194 0.52721822 4278455307
0.41646904 0.042115502 0.52733994 4278455307
0.41655111 0.042571358 0.52742207 4278652935
0.41654932 0.043082356 0.52754372 4278586895
0.41654664 0.04359208 0.52766538 4278652686
0.41654301 0.044100568 0.52778703 4278652937
0.41653848 0.044607781 0.52790868 4278586883
0.41653305 0.045113735 0.52803028 4278586883
0.41661075 0.045563497 0.52811241 4278783240
0.41660362 0.046067148 0.528234 4278652438
0.41667998 0.046515018 0.52831608 4278455827
0.41667122 0.047016352 0.52843761 4278521870
0.41674614 0.047462344 0.52851969 4278390282
0.41682053 0.047907487 0.52860177 4278456075
0.41680932 0.048405461 0.5287233 4278521098
0.41679719 0.048902176 0.52884483 4278586891
0.4168694 0.049344391 0.52892691 4278652422
0.41694105 0.049785748 0.52900892 4279045132
0.4169265 0.050279111 0.5291304 4278848280
0.41691104 0.050771207 0.52925193 4278717718
0.41698053 0.051209643 0.52933395 4278783511
0.41696343 0.05169943 0.52945536 4279176201
0.4169454 0.052187957 0.52957684 4279044613
0.41692644 0.052675232 0.52969825 4278782991
0.4169066 0.053161241 0.52981973 4278390032
0.41688579 0.053645991 0.52994114 4278390535
0.41686413 0.054129489 0.53006256 4278522121
0.41684154 0.05461172 0.53018397 4278783492
0.41681802 0.055092692 0.53030533 4278455305
0.41688085 0.055521883 0.53038728 4278586631
0.41694307 0.055950224 0.53046918 4278849033
0.41700464 0.056377739 0.53055108 4278652171
0.41706568 0.056804411 0.53063297 4278586378
0.41721389 0.057180554 0.53067541 4278586380
0.41727382 0.057605751 0.53075731 4278652422
0.41733313 0.058030106 0.53083915 4278914308
0.41730356 0.058502689 0.53096044 4278979842
0.41736153 0.058925159 0.53104234 4278914306
0.41741887 0.059346788 0.53112417 4278848513
0.41738689 0.059815995 0.53124547 4278717447
0.41744286 0.060235746 0.53132731 4278783238
0.41749823 0.060654648 0.53140908 4279243271
0.41746384 0.061120495 0.53153038 4279504651
0.41751784 0.061537512 0.53161216 4279112205
0.41766074 0.061906308 0.53165454 4278587661
0.41762403 0.062369019 0.53177577 4278719247
0.41767624 0.062783509 0.53185755 4278719500
0.41772783 0.063197158 0.53193933 4278718730
0.41777879 0.063609973 0.53202105 4279112203
0.41782916 0.064021952 0.53210282 4278914824
0.41796935 0.064386971 0.53214514 4279111176
0.41801864 0.064797468 0.53222692 4279045383
0.41815805 0.065161437 0.53226924 4278784008
0.41829717 0.06552498 0.53231156 4278849031
0.41843599 0.065888107 0.53235388 4279045642
0.41857451 0.066250816 0.5323962 4278848780
0.41871271 0.066613108 0.53243852 4278782987
0.4188506 0.066974968 0.53248084 4279111428
0.4189882 0.067336425 0.5325231 4279243523
0.4191255 0.067697451 0.53256541 4279111680
0.4192625 0.068058059 0.53260767 4279177228
0.41930711 0.068462051 0.53268939 4279243021
0.41953558 0.068778008 0.53269225 4279243021
0.41957927 0.069180742 0.53277397 4279045892
0.41971487 0.069539465 0.53281623 4279177480
0.41994292 0.069854796 0.53281909 4278915345
0.42007807 0.070212886 0.53286135 4278718728
0.42021292 0.070570558 0.53290367 4278718728
0.42034748 0.070927806 0.53294593 4278718728
0.42057505 0.071242511 0.53294879 4279243273
0.42080259 0.071557209 0.53295165 4279243271
