# .PCD v0.7 - Point Cloud Data file format
VERSION 0.7
FIELDS x y z rgb
SIZE 4 4 4 4
TYPE F F F U
COUNT 1 1 1 1
WIDTH 1047
HEIGHT 1
VIEWPOINT 0 0 0 1 0 0 0
POINTS 1047
DATA ascii
0.41627184 -0.021271221 0.57283771 4284374087
0.41636196 -0.0217916 0.57265127 4284373835
0.41651204 -0.022259824 0.57252747 4284571214
0.41672257 -0.02267649 0.57246637 4284965454
0.41693279 -0.023092754 0.57240534 4284570183
0.41720405 -0.023458295 0.57240695 4284307011
0.41741383 -0.023873933 0.57234585 4283977544
0.4177466 -0.024189383 0.57241017 4284174925
0.43350071 -0.01988373 0.58447123 4283716688
0.43386549 -0.020242244 0.58453572 4283124551
0.43423054 -0.020601176 0.58460021 4282202679
0.43459594 -0.02096054 0.5846647 4281478956
0.43502593 -0.021273956 0.58479196 4281347117
0.43545651 -0.021588221 0.58491915 4280622883
0.43588775 -0.021903314 0.58504641 4281083434
0.43631959 -0.022219233 0.58517361 4281938741
0.43681699 -0.022490472 0.58536357 4282793282
0.4372502 -0.022808276 0.58549082 4283977805
0.43761885 -0.023171999 0.58555532 4285162079
0.43805313 -0.023491248 0.58568257 4285424990
0.43842256 -0.023856007 0.58574706 4285556578
0.43892363 -0.024132244 0.58593708 4285490533
0.41470641 -0.013449654 0.57491589 4283715653
0.41486785 -0.013933629 0.57479262 4282596402
0.4150874 -0.014362656 0.57473183 4281675300
0.41524777 -0.014845178 0.57460856 4280886556
0.41546652 -0.015273154 0.57454777 4280690208
0.41556668 -0.015807703 0.57436204 4280690465
0.41566586 -0.016341016 0.57417631 4280888098
0.41582364 -0.016819999 0.57405305 4281151270
0.41592115 -0.017351016 0.57386732 4281348649
0.41601771 -0.017880782 0.57368159 4282598205
0.41611338 -0.018409304 0.57349581 4283651397
0.41608796 -0.019041069 0.57318515 4284110913
0.41612121 -0.01961872 0.57293689 4284374085
0.41615325 -0.020194702 0.5726887 4284438847
0.41624457 -0.020717397 0.57250291 4284307261
0.41633499 -0.021238841 0.57231712 4284439362
0.41648531 -0.021707833 0.5721938 4284504905
0.41663504 -0.02217599 0.57207048 4284702800
0.41684532 -0.022592537 0.57200962 4284702800
0.41705528 -0.023008667 0.57194877 4284373065
0.41726494 -0.023424365 0.57188791 4284109893
0.4175359 -0.023789495 0.57188952 4283714624
0.41786864 -0.02410467 0.57195359 4283648577
0.43400553 -0.020139828 0.58403587 4283585106
0.43437055 -0.020498477 0.58410013 4282137403
0.43480015 -0.020810917 0.58422691 4281544749
0.43516594 -0.021170609 0.58429122 4281676082
0.43559659 -0.021484509 0.58441794 4280557603
0.43596315 -0.021845244 0.58448225 4280952361
0.43652463 -0.022069 0.58473402 4281610029
0.4369573 -0.022385605 0.5848608 4282201915
0.43739063 -0.022703029 0.58498758 4283517254
0.43775916 -0.023066476 0.58505189 4285227872
0.43819356 -0.023385361 0.58517867 4285490783
0.43856287 -0.023749843 0.58524299 4285687912
0.43899834 -0.024070181 0.58536977 4285490533
0.41501212 -0.013202161 0.57463574 4283914317
0.41517365 -0.013686702 0.57451296 4283386438
0.41533458 -0.014170416 0.57439011 4282925887
0.41549492 -0.014653295 0.57426733 4281872950
0.4156546 -0.01513534 0.57414448 4281544498
0.41581371 -0.015616558 0.5740217 4281742898
0.41585332 -0.016203657 0.5737744 4282730300
0.41601089 -0.016682796 0.57365155 4283190076
0.41610807 -0.017214045 0.57346654 4283124283
0.41614449 -0.017796785 0.57321918 4283650114
0.41617966 -0.018377848 0.57297188 4284176456
0.41615337 -0.01900959 0.57266235 4284374339
0.41612557 -0.019639231 0.57235277 4284440384
0.41615671 -0.020214908 0.57210541 4284242751
0.41624725 -0.020737201 0.57192034 4283979579
0.41639769 -0.021206766 0.57179743 4284308546
0.41654754 -0.021675497 0.57167459 4284570698
0.41675782 -0.02209232 0.57161391 4284767823
0.41696787 -0.022508733 0.57155329 4284504401
0.41717756 -0.022924721 0.57149267 4283912266
0.41744852 -0.023289852 0.57149428 4283451715
0.41765776 -0.023705222 0.57143366 4283714372
0.41799045 -0.024020106 0.5714975 4283582784
0.43408132 -0.020084679 0.58347422 4283849299
0.43451035 -0.020395927 0.58360052 4282926919
0.43487561 -0.02075471 0.5836646 4281676335
0.43530571 -0.021067418 0.5837909 4281807668
0.43560711 -0.021473527 0.58379269 4280688676
0.43610296 -0.021741398 0.58398128 4280820262
0.43659973 -0.02201052 0.58416986 4281412902
0.43703231 -0.022326551 0.58429623 4281282347
0.43753079 -0.022597954 0.58448482 4283320129
0.43796474 -0.022915863 0.58461112 4283912266
0.43833372 -0.023279637 0.58467519 4285686878
0.438703 -0.023643829 0.58473927 4285884777
0.43913853 -0.023963816 0.58486563 4285490019
0.43957466 -0.024284638 0.58499199 4285359199
0.41542113 -0.013493955 0.57417035 4284110415
0.415582 -0.013978027 0.57404798 4283978829
0.41574228 -0.014461264 0.57392561 4283583049
0.41590193 -0.014943674 0.57380325 4283451980
0.41600159 -0.015478894 0.57361889 4283518026
0.41610032 -0.01601287 0.57343447 4283452735
0.41625783 -0.016492367 0.5733121 4283650364
0.41629505 -0.017077073 0.5730657 4283781950
0.41627103 -0.017712936 0.57275724 4284176710
0.41618532 -0.018399321 0.57238686 4284374089
0.41612929 -0.01966022 0.57176995 4284374600
0.41615954 -0.020235561 0.57152349 4284243016
0.41624933 -0.020757474 0.57133907 4284308555
0.41646001 -0.021174997 0.57127863 4284308555
0.41660929 -0.021643467 0.57115626 4284176456
0.41688043 -0.022008806 0.57115781 4284173637
0.41702881 -0.022476025 0.57103539 4283909954
0.41729963 -0.022840947 0.57103705 4283778368
0.41750875 -0.023256384 0.57097661 4283515196
0.41777942 -0.023621097 0.57097822 4283516477
0.41817406 -0.023885585 0.57110387 4283188026
0.43458563 -0.020340525 0.58303928 4283190350
0.43501514 -0.020652033 0.58316517 4281873714
0.4353807 -0.021010943 0.58322901 4281807155
0.43574655 -0.021370269 0.58329284 4280951846
0.43630749 -0.021591552 0.58354282 4280491295
0.43667442 -0.021952339 0.5836066 4281148958
0.43717211 -0.022222064 0.58379453 4281216552
0.43767077 -0.022493027 0.58398247 4282465590
0.43797368 -0.022901222 0.58398426 4282860348
0.4384737 -0.02317407 0.58417225 4285556312
0.43890882 -0.023493066 0.58429813 4285885029
0.43927848 -0.023857601 0.58436197 4285555810
0.41577065 -0.013839826 0.57364357 4284176208
0.41593069 -0.01432322 0.57352167 4284241231
0.41609013 -0.014805786 0.57339972 4284043852
0.41624898 -0.015287511 0.57327783 4283847241
0.41634753 -0.015821919 0.57309413 4283518008
0.41607183 -0.019733928 0.5711267 4284308807
0.41616175 -0.020256691 0.57094294 4284176708
0.41631162 -0.020726353 0.57082093 4284374350
0.41652188 -0.021143541 0.57076079 4284308557
0.41667068 -0.021611743 0.57063878 4283781959
0.41694149 -0.021976665 0.57064039 4283779133
0.41715083 -0.022392601 0.57058024 4283646264
0.41742149 -0.022757307 0.57058179 4283382838
0.41763037 -0.023172617 0.57052165 4283580217
0.41796279 -0.023486733 0.57058501 4283515194
0.43459606 -0.020332478 0.58241719 4283519315
0.43508992 -0.020596363 0.58260441 4281939256
0.43545526 -0.02095478 0.58266801 4281872950
0.43588579 -0.021267176 0.58279341 4280951848
0.43631691 -0.021580406 0.58291888 4280425504
0.43674868 -0.021894462 0.58304429 4280820763
0.43724638 -0.02216354 0.58323151 4281281575
0.43774503 -0.022433862 0.58341879 4282268470
0.43811327 -0.022796243 0.58348238 4282729021
0.43861347 -0.023068637 0.58366966 4284898382
0.43904862 -0.023387283 0.58379513 4285621853
0.43948439 -0.023706757 0.5839206 4285621855
0.4398545 -0.024071626 0.5839842 4285095763
0.44022495 -0.024436913 0.58404785 4285358935
0.41601354 -0.019808248 0.57048523 4284374087
0.41616333 -0.020278275 0.5703637 4284373319
0.41637349 -0.020695537 0.57030374 4284438610
0.41658336 -0.021112382 0.57024378 4284043852
0.4167929 -0.02152881 0.57018381 4282794303
0.41706353 -0.021893524 0.57018542 4282728760
0.41727263 -0.022309326 0.57012546 4282859828
0.41754314 -0.02267383 0.57012707 4282793008
0.41781366 -0.023038335 0.57012868 4282793008
0.41808414 -0.023402832 0.57013029 4282925108
0.43552941 -0.020898923 0.5821079 4282135100
0.43595982 -0.021210752 0.58223289 4280886566
0.43639088 -0.021523409 0.58235788 4280162843
0.4368225 -0.021836899 0.58248281 4280360212
0.43732023 -0.022105329 0.58266944 4280821278
0.43781886 -0.02237501 0.582856 4281873453
0.43825269 -0.022691414 0.58298099 4282399797
0.43868712 -0.023008652 0.58310598 4283977796
0.43912217 -0.02332671 0.58323097 4285228115
0.43962407 -0.023600765 0.58341753 4285491035
0.43999413 -0.023965351 0.58348095 4285031767
0.44043103 -0.024285913 0.583606 4284768595
0.44053516 -0.024828464 0.58342296 4284834899
0.41568357 -0.019518264 0.56984395 4284308294
0.41595441 -0.019883186 0.56984556 4284308294
0.41622519 -0.020248108 0.56984717 4284373835
0.41643494 -0.020665027 0.56978744 4284043600
0.41664439 -0.02108153 0.56972766 4283451463
0.41691491 -0.021446034 0.56972933 4282596154
0.41724694 -0.02175916 0.56979227 4282334263
0.41745591 -0.022175036 0.56973255 4282466101
0.41766459 -0.022590511 0.56967276 4282399793
0.41799694 -0.022904046 0.56973571 4282399793
0.43603343 -0.021154627 0.58167326 4280689957
0.43652961 -0.021420337 0.58185911 4280032027
0.43696132 -0.021733463 0.58198363 4280097553
0.43739367 -0.022047423 0.5821082 4280623897
0.43789232 -0.022316463 0.58229411 4281544999
0.438326 -0.022632293 0.58241862 4282137136
0.43882638 -0.022903614 0.58260453 4283451452
0.4392615 -0.023221314 0.5827291 4285359701
0.43969718 -0.023539864 0.58285362 4285359710
0.44013351 -0.023859225 0.58297819 4285163614
0.44050387 -0.024223953 0.58304137 4284703063
0.44094127 -0.024544775 0.58316594 4284769108
0.41526502 -0.018707104 0.56938624 4284110917
0.41547513 -0.019124724 0.5693267 4284308296
0.41574565 -0.019489229 0.56932831 4284242503
0.41595531 -0.01990623 0.56926882 4283847491
0.41622564 -0.020270526 0.56927037 4283715907
0.41649598 -0.020634823 0.56927198 4282991932
0.41676635 -0.020999119 0.56927359 4282728760
0.41709819 -0.021311745 0.56933635 4282266924
0.41730705 -0.021727711 0.56927681 4282399027
0.41757742 -0.022092 0.56927842 4282202931
0.41784775 -0.022456296 0.56928003 4282202931
0.41818023 -0.022769757 0.56934279 4282137138
0.43623701 -0.021005474 0.58123678 4280888883
0.43660283 -0.021363877 0.58129966 4280296746
0.43703443 -0.021676436 0.58142376 4279704089
0.43746665 -0.021989822 0.58154786 4280164373
0.43803114 -0.022212371 0.58179426 4281413411
0.43846488 -0.022527844 0.5819183 4281742376
0.43889928 -0.022844158 0.5820424 4283122746
0.43940055 -0.023116075 0.58222765 4284372050
0.43983632 -0.023434244 0.5823518 4284833886
0.44027275 -0.023753263 0.5824759 4285491816
0.44064301 -0.024117701 0.58253884 4285031265
0.44108051 -0.024438165 0.58266294 4285030745
0.41517776 -0.018208027 0.56899142 4283914567
0.41538793 -0.018625937 0.56893218 4283980360
0.41565841 -0.018990435 0.56893373 4284177739
0.4158681 -0.019407727 0.56887448 4283914315
0.41613847 -0.019772023 0.56887609 4282926391
0.41640884 -0.020136319 0.5688777 4282334767
0.41667917 -0.020500608 0.56887925 4281808169
0.41694951 -0.020864904 0.56888092 4281808169
0.41721988 -0.0212292 0.56888247 4282136105
0.41749024 -0.021593496 0.56888407 4282136105
0.41776058 -0.021957792 0.56888568 4282201646
0.41803095 -0.022322088 0.56888729 4282268722
0.43594471 -0.020592324 0.58061576 4283980117
0.43637532 -0.020903058 0.58073938 4281544496
0.43674105 -0.021261178 0.58080208 4281347117
0.43717271 -0.02157338 0.5809257 4280295201
0.43760502 -0.021886408 0.58104932 4280032530
0.4380379 -0.022200279 0.581173 4281347872
0.43853748 -0.02246926 0.58135754 4281808423
0.43903798 -0.022739507 0.58154213 4281874216
0.43947306 -0.023056276 0.58166575 4283713858
0.43990874 -0.023373879 0.58178937 4285293154
0.44034505 -0.023692317 0.58191305 4285556326
0.44078195 -0.024011597 0.58203673 4285424740
0.44115251 -0.024376161 0.58209944 4285950822
0.44159049 -0.024696894 0.58222312 4285623132
0.41512057 -0.017074749 0.56889832 4283913547
0.4152714 -0.017547883 0.56877863 4284176971
0.41548204 -0.017966703 0.56871957 4283717188
0.41569242 -0.018385105 0.5686605 4283849033
0.4159025 -0.01880309 0.56860149 4284046412
0.41617313 -0.019167796 0.56860304 4283059267
0.41638273 -0.019585155 0.56854403 4282400047
0.41665325 -0.01994966 0.56854564 4282005287
0.41686237 -0.0203664 0.56848657 4281544738
0.41713271 -0.020730697 0.56848812 4281544738
0.41746476 -0.021043167 0.56855047 4281873449
0.41767341 -0.021459289 0.56849134 4281939242
0.41794378 -0.021823578 0.56849295 4281938476
0.43651336 -0.020800807 0.58024246 4283715403
0.4368791 -0.021158636 0.58030492 4281478441
0.43731081 -0.02147048 0.58042812 4280492061
0.43774313 -0.021783151 0.58055127 4280163346
0.4381761 -0.022096649 0.58067447 4280887067
0.43860966 -0.022410981 0.58079767 4281742630
0.43911019 -0.022680581 0.58098155 4281742630
0.43961161 -0.022951417 0.58116543 4283648065
0.44004735 -0.023268662 0.58128864 4284503122
0.44048372 -0.023586735 0.58141184 4285556326
0.44092065 -0.023905657 0.58153504 4285753705
0.44122407 -0.024314478 0.58153689 4285884775
0.44172922 -0.024590306 0.58172077 4285556574
0.41548526 -0.016778074 0.56868535 4284242512
0.41563633 -0.017251991 0.56856608 4284441170
0.4157868 -0.017725065 0.56844682 4284046412
0.41599736 -0.018143959 0.56838799 4283651400
0.41620761 -0.018562436 0.56832916 4282927677
0.41641754 -0.018980503 0.56827033 4282401335
0.4166272 -0.019398145 0.5682115 4281413152
0.41689783 -0.019762859 0.56821311 4281215001
0.41710705 -0.020179875 0.56815428 4281280796
0.41737753 -0.02054438 0.56815588 4281543968
0.41764805 -0.020908885 0.56815749 4281412382
0.41791856 -0.021273382 0.5681591 4281477923
0.43708256 -0.021009557 0.57986867 4282991164
0.43738288 -0.021414213 0.57987046 4280557339
0.43788105 -0.021680035 0.58005369 4279965456
0.43824795 -0.022039257 0.58011591 4280031247
0.43881398 -0.022261292 0.58035964 4281413413
0.43924838 -0.022576302 0.58048236 4281544999
0.43968338 -0.022892155 0.58060509 4282924854
0.44011903 -0.023208834 0.58072788 4284108618
0.44062218 -0.023481309 0.5809111 4285621352
0.44099218 -0.023844682 0.58097339 4286016110
0.44142962 -0.024163865 0.58109611 4285819498
0.44180039 -0.024528272 0.5811584 4285688164
0.41557819 -0.016113944 0.56846941 4284242001
0.41579017 -0.016534999 0.56841081 4284768854
0.41594136 -0.017009467 0.56829202 4284506963
0.4161526 -0.017429486 0.56823343 4284375377
0.41630268 -0.017902508 0.56811458 4283585350
0.41651314 -0.018321484 0.56805599 4282137904
0.41672331 -0.018740036 0.5679974 4281743148
0.41693315 -0.019158177 0.56793875 4281149726
0.41714269 -0.019575901 0.56788015 4281083417
0.4173519 -0.019993201 0.5678215 4281083417
0.41762257 -0.020357914 0.56782317 4281478175
0.41789323 -0.020722628 0.56782472 4281280542
0.42551908 -0.019896887 0.57277828 4282003502
0.42586583 -0.020228773 0.57284021 4282464568
0.4262765 -0.020511374 0.5729624 4283452746
0.42675155 -0.020745344 0.57314479 4283452746
0.43758634 -0.021265127 0.57943422 4280425753
0.4379527 -0.021623433 0.57949626 4279702030
0.43845183 -0.021889865 0.57967877 4279899663
0.43895191 -0.022157535 0.57986134 4281018655
0.4392533 -0.022563651 0.57986313 4281347620
0.43988812 -0.022742152 0.58016616 4282135853
0.44032395 -0.023058675 0.58028847 4284108618
0.44076043 -0.023376033 0.58041078 4285490533
0.44113034 -0.023739122 0.58047283 4285885291
0.4415006 -0.024102621 0.58053488 4285885291
0.44187117 -0.024466537 0.58059698 4285819750
0.415638 -0.014861465 0.56849045 4284768341
0.41573098 -0.015393555 0.56831211 4284768341
0.41588333 -0.015870064 0.56819373 4284571477
0.41609555 -0.016291611 0.56813538 4284440661
0.41624683 -0.01676666 0.56801701 4283519559
0.41645825 -0.017187156 0.56795865 4282795834
0.41660845 -0.017660752 0.56784028 4282203181
0.41675806 -0.018133514 0.5677219 4281282079
0.41696823 -0.018552355 0.56766349 4281149980
0.41717812 -0.01897078 0.56760514 4281083933
0.41738772 -0.019388787 0.56754673 4280886554
0.41753531 -0.019858837 0.56742835 4280951577
0.41786781 -0.0201713 0.56748998 4281017370
0.42489207 -0.019195057 0.57212335 4281413161
0.42523798 -0.01952561 0.57218504 4281215782
0.42558426 -0.019856595 0.57224673 4281938222
0.42599437 -0.02013801 0.57236838 4282202166
0.4264051 -0.020420261 0.5724901 4282926400
0.42675257 -0.020752892 0.57255185 4283124549
0.42716441 -0.021036603 0.57267356 4283453514
0.43809012 -0.021520704 0.57899976 4279504653
0.43852308 -0.021832921 0.57912159 4279570444
0.43902314 -0.022099949 0.57930344 4280557593
0.43952417 -0.022368222 0.57948536 4281018144
0.44002604 -0.022637755 0.57966721 4281873451
0.44046196 -0.02295392 0.57978904 4283252535
0.44089848 -0.023270905 0.57991093 4284238921
0.44133562 -0.023588739 0.58003277 4285883746
0.44163853 -0.023996927 0.58003461 4285951336
0.44200903 -0.02436056 0.58009642 4285951336
0.41566974 -0.014247186 0.56821114 4285162583
0.41582328 -0.014725722 0.56809324 4284702550
0.41609672 -0.015094176 0.56809485 4284768343
0.41624933 -0.01557146 0.56797695 4284768343
0.41640133 -0.01604791 0.56785905 4284176721
0.41655269 -0.016523533 0.56774116 4282992963
0.41676435 -0.016944528 0.56768298 4282334515
0.41691464 -0.01741869 0.56756508 4281479206
0.41706431 -0.017892018 0.56744713 4281018907
0.41727471 -0.018311352 0.56738901 4280887321
0.41742331 -0.018783227 0.56727105 4280952601
0.41763297 -0.019201525 0.56721288 4280952347
0.41784227 -0.019619398 0.56715471 4280820761
0.42473787 -0.018724658 0.57165122 4281478956
0.4250204 -0.01910539 0.57165289 4281018403
0.42536631 -0.019435659 0.57171434 4281018403
0.42564902 -0.0198166 0.57171601 4281740843
0.42605901 -0.020097457 0.57183731 4281938992
0.42646965 -0.020379134 0.57195854 4282860607
0.42675298 -0.020760901 0.57196021 4283255365
0.42710042 -0.021093257 0.57202166 4283584330
0.42751244 -0.021376804 0.57214296 4283453514
0.43872678 -0.021683685 0.57868493 4279504651
0.43916056 -0.02199658 0.57880628 4280097042
0.43966171 -0.022264414 0.57898748 4280689179
0.44016379 -0.022533499 0.57916868 4281807658
0.44059974 -0.022849299 0.57929009 4283120949
0.44110352 -0.023120679 0.57947135 4283778366
0.44147351 -0.023483403 0.57953292 4285752156
0.44177628 -0.023891397 0.57953471 4286148199
0.44214672 -0.024254739 0.57959634 4286148713
0.41591525 -0.014056183 0.567873 4285294169
0.41618916 -0.014425263 0.56787467 4284702550
0.41634235 -0.014903739 0.56775719 4284702550
0.41655543 -0.015326887 0.56769931 4283517508
0.41676819 -0.015749618 0.56764138 4282926141
0.41691983 -0.016226023 0.5675239 4281807406
0.41707084 -0.016701587 0.56740642 4280952347
0.41728237 -0.017122664 0.56734848 4280952347
0.41737103 -0.017650217 0.56717145 4280887321
0.4175202 -0.018123284 0.56705403 4280755735
0.41773033 -0.018542491 0.5669961 4280887321
0.41787842 -0.019014098 0.56687856 4280887067
0.42464674 -0.018203661 0.57123911 4280623134
0.42486617 -0.018635347 0.57118118 4280821026
0.42521185 -0.018965125 0.57124245 4280623647
0.4254944 -0.019345857 0.57124412 4280821026
0.42577696 -0.019726582 0.57124579 4281610027
0.42612326 -0.020057194 0.57130706 4282465336
0.42646986 -0.020388216 0.57136828 4282728508
0.42681679 -0.02071967 0.57142949 4283321160
0.42716402 -0.021051526 0.57149076 4283584332
0.42751157 -0.021383792 0.57155204 4283190344
0.42785943 -0.02171649 0.57161325 4283453516
0.43893045 -0.021534458 0.5782482 4279438860
0.43943113 -0.021801017 0.57842875 4279899409
0.43986592 -0.022114798 0.57854968 4280359960
0.4403013 -0.022429399 0.57867062 4281412902
0.44080448 -0.022699304 0.57885116 4282529066
0.44124126 -0.02301579 0.57897216 4283449655
0.4416112 -0.023378223 0.57903349 4285555031
0.44204906 -0.023696162 0.57915449 4286082406
0.442352 -0.024104357 0.57915628 4285951334
0.41600698 -0.013384931 0.56765145 4284569683
0.41622117 -0.013809822 0.56759375 4282859065
0.41649538 -0.014179312 0.56759536 4282858811
0.41670913 -0.014603592 0.56753767 4282135088
0.41686195 -0.015082009 0.56742072 4281279528
0.41707492 -0.015505247 0.56736302 4280818979
0.41728759 -0.015928052 0.56730533 4280951076
0.41749993 -0.016350448 0.56724763 4280623386
0.41765076 -0.016826175 0.56713057 4280557593
0.41780093 -0.01730106 0.56701356 4280689175
0.41795051 -0.017775111 0.56689656 4280689175
0.41843337 -0.018562019 0.56684047 4280689175
0.42455566 -0.017682664 0.57082695 4280425755
0.42477512 -0.018114634 0.57076931 4280162330
0.4250575 -0.018495157 0.57077098 4280557088
0.42527649 -0.018926501 0.57071334 4280557088
0.42555875 -0.019306816 0.57071501 4280688674
0.42590469 -0.019636728 0.57077599 4282003502
0.4261871 -0.020017251 0.57077765 4282793531
0.42653349 -0.020347781 0.57083869 4282860094
0.42688021 -0.020678729 0.57089972 4283321158
0.42716292 -0.02105967 0.57090139 4283386951
0.42751011 -0.021391235 0.57096243 4283321928
0.42792225 -0.021674074 0.57108277 4283453263
0.44100922 -0.022549301 0.57841223 4281740068
0.4415136 -0.022820212 0.57859212 4282528816
0.44195139 -0.023137584 0.57871264 4282857781
0.4422543 -0.023545779 0.57871443 4284833633
0.44262511 -0.023909181 0.57877558 4285228896
0.41631308 -0.013137765 0.56737107 4282792504
0.41652751 -0.013563156 0.56731361 4283055678
0.41680202 -0.01393307 0.56731522 4281541669
0.41701597 -0.014357835 0.56725776 4281475876
0.41729033 -0.01472754 0.56725943 4281015842
0.4175038 -0.01515168 0.56720197 4280687393
0.41765594 -0.015629634 0.56708539 4280753186
0.41786867 -0.01605273 0.56702793 4280622362
0.41814241 -0.016421601 0.56702954 4280556569
0.41829318 -0.016897678 0.56691295 4280426005
0.42459032 -0.017058201 0.57053304 4280162583
0.42474711 -0.017542399 0.57041651 4280359962
0.42496645 -0.017974444 0.57035905 4280228123
0.42518547 -0.018406071 0.57030165 4280425502
0.42540422 -0.018837288 0.57024419 4280491295
0.4256863 -0.019217394 0.57024586 4280820260
0.42590457 -0.019647986 0.57018846 4282332980
0.42625049 -0.019977607 0.5702492 4282925117
0.4265967 -0.020307645 0.57031 4282991680
0.42687893 -0.02068796 0.57031173 4283452744
0.42722562 -0.021018632 0.57037246 4283847502
0.427508 -0.021399155 0.57037419 4283585100
0.42785513 -0.021730438 0.57043499 4283321930
0.4418537 -0.022579007 0.57827079 4282200367
0.44222432 -0.022941917 0.57833171 4283253055
0.44259524 -0.023305245 0.57839262 4285228391
0.44296643 -0.023668997 0.57845354 4285360482
0.44333798 -0.024033152 0.57851452 4285359197
0.4166196 -0.012890317 0.5670898 4281343524
0.41683424 -0.013316199 0.56703258 4281541418
0.41710907 -0.013686523 0.56703418 4281475625
0.41738388 -0.014056854 0.56703579 4280949281
0.41765872 -0.014427185 0.56703746 4281146660
0.41787258 -0.01485201 0.56698024 4281213223
0.41808611 -0.015276439 0.56692296 4281016356
0.41829932 -0.015700452 0.56686574 4280687391
0.42462477 -0.016432613 0.57023823 4280293397
0.42478198 -0.01691778 0.57012212 4280359190
0.42493853 -0.017402135 0.57000607 4280030997
0.42515779 -0.017834261 0.56994885 4280425502
0.42531326 -0.018317148 0.56983274 4280557088
0.42553174 -0.018748231 0.56977558 4280623134
0.4257499 -0.019178897 0.56971836 4281017892
0.42603171 -0.019558586 0.56972003 4282662715
0.42637753 -0.019887932 0.56978059 4282925887
0.42665946 -0.020267829 0.56978226 4282794301
0.42694139 -0.020647727 0.56978393 4283584584
0.42722332 -0.021027625 0.56978559 4283781963
0.42756996 -0.021357998 0.56984615 4283585100
0.42791688 -0.021688797 0.56990671 4283585102
0.4425652 -0.022700749 0.57800925 4282003504
0.44293654 -0.023064412 0.57806993 4283319362
0.44337627 -0.023383558 0.57818961 4285096275
0.44374838 -0.023748256 0.57825029 4285293654
0.41686624 -0.012698174 0.56674898 4281278246
0.41714138 -0.013068914 0.56675059 4281409832
0.41741651 -0.013439663 0.5667522 4281278246
0.41769165 -0.013810404 0.56675386 4280950053
0.41796681 -0.014181152 0.56675547 4281147430
0.41824195 -0.014551893 0.56675714 4280753184
0.41845584 -0.014977023 0.5667001 4280753184
0.41873083 -0.015347555 0.56670177 4280424219
0.42487961 -0.016239941 0.56988555 4280293399
0.42503673 -0.016725488 0.56976992 4280293399
0.42519322 -0.017210186 0.56965429 4280359192
0.42534912 -0.017694071 0.56953859 4280228376
0.42550439 -0.018177114 0.56942296 4280491548
0.42565906 -0.018659316 0.56930733 4281018405
0.42587695 -0.019089855 0.56925035 4282004785
0.42615858 -0.019469343 0.56925201 4282662715
0.42644021 -0.019848824 0.56925368 4282926141
0.42672181 -0.020228304 0.56925535 4282860348
0.42700344 -0.020607792 0.56925702 4283913036
0.42728508 -0.020987272 0.56925869 4284242001
0.42756671 -0.021366753 0.56926036 4283651145
0.42791328 -0.021696843 0.56932074 4284045651
0.42839038 -0.021928996 0.56949842 4284111195
0.44297445 -0.022413827 0.5777446 4281214501
0.44334632 -0.022778042 0.57780504 4283714372
0.44371855 -0.023142673 0.57786554 4284899150
0.44415939 -0.023462906 0.57798475 4285293908
0.41738838 -0.012876831 0.56640935 4280752674
0.41766369 -0.013247788 0.56641096 4280752674
0.41793898 -0.013618737 0.56641257 4280556068
0.41821426 -0.013989694 0.56641424 4280360226
0.41848958 -0.014360644 0.56641591 4280426015
0.41876486 -0.014731593 0.56641752 4280491808
0.41897863 -0.015156798 0.56636071 4280360222
0.42497692 -0.015560389 0.56964755 4280031508
0.4251346 -0.016047128 0.56953239 4279899924
0.42529166 -0.016533025 0.56941724 4280031510
0.42544812 -0.017018087 0.56930202 4280426268
0.42554048 -0.017553881 0.56912839 4280557854
0.4257592 -0.017985731 0.56907165 4280821796
0.42584997 -0.018519439 0.56889802 4281084972
0.42600381 -0.01900097 0.56878281 4282401083
0.42615703 -0.019481666 0.56866759 4282532669
0.42643818 -0.019860528 0.56866926 4282730300
0.42671934 -0.020239383 0.56867093 4283321408
0.42706507 -0.020568147 0.56873107 4284110924
0.42734641 -0.020947218 0.56873274 4284505684
0.42762771 -0.021326281 0.56873441 4284571477
0.4279741 -0.021655887 0.56879449 4285427563
0.44375676 -0.022491209 0.57753885 4283320895
0.44412953 -0.022856385 0.57759911 4284373065
0.44457108 -0.023177102 0.57771784 4285030230
0.44494459 -0.023543313 0.5777781 4285293402
0.44538718 -0.023865484 0.57789683 4286016875
0.41791105 -0.013055757 0.56606925 4280687642
0.41818649 -0.013426915 0.56607091 4280688155
0.41846195 -0.013798073 0.56607252 4279899661
0.41873738 -0.014169239 0.56607413 4281281829
0.41901284 -0.014540397 0.5660758 4282136886
0.4250111 -0.014931791 0.56935006 4280032280
0.4252322 -0.015367061 0.5692935 4280032280
0.42538983 -0.015854158 0.56917882 4280295450
0.42554685 -0.016340412 0.56906408 4280427036
0.42563978 -0.016877666 0.56889111 4280756001
0.42579544 -0.017362066 0.56877637 4280690210
0.42595041 -0.017845623 0.56866163 4281742904
0.42591307 -0.018481962 0.56837225 4282203453
0.42587411 -0.019116223 0.56808287 4282598205
0.42602634 -0.01959604 0.56796813 4282598205
0.42630675 -0.019973852 0.5679698 4282927422
0.42671621 -0.020250931 0.56808788 4283781959
0.42706162 -0.020578995 0.56814778 4284374098
0.42747217 -0.02085752 0.56826586 4284637272
0.44460952 -0.022524484 0.57738954 4282201644
0.44491476 -0.022935793 0.57739133 4285951849
0.44535744 -0.023257591 0.57750964 4285491298
0.44573188 -0.023624778 0.57756972 4285754735
0.44617563 -0.023948029 0.57768798 4286413178
0.42526653 -0.014738016 0.56899536 4279835158
0.4254877 -0.015173569 0.56893903 4279900949
0.42564526 -0.015661024 0.56882477 4280361500
0.42580223 -0.016147658 0.56871051 4280558879
0.42589501 -0.016685352 0.56853819 4281216806
0.42598686 -0.017221801 0.56836593 4281676852
0.42607778 -0.017756999 0.56819367 4282334786
0.42584765 -0.018547356 0.56773144 4282598207
0.4257434 -0.019232243 0.5673852 4283123520
0.42595899 -0.019660302 0.56732881 4282860348
0.42623875 -0.020037293 0.56733048 4283189311
0.42658317 -0.020363823 0.56739014 4283781959
0.42699271 -0.020640537 0.5675078 4283651147
0.42727295 -0.021018147 0.56750947 4284373583
0.44495338 -0.022282444 0.57706213 4282531383
0.44532758 -0.022649139 0.57712197 4285557607
0.44570211 -0.023016237 0.57718182 4285228642
0.44607696 -0.023383759 0.57724166 4285623149
0.44652122 -0.023707293 0.5773595 4286347385
0.44682753 -0.024120063 0.57736135 4286347385
0.44727272 -0.024444833 0.57747918 4286150006
0.42545915 -0.014596909 0.56858242 4279900951
0.42574337 -0.014979929 0.56858408 4280229914
0.42583755 -0.015520148 0.56841254 4280690717
0.42599431 -0.016006932 0.5682987 4281019682
0.42615044 -0.016492873 0.56818485 4282007095
0.42610532 -0.020152077 0.56663525 4283780928
0.42644906 -0.020477504 0.56669468 4283847491
0.42685807 -0.020753011 0.56681186 4283847493
0.42720258 -0.021079473 0.56687129 4283978825
0.44543484 -0.021949463 0.57684946 4282137138
0.445741 -0.022362031 0.57685125 4284636757
0.44611609 -0.02272968 0.57691085 4285360480
0.44649151 -0.023097746 0.57697046 4286018158
0.446798 -0.023510724 0.57697231 4286281330
0.44710448 -0.023923703 0.57697415 4286543986
0.44755003 -0.024248526 0.57709152 4286346607
0.44785681 -0.024661921 0.57709336 4286477680
0.42543048 -0.01401969 0.56822538 4280098328
0.42565173 -0.014455795 0.56816953 4280295709
0.42587268 -0.014891505 0.56811368 4280690719
0.4260298 -0.015379265 0.56800032 4281282852
0.42538857 -0.02072493 0.56542438 4283978561
0.42611939 -0.020743743 0.5658288 4284044354
0.42672235 -0.020866252 0.56611818 4283979077
0.42693588 -0.021291971 0.56606233 4284308303
0.44540468 -0.021339297 0.57646042 4280492829
0.44571102 -0.021752067 0.57646221 4281742378
0.44608623 -0.022119641 0.57652164 4282137136
0.44639269 -0.02253262 0.57652342 4285491294
0.44676834 -0.022900827 0.57658285 4285952617
0.44707498 -0.023314007 0.57658464 4286215017
0.44738162 -0.023727201 0.57658648 4286477676
0.4477579 -0.024096228 0.57664585 4286411883
0.44806468 -0.024509624 0.5766477 4286740336
0.44844145 -0.024879277 0.57670712 4286477164
0.42518729 -0.020892821 0.56467831 4284045385
0.42572305 -0.02106189 0.56490922 4284111178
0.42632514 -0.02118215 0.56519747 4284374350
0.44605619 -0.021509044 0.57613194 4280887587
0.44643182 -0.021876954 0.57619107 4281413931
0.4467386 -0.022290349 0.57619292 4283912784
0.44704539 -0.022703744 0.57619476 4285886054
0.44728273 -0.023161791 0.57613921 4285820513
0.44765896 -0.023530535 0.5761984 4286543209
0.44796577 -0.023943923 0.57620025 4286477416
0.44827256 -0.024357326 0.57620203 4286608748
0.44857937 -0.024770714 0.57620388 4286542955
0.44895634 -0.025140502 0.57626301 4286477162
0.4247098 -0.020691104 0.56393331 4283847752
0.42504969 -0.021010675 0.56399202 4284176717
0.42552003 -0.021229148 0.564165 4284110924
0.42592606 -0.021499418 0.56428081 4284374096
0.44640183 -0.0212657 0.57580072 4280755750
0.44670874 -0.021679305 0.57580256 4281084715
0.4470157 -0.022092909 0.57580435 4282925640
0.44732267 -0.022506513 0.5758062 4285688677
0.4476296 -0.022920109 0.57580805 4285688927
0.44786686 -0.023378231 0.57575274 4286280297
0.44810379 -0.023835935 0.57569742 4286280297
0.44841042 -0.024249122 0.57569927 4286148713
0.44878721 -0.024618417 0.57575822 4286214506
0.44902369 -0.025075503 0.57570291 4286346092
0.44940078 -0.025445208 0.57576185 4286477680
0.42376518 -0.020278506 0.5630188 4283650377
0.42410347 -0.020595714 0.56307727 4283716938
0.42450696 -0.020862088 0.56319267 4283782983
0.42484602 -0.021180332 0.56325114 4284046153
0.42525059 -0.021448165 0.56336653 4284374348
0.42565572 -0.021716833 0.56348187 4284505934
0.42612702 -0.02193591 0.56365412 4284702548
0.44650948 -0.020562209 0.57552367 4279966744
0.44667882 -0.021067701 0.57541174 4280558628
0.44698593 -0.021481507 0.57541358 4280887593
0.44722366 -0.021940529 0.57535851 4282530880
0.44746113 -0.022399142 0.57530344 4285688675
0.44783756 -0.022767738 0.57536215 4285754207
0.4480049 -0.023270525 0.57525015 4286214758
0.44831157 -0.023683712 0.575252 4286148965
0.44854808 -0.024141073 0.57519692 4285556574
0.44892484 -0.024510086 0.57525563 4285753953
0.44923145 -0.024923272 0.57525742 4285490781
0.44953811 -0.025336459 0.57525927 4285753957
0.44984472 -0.025749646 0.57526112 4286609266
0.45015138 -0.026162833 0.5752629 4286281330
0.42335445 -0.020033769 0.5623365 4284045133
0.42369193 -0.020349652 0.5623948 4283847754
0.42402971 -0.020665951 0.56245303 4283782733
0.42436782 -0.02098266 0.56251132 4283914315
0.42470622 -0.021299794 0.56256962 4284308809
0.42504492 -0.021617346 0.56262785 4284571466
0.42551482 -0.021833904 0.56279939 4284637259
0.42598563 -0.022051707 0.562971 4284900179
0.42645735 -0.022270769 0.56314254 4285031767
0.44671774 -0.020409599 0.57507712 4279638549
0.44695604 -0.020869531 0.57502228 4280165663
0.44719401 -0.021329053 0.57496744 4280363042
0.44743165 -0.021788158 0.57491261 4282005552
0.447669 -0.022246845 0.57485777 4284634958
0.44790605 -0.022705115 0.57480288 4285621855
0.44821268 -0.023118302 0.57480472 4285754470
0.44844925 -0.023575947 0.57474989 4285293919
0.44868553 -0.024033181 0.57469499 4283255116
0.44899184 -0.024445951 0.57469684 4282925119
0.44936872 -0.024814881 0.57475531 4283056444
0.44960451 -0.025271498 0.57470047 4283122750
0.44991082 -0.02568426 0.57470232 4283320129
0.45028815 -0.026053824 0.57476079 4285490797
0.42334548 -0.020054407 0.56177098 4283980108
0.4236826 -0.020369597 0.56182897 4283716938
0.42402002 -0.020685188 0.56188703 4283782731
0.42442283 -0.020949803 0.56200147 4283913547
0.42469582 -0.021317631 0.56200314 4284308042
0.42503417 -0.021634474 0.56206113 4284571468
0.42543837 -0.021900959 0.56217563 4284571468
0.42597455 -0.022067137 0.56240296 4284834386
0.42638031 -0.022335701 0.5625174 4285031767
0.44682541 -0.019704163 0.57479811 4279440398
0.44706422 -0.020165011 0.57474345 4279375375
0.44723344 -0.020671219 0.57463241 4280034075
0.44740209 -0.021176599 0.57452136 4280297247
0.44763964 -0.021635778 0.57446671 4281677355
0.44780719 -0.022139706 0.57435566 4283320125
0.4481138 -0.022552893 0.57435745 4285095773
0.44828039 -0.023055568 0.57424641 4285293665
0.44858676 -0.023468338 0.57424819 4283451461
0.44882274 -0.023925446 0.5741936 4281807418
0.44912893 -0.024338007 0.57419538 4281083436
0.44943511 -0.024750568 0.57419723 4282661947
0.44974127 -0.025163129 0.57419902 4282465336
0.45004743 -0.02557569 0.57420087 4282794301
0.45035362 -0.025988258 0.57420266 4284372312
0.45073104 -0.026357733 0.57426095 4286346353
0.42293489 -0.019813761 0.56109273 4284046403
0.42333588 -0.020075507 0.56120676 4284111694
0.42367265 -0.020389989 0.56126451 4283980110
0.42400971 -0.020704895 0.56132233 4283980110
0.4243471 -0.021020204 0.56138015 4284176206
0.42475012 -0.021284662 0.56149417 4284373837
0.42515376 -0.021549955 0.5616082 4284439628
0.42549238 -0.021866925 0.56166601 4284571214
0.42596287 -0.022083029 0.56183624 4284768593
0.42636836 -0.022350818 0.56195027 4284834386
0.42684057 -0.022569202 0.5621205 4284900179
0.44669318 -0.018534847 0.57457209 4279111952
0.44693279 -0.018997014 0.57451767 4279506710
0.44710308 -0.019505054 0.5744071 4279375124
0.44727272 -0.020012252 0.57429647 4279177998
0.44737241 -0.020564474 0.57412964 4279705364
0.44761014 -0.021024145 0.57407522 4280100122
0.44777793 -0.021528848 0.5739646 4280625946
0.44794512 -0.022032715 0.57385397 4281875509
0.44818163 -0.022490732 0.57379961 4283977292
0.44841784 -0.022948325 0.57374519 4284107343
0.44865376 -0.023405485 0.57369077 4282462518
0.4489598 -0.023817845 0.57369256 4281411377
0.44919521 -0.024274401 0.5736382 4280622885
0.4495011 -0.024686545 0.57363999 4282069810
0.44980696 -0.025098689 0.57364184 4281279779
0.45018387 -0.025467262 0.57369983 4282464053
0.45048988 -0.025879614 0.57370168 4284306519
0.45079589 -0.026291974 0.57370353 4286544504
0.45117342 -0.026661389 0.57376152 4286676088
0.42258927 -0.01952336 0.56047273 4284111946
0.42292491 -0.019836105 0.5605303 4284111946
0.42332566 -0.020097069 0.56064385 4284111948
0.42366207 -0.020410858 0.56070143 4284045901
0.42399877 -0.020725049 0.56075901 4284045901
0.42440107 -0.020988107 0.56087255 4284373583
0.424804 -0.021251991 0.56098616 4284439376
0.42514193 -0.021567859 0.56104374 4284571216
0.42561167 -0.021782272 0.56121325 4284637009
0.42601645 -0.022048645 0.56132686 4284703315
0.42648789 -0.022265352 0.56149638 4284703313
0.42689407 -0.02253361 0.56160998 4284834899
0.44690222 -0.018381707 0.57412392 4279177745
0.44707274 -0.018890515 0.57401377 4279506710
0.44731176 -0.019352138 0.57395959 4279309331
0.44741189 -0.019905642 0.57379347 4279177998
0.44765002 -0.020366006 0.57373929 4279704594
0.44774863 -0.020917423 0.57357311 4280099352
0.44791606 -0.021422073 0.57346296 4280494360
0.44808286 -0.021925889 0.57335275 4281678902
0.44831914 -0.022383772 0.57329857 4283254082
0.44848487 -0.02288612 0.57318842 4283976780
0.44872037 -0.02334296 0.57313424 4281608756
0.44902608 -0.023754895 0.57313603 4281082412
0.44933179 -0.024166837 0.57313788 4280820777
0.4496375 -0.024578772 0.57313967 4282069557
0.44994321 -0.024990715 0.57314152 4281016609
0.4502489 -0.02540265 0.5731433 4282529848
0.45062593 -0.025771149 0.57320112 4285096809
0.45093179 -0.026183292 0.57320297 4286675837
0.45130926 -0.026552409 0.57326078 4287136639
0.42264366 -0.019494183 0.55996764 4284374870
0.42304385 -0.01975397 0.56008071 4284111698
0.42337972 -0.020066842 0.56013805 4284111698
0.42371595 -0.020380124 0.56019545 4283914319
0.42411768 -0.02064199 0.56030852 4283980112
0.42452002 -0.020904683 0.56042165 4284307790
0.424923 -0.021168217 0.56053472 4284373583
0.42532659 -0.021432571 0.56064785 4284439630
0.42579666 -0.021646753 0.56081671 4284637009
0.42620164 -0.021912985 0.56092983 4284703315
0.42667338 -0.022129461 0.56109869 4284703313
0.42707974 -0.022397563 0.56121182 4284769106
0.4469403 -0.01771877 0.57378548 4279243019
0.44704229 -0.018275402 0.57362002 4279374605
0.44735062 -0.018690884 0.57362187 4279375124
0.44745123 -0.019245654 0.57345641 4279243538
0.4476203 -0.019752957 0.57334667 4279177998
0.44771922 -0.020305432 0.57318115 4279573008
0.44795659 -0.020765044 0.57312727 4279967766
0.44805396 -0.021315448 0.57296175 4280296727
0.44829041 -0.021773815 0.57290781 4281481523
0.44845644 -0.022276945 0.57279807 4282729275
0.44862181 -0.022779256 0.57268834 4282793531
0.44885701 -0.023235954 0.57263434 4281149227
0.4491626 -0.023647688 0.57263619 4280622883
0.44946814 -0.024059415 0.57263798 4280557603
0.4497737 -0.024471149 0.57263982 4281215531
0.45007926 -0.024882875 0.57264161 4281740594
0.45045605 -0.025250889 0.57269919 4282530110
0.45076177 -0.025662825 0.57270104 4286544255
0.45106748 -0.02607476 0.57270288 4286873469
0.45144489 -0.026443593 0.57276046 4287729289
0.4516789 -0.026898645 0.57270646 4286873216
0.42316258 -0.019671991 0.55963159 4284243030
0.42349839 -0.019984581 0.55968869 4284177237
0.42383456 -0.020297587 0.55974585 4284242001
0.42417103 -0.020610996 0.55980295 4284242001
0.42457327 -0.020873122 0.5599156 4284241997
0.42504179 -0.021084577 0.56008381 4284373583
0.42544544 -0.021348581 0.56019646 4284374096
0.42591566 -0.021562323 0.56036466 4284637268
0.4263868 -0.021777317 0.56053287 4284703061
0.42685884 -0.021993563 0.56070107 4284703315
0.44708064 -0.017612599 0.57328141 4279570959
0.4472512 -0.018122338 0.57317215 4279702545
0.44749033 -0.018584535 0.57311839 4279834652
0.44759047 -0.019139327 0.57295358 4279966491
0.44775921 -0.01964657 0.57284433 4279900949
0.4479273 -0.020152979 0.57273507 4279769617
0.44802496 -0.020704441 0.57257026 4279966996
0.44819164 -0.021208979 0.57246095 4280230936
0.44835776 -0.021712676 0.57235169 4280954407
0.44852322 -0.022215553 0.57224244 4281939246
0.44875848 -0.022672541 0.57218868 4282334002
0.44899344 -0.023129113 0.57213497 4281017890
0.44922811 -0.023585275 0.57208121 4280557339
0.44953337 -0.023996592 0.572083 4280098079
0.44983864 -0.024407908 0.57208484 4280624421
0.45021507 -0.024775207 0.57214218 4281282347
0.45059183 -0.025142923 0.57219958 4283123268
0.4508974 -0.02555465 0.57220137 4283320647
0.4512746 -0.025922999 0.57225877 4286610295
0.45158032 -0.026334934 0.57226056 4287006336
0.45188603 -0.026746877 0.57226241 4286610557
0.42328107 -0.019590169 0.55918288 4284374868
0.42361689 -0.019902475 0.55923975 4284308305
0.42395297 -0.020215183 0.55929667 4284438608
0.42435482 -0.020476326 0.5594089 4284438608
0.4247573 -0.020738304 0.55952108 4284241481
0.42516038 -0.021001101 0.55963331 4284374866
0.42562997 -0.021213375 0.5598008 4284374866
0.42610049 -0.021426886 0.55996835 4284506452
0.42657197 -0.021641649 0.56013584 4284572245
0.42697799 -0.02190841 0.56024808 4284704085
0.4472208 -0.017506592 0.57277769 4279440143
0.44746011 -0.017969273 0.57272422 4279571729
0.44756055 -0.018525131 0.57256007 4280098081
0.44772953 -0.019033156 0.57245129 4280098077
0.44782829 -0.019586712 0.57228714 4280229916
0.44806558 -0.020046689 0.57223362 4279966742
0.44823271 -0.020552218 0.57212484 4280098328
0.44825909 -0.021148406 0.57190531 4280295707
0.44842464 -0.021651857 0.57179654 4280887844
0.44865999 -0.022109121 0.57174301 4281676333
0.44882447 -0.022611119 0.57163417 4282334002
0.4491297 -0.023022428 0.57163596 4281148958
0.44943494 -0.023433745 0.57163775 4280688407
0.4497402 -0.023845054 0.5716396 4280098330
0.45004547 -0.024256371 0.57164139 4280296228
0.4503507 -0.024667688 0.57164323 4280756777
0.45079887 -0.024991237 0.57175571 4281151535
0.45110443 -0.025402971 0.5717575 4282202679
0.45141 -0.025814697 0.57175934 4286676088
0.45171553 -0.026226424 0.57176113 4286743164
0.45209318 -0.026595116 0.57181829 4286282362
0.42373514 -0.019820511 0.55879128 4284374098
0.42407119 -0.020132951 0.55884796 4284570192
0.42447311 -0.020393729 0.55895972 4284438606
0.42487562 -0.020655334 0.55907148 4284438860
0.42527875 -0.020917781 0.55918324 4284505684
0.42581451 -0.021078162 0.55940515 4284440409
0.42628536 -0.02129145 0.55957204 4284374616
0.42675713 -0.021505982 0.55973887 4284637788
0.44736069 -0.017400734 0.57227451 4279835158
0.44753054 -0.017910369 0.57216614 4279835158
0.44769976 -0.018419161 0.57205778 4280164642
0.44786835 -0.018927127 0.57194936 4280164640
0.44803637 -0.019434258 0.571841 4280230686
0.44820371 -0.019940563 0.57173264 4280296477
0.44830042 -0.020492069 0.5715692 4280428063
0.44839627 -0.021042317 0.57140571 4280164891
0.44863176 -0.021500088 0.57135242 4280494110
0.44879651 -0.022002853 0.571244 4280953632
0.44903129 -0.022459581 0.57119071 4282268207
0.44926572 -0.022915885 0.57113743 4281741093
0.44957083 -0.023326993 0.57113928 4280622612
0.44987592 -0.023738101 0.57114106 4279965715
0.45025226 -0.024104841 0.57119799 4279769884
0.45055753 -0.024516158 0.57119977 4280494377
0.45093432 -0.024883509 0.57125676 4281084715
0.45123971 -0.025295034 0.57125854 4281150508
0.451617 -0.025663011 0.57131547 4287464587
0.45192257 -0.026074737 0.57131726 4288256152
0.45222813 -0.026486471 0.5713191 4286216569
0.42432016 -0.01994615 0.55850941 4284570194
0.42465681 -0.020259134 0.55856586 4284504401
0.42505953 -0.02052059 0.5586772 4284373583
0.42552882 -0.020731144 0.55884337 4284571475
0.42599905 -0.020942956 0.55900955 4284374100
0.42653647 -0.021104701 0.55923057 4284308307
0.44743121 -0.017342396 0.57171685 4280098330
0.44760054 -0.017851762 0.5716089 4280098330
0.44776922 -0.018360294 0.57150102 4280296226
0.44793731 -0.018867992 0.57139307 4280165663
0.4481048 -0.019374862 0.57128519 4280165663
0.44827163 -0.019880898 0.57117724 4280297247
0.44843787 -0.020386115 0.5710693 4280164893
0.44853321 -0.020936392 0.57090652 4280164893
0.4487685 -0.021394022 0.57085347 4280428063
0.44893286 -0.021896735 0.57074547 4280822044
0.44923812 -0.022308044 0.57074732 4281873703
0.44947246 -0.022764429 0.57069427 4282070312
0.44970649 -0.023220405 0.57064116 4280688659
0.45001143 -0.023631305 0.57064301 4279965202
0.45038772 -0.023997746 0.57069969 4279769112
0.45076436 -0.02436462 0.57075638 4280559400
0.45114124 -0.024731897 0.57081306 4281018152
0.45144665 -0.025143422 0.57081491 4281018152
0.45182404 -0.025511324 0.57087159 4283977306
0.4521296 -0.025923051 0.57087338 4287991699
0.45243514 -0.026334785 0.57087523 4286216822
0.4475013 -0.017284356 0.57116008 4280361502
0.4476701 -0.017793462 0.57105261 4280361502
0.44790792 -0.018254705 0.5709998 4280427295
0.44807562 -0.01876235 0.57089233 4280296479
0.44824272 -0.019269176 0.57078487 4280428835
0.4484092 -0.01977516 0.5706774 4280297247
0.44857511 -0.020280302 0.57056987 4280558881
0.44874036 -0.020784624 0.57046241 4280427295
0.4489755 -0.021242335 0.5704096 4280427295
0.44913968 -0.021745197 0.57030207 4280427547
0.44944492 -0.022156514 0.57030392 4281477921
0.4496792 -0.022612974 0.57025105 4282003756
0.44998425 -0.023024082 0.5702529 4281674791
0.45028937 -0.023435183 0.57025468 4280292119
0.45059446 -0.023846291 0.57025647 4279571729
0.45097116 -0.024213083 0.57031298 4280032280
0.45127642 -0.0246244 0.57031476 4281017890
0.4516536 -0.02499181 0.57037127 4281017890
0.45195898 -0.025403328 0.57037306 4282200118
0.45233664 -0.025771365 0.57042956 4284964189
0.45228022 -0.026399493 0.570158 4285953130
0.44764042 -0.017179117 0.57065868 4280558628
0.4477393 -0.017735466 0.57049721 4280558628
0.44797665 -0.018196374 0.57044464 4280624421
0.44814387 -0.018703766 0.57033759 4280624674
0.44831043 -0.019210316 0.57023054 4280756258
0.44847643 -0.019716032 0.57012355 4280624926
0.44871211 -0.020174652 0.57007092 4280624415
0.44887698 -0.020678915 0.56996387 4280492829
0.44911188 -0.0211365 0.5699113 4280427295
0.44934648 -0.021593668 0.56985867 4280295707
0.44965175 -0.022004984 0.56986046 4280756001
0.4498859 -0.022461519 0.56980789 4281348140
0.45019099 -0.022872627 0.56980968 4281413933
0.45049608 -0.023283727 0.56981146 4280164118
0.45087272 -0.023650236 0.56986773 4279506445
0.45117798 -0.024061553 0.56986952 4279769363
0.45148325 -0.02447287 0.56987137 4281148960
0.45186049 -0.024840198 0.56992763 4281543718
0.45209372 -0.025295496 0.569875 4282266676
0.45254368 -0.025619678 0.56998569 4285424489
0.44780803 -0.017677777 0.56994271 4280756003
0.44804502 -0.018138357 0.56989032 4280690467
0.44821167 -0.018645473 0.56978375 4280690467
0.44844788 -0.01910501 0.56973135 4280756258
0.44861346 -0.019610666 0.56962478 4280559133
0.4488489 -0.02006916 0.56957245 4280624415
0.44908404 -0.020527229 0.56952 4280492829
0.44931883 -0.020984888 0.56946766 4280427038
0.44955331 -0.021442138 0.56941521 4280229916
0.44985858 -0.021853447 0.56941706 4280624674
0.45016381 -0.022264764 0.56941885 4280887846
0.45046908 -0.022676073 0.5694207 4281216811
0.45077431 -0.02308739 0.56942248 4280624924
0.4510079 -0.02354338 0.56937009 4279375627
0.45138481 -0.023910023 0.56942612 4279703570
0.45169005 -0.024321333 0.56942797 4281148706
0.45199531 -0.024732649 0.56942976 4281609257
0.45244515 -0.025056265 0.56954002 4282464568
0.44811291 -0.018080637 0.56933695 4280952347
0.44834915 -0.018540449 0.5692848 4280756253
0.44851485 -0.019046679 0.5691787 4280756512
0.44875032 -0.019505456 0.56912649 4280427547
0.44905603 -0.019917391 0.56912833 4280361500
0.44929105 -0.020375542 0.56907618 4280295707
0.44952574 -0.020833276 0.56902397 4280163870
0.44976014 -0.0212906 0.56897181 4279966491
0.45006537 -0.021701917 0.56897366 4280164123
0.45037064 -0.022113226 0.56897545 4280099100
0.4506759 -0.022524543 0.56897724 4280296479
0.45098114 -0.02293586 0.56897908 4280954661
0.45128638 -0.023347169 0.56898087 4280494108
0.45159161 -0.023758486 0.56898272 4281808173
0.45196897 -0.024125457 0.56903851 4284438358
0.45227438 -0.024536982 0.5690403 4283648842
0.44841623 -0.018482693 0.56873256 4280952860
0.44865176 -0.018941753 0.56868058 4280756512
0.44895747 -0.019353695 0.56868243 4280295707
0.44919252 -0.019812122 0.56863046 4280295707
0.44949809 -0.020223856 0.5686323 4280295707
0.44980365 -0.020635583 0.56863409 4279966491
0.45010918 -0.021047316 0.56863594 4279900700
0.45034349 -0.021504715 0.56858397 4279966493
0.45064887 -0.021916233 0.56858581 4279835675
0.4508827 -0.022373013 0.56853384 4280098847
0.45125967 -0.022739284 0.56858945 4281151016
0.45156509 -0.023150802 0.56859124 4282861636
0.45179844 -0.023606956 0.56853926 4284439380
0.45217589 -0.023973845 0.56859487 4284504403
0.45255363 -0.024341159 0.56865042 4284372817
0.44885892 -0.018789992 0.56823653 4281150258
0.4491646 -0.019201927 0.56823832 4280295709
0.44939956 -0.019660436 0.56818658 4280099100
0.44970512 -0.02007217 0.56818843 4279835928
0.44993961 -0.02053006 0.56813669 4279639066
0.45031625 -0.02089563 0.56819206 4279573023
0.45062178 -0.021307357 0.56819385 4279507484
0.45085579 -0.021764629 0.56814218 4279572503
0.45123291 -0.022130817 0.56819749 4279835675
