# .PCD v0.7 - Point Cloud Data file format
VERSION 0.7
FIELDS x y z rgb
SIZE 4 4 4 4
TYPE F F F U
COUNT 1 1 1 1
WIDTH 1047
HEIGHT 1
VIEWPOINT 0 0 0 1 0 0 0
POINTS 1047
DATA ascii
0.44234991 -0.024668708 0.59617114 4282400306
0.44161987 -0.024697661 0.59617507 4282203699
0.44082764 -0.024641812 0.59618127 4281807668
0.44009537 -0.024671495 0.59618521 4282202677
0.43930042 -0.02461651 0.59619135 4282268470
0.43850398 -0.024562016 0.59619755 4282466103
0.43776831 -0.024592847 0.59620148 4282729797
0.43696916 -0.024539232 0.59620762 4282928199
0.43623126 -0.024570793 0.59621155 4282862406
0.43549234 -0.024602666 0.59621549 4283254334
0.43468928 -0.024550349 0.59622169 4283647547
0.43401161 -0.024667367 0.59622335 4283450686
0.43326974 -0.024700209 0.59622729 4283386692
0.43259084 -0.024817631 0.59622896 4283847243
0.47023499 -0.022891492 0.59665734 4283254332
0.4696953 -0.023173735 0.59665424 4282596908
0.46920747 -0.023544192 0.59664869 4282135592
0.46861738 -0.023737729 0.59664816 4282398764
0.46807915 -0.024019495 0.59664512 4283189824
0.4675414 -0.024301082 0.59664208 4283255104
0.46695179 -0.024494454 0.59664154 4283320379
0.46636221 -0.024687827 0.596641 4283385909
0.46571973 -0.024793312 0.59664297 4283122737
0.46512988 -0.024986774 0.59664249 4282400299
0.46448666 -0.025092483 0.59664446 4281808941
0.4637894 -0.025110722 0.59664893 4281414183
0.46314496 -0.025216833 0.5966509 4281807910
0.46244594 -0.025235638 0.59665537 4282071082
0.46169162 -0.025167331 0.59666234 4282531381
0.4609358 -0.025099516 0.59666938 4282662967
0.46023333 -0.025119454 0.59667385 4283189309
0.4594748 -0.025052518 0.59668082 4283123516
0.45871481 -0.024986088 0.59668779 4283122485
0.45795333 -0.024920121 0.59669477 4283714358
0.45719039 -0.02485466 0.59670174 4283845946
0.45642596 -0.024789661 0.59670877 4284043325
0.45577267 -0.024898693 0.59671068 4283846462
0.45511886 -0.025007904 0.59671265 4283255354
0.45446458 -0.025117248 0.59671462 4283255354
0.45375276 -0.025140226 0.59671909 4283649342
0.45298269 -0.025077105 0.59672606 4283912514
0.45226866 -0.025100812 0.59673053 4283978048
0.45149586 -0.02503857 0.5967375 4283912255
0.45077962 -0.025063038 0.59674197 4283912255
0.4500041 -0.025001675 0.59674895 4283912766
0.44922709 -0.024940804 0.59675592 4283781180
0.44844866 -0.024880424 0.5967629 4283781180
0.44766873 -0.024820521 0.59676987 4283781180
0.44688728 -0.024761096 0.59677684 4283716157
0.44616392 -0.024787903 0.59678131 4283716157
0.44543955 -0.024814993 0.59678572 4283912766
0.44471419 -0.024842441 0.59679019 4283976764
0.44398785 -0.024870172 0.59679466 4283318330
0.44320002 -0.024812877 0.59680164 4282791986
0.44241074 -0.024756044 0.59680855 4282400310
0.44168094 -0.024784923 0.59681302 4282269492
0.44088894 -0.024728969 0.59682 4281939507
0.44009548 -0.024673507 0.59682691 4281939507
0.43936223 -0.024703532 0.59683138 4282136886
0.43856603 -0.024648964 0.59683836 4282465849
0.4377684 -0.024594873 0.59684527 4282598464
0.43703172 -0.024626017 0.59684974 4282796611
0.43629402 -0.024657488 0.59685421 4282730818
0.43555537 -0.024689287 0.59685862 4283188028
0.43481576 -0.024721399 0.59686309 4283516477
0.4340117 -0.024669409 0.59687001 4283188028
0.43333352 -0.024786592 0.59687197 4283386438
0.43265486 -0.024903953 0.59687388 4283518024
0.47082591 -0.022699669 0.59727967 4284042825
0.47038776 -0.023159072 0.59727079 4283517506
0.46979764 -0.023352608 0.59727025 4282662447
0.46925893 -0.023634538 0.59726697 4282004006
0.4687207 -0.023916289 0.59726363 4282201385
0.46818298 -0.024197891 0.59726036 4283255104
0.4676457 -0.0244793 0.59725708 4283320897
0.4670566 -0.024672523 0.59725654 4283385920
0.46641487 -0.02477777 0.59725875 4283385911
0.46577269 -0.024883166 0.59726101 4283056946
0.46512997 -0.024988726 0.59726322 4282400297
0.46448678 -0.02509445 0.59726548 4281874986
0.46384308 -0.025200337 0.59726769 4281545767
0.46314505 -0.0252188 0.59727269 4281939496
0.46244603 -0.02523759 0.5972777 4282005289
0.46174604 -0.025256723 0.59728271 4282728762
0.46099046 -0.025188833 0.59729046 4282532412
0.46023342 -0.025121421 0.5972982 4283190594
0.45947489 -0.0250545 0.59730601 4282993215
0.4587149 -0.024988055 0.59731376 4283320379
0.45795342 -0.024922103 0.59732151 4283779901
0.45719048 -0.024856627 0.59732926 4283910717
0.45648211 -0.024878502 0.59733427 4283976510
0.45577276 -0.024900675 0.59733927 4283846210
0.45511895 -0.025009885 0.59734148 4283451965
0.45446467 -0.02511923 0.59734368 4283649342
0.45375285 -0.025142208 0.59734869 4283846208
0.45304006 -0.025165543 0.5973537 4283977794
0.45226872 -0.025102809 0.59736145 4283977794
0.4515537 -0.02512686 0.59736639 4283912768
0.45077968 -0.025065035 0.59737414 4283912514
0.45000419 -0.025003672 0.59738189 4283846721
0.44922721 -0.0249428 0.59738964 4283846721
0.44844875 -0.024882436 0.59739739 4283649596
0.44766879 -0.024822533 0.59740514 4283453500
0.44688737 -0.024763107 0.59741288 4283454268
0.44616401 -0.0247899 0.59741783 4283454268
0.44543964 -0.024817005 0.59742284 4283650879
0.44471428 -0.024844438 0.59742779 4283845958
0.44392768 -0.024786711 0.59743553 4283713858
0.44320011 -0.024814889 0.59744054 4283516479
0.44241083 -0.024758056 0.59744823 4282859576
0.44168103 -0.024786934 0.59745324 4282466103
0.44088903 -0.024730995 0.59746099 4282334263
0.44015703 -0.024760619 0.59746593 4282465849
0.43936232 -0.024705559 0.59747368 4282729021
0.43856612 -0.024650991 0.59748137 4283057986
0.43783069 -0.024681732 0.59748638 4283123779
0.43709424 -0.024712801 0.59749132 4282993217
0.43629411 -0.024659514 0.59749901 4282927424
0.43568137 -0.024860471 0.59749848 4282991932
0.43481582 -0.02472344 0.59750897 4283255102
0.43413866 -0.02484031 0.59751117 4283320125
0.43339729 -0.024872974 0.59751612 4283648579
0.4327189 -0.024990246 0.59751832 4284832853
0.4709779 -0.022967502 0.59789234 4284240202
0.47043872 -0.023249581 0.59788877 4283649094
0.46984887 -0.023443043 0.59788823 4282859574
0.4693104 -0.023724869 0.59788471 4282005037
0.46877241 -0.024006546 0.59788114 4282202416
0.46823493 -0.024288058 0.59787756 4283255104
0.46764582 -0.024481267 0.59787703 4283320897
0.46705669 -0.024674475 0.59787649 4283516993
0.46646759 -0.024867684 0.59787595 4283450936
0.46582562 -0.02497302 0.59787846 4283187764
0.46513003 -0.024990693 0.597884 4282531113
0.46454018 -0.02518414 0.59788346 4282005541
0.46389675 -0.025289938 0.59788597 4281807910
0.46319896 -0.025308341 0.59789145 4282333482
0.46250021 -0.025327042 0.59789699 4282070310
0.4617461 -0.02525869 0.59790552 4282925371
0.46099055 -0.0251908 0.5979141 4282598205
0.46023351 -0.025123388 0.59792262 4283453766
0.45947498 -0.025056466 0.59793115 4283190594
0.45871496 -0.024990037 0.59793967 4283385918
0.45795351 -0.024924085 0.59794825 4283714624
0.45724636 -0.024945527 0.59795374 4283779903
0.45648217 -0.024880484 0.59796226 4283714110
0.45577282 -0.024902657 0.5979678 4283912003
0.45511901 -0.025011867 0.59797025 4283386942
0.45446476 -0.025121212 0.59797275 4283650114
0.45375293 -0.02514419 0.59797823 4283846210
0.45309743 -0.025253981 0.59798074 4283912003
0.45232636 -0.025191158 0.59798926 4283912001
0.45161158 -0.025215134 0.59799474 4283912514
0.45083779 -0.025153205 0.59800327 4283913284
0.45006254 -0.025091782 0.59801179 4283716159
0.44928581 -0.025030836 0.59802032 4283781952
0.44850761 -0.024970397 0.59802884 4283387194
0.44766888 -0.02482453 0.5980404 4283387707
0.44694674 -0.024850905 0.59804589 4283454268
0.44616407 -0.024791911 0.59805441 4283454268
0.4454397 -0.024819016 0.59805989 4283584832
0.44477436 -0.024931997 0.5980624 4283846471
0.44398803 -0.02487421 0.59807092 4283714370
0.4432002 -0.0248169 0.59807944 4283714370
0.44241089 -0.024760082 0.59808791 4283254586
0.44168112 -0.024788961 0.59809339 4282662967
0.44088912 -0.024733022 0.59810191 4282860094
0.44015712 -0.02476263 0.5981074 4282729275
0.4394241 -0.024792582 0.59811288 4282926654
0.43862817 -0.024737909 0.5981214 4283255106
0.43783075 -0.024683759 0.59812993 4283189826
0.43709433 -0.024714842 0.59813541 4283124033
0.43641961 -0.024830893 0.59813786 4283123518
0.43561852 -0.024777934 0.59814638 4282991932
0.43487912 -0.024809986 0.59815186 4283255356
0.43420219 -0.024926752 0.59815431 4283189563
0.43352476 -0.025043711 0.59815675 4283582272
0.47048968 -0.023340076 0.59850627 4283583047
0.46995121 -0.023621917 0.59850246 4282926141
0.46936184 -0.023815215 0.59850192 4282662967
0.46882412 -0.024096787 0.59849811 4282662967
0.46823502 -0.02429001 0.59849757 4283517506
0.46775013 -0.0246595 0.59849048 4283583301
0.46710914 -0.024764493 0.59849322 4283648581
0.46652028 -0.024957627 0.59849268 4283450938
0.46582568 -0.024974972 0.5984987 4283253559
0.46513012 -0.024992645 0.59850478 4282530600
0.46454027 -0.025186107 0.59850425 4282267426
0.46384323 -0.025204256 0.59851027 4282267426
0.46319905 -0.025310308 0.59851301 4282465322
0.46244618 -0.025241524 0.59852231 4282531115
0.46174619 -0.025260657 0.59852839 4282663219
0.46093604 -0.025105432 0.59854096 4282860859
0.46023357 -0.025125355 0.59854698 4283650114
0.45947507 -0.025058448 0.59855634 4283518528
0.45871505 -0.024992004 0.59856564 4283517243
0.45800915 -0.025013059 0.59857166 4283648831
0.45724642 -0.024947509 0.59858096 4283516991
0.45648226 -0.024882466 0.59859031 4283582784
0.4558292 -0.024991408 0.59859306 4283846723
0.45511913 -0.025013849 0.59859908 4283780928
0.45452166 -0.025209799 0.59859854 4283649860
0.45386711 -0.025319248 0.59860128 4283911749
0.4531548 -0.02534239 0.5986073 4283977542
0.45238397 -0.025279522 0.5986166 4283912001
0.45161167 -0.025217116 0.5986259 4283846975
0.45083788 -0.025155187 0.5986352 4283978561
0.45006263 -0.025093779 0.5986445 4283977794
0.44928589 -0.025032833 0.59865379 4283912001
0.44850767 -0.024972394 0.59866309 4283385659
0.44772798 -0.024912402 0.59867239 4283451711
0.4469468 -0.024852917 0.59868169 4283650114
0.44616416 -0.024793923 0.59869099 4283650114
0.44549954 -0.024906665 0.59869373 4283650114
0.44477445 -0.024934009 0.59869975 4283912001
0.44398808 -0.024876222 0.59870905 4284043073
0.44326076 -0.024904311 0.59871501 4283846208
0.44247171 -0.024847403 0.59872431 4283648829
0.44168121 -0.024790972 0.5987336 4283518274
0.44095042 -0.024820194 0.59873962 4283255617
0.44015718 -0.024764657 0.59874892 4283386688
0.43942419 -0.024794608 0.59875488 4283320895
0.43862826 -0.024739951 0.59876418 4283518274
0.43789306 -0.024770617 0.5987702 4283386688
0.43715686 -0.024801612 0.59877622 4283321408
0.4364197 -0.024832934 0.59878218 4283123518
0.43568152 -0.024864554 0.5987882 4283123518
0.43500561 -0.024981022 0.59879094 4283255104
0.43420225 -0.024928793 0.59880018 4283255104
0.43352485 -0.025045753 0.59880292 4285293414
0.47000241 -0.023712322 0.59911913 4283122748
0.46946469 -0.023993909 0.59911507 4283057207
0.46882421 -0.024098754 0.59911805 4283057207
0.46828696 -0.024380177 0.599114 4283517504
0.4676981 -0.024573311 0.59911346 4283452483
0.46710923 -0.024766445 0.59911293 4283583301
0.46652037 -0.024959579 0.59911239 4283188280
0.46582577 -0.024976939 0.59911895 4283056694
0.46513021 -0.024994612 0.5991255 4282662184
0.46454036 -0.025188059 0.59912497 4282727977
0.46384332 -0.025206223 0.59913152 4282662699
0.46314529 -0.025224686 0.59913808 4282859828
0.46244627 -0.025243491 0.59914464 4282859828
0.46169192 -0.025175199 0.59915477 4282662965
0.46093613 -0.025107399 0.59916484 4282663478
0.46017882 -0.025040075 0.59917492 4283387192
0.45947516 -0.025060415 0.59918147 4283518778
0.45871514 -0.024993986 0.59919161 4283714874
0.45795366 -0.024928033 0.59920168 4283714110
0.45724654 -0.024949491 0.59920824 4283320379
0.45653841 -0.024971291 0.59921479 4283386172
0.45582929 -0.02499339 0.59922129 4283583551
0.45517576 -0.025102496 0.59922433 4283386170
0.45452172 -0.025211781 0.59922731 4283648317
0.4538672 -0.02532123 0.59923029 4283714372
0.45321217 -0.025430813 0.59923333 4283648579
0.4524416 -0.025367871 0.5992434 4283845956
0.45172733 -0.025391668 0.59924996 4283648829
0.45095402 -0.02532959 0.59926003 4283649083
0.45017925 -0.025268018 0.59927011 4283977794
0.44934449 -0.025120884 0.5992837 4283912001
0.4485665 -0.025060326 0.59929377 4283451200
0.44784608 -0.025086164 0.59930032 4283451711
0.44700614 -0.024940729 0.59931391 4283517756
0.44628325 -0.024967343 0.59932047 4283780928
0.44549963 -0.024908677 0.59933054 4283583549
0.44483453 -0.025021583 0.59933352 4283977534
0.44410866 -0.02504918 0.59934008 4284108350
0.44332135 -0.024991706 0.59935015 4283977280
0.44241107 -0.024764121 0.59936726 4283779901
0.44168127 -0.024792999 0.59937382 4283715653
0.44095051 -0.02482222 0.59938031 4283518274
0.44021875 -0.024851754 0.59938687 4283715653
0.43942428 -0.024796635 0.59939694 4283452481
0.4386903 -0.024826884 0.59940344 4283781700
0.43789315 -0.024772644 0.59941351 4283518528
0.43715695 -0.024803638 0.59942001 4283452735
0.43648249 -0.024919629 0.59942299 4283518274
0.43574458 -0.024951175 0.59942955 4283518274
0.43500566 -0.024983048 0.59943604 4283649090
0.4694134 -0.023907483 0.5997386 4283254332
0.46887589 -0.02418901 0.59973425 4283122746
0.46833891 -0.024470359 0.5997299 4283188280
0.46780241 -0.024751559 0.5997256 4283386172
0.46716166 -0.024856463 0.59972888 4283385920
0.46652043 -0.024961531 0.5997321 4283188280
0.46582586 -0.024978891 0.59973919 4282990901
0.4651303 -0.024996564 0.59974629 4282727977
0.46448708 -0.025102288 0.59974957 4282925356
0.46378979 -0.025120527 0.5997566 4282859826
0.46314538 -0.025226653 0.59975988 4282925621
0.46233818 -0.025070474 0.5997746 4282925621
0.46163768 -0.025089771 0.59978163 4282531379
0.46088162 -0.02502203 0.59979254 4282597939
0.46017891 -0.025042042 0.59979957 4283256119
0.45942014 -0.02497521 0.59981048 4283387705
0.4587152 -0.024995953 0.59981751 4283714874
0.45795375 -0.024930015 0.59982836 4283583036
0.4572466 -0.024951473 0.59983546 4283254584
0.4565385 -0.024973273 0.59984255 4283320377
0.45588568 -0.025082141 0.59984577 4283386940
0.45523238 -0.025191173 0.59984905 4283122998
0.45457858 -0.025300369 0.59985232 4283516729
0.4539243 -0.025409728 0.59985554 4283516991
0.45321226 -0.025432795 0.59986264 4283516991
0.45249921 -0.02545622 0.59986967 4283846210
0.45184296 -0.02556622 0.59987295 4283648829
0.45107016 -0.025503978 0.59988379 4283583036
0.45035416 -0.025528356 0.59989089 4283977794
0.44952014 -0.025380984 0.59990549 4283912001
0.44868416 -0.025234252 0.59992015 4283516991
0.44790518 -0.025174052 0.599931 4283451198
0.44706547 -0.025028527 0.59994566 4283583036
0.44628334 -0.024969339 0.59995651 4283912001
0.44555947 -0.024996325 0.59996355 4283649083
0.4447746 -0.024938032 0.59997439 4283977534
0.44404849 -0.024965718 0.59998149 4284108350
0.44332141 -0.024993718 0.59998852 4283977282
0.44247189 -0.024851426 0.60000318 4283779903
0.44168136 -0.024795011 0.60001397 4283715653
0.4409506 -0.024824232 0.60002106 4283780928
0.44015735 -0.02476871 0.60003191 4283978307
0.43942437 -0.024798661 0.60003895 4284044100
0.43869039 -0.024828911 0.60004598 4283846721
0.43789321 -0.024774671 0.60005683 4283714622
0.4372195 -0.024890423 0.60006005 4284044100
0.43648258 -0.024921656 0.60006708 4283912514
0.43574467 -0.024953201 0.60007411 4283846721
0.46892762 -0.024279267 0.6003499 4283320125
0.46839088 -0.024560541 0.60034531 4283188026
0.46780249 -0.024753511 0.60034478 4283385918
0.46716177 -0.024858415 0.60034829 4283320125
0.46652052 -0.024963498 0.60035187 4283188280
0.46577308 -0.024892956 0.60036349 4282925108
0.46513039 -0.024998516 0.60036707 4282925358
0.46443382 -0.025016516 0.60037464 4283056692
0.4637363 -0.02503483 0.60038221 4283056694
0.46298391 -0.024965897 0.60039389 4283056694
0.46228415 -0.024984956 0.60040146 4282926391
0.46152908 -0.024916902 0.60041314 4282663219
0.46077254 -0.024849355 0.60042477 4282597939
0.46012416 -0.024956763 0.60042828 4283321399
0.45936516 -0.024890035 0.60043997 4283650364
0.45865998 -0.024910837 0.60044754 4283583799
0.45795384 -0.024931997 0.60045511 4283583036
0.45724669 -0.024953455 0.60046268 4283188278
0.45653856 -0.024975255 0.6004703 4283188278
0.45582944 -0.024997354 0.60047787 4283124020
0.45517594 -0.025106475 0.60048139 4283123250
0.45452189 -0.02521576 0.60048491 4283451702
0.45386735 -0.025325194 0.60048842 4283320118
0.45321235 -0.025434792 0.60049194 4283385911
0.45255682 -0.025544554 0.60049546 4283714622
0.45184305 -0.025568217 0.60050303 4283451963
0.45107025 -0.02550596 0.60051465 4283386170
0.45029595 -0.025444224 0.60052633 4283319350
0.44957873 -0.02546902 0.6005339 4283516729
0.44880176 -0.025408149 0.60054553 4283582270
0.44796428 -0.025261909 0.6005612 4283450684
0.44712484 -0.02511631 0.60057688 4283714622
0.44628343 -0.024971351 0.60059255 4283846208
0.44555956 -0.024998337 0.60060012 4283912255
0.44477469 -0.024940044 0.60061175 4283977794
0.44398835 -0.024882257 0.60062337 4283846210
0.4433215 -0.024995729 0.60062689 4283649090
0.44253272 -0.024938762 0.60063851 4283517504
0.44180343 -0.024967492 0.60064608 4283847239
0.44101191 -0.024911404 0.6006577 4283847743
0.44028038 -0.024940863 0.60066527 4283978561
0.43948618 -0.024885654 0.60067689 4284044354
0.43875244 -0.024915844 0.60068446 4283912768
0.43795553 -0.024861529 0.60069603 4283978046
0.43715712 -0.024807706 0.60070765 4284306497
0.43654537 -0.025008351 0.60070711 4284568901
0.46839094 -0.024562493 0.60096455 4283254332
0.46780258 -0.024755463 0.60096401 4283320125
0.4672142 -0.024948433 0.60096347 4283254334
0.46646798 -0.024877474 0.60097593 4283319612
0.46577317 -0.024894908 0.60098404 4282990647
0.46507734 -0.02491267 0.60099214 4282925358
0.46443391 -0.025018483 0.6009959 4283056692
0.46368277 -0.024949133 0.60100836 4283122233
0.46293014 -0.024880305 0.60102075 4283188026
0.46217605 -0.024811938 0.60103321 4282926137
0.46142051 -0.024744064 0.60104561 4282728758
0.46077263 -0.024851322 0.60104942 4282794035
0.46001458 -0.024784252 0.60106182 4283452215
0.45931017 -0.024804831 0.60106993 4283781180
0.45854944 -0.024738654 0.60108238 4283649079
0.45784277 -0.024759948 0.60109049 4283648315
0.45713514 -0.0247816 0.6010986 4283516731
0.45648259 -0.024890393 0.60110235 4283450938
0.45577323 -0.024912566 0.60111046 4283123252
0.45511943 -0.025021777 0.60111421 4283254836
0.45446515 -0.025131136 0.60111803 4283451702
0.45381039 -0.02524066 0.60112178 4283320631
0.45315513 -0.025350332 0.6011256 4283386424
0.45244184 -0.025373831 0.60113364 4283583036
0.45172757 -0.025397629 0.60114175 4283386170
0.45101231 -0.025421768 0.60114986 4283320377
0.45029604 -0.025446221 0.60115796 4283122485
0.44952029 -0.025384977 0.60117036 4283385657
0.44874308 -0.025324196 0.60118276 4283516991
0.44796437 -0.025263906 0.60119516 4283385659
0.44718418 -0.025204122 0.60120755 4283846462
0.44640252 -0.025144786 0.60122001 4283846462
0.44555962 -0.025000334 0.6012367 4283912255
0.44483477 -0.025027603 0.60124481 4284043587
0.44404867 -0.024969742 0.60125721 4284043335
0.44332159 -0.024997741 0.60126525 4283649090
0.44253278 -0.024940774 0.60127765 4283649090
0.44174251 -0.024884284 0.60129005 4284241481
0.44095075 -0.024828285 0.60130244 4283979329
0.44021899 -0.024857819 0.60131055 4283847745
0.43942451 -0.0248027 0.60132295 4283979331
0.43869057 -0.024832964 0.601331 4283846721
0.43795562 -0.024863556 0.6013391 4283978046
0.46775055 -0.024669275 0.60158777 4283320379
0.46716192 -0.024862319 0.60158724 4283254586
0.46646807 -0.024879426 0.60159588 4283319866
0.46577322 -0.02489686 0.60160452 4283122487
0.46513054 -0.025002435 0.60160857 4282925358
0.46438062 -0.024932712 0.60162181 4283057207
0.46357566 -0.024775803 0.60163957 4283188026
0.46287638 -0.024794698 0.60164821 4283188026
0.46206796 -0.024638921 0.60166597 4283122233
0.46131191 -0.02457121 0.60167921 4282925367
0.46060896 -0.024591312 0.60168779 4283056953
0.45990503 -0.024611741 0.60169643 4283452215
0.45908993 -0.02445814 0.60171419 4283781180
0.45838356 -0.024479374 0.60172284 4283452213
0.45762059 -0.024413928 0.60173601 4283451450
0.45696777 -0.024522796 0.60174006 4283451452
0.45625842 -0.024544999 0.6017487 4283451452
0.4556044 -0.024654269 0.60175276 4283583036
0.45494989 -0.024763703 0.60175675 4283582524
0.45429486 -0.024873331 0.6017608 4283714624
0.45358229 -0.024896577 0.60176945 4283649344
0.45292604 -0.025006577 0.60177344 4283517758
0.45226932 -0.025116742 0.60177749 4283845956
0.45161209 -0.02522707 0.60178155 4283779649
0.45089632 -0.025251359 0.60179013 4283844926
0.45023787 -0.025362089 0.60179418 4283450938
0.44946188 -0.025300935 0.60180736 4283582524
0.44874316 -0.025326192 0.601816 4283713856
0.44796443 -0.025265902 0.60182917 4283714876
0.44718426 -0.025206119 0.60184234 4283978048
0.44640261 -0.025146797 0.60185552 4283978048
0.4454402 -0.024831071 0.6018824 4283978048
0.44392827 -0.024800807 0.60190421 4284043589
0.44235066 -0.024686873 0.60193056 4283649344
0.44162062 -0.024715841 0.60193914 4284044102
0.4408896 -0.024745151 0.60194778 4283846721
0.46427399 -0.024759203 0.60225302 4282992184
0.46352214 -0.024690136 0.60226697 4283254332
0.46266109 -0.024446398 0.60229063 4283122746
0.46190578 -0.024378434 0.60230464 4283319612
0.46114898 -0.024310976 0.60231858 4282860344
0.46039069 -0.024243981 0.60233259 4282926139
0.45963097 -0.024177477 0.6023466 4283452217
0.45886973 -0.02411148 0.60236055 4283649596
0.45816237 -0.024133027 0.60236967 4283583801
0.45745397 -0.024154902 0.60237885 4283451963
0.45674461 -0.024177089 0.60238796 4283451450
0.4560343 -0.024199635 0.60239708 4283385657
0.45537928 -0.024309233 0.60240138 4283846208
0.45466721 -0.0243323 0.60241055 4283582270
0.45401096 -0.02444233 0.60241485 4283779649
0.45329717 -0.024465963 0.60242397 4283846723
0.45258239 -0.024489954 0.60243309 4283846723
0.45198172 -0.024686962 0.60243255 4283911749
0.45138103 -0.024883971 0.60243201 4283845442
0.45072234 -0.024994791 0.6024363 4283910719
0.45000485 -0.025019646 0.60244542 4283844926
0.4493449 -0.025130868 0.60244972 4283845178
0.44868445 -0.025242239 0.60245401 4284174143
0.44790551 -0.025182053 0.60246795 4283977534
0.46336144 -0.024429157 0.60290509 4283451711
0.46244583 -0.024098098 0.60293519 4283320125
0.46163541 -0.023942977 0.60295504 4283451713
0.46087739 -0.023875922 0.60296977 4283386688
0.46011788 -0.023809358 0.60298455 4283780928
0.4593569 -0.023743242 0.60299933 4283649342
0.45859444 -0.023677647 0.60301405 4283846208
0.45794114 -0.023786679 0.60301864 4283846208
0.45723182 -0.023808897 0.6030283 4283912001
0.45646563 -0.023744479 0.60304302 4283912001
0.45581013 -0.023854256 0.60304755 4283912001
0.45509782 -0.023877412 0.60305721 4283912768
0.45438454 -0.023900926 0.60306686 4283912255
0.45367026 -0.023924723 0.60307652 4284043073
0.45295498 -0.023948878 0.60308617 4283518528
0.45229602 -0.024059772 0.6030907 4283650114
0.45169413 -0.024257183 0.60309017 4283978825
0.45109218 -0.024454594 0.60308963 4283978055
0.45043227 -0.024565801 0.60309416 4283714624
0.44983011 -0.024763301 0.60309362 4283846210
0.44922793 -0.024960786 0.60309309 4284043327
0.46114868 -0.023157597 0.60362947 4283714120
0.46044278 -0.023178667 0.6036396 4283649092
0.45968133 -0.023112759 0.60365516 4283977794
0.4589732 -0.023134544 0.60366535 4284043587
0.45820901 -0.023069501 0.60368085 4283978055
0.4576093 -0.023266196 0.60368031 4283978055
0.45689848 -0.023288861 0.60369051 4283846721
0.45624247 -0.023398787 0.60369533 4284307272
0.45552993 -0.023422062 0.60370547 4284241479
0.4548164 -0.023445621 0.60371566 4283979077
0.45410186 -0.023469523 0.60372579 4284307013
0.45338634 -0.023493737 0.60373598 4284569417
0.45266986 -0.023518294 0.60374618 4284306245
0.45200968 -0.023629591 0.60375094 4283716168
0.45140654 -0.023827404 0.60375041 4284045903
0.45080337 -0.024025232 0.60374987 4283914315
0.45020023 -0.024223045 0.60374933 4283913799
0.44959709 -0.024420857 0.6037488 4283913799
0.45842499 -0.022264108 0.60435188 4283714110
0.45782357 -0.02246137 0.60435128 4283320379
0.45722216 -0.022658616 0.60435075 4283451711
0.45662075 -0.022855863 0.60435021 4283451965
0.45590767 -0.022879288 0.60436088 4283517243
0.45530576 -0.023076698 0.60436034 4283583036
0.45459124 -0.023100585 0.60437107 4283320379
0.45387575 -0.023124829 0.60438174 4283648569
0.45315924 -0.023149356 0.60439241 4283648317
0.45244175 -0.023174226 0.60440308 4283714110
0.45178059 -0.023285851 0.60440814 4283386438
0.45117646 -0.023483992 0.60440761 4283650375
0.45051455 -0.023595855 0.60441267 4283322178
0.44991016 -0.02379407 0.60441214 4283716420
0.44924751 -0.023906201 0.6044172 4283848006
0.45826238 -0.020846382 0.60506761 4282991412
0.45793164 -0.021480963 0.60503769 4282925619
0.45738307 -0.021766081 0.60503125 4283386170
0.45689031 -0.022138149 0.60501897 4283649090
0.45628741 -0.022335887 0.60501838 4283648067
0.45562869 -0.022446692 0.60502374 4283450688
0.45502555 -0.02264452 0.60502321 4283122233
0.45436612 -0.022755563 0.60502851 4283056694
0.45364961 -0.02278012 0.60503972 4283056432
0.45293215 -0.022804976 0.60505092 4283385657
0.45221367 -0.022830188 0.60506213 4283451450
0.45155153 -0.022942141 0.60506743 4284043337
0.45094642 -0.023140594 0.6050669 4284241231
0.45028353 -0.023252785 0.6050722 4283715916
0.44967815 -0.023451328 0.60507166 4283452996
0.44901451 -0.023563758 0.60507703 4283058238
0.45843261 -0.019950777 0.60575378 4282991160
0.45798951 -0.020411775 0.60573483 4282991160
0.45754793 -0.02087228 0.60571587 4282926391
0.45699763 -0.02115798 0.6057092 4283452735
0.45650315 -0.021530598 0.60569638 4284307022
0.4559541 -0.021815881 0.6056897 4284437843
0.45534974 -0.022014111 0.60568917 4283582534
0.45474535 -0.022212327 0.60568863 4283122235
0.45408466 -0.022323802 0.60569417 4282991160
0.4534235 -0.022435442 0.60569978 4282925360
0.45276183 -0.022547215 0.60570538 4283319864
0.45204264 -0.022572637 0.60571706 4283583036
0.45132244 -0.022598416 0.60572881 4284109641
0.45071635 -0.022797197 0.60572827 4284306509
0.44999468 -0.022823423 0.60573995 4283847504
0.44938809 -0.023022369 0.60573941 4283190596
0.4581067 -0.019428387 0.60643077 4282332207
0.4577167 -0.019977182 0.60640466 4281740070
0.45716423 -0.020263627 0.60639775 4282661168
0.45672235 -0.020724192 0.60637796 4282332457
0.45622665 -0.021097228 0.60636467 4283252535
0.45573193 -0.021469921 0.60635132 4283581500
0.45518237 -0.021755382 0.6063444 4283186742
0.45452118 -0.021867007 0.60635024 4282528812
0.45391583 -0.02206555 0.60634971 4282465586
0.45331049 -0.022264093 0.60634911 4282202416
0.45259154 -0.022289455 0.60636139 4282858801
0.45187157 -0.022315115 0.60637361 4282990387
0.45120794 -0.022427544 0.60637945 4283384373
0.45054382 -0.022540152 0.60638529 4283779133
0.44982141 -0.022566646 0.60639751 4283581769
0.4492141 -0.02276583 0.60639697 4285031527
0.4484902 -0.022792816 0.60640919 4286807938
0.45778078 -0.018906012 0.60711092 4283055926
0.4573893 -0.019455284 0.60708374 4281739296
0.45689017 -0.019829437 0.60706985 4282135076
0.45639199 -0.020203277 0.60705602 4282859567
0.45595014 -0.020663857 0.60703552 4283648569
0.45545417 -0.021036938 0.60702169 4283912255
0.45495921 -0.02140972 0.6070078 4283451704
0.45435309 -0.021608502 0.60700727 4282729273
0.4538033 -0.021894053 0.60700005 4282597437
0.45314091 -0.02200608 0.60700619 4282661686
0.45247802 -0.02211827 0.60701227 4282990649
0.45181462 -0.02223061 0.60701835 4283122235
0.45115075 -0.022343144 0.60702449 4283779133
0.45048636 -0.022455826 0.60703057 4284108866
0.44982153 -0.022568658 0.60703671 4283516991
0.44921419 -0.022767842 0.60703611 4284505181
0.44849029 -0.022794828 0.60704887 4286939522
0.45772654 -0.018820643 0.60775954 4283121203
0.45722565 -0.019195363 0.60774517 4281607710
0.45672578 -0.01956974 0.60773081 4281871904
0.4562819 -0.02003096 0.60770953 4282925360
0.45578426 -0.020404637 0.60769516 4283846460
0.45534313 -0.020864978 0.60767388 4284110147
0.45479184 -0.021150991 0.60766643 4283649596
0.45424107 -0.02143684 0.60765892 4282927422
0.45369077 -0.021722555 0.60765147 4282662717
0.45308444 -0.021921411 0.60765094 4283055930
0.45247811 -0.022120282 0.6076504 4283450686
0.45181471 -0.022232622 0.60765678 4283648065
0.45120811 -0.022431582 0.60765618 4283845442
0.450544 -0.022544175 0.60766256 4284109382
0.44982159 -0.02257067 0.60767585 4283517758
0.44921428 -0.022769868 0.60767531 4284176469
0.44860694 -0.022969052 0.60767472 4286873982
0.4580662 -0.018185198 0.60843796 4283385657
0.45761794 -0.018647864 0.6084159 4282727727
0.45711657 -0.019022748 0.608401 4281345308
0.45661619 -0.019397289 0.6083861 4281345562
0.45617187 -0.019858673 0.60836405 4282662188
0.45567369 -0.020232499 0.60834914 4284043587
0.45523208 -0.020692989 0.60832709 4284306761
0.45473611 -0.021066099 0.60831219 4283912003
0.4541851 -0.021352038 0.6083045 4283255356
0.45363456 -0.021637797 0.60829675 4283122233
0.45308453 -0.021923423 0.60828906 4283253307
0.45247817 -0.022122294 0.60828853 4283516479
0.4518148 -0.022234648 0.60829514 4283779651
0.4512082 -0.022433594 0.60829461 4284437581
0.45060161 -0.022632539 0.60829401 4284175175
0.44993722 -0.022745222 0.60830069 4283780930
0.44933039 -0.022944257 0.60830009 4283190344
0.44860703 -0.022971064 0.60831392 4287335303
0.4575637 -0.018562496 0.60906589 4282596395
0.45706207 -0.018937454 0.60905045 4281082904
0.45650661 -0.019224852 0.60904247 4281279767
0.45606178 -0.019686401 0.60901964 4282727467
0.45561844 -0.020147443 0.60899681 4284504140
0.45512104 -0.02052103 0.60898137 4284438345
0.45462459 -0.020894289 0.60896599 4283977794
0.45412913 -0.02126722 0.60895056 4283451963
0.45363465 -0.021639824 0.60893518 4283188532
0.45308462 -0.021925434 0.60892719 4283122487
0.45253506 -0.022210896 0.6089192 4283516477
0.45198601 -0.022496194 0.60891122 4283779649
0.45132285 -0.022608474 0.60891813 4284503374
0.45065922 -0.022720903 0.60892498 4284174921
0.45005289 -0.022919774 0.60892445 4283649090
0.4493885 -0.023032442 0.6089313 4283914067
0.44866538 -0.023059189 0.60894561 4286940545
0.4574551 -0.018389732 0.60972404 4282070049
0.45695299 -0.018764839 0.60970807 4280951831
0.45645186 -0.019139633 0.60969216 4281280021
0.45600682 -0.019601256 0.60966855 4282660900
0.4555079 -0.01997532 0.60965264 4284897349
0.45500997 -0.020349056 0.60963666 4284765765
0.45456886 -0.020809397 0.60961306 4284634179
0.45412922 -0.021269232 0.60958946 4283583026
0.45363474 -0.021641836 0.60957354 4283451438
0.45308471 -0.021927446 0.60956532 4283253811
0.45253515 -0.022212908 0.60955709 4283648315
0.45198607 -0.022498205 0.60954881 4283779901
0.45138025 -0.022696912 0.60954827 4284438095
0.45071685 -0.022809267 0.60955542 4284306507
0.45011073 -0.023008049 0.60955489 4283714370
0.44944662 -0.023120642 0.60956204 4283716692
0.45740086 -0.018304378 0.61037529 4282399277
0.45689848 -0.018679559 0.61035883 4281017372
0.45639712 -0.019054428 0.61034238 4281280283
0.45589674 -0.019428983 0.61032593 4282594596
0.45539737 -0.019803196 0.61030948 4285094210
0.4549545 -0.020264089 0.6102851 4285291589
0.45451313 -0.020724505 0.61026073 4284633407
0.45407325 -0.021184415 0.61023629 4283714358
0.4535785 -0.021557108 0.6102199 4283385909
0.45308477 -0.021929473 0.61020344 4283122485
0.45253521 -0.022214919 0.61019492 4283451452
0.45198616 -0.022500217 0.61018646 4283648831
0.45138031 -0.022698924 0.61018586 4284437583
0.45071691 -0.022811279 0.61019331 4284174923
0.45011082 -0.02301006 0.61019272 4283846469
0.44944671 -0.023122653 0.61020017 4283980115
0.45684397 -0.018594265 0.61101007 4281017372
0.45634237 -0.018969208 0.61099309 4281477410
0.45584175 -0.019343853 0.61097616 4283515700
0.45539743 -0.019805223 0.61095095 4285291591
0.45495456 -0.020266116 0.61092579 4285291591
0.4544574 -0.020639598 0.61090887 4284633407
0.45401728 -0.021099597 0.61088365 4283912255
0.45357859 -0.021559119 0.6108585 4283517243
0.45308486 -0.021931484 0.61084157 4283122487
0.4525353 -0.022216931 0.61083281 4283451452
0.45198625 -0.022502229 0.61082405 4283648831
0.4513804 -0.022700936 0.61082351 4284372302
0.450717 -0.02281329 0.61083114 4284306507
0.4501687 -0.02309835 0.61082238 4283780678
0.45729235 -0.018133655 0.61167932 4282399277
0.45684409 -0.018596306 0.61165339 4281213986
0.45639729 -0.019058481 0.61162746 4281608998
0.45589691 -0.019433036 0.61160994 4283451704
0.45539752 -0.019807249 0.61159247 4285094728
0.4548991 -0.020181134 0.61157501 4285226314
0.45440167 -0.020554706 0.61155748 4284633661
0.45401734 -0.021101624 0.61152309 4283977028
0.45352238 -0.021474391 0.61150563 4283582784
0.45302838 -0.021846816 0.6114881 4283056440
0.45253539 -0.022218943 0.61147064 4283385405
0.45198634 -0.02250424 0.61146164 4283648577
0.45138049 -0.022702947 0.6114611 4284372554
0.45077461 -0.022901654 0.61146057 4284307011
0.45011097 -0.023014084 0.61146843 4283780678
0.45729244 -0.018135682 0.6123234 4282398762
0.45678958 -0.018511027 0.6123054 4281213988
0.45634255 -0.018973261 0.6122787 4281609511
0.45584193 -0.019347906 0.6122607 4283518008
0.45534229 -0.019722193 0.6122427 4284898634
0.45489919 -0.020183161 0.61221594 4285030220
0.45440173 -0.020556733 0.61219794 4284502593
0.45396137 -0.021016821 0.61217123 4283844672
0.45352244 -0.021476418 0.61214453 4283648063
0.45297194 -0.021762177 0.61213523 4283187512
0.45247868 -0.022134364 0.61211723 4283385405
0.45198643 -0.022506252 0.61209923 4283582784
0.45132327 -0.022618532 0.6121074 4284306759
0.4507747 -0.022903666 0.61209816 4284307011
0.4500533 -0.022929832 0.61211503 4283649094
0.45673507 -0.018425733 0.61295795 4281148193
0.4562878 -0.018888071 0.61293048 4281347109
0.45578694 -0.019262776 0.61291194 4283518008
0.45534235 -0.01972422 0.6128844 4284898636
0.4548437 -0.020098194 0.61286592 4285030222
0.45434603 -0.020471856 0.61284739 4284634442
0.4539054 -0.020932004 0.61281991 4283779133
0.45346624 -0.021391675 0.61279237 4283713340
0.45297199 -0.021764189 0.6127739 4283187766
0.45242196 -0.022049785 0.61276436 4283385405
0.45192945 -0.022421762 0.61274582 4283582784
0.45126608 -0.022534117 0.61275429 4284503626
0.45071727 -0.022819325 0.61274475 4284241479
0.45005339 -0.022931844 0.61275315 4283583049
0.45623305 -0.018802866 0.61358273 4281149730
0.45573193 -0.019177645 0.61356372 4283583288
0.45528713 -0.019639179 0.6135354 4285029450
0.45473266 -0.019926235 0.61352563 4285095243
0.45429027 -0.020386964 0.61349738 4284503372
0.45384941 -0.020847186 0.61346906 4283779651
0.45341003 -0.021306947 0.61344081 4283582524
0.45291555 -0.02167955 0.61342174 4283187764
0.45236525 -0.021965235 0.61341196 4283385659
0.45181546 -0.022250757 0.61340219 4283648831
0.45120886 -0.022449702 0.61340165 4284437833
0.45071733 -0.022821337 0.61338258 4284241479
0.4499957 -0.022847593 0.61340052 4283452233
0.45617831 -0.018717676 0.61423552 4281543714
0.45567694 -0.01909253 0.61421597 4284174139
0.45517656 -0.019467071 0.61419642 4284701253
0.45467716 -0.019841284 0.61417687 4284701253
0.45423457 -0.020302087 0.61414784 4284306247
0.45379344 -0.020762384 0.61411875 4283779649
0.45335379 -0.021222219 0.61408973 4283319866
0.45280254 -0.021508232 0.61407965 4283122485
0.45230854 -0.021880671 0.6140601 4283319864
0.45170146 -0.022079781 0.61405957 4283517243
0.45115167 -0.022365302 0.61404949 4284503372
0.45060235 -0.022650659 0.61403948 4284241231
0.449938 -0.022763357 0.61404842 4283648589
0.45606875 -0.018545255 0.61489862 4281214236
0.45556688 -0.018920273 0.61487854 4284371520
0.45512134 -0.019382015 0.61484873 4284898886
0.45462167 -0.019756317 0.61482865 4284898886
0.45417884 -0.020217195 0.61479878 4284306495
0.45373747 -0.020677581 0.61476898 4283648569
0.45324126 -0.021050751 0.6147489 4283122485
0.45274606 -0.021423593 0.61472881 4283122485
0.45225185 -0.021796092 0.61470878 4283188280
0.45170155 -0.022081792 0.61469847 4283451452
0.45115173 -0.022367314 0.61468816 4284437583
0.45054489 -0.022566348 0.61468762 4284306511
0.4498803 -0.02267912 0.6146968 4283780428
0.4564625 -0.017997324 0.61558336 4281674787
0.45601401 -0.01846005 0.61555272 4281411355
0.4555119 -0.018835157 0.61553216 4284174139
0.45501077 -0.019209921 0.61551154 4284898886
0.45456621 -0.019671351 0.6154809 4284964679
0.45406729 -0.020045415 0.61546034 4284240702
0.45368147 -0.020592779 0.61541969 4283582774
0.45318502 -0.020966008 0.61539912 4283122739
0.45268959 -0.02133894 0.6153785 4282991666
0.45225191 -0.021798119 0.61534792 4283057207
0.45158753 -0.021910802 0.6153574 4283320379
0.45103726 -0.022196501 0.61534685 4284174923
0.45048746 -0.022482023 0.61533624 4284437581
0.4498226 -0.022594869 0.61534572 4283911499
0.45702124 -0.017710924 0.61623931 4281748788
0.45651719 -0.018086657 0.61621821 4281087013
0.45595926 -0.01837486 0.61620736 4281413915
0.45545691 -0.018750042 0.61618626 4283649846
0.45501086 -0.019211948 0.61615485 4283651649
0.4545663 -0.019673377 0.61612344 4283717442
0.45406738 -0.020047441 0.61610234 4283387201
0.4536255 -0.020507991 0.61607099 4283123252
0.45312881 -0.020881295 0.61604983 4282729773
0.45268968 -0.021340966 0.61601847 4282663980
0.45213839 -0.021626979 0.61600763 4282663980
0.45164466 -0.021999329 0.61598653 4282926902
0.45109463 -0.02228494 0.61597568 4283650366
0.45048755 -0.022484049 0.61597514 4283978307
0.44982266 -0.022596896 0.61598486 4283912264
0.4569127 -0.01753819 0.61690575 4280635704
0.45651728 -0.018088698 0.61686301 4280697131
0.45595935 -0.018376887 0.61685193 4281154593
0.455457 -0.018752068 0.61683029 4282206763
0.45501095 -0.019213974 0.61679816 4282339390
0.45456636 -0.019675404 0.61676598 4282405183
0.45401165 -0.019962564 0.61675489 4282206529
0.45356953 -0.020423174 0.6167227 4282205748
0.4531289 -0.020883322 0.61669058 4282140205
0.4526332 -0.021256313 0.61666894 4282140205
0.45208168 -0.021542415 0.61665785 4282140205
0.45158771 -0.02191484 0.61663622 4282533941
0.45109469 -0.022286952 0.61661458 4283257148
0.4504301 -0.022399724 0.61662459 4283585856
0.45651734 -0.018090725 0.61750787 4279323437
0.45601428 -0.01846616 0.61748576 4279780908
0.45551217 -0.018841237 0.61746359 4280372012
0.45501101 -0.019216001 0.61744148 4280700727
0.45456648 -0.01967743 0.61740851 4280569141
0.45406756 -0.020051494 0.61738634 4280437056
0.45362568 -0.02051203 0.61735344 4280371250
0.45312899 -0.020885348 0.61733127 4280305446
0.45268983 -0.02134499 0.61729836 4280765227
0.45213857 -0.021631017 0.61728698 4280633641
0.4515878 -0.021916851 0.61727566 4281028399
0.45109481 -0.022288963 0.61725348 4281159981
0.45043015 -0.022401735 0.61726373 4281487667
0.45662659 -0.018267378 0.61813062 4278930730
0.45606917 -0.018555418 0.618119 4279192621
0.4555673 -0.01893042 0.61809635 4279717166
0.45506644 -0.01930511 0.6180737 4280308535
0.45462212 -0.01976645 0.61803997 4280308535
0.45412344 -0.020140409 0.61801732 4279979320
0.45362577 -0.020514056 0.61799467 4279847732
0.45318538 -0.0209741 0.61796093 4279585064
0.45263338 -0.021260351 0.61794931 4279849258
0.45208186 -0.021546453 0.61793774 4279586086
0.45158786 -0.021918863 0.61791503 4279980072
0.45103759 -0.022204563 0.61790347 4280374832
0.45043024 -0.022403747 0.61790287 4280571444
0.45723894 -0.018068612 0.61877555 4279325742
0.45673585 -0.018444017 0.61875236 4278865705
0.4561789 -0.018731892 0.6187405 4279193902
0.45567754 -0.019106731 0.61871731 4279520814
0.45517716 -0.019481257 0.61869413 4280177719
0.45467776 -0.019855469 0.61867094 4280177719
0.45417935 -0.02022934 0.61864775 4279914297
0.45373797 -0.020689711 0.61861324 4279717170
0.45324177 -0.021062866 0.61859006 4279520041
0.45269001 -0.021349043 0.6185782 4279652906
0.45213872 -0.021635056 0.61856633 4279521320
0.45158795 -0.02192089 0.61855447 4279521320
0.45109496 -0.022293001 0.61853129 4280113205
0.4505454 -0.022578433 0.61851943 4280375096
0.45684507 -0.018620655 0.61937302 4278735148
0.45634347 -0.018995583 0.6193493 4278865964
0.45578778 -0.019283041 0.6193372 4279259695
0.45528787 -0.019657418 0.61931348 4279850553
0.45484453 -0.02011843 0.61927819 4279916346
0.45434687 -0.020492062 0.61925453 4279717945
0.45385015 -0.020865366 0.61923081 4279257646
0.45335448 -0.021238372 0.61920714 4279257642
0.45280319 -0.02152437 0.61919498 4279258666
0.45225242 -0.021810219 0.61918288 4279127080
0.45175916 -0.02218239 0.61915916 4279062830
0.45115232 -0.022381425 0.61915863 4279654971
0.4570089 -0.018884599 0.61998081 4278801456
0.45650804 -0.019259289 0.61995661 4278866736
0.45589799 -0.019459367 0.61995602 4279193902
0.45545393 -0.019920617 0.61992002 4279654203
0.45495576 -0.020294413 0.61989576 4279785789
0.45445856 -0.020667881 0.61987156 4279587129
0.45396239 -0.021041036 0.61984736 4279126828
0.45346716 -0.021413863 0.6198231 4279061287
0.45291638 -0.021699697 0.61981076 4279193386
0.45236608 -0.021985382 0.61979836 4278997550
0.45181629 -0.022270888 0.61978596 4279063343
0.451267 -0.02255626 0.61977363 4279589437
0.45672745 -0.019610181 0.62055022 4278669872
0.45611838 -0.019809932 0.62054968 4279062830
0.45561996 -0.020183802 0.62052494 4279785791
0.45512253 -0.020557374 0.62050021 4279851584
0.45457026 -0.0208437 0.62048757 4279391033
0.45407456 -0.021216691 0.62046283 4278996007
0.45352355 -0.021502614 0.6204502 4278930984
0.45302957 -0.021875009 0.62042546 4279128877
0.45247978 -0.02216053 0.62041283 4278865964
0.45187342 -0.022359401 0.62041229 4279063343
0.45132434 -0.022644699 0.62039965 4279589439
0.45689201 -0.019873872 0.62115413 4278669870
0.45628369 -0.020073384 0.62115359 4279193904
0.45573068 -0.020359948 0.62114072 4279785789
0.45523375 -0.020733342 0.62111545 4279719745
0.45468199 -0.021019518 0.62110251 4279390780
0.45418677 -0.021392331 0.6210773 4278930482
0.45363623 -0.02167809 0.62106436 4278865203
0.4530862 -0.021963686 0.62105149 4278930994
0.45253664 -0.022249132 0.62103862 4278668335
0.45193052 -0.022447914 0.62103802 4278997300
0.45138174 -0.022733122 0.62102515 4279589439
0.45048821 -0.022500172 0.62108636 4280047940
0.45755497 -0.019763678 0.6217823 4278670640
0.45700175 -0.020050332 0.62176913 4278801454
0.4563939 -0.020249695 0.62176859 4279062830
0.45584142 -0.02053608 0.62175542 4279786043
0.45528939 -0.020822331 0.62174225 4279785538
0.45479369 -0.021195322 0.6217165 4279390780
0.45424289 -0.021481156 0.62170333 4278799410
0.45369262 -0.021766841 0.62169015 4278799410
0.45314282 -0.022052363 0.62167698 4278668337
0.45259351 -0.02233772 0.62166381 4278603314
0.45198768 -0.022536427 0.62166327 4278932279
0.45143911 -0.022821531 0.62165016 4279523393
0.45760965 -0.019853011 0.62240934 4278801456
0.45705664 -0.02013956 0.62239593 4278866734
0.45650414 -0.020425975 0.62238252 4278932527
0.45595214 -0.020712227 0.62236905 4279786041
0.45540062 -0.020998299 0.62235564 4280048191
0.45484957 -0.021284223 0.62234223 4279653433
0.45429903 -0.021569982 0.62232882 4278799923
0.453749 -0.021855593 0.62231541 4278734382
0.45314291 -0.022054374 0.62231487 4278734382
0.45259359 -0.022339731 0.62230146 4278669359
0.45198774 -0.022538438 0.62230086 4278866738
0.4514392 -0.022823542 0.62228745 4279326784
0.45077604 -0.022935852 0.62229979 4279786818
0.45711154 -0.020228803 0.6230222 4278866734
0.45661438 -0.020602256 0.62299538 4279063343
0.45600754 -0.020801291 0.62299484 4279982135
0.45545626 -0.021087289 0.62298119 4280178748
0.45490548 -0.021373123 0.62296748 4279849783
0.45435518 -0.021658823 0.62295383 4278865201
0.45380539 -0.021944344 0.62294012 4278734382
0.45325607 -0.022229686 0.62292647 4278734380
0.45265049 -0.022428304 0.62292594 4278800173
0.45198783 -0.02254045 0.62293851 4278997552
0.45143926 -0.022825554 0.6229248 4279327037
0.45083368 -0.023024172 0.62292427 4279786305
0.45711166 -0.020230815 0.62366134 4279063347
0.45655939 -0.020517156 0.62364745 4279260209
0.4560076 -0.020803303 0.6236335 4279916342
0.45551193 -0.021176279 0.62360615 4280178494
0.45496136 -0.021462038 0.62359226 4279981115
0.45435527 -0.021660835 0.62359166 4279062066
0.45380548 -0.021946356 0.62357771 4278669357
0.45319963 -0.022145063 0.62357718 4278669607
0.45270735 -0.022516891 0.62354988 4278866218
0.45204496 -0.022628948 0.62356269 4279063597
0.45149666 -0.022913978 0.62354881 4279720248
0.45083374 -0.023026198 0.62356162 4280311104
0.44999701 -0.022879809 0.62361461 4279917629
0.45716655 -0.020320058 0.62428689 4279063347
0.45661452 -0.020606294 0.6242727 4279194418
0.45600769 -0.020805314 0.62427211 4279785269
0.45545644 -0.021091312 0.62425792 4280047678
0.45490563 -0.021377161 0.62424374 4279850299
0.45435536 -0.021662846 0.62422955 4279193136
0.45380557 -0.021948367 0.62421536 4278669609
0.45325625 -0.02223371 0.62420118 4278669607
0.45259386 -0.022345766 0.62421423 4278866216
0.45198801 -0.022544473 0.6242137 4279063595
0.45143944 -0.022829577 0.62419951 4279916855
0.45083383 -0.023028195 0.62419897 4280376643
0.45017046 -0.023140579 0.62421209 4279983170
0.45711181 -0.020234853 0.62493968 4279062832
0.45661461 -0.020608306 0.62491131 4279128625
0.45600778 -0.020807326 0.62491077 4279851062
0.4554565 -0.021093324 0.62489629 4280047930
0.45490572 -0.021379173 0.62488186 4279916344
0.45435542 -0.021664858 0.62486738 4279258414
0.45380563 -0.021950379 0.62485296 4278800423
0.45325634 -0.022235721 0.62483847 4278669607
0.45259392 -0.022347778 0.62485182 4278865964
0.45210218 -0.022719458 0.62482351 4279063343
0.45138222 -0.022745192 0.62485075 4279982137
0.45083392 -0.023030207 0.62483633 4280180801
0.45017052 -0.023142606 0.62484968 4279720522
0.4566147 -0.020610318 0.62554997 4279587377
0.45606318 -0.02089639 0.62553525 4280112951
0.45551217 -0.021182314 0.62552053 4280047158
0.45501745 -0.021554977 0.62549162 4279981365
0.45441157 -0.021753684 0.62549108 4279520814
0.45386201 -0.022039101 0.62547636 4278865705
0.45325643 -0.022237733 0.62547582 4278669355
0.45270762 -0.022522926 0.6254611 4278734898
0.4520452 -0.022634983 0.62547475 4278932277
0.45138231 -0.022747204 0.62548834 4279982398
0.45077646 -0.022945911 0.6254878 4280311617
0.45017061 -0.023144603 0.62548727 4279654981
0.45661479 -0.020612329 0.62618858 4279456558
0.45606327 -0.020898402 0.62617362 4279982389
0.45545667 -0.021097347 0.62617308 4279981619
0.45496172 -0.021470085 0.62614369 4279850033
0.45441166 -0.021755695 0.62612867 4279389482
0.45386213 -0.022041112 0.62611371 4279062570
0.45325649 -0.022239745 0.62611318 4278669357
0.4526509 -0.022438362 0.62611264 4278865716
0.45198825 -0.022550508 0.62612653 4279063095
0.4513824 -0.022749215 0.62612599 4279982400
0.4508341 -0.02303423 0.62611097 4280113984
0.4501707 -0.023146629 0.62612486 4279851331
0.45650473 -0.020440087 0.62685663 4279129140
0.45606333 -0.020900413 0.62681198 4279654455
0.45545676 -0.021099359 0.62681144 4279719217
0.45490599 -0.021385208 0.62679625 4279653424
0.45441175 -0.021757707 0.62676632 4279521068
0.45386219 -0.022043124 0.62675107 4279193386
0.45325661 -0.022241741 0.62675053 4278865964
0.45259419 -0.022353813 0.62676466 4278997300
0.45198834 -0.02255252 0.62676412 4279128886
0.45138249 -0.022751227 0.62676358 4279588924
0.45077664 -0.022949934 0.62676305 4279851584
0.450113 -0.023062378 0.62677717 4279982147
0.4565599 -0.02052924 0.6274808 4278998072
0.45600811 -0.020815387 0.62746531 4279654457
0.4555124 -0.021188349 0.62743491 4279850549
0.45490605 -0.021387219 0.62743437 4279718963
0.45435578 -0.021672904 0.62741888 4279520814
0.45380598 -0.021958411 0.62740338 4279193386
0.4532001 -0.022157118 0.62740284 4278865451
0.45259428 -0.022355825 0.62740225 4278865968
0.45193136 -0.022468045 0.62741667 4279129140
0.45132527 -0.022666827 0.62741613 4279589178
0.45071918 -0.022865608 0.62741554 4279851582
0.4500553 -0.022978157 0.62742996 4279982400
0.44933289 -0.023004696 0.62745929 4280048193
0.45622951 -0.02000846 0.6282109 4279063863
0.45589757 -0.020643309 0.62813437 4279851064
0.45540136 -0.021016434 0.62810344 4279981367
0.45485032 -0.021302342 0.62808764 4279783988
0.45429981 -0.021588102 0.6280719 4279587377
0.45374975 -0.021873698 0.62805617 4279456558
0.45320022 -0.022159129 0.62804043 4278996525
0.45253757 -0.022271276 0.6280551 4278997300
0.45193145 -0.022470057 0.6280545 4279194679
0.45126808 -0.022582427 0.62806916 4279786043
0.45071927 -0.02286762 0.62805343 4279983422
0.4499976 -0.022893921 0.62808329 4280113471
0.45639956 -0.019113213 0.62897563 4278932529
0.45617455 -0.019923359 0.62886685 4279457074
