# .PCD v0.7 - Point Cloud Data file format
VERSION 0.7
FIELDS x y z rgb
SIZE 4 4 4 4
TYPE F F F U
COUNT 1 1 1 1
WIDTH 1059
HEIGHT 1
VIEWPOINT 0 0 0 1 0 0 0
POINTS 1059
DATA ascii
0.4092817 0.012247875 0.52844495 4281809193
0.40951562 0.012573622 0.52844876 4281021985
0.46351731 0.069218472 0.53405601 4279702282
0.46386206 0.06954135 0.53410172 4279504903
0.46420717 0.069864653 0.53414738 4279241992
0.46455255 0.070188373 0.53419304 4279504903
0.46489823 0.070512533 0.5342387 4279768075
0.46524423 0.070837095 0.53428441 4279571981
0.46559054 0.071162075 0.53433013 4279703567
0.46593714 0.071487486 0.53437579 4279769358
0.46628404 0.071813323 0.5344215 4279769358
0.46672544 0.072113559 0.53450876 4279769360
0.46707308 0.072440445 0.53455448 4279769360
0.46751559 0.072742157 0.53464174 4279702795
0.46795866 0.07304471 0.534729 4279703313
0.46840236 0.073348112 0.53481632 4279375375
0.46875167 0.073677309 0.53486204 4279638031
0.46919641 0.073982179 0.53494936 4279638031
0.4695465 0.074312434 0.53499514 4279506961
0.46989685 0.074643098 0.53504086 4279638547
0.47015196 0.074998304 0.53504509 4281347611
0.47050276 0.075329602 0.5350908 4282663471
0.4117198 -0.026242822 0.53965622 4285165929
0.41210797 -0.026016295 0.53974307 4284639585
0.41249675 -0.025788933 0.53982991 4284178766
0.41288611 -0.025560722 0.53991675 4283980871
0.41321886 -0.025254369 0.53996247 4283717699
0.4136093 -0.025024697 0.54004931 4283717699
0.41405785 -0.024871036 0.5401774 4283387705
0.41444969 -0.024639457 0.54026431 4283387190
0.41484207 -0.024407029 0.54035115 4283190063
0.41523507 -0.024173766 0.54043812 4282861611
0.41562867 -0.023939669 0.54052502 4282795818
0.41608119 -0.02378054 0.54065317 4282598959
0.41647616 -0.023544535 0.54074007 4282204208
0.41693032 -0.023383081 0.54086822 4282138161
0.40610075 0.0092630908 0.5284605 4283716672
0.40633363 0.0095873624 0.52846432 4283980362
0.40669337 0.0097743422 0.52855068 4284572247
0.40692654 0.010099038 0.5285545 4284703833
0.40722346 0.010355502 0.52859962 4284046160
0.40752068 0.010612383 0.52864474 4283322684
0.40788227 0.010801867 0.52873111 4283191355
0.40818024 0.011059806 0.52877623 4282730804
0.40847853 0.011318162 0.52882135 4282730804
0.40877712 0.011576936 0.52886653 4282467378
0.40901133 0.011903107 0.52887034 4282401587
0.40924558 0.012229271 0.52887422 4281874732
0.40954477 0.012488887 0.52891934 4281677353
0.46437389 0.070312284 0.53456682 4279505416
0.46481282 0.07060951 0.5346545 4279571727
0.46515888 0.07093437 0.53470039 4279571727
0.46550518 0.071259648 0.53474629 4279571727
0.46585184 0.071585335 0.53479224 4279835151
0.46619877 0.071911454 0.53483814 4279965967
0.46664011 0.072212048 0.53492588 4279769360
0.46698785 0.072539225 0.53497183 4279769360
0.46743023 0.072841287 0.53505951 4279702793
0.46787328 0.073144197 0.53514725 4279703315
0.4682222 0.073473059 0.5351932 4279244310
0.46857136 0.073802322 0.53523916 4279703313
0.4690159 0.074107349 0.53532696 4279703313
0.46936589 0.07443767 0.53537291 4279769363
0.46971613 0.074768409 0.53541893 4280361497
0.46997124 0.075123616 0.5354231 4281939748
0.47032195 0.075454995 0.53546906 4283913538
0.4120833 -0.026114777 0.54027462 4285299578
0.41247231 -0.025886625 0.54036188 4284443993
0.41280493 -0.025580198 0.54040784 4284113997
0.41319501 -0.0253506 0.54049516 4283849031
0.41358566 -0.025120124 0.54058248 4283849031
0.41397697 -0.024888828 0.5406698 4283520063
0.41436881 -0.024656668 0.54075712 4283585082
0.41481906 -0.024500042 0.54088593 4283322164
0.4151544 -0.02418986 0.54093188 4283256371
0.41560614 -0.024031132 0.54106069 4282861613
0.4159424 -0.023719668 0.54110664 4282598961
0.41639566 -0.02355884 0.54123545 4282401333
0.41684979 -0.023396745 0.54136425 4282203954
0.40612486 0.0091705024 0.52893007 4283585086
0.40635818 0.0094954073 0.52893388 4283782983
0.40665483 0.0097517297 0.52897924 4284375125
0.40695181 0.010008477 0.52902454 4284506711
0.40724909 0.010265641 0.5290699 4283914572
0.40754664 0.01052323 0.52911526 4283454273
0.40784454 0.010781243 0.52916062 4283191355
0.40820679 0.010972135 0.52924746 4282862390
0.40844119 0.011298515 0.52925128 4282665011
0.40873995 0.011557803 0.52929664 4282402609
0.40897447 0.011884391 0.52930051 4282270769
0.40933841 0.0120776 0.52938735 4281941036
0.46447453 0.070354804 0.53506655 4279440400
0.46482044 0.070679739 0.53511268 4279506445
0.46507329 0.071031794 0.53511685 4279440652
0.46541965 0.071357347 0.53516299 4279506445
0.46576631 0.071683325 0.53520912 4279835156
0.46611333 0.072009727 0.53525525 4279769615
0.46646059 0.072336547 0.53530145 4279505940
0.46690238 0.072638139 0.5353896 4279637526
0.46725041 0.072966009 0.5354358 4279834383
0.46759874 0.073294297 0.53548193 4279965204
0.46804202 0.073597997 0.53557014 4279505940
0.46848586 0.073902532 0.53565836 4279505940
0.46883541 0.074232511 0.53570449 4279506710
0.46918529 0.074562907 0.53575075 4280098330
0.46953544 0.074893728 0.53579694 4281018653
0.46979052 0.075248927 0.53580111 4283189815
0.412058 -0.026212797 0.54080749 4286418059
0.41244721 -0.02598387 0.54089522 4285759864
0.4127802 -0.025676757 0.54094136 4285296474
0.41311347 -0.025369227 0.54098749 4284243786
0.41350424 -0.025138199 0.54107529 4284177993
0.41395295 -0.024983019 0.54120469 4283980612
0.41428757 -0.024673596 0.54125088 4283783233
0.41473779 -0.024516329 0.54138035 4283651645
0.41507334 -0.024205655 0.54142654 4283322680
0.41552505 -0.024046272 0.541556 4282928179
0.41591957 -0.023809969 0.5416438 4282862388
0.41631472 -0.023572832 0.54173166 4282533171
0.41682726 -0.023485348 0.54190284 4282467378
0.40614834 0.0090783387 0.529401 4283454273
0.40638214 0.009403877 0.52940482 4283651402
0.40667915 0.0096609071 0.52945042 4283849551
0.40697646 0.0099183619 0.52949595 4283915344
0.40727407 0.010176226 0.52954149 4283717963
0.40750831 0.010502398 0.52954537 4283323457
0.40787017 0.010693252 0.52963269 4283257146
0.4081687 0.010952383 0.52967823 4282993974
0.40846753 0.011211939 0.52972382 4282730800
0.40876666 0.011471912 0.52976942 4282534195
0.40906608 0.01173231 0.52981502 4282336562
0.40936583 0.011993133 0.52986062 4282006829
0.46395001 0.070154354 0.53539461 4279374605
0.46438855 0.070451885 0.53548318 4279440147
0.46464136 0.07080394 0.53548735 4279769360
0.46498749 0.071129367 0.53553373 4279440395
0.46524045 0.071481623 0.53553784 4279440652
0.46558702 0.071807675 0.53558421 4279769363
0.46593389 0.072134152 0.53563058 4279703824
0.46628106 0.072461039 0.53567696 4279375128
0.46662855 0.072788365 0.53572339 4279506714
0.46707055 0.073090732 0.53581202 4279899409
0.46751314 0.073393941 0.53590065 4279899409
0.46786183 0.073722944 0.53594702 4279571729
0.46821082 0.074052364 0.53599346 4279505940
0.46856013 0.074382201 0.53603983 4279637526
0.46890971 0.074712463 0.53608626 4280492829
0.46925962 0.075043149 0.53613269 4281808423
0.46960983 0.075374246 0.53617913 4283584834
0.41236487 -0.026003197 0.54138803 4286878096
0.41275483 -0.02577287 0.54147625 4286547064
0.41303152 -0.02538757 0.54148078 4284835669
0.41347945 -0.025232792 0.5416109 4284440911
0.41387105 -0.025000155 0.54169911 4284111428
0.41420588 -0.024690226 0.54174554 4284111428
0.41459855 -0.024456114 0.54183382 4283848256
0.4149918 -0.024221137 0.54192209 4283716670
0.41544351 -0.024061114 0.54205221 4283125560
0.41583812 -0.023824245 0.54214048 4282993974
0.41623339 -0.023586556 0.54222882 4282664500
0.40623403 0.0089177713 0.52991521 4283387707
0.40646839 0.0092441514 0.52991903 4283782983
0.40670279 0.0095705315 0.5299229 4283980365
0.40693718 0.0098969117 0.52992672 4283980365
0.40723497 0.01015529 0.52997255 4283718215
0.40753308 0.010414079 0.53001833 4283389250
0.40783149 0.010673285 0.53006411 4283126332
0.40813023 0.010932915 0.53010994 4282994746
0.40849325 0.011125796 0.53019774 4282862388
0.40879273 0.011386484 0.53024358 4282599986
0.40909249 0.011647582 0.53028941 4282468148
0.40945703 0.011842579 0.53037715 4282139183
0.40995148 0.011905745 0.53054893 4281941034
0.46379638 0.069844589 0.53589201 4279505164
0.46395659 0.070224039 0.53585368 4279440141
0.46430233 0.070549116 0.53590029 4279702543
0.46455529 0.070901379 0.53590447 4279900176
0.46480829 0.071253642 0.53590858 4279571211
0.46506125 0.071605898 0.53591275 4279506188
0.4654077 0.071932018 0.53595936 4279703824
0.46575448 0.072258577 0.53600597 4279506961
0.46610153 0.072585538 0.53605253 4279375126
0.46654287 0.072887428 0.53614163 4279375126
0.46689069 0.073215447 0.53618824 4279965204
0.46723884 0.073543891 0.53623486 4279834383
0.46768168 0.07384789 0.53632396 4279571476
0.46803054 0.074177377 0.53637058 4279440147
0.46837974 0.074507296 0.53641725 4279769112
0.46863437 0.074861869 0.53642142 4281740584
0.46907902 0.075168386 0.53651053 4282990133
0.41261548 -0.025714129 0.54192841 4286680200
0.41294914 -0.025405586 0.54197496 4286283642
0.41328311 -0.025096655 0.54202163 4285691505
0.4136745 -0.024863854 0.54211032 4284506958
0.41412377 -0.024706572 0.5422411 4284178241
0.41451651 -0.024471864 0.54232979 4283914301
0.41485232 -0.024160385 0.5423764 4283914301
0.41530383 -0.023999944 0.54250723 4283520059
0.41569841 -0.023762733 0.54259598 4283388734
0.41609359 -0.023524672 0.54268473 4282862908
0.40649092 0.0091535971 0.53039289 4283914047
0.40666276 0.0095489696 0.53035456 4283914817
0.40696061 0.0098076165 0.53040057 4283914817
0.40719545 0.010134622 0.53040445 4283717695
0.40755722 0.010326184 0.53049266 4283520318
0.40785599 0.010586105 0.53053868 4283126330
0.4082188 0.010779127 0.53062689 4283126330
0.40851834 0.011040099 0.53067297 4282797365
0.40881813 0.011301495 0.53071904 4282731574
0.40918249 0.011496626 0.53080726 4282403125
0.40948308 0.011759065 0.53085333 4282271539
0.40991297 0.011889413 0.53098381 4282007599
0.46377751 0.070348233 0.53622836 4279374348
0.46412313 0.070673391 0.53627515 4279702797
0.46437609 0.071025655 0.53627932 4279834383
0.46472216 0.071351431 0.53632617 4279571211
0.46497527 0.071703896 0.53633028 4279505934
0.46522838 0.072056368 0.53633446 4279507215
0.46557504 0.072382994 0.5363813 4279375375
0.4660157 0.0726844 0.53647077 4279309333
0.46626928 0.073037505 0.53647494 4279375126
0.46671087 0.07334017 0.53656447 4279769108
0.46705887 0.073668689 0.53661132 4279702545
0.46740723 0.073997624 0.53665817 4279571478
0.46775585 0.074326985 0.53670502 4279571478
0.46810475 0.074656762 0.53675187 4280032029
0.468454 0.074986964 0.53679872 4281805863
0.46880352 0.075317584 0.53684562 4283317565
0.4132005 -0.025113896 0.54251689 4286286471
0.41353497 -0.024804041 0.54256374 4285693038
0.41398406 -0.024646312 0.54269522 4284967759
0.41437674 -0.024411261 0.54278439 4284441161
0.4148275 -0.024251223 0.54291582 4284177989
0.41522154 -0.024014279 0.54300505 4283783233
0.41573173 -0.023927346 0.54317886 4283716670
0.40662232 0.0095276907 0.53078711 4283717692
0.40685731 0.0098549128 0.53079098 4283651645
0.40715551 0.010114267 0.53083724 4283717438
0.40745401 0.010374047 0.53088349 4283455297
0.40781632 0.010566801 0.53097218 4283126330
0.40811557 0.010827631 0.53101844 4283060537
0.40847895 0.011021882 0.53110713 4282863158
0.40884292 0.011216946 0.53119582 4282666549
0.40920752 0.011412866 0.53128457 4282469172
0.40963694 0.011543237 0.53141564 4282337586
0.41006732 0.011674866 0.53154683 4281942574
0.41043401 0.011873722 0.53163552 4281876265
0.46341336 0.07052651 0.53651726 4279571729
0.46375856 0.070851311 0.53656429 4279703313
0.46410406 0.071176544 0.53661132 4279703313
0.46444985 0.071502194 0.53665841 4279505934
0.46479595 0.071828246 0.53670537 4279440652
0.46504909 0.072180718 0.53670955 4279375627
0.46539563 0.072507419 0.53675663 4279309582
0.46583608 0.072808973 0.53684658 4279309081
0.46608967 0.073162079 0.53685075 4279374874
0.4664371 0.073490039 0.53689778 4279506714
0.46687892 0.073793478 0.53698778 4279505690
0.46713296 0.07414721 0.53699195 4279703064
0.46748132 0.074476436 0.53703904 4280031259
0.46783 0.074806087 0.53708613 4280623396
0.46817896 0.07513614 0.53713322 4283449151
0.41385043 -0.025355399 0.54335785 4286220929
0.41390121 -0.024662122 0.54319233 4285297247
0.41429397 -0.024426505 0.54328191 4284901716
0.41497412 -0.024568945 0.54358417 4284441165
0.41587955 -0.024242133 0.54384857 4283782461
0.40658146 0.0095067173 0.53122061 4283783485
0.40681675 0.0098343566 0.53122449 4283586106
0.40711513 0.010094211 0.53127098 4283651647
0.40747708 0.010286897 0.53136009 4283258686
0.40783963 0.010480449 0.5314492 4282995512
0.40813923 0.010741979 0.53149569 4282995512
0.40850285 0.010936998 0.53158486 4282863156
0.40886706 0.011132844 0.53167397 4282731570
0.40923187 0.011329547 0.53176314 4282599988
0.40972561 0.011394456 0.5319376 4282468402
0.41009194 0.011593252 0.53202677 4282271023
0.46286479 0.070758425 0.53671908 4279506193
0.463487 0.0710022 0.53689563 4279637777
0.46383223 0.071327284 0.5369429 4279637777
0.46417779 0.071652792 0.53699017 4279309836
0.4644306 0.072004847 0.53699434 4279309836
0.46486977 0.072305068 0.5370847 4279375625
0.46521622 0.072631843 0.53713197 4279309584
0.46556294 0.072959036 0.53717923 4279178267
0.46591002 0.073286653 0.5372265 4279375646
0.46625739 0.073614679 0.53727382 4279375646
0.4665111 0.073967993 0.537278 4279506714
0.46685892 0.074296653 0.53732526 4279572505
0.46730125 0.074601308 0.53741568 4280622364
0.46755546 0.074955255 0.53741986 4280951329
0.4068386 0.0097461715 0.53170168 4283652156
0.40707433 0.010074444 0.53170556 4283651902
0.40743637 0.01026772 0.53179514 4283389502
0.40773571 0.010529116 0.53184187 4283060537
0.40809882 0.010723852 0.5319314 4282994226
0.40846249 0.010919429 0.53202105 4282993715
0.40889055 0.011049204 0.53215349 4282993715
0.40925562 0.011246674 0.53224307 4282796336
0.40968531 0.01137875 0.53237557 4282730800
0.41011596 0.011512086 0.53250808 4282599986
0.46259403 0.070909075 0.53704906 4279440400
0.46312317 0.071179613 0.53718323 4279375377
0.46356064 0.071477875 0.537274 4279573008
0.46390593 0.071803257 0.53732151 4279309834
0.46425152 0.072129048 0.53736895 4279375627
0.4645974 0.072455257 0.53741646 4279506441
0.46503678 0.072756268 0.5375073 4279440147
0.46538341 0.073083535 0.5375548 4279244310
0.46563685 0.073436432 0.53755897 4279178517
0.46598396 0.073764324 0.53760648 4279375894
0.46633136 0.074092641 0.53765398 4279506191
0.46667907 0.074421376 0.53770149 4279769617
0.46693295 0.074774906 0.53770566 4281345310
0.4672811 0.075104281 0.53775322 4282529584
0.40739524 0.010248818 0.53223109 4283389502
0.40775794 0.010443494 0.5323211 4283060537
0.40805793 0.010706015 0.53236806 4282665007
0.40848523 0.010835379 0.53250116 4282796336
0.40884978 0.011032574 0.53259122 4282927922
0.40921491 0.011230618 0.53268129 4282927922
0.4096446 0.011363335 0.5328145 4282730800
0.41013929 0.011431366 0.53299075 4282731572
0.41057098 0.011566825 0.53312397 4282402607
0.46179569 0.070790276 0.53724384 4279506443
0.46232349 0.07105957 0.53737867 4279440652
0.46266744 0.071383335 0.53742629 4279703570
0.46319672 0.071654722 0.53756112 4279637777
0.4635416 0.071979754 0.5376088 4279440652
0.4638868 0.072305188 0.53765655 4279506445
0.46432522 0.072605297 0.5377478 4279506443
0.46476424 0.072906241 0.53783906 4279505942
0.46511066 0.073233373 0.5378868 4279376147
0.46545732 0.073560923 0.53793454 4279376147
0.46580434 0.073888898 0.53798223 4279375375
0.46615162 0.07421729 0.53803003 4279375625
0.46640533 0.074570596 0.53803414 4279900172
0.4667531 0.074899629 0.53808188 4281742380
0.46710116 0.075229071 0.53812969 4283189826
0.40844393 0.010818481 0.53293937 4282862390
0.40880856 0.011016257 0.53302991 4282862390
0.40917379 0.011214867 0.53312039 4282928183
0.40960345 0.011348233 0.53325427 4282862390
0.41009802 0.011416979 0.53343141 4282731320
0.46084052 0.070296302 0.53747654 4279440648
0.46118304 0.070618257 0.5375244 4279703820
0.46161777 0.070913658 0.53761607 4279638027
0.46205315 0.071209915 0.53770775 4279440650
0.46248907 0.071507022 0.53779942 4279703824
0.46283326 0.071831271 0.53784734 4279637779
0.46327028 0.072129846 0.53793901 4279440652
0.46361518 0.072455153 0.53798693 4279506445
0.46396041 0.072780877 0.53803486 4279506445
0.46439895 0.073081553 0.53812659 4279571478
0.46483806 0.073383063 0.53821832 4279506963
0.46518451 0.073710486 0.5382663 4279506963
0.46553123 0.074038319 0.53831422 4279375375
0.46597189 0.074341938 0.53840601 4279506693
0.46622562 0.074695244 0.53841019 4280557073
0.46657324 0.075024351 0.53845811 4282596402
0.46692118 0.075353868 0.53850609 4283649090
0.40913224 0.011199415 0.5335604 4282862386
0.40962562 0.011267401 0.53373849 4282599214
0.46022946 0.070125386 0.53775597 4279375375
0.46047986 0.070474066 0.53776008 4279375629
0.46091363 0.07076858 0.53785217 4279507215
0.46125618 0.071090803 0.53790027 4279638029
0.46169102 0.071386784 0.53799236 4279506443
0.46212646 0.071683601 0.53808451 4279703567
0.46247023 0.072007515 0.53813267 4279703315
0.46290672 0.072305813 0.53822476 4279703315
0.46334383 0.072604954 0.53831697 4279571729
0.46378154 0.07290493 0.53840911 4279506963
0.46412694 0.073231153 0.53845727 4279703315
0.46465874 0.073507413 0.53859341 4279506963
0.46500507 0.073834911 0.53864163 4279375377
0.4653517 0.074162818 0.53868979 4279375629
0.46579212 0.074466579 0.538782 4279967498
0.46604586 0.074819893 0.53878617 4280689679
0.46639341 0.075149074 0.53883439 4283847473
0.4108783 0.011665106 0.53458595 4282534191
0.4595283 0.06998264 0.53799027 4279243791
0.45996079 0.070275828 0.53808284 4279637526
0.46021104 0.070624299 0.53808695 4279506191
0.46064445 0.070918754 0.53817946 4279506712
0.46098673 0.071240842 0.5382278 4279506961
0.46132934 0.071563356 0.53827614 4279375375
0.46176428 0.071859896 0.5383687 4279703570
0.46219981 0.072157294 0.53846127 4279637526
0.46263593 0.07245554 0.53855389 4279769108
0.46307266 0.072754607 0.53864646 4279571729
0.46341735 0.073080063 0.53869486 4279572503
0.46385515 0.073380612 0.53878748 4279834131
0.46438652 0.073656887 0.53892434 4279506963
0.46482566 0.073959328 0.53901696 4279375377
0.46526542 0.074262619 0.53910959 4279638029
0.46561241 0.074591227 0.53915805 4279968266
0.46595967 0.074920259 0.53920645 4280296456
0.45882866 0.069840729 0.53822333 4279177747
0.4592602 0.070133008 0.53831625 4279309333
0.45960116 0.07045348 0.53836483 4279571727
0.45994246 0.070774391 0.53841335 4279571727
0.46028402 0.07109572 0.53846192 4279572507
0.4607175 0.071390733 0.53855491 4279506710
0.46105984 0.071713105 0.53860343 4279506710
0.46149442 0.072009593 0.53869647 4279769365
0.46192956 0.072306931 0.53878951 4279769108
0.46236533 0.072605103 0.53888255 4279506191
0.46280169 0.07290411 0.53897554 4279637777
0.46314615 0.073229432 0.53902417 4279572756
0.46367627 0.073504664 0.53916168 4279637779
0.46411446 0.073806204 0.53925478 4279637777
0.46455324 0.074108586 0.53934783 4279637777
0.46499264 0.074411809 0.53944093 4279966735
0.46543264 0.074715868 0.53953403 4280493581
0.41455948 0.011955284 0.53691941 4281679404
0.45794937 0.06975545 0.53836572 4278981387
0.4586519 0.069963291 0.53859305 4279374354
0.45890141 0.070310712 0.53859717 4279440147
0.45933303 0.070603564 0.53869057 4279769360
0.45967406 0.070924327 0.53873932 4279703570
0.46001539 0.071245521 0.53878808 4279769112
0.46035701 0.071567133 0.5388369 4279703572
0.4606989 0.071889162 0.53888565 4279637779
0.46113294 0.072185375 0.53897911 4280030997
0.46156758 0.072482437 0.53907257 4279899922
0.46200287 0.072780326 0.53916603 4279506188
0.4624387 0.073079079 0.53925955 4279571981
0.46287516 0.073378652 0.53935301 4279506963
0.4634048 0.073653907 0.53949124 4279703567
0.46384263 0.073955372 0.53958476 4279703567
0.46437395 0.074232936 0.53972292 4279769360
0.46490616 0.074511759 0.5398612 4280295957
0.4135702 0.011710823 0.53705388 4282272052
0.41457954 0.011885375 0.53741759 4281876783
0.45777315 0.069877654 0.53873432 4279112973
0.4582032 0.070168756 0.53882813 4279374607
0.45863384 0.070460707 0.53892201 4279440400
0.45906514 0.0707535 0.53901589 4279703824
0.45940587 0.071074128 0.53906482 4279703570
0.45974696 0.071395174 0.53911382 4279638298
0.46008831 0.071716644 0.53916281 4279637526
0.46042997 0.072038546 0.53921187 4279637526
0.46086365 0.072334692 0.53930575 4280030995
0.46138978 0.072605744 0.53944457 4279769106
0.46182483 0.07290379 0.5395385 4279440652
0.46198398 0.073279262 0.53949767 4279440652
0.46241978 0.073578373 0.53959161 4279506961
0.46285617 0.073878318 0.53968555 4279703824
0.46357101 0.074104398 0.53991425 4279703567
0.46410185 0.074381977 0.54005313 4279835153
0.41296962 0.011083528 0.53745419 4282732090
0.41327941 0.011361301 0.53750288 4282666297
0.41378278 0.011447608 0.53768563 4282535224
0.4141582 0.011663109 0.53777903 4282403638
0.41459894 0.011815906 0.53791708 4282139953
0.41523516 0.011779971 0.53818923 4282008367
0.41567817 0.01193592 0.53832734 4281482538
0.45707744 0.069737419 0.53896356 4279244041
0.45750654 0.07002762 0.53905785 4279309834
0.45793623 0.070318662 0.53915215 4279505934
0.45836651 0.070610538 0.53924644 4279703824
0.45870656 0.070930406 0.53929561 4279703824
0.45913792 0.071223766 0.53938991 4279506961
0.45938757 0.071571402 0.53939402 4279638298
0.45981982 0.071866021 0.53948838 4279309584
0.46016124 0.072187781 0.53953755 4279506963
0.46059453 0.072483875 0.5396319 4279571979
0.46102846 0.072780803 0.53972626 4279703565
0.46146297 0.073078588 0.53982067 4279374859
0.46171397 0.073428109 0.53982478 4279440652
0.4620572 0.073752388 0.53987402 4279506443
0.41280544 0.010604128 0.53799367 4282863160
0.41317961 0.01081831 0.53808749 4282994746
0.4134261 0.011161521 0.53809148 4282863930
0.41386545 0.011313066 0.53823024 4282666551
0.41417682 0.01159323 0.53827918 4282469172
0.41474691 0.011619948 0.53850776 4282206000
0.415189 0.011775278 0.53864658 4282206000
0.41550219 0.012057975 0.53869551 4281810988
0.41581568 0.012341082 0.53874451 4281482023
0.45577615 0.069366194 0.53900611 4279244043
0.45638332 0.069598004 0.53919148 4279309836
0.45672131 0.069915205 0.53924084 4279309834
0.45714986 0.07020513 0.53933561 4279309832
0.4576695 0.070468418 0.53947562 4279637004
0.45800883 0.070787512 0.53952503 4279769358
0.45843917 0.071079962 0.5396198 4279703565
0.45877928 0.071400113 0.53966922 4279375375
0.45921072 0.071694046 0.53976399 4279572756
0.45955157 0.072015241 0.5398134 4279309582
0.45980138 0.072363086 0.53981751 4279506961
0.46023417 0.072658904 0.53991234 4279571979
0.46057591 0.072981365 0.53996176 4279638027
0.46110156 0.073253073 0.54010195 4279374857
0.46126032 0.073627561 0.5400607 4279506443
0.42207503 -0.02269651 0.55190992 4283324227
0.42248464 -0.022432536 0.55200475 4283192641
0.42289487 -0.022167698 0.55209965 4282995262
0.42324662 -0.021831065 0.55214947 4282797367
0.42359871 -0.021494001 0.5521993 4282469172
0.41326058 0.010682449 0.53863317 4283125560
0.41350764 0.011026502 0.53863722 4282994746
0.41394728 0.011179104 0.53877664 4282863160
0.41432351 0.011396594 0.53887099 4282469172
0.41463584 0.011678301 0.53892016 4282337586
0.4150131 0.011897251 0.53901452 4282403377
0.41532618 0.012180015 0.53906369 4281942826
0.41570452 0.012400441 0.53915805 4281877033
0.45526421 0.069171853 0.53932291 4279045640
0.45560101 0.069487646 0.5393725 4279638027
0.45602798 0.069775835 0.53946769 4279375625
0.45645559 0.070064865 0.53956282 4279375625
0.45688379 0.07035473 0.53965795 4279375625
0.45731258 0.070645437 0.53975314 4279571977
0.45774201 0.070936978 0.53984833 4279703565
0.45808139 0.071256362 0.53989798 4279571979
0.45842105 0.071576163 0.53994763 4279375375
0.45885199 0.07186982 0.54004282 4279507215
0.45919243 0.072190672 0.54009247 4279375629
0.45953315 0.072511949 0.54014218 4279507215
0.45996559 0.072807699 0.54023737 4279506961
0.46021557 0.073155761 0.54024148 4279506186
0.46064889 0.073452786 0.54033673 4279440143
0.46108282 0.073750645 0.54043198 4279506191
0.46133339 0.074099541 0.54043609 4279637777
0.42163432 -0.023031503 0.55238324 4283520838
0.42204356 -0.022767588 0.55247855 4283455043
0.42239478 -0.022431508 0.55252862 4283257664
0.42280507 -0.022166118 0.55262393 4283060285
0.42309812 -0.02175808 0.55262876 4282731320
0.4235093 -0.021491423 0.55272406 4282600504
0.42386189 -0.021153465 0.55277419 4282140468
0.42409596 -0.020674527 0.55273372 4281811503
0.41358835 0.010892071 0.53918475 4283060537
0.41390011 0.011173233 0.53923416 4282994744
0.41414794 0.011518344 0.53923821 4282469170
0.41452456 0.01173681 0.53933299 4282403377
0.41483721 0.012019224 0.53938246 4282469170
0.4152149 0.012239158 0.53947723 4282337584
0.415658 0.012397259 0.53961742 4282008619
0.45432749 0.068691544 0.53954369 4279373828
0.45457411 0.069034964 0.53954774 4279308807
0.45499969 0.069321617 0.53964329 4279308814
0.45542586 0.069609106 0.53973889 4279638549
0.45576286 0.069925398 0.53978872 4279573008
0.45619011 0.070214361 0.53988433 4279375629
0.45652786 0.070531718 0.53993416 4279375627
0.45695615 0.070822157 0.54002976 4279638027
0.45738506 0.071113437 0.54012537 4279638031
0.45781454 0.071405545 0.54022104 4279506445
0.45815396 0.071725212 0.54027092 4279375377
0.45858452 0.07201881 0.54036653 4279375375
0.45892471 0.072339527 0.54041642 4279507215
0.45926517 0.072660662 0.54046631 4279573008
0.45960596 0.072982222 0.5405162 4279506961
0.46003848 0.073278546 0.54061192 4279506191
0.46038002 0.073601156 0.54066181 4279505685
0.46072185 0.073924199 0.5407117 4279244058
0.42125118 -0.023438662 0.55290252 4284575077
0.42154375 -0.023031265 0.55290729 4283717447
0.42195308 -0.022766769 0.55300307 4283651906
0.42230451 -0.022430182 0.55305338 4283520061
0.42265618 -0.022093192 0.55310363 4283520061
0.4230082 -0.02175577 0.55315393 4283059515
0.42336053 -0.021417946 0.55320424 4282862908
0.42371315 -0.021079689 0.55325454 4282337593
0.42406607 -0.020741016 0.55330485 4282008369
0.42441928 -0.02040191 0.55335522 4281745197
0.41372454 0.011294991 0.53960145 4282863928
0.41403651 0.011576638 0.5396511 4282732342
0.41434878 0.011858709 0.53970075 4282666549
0.41472575 0.012078166 0.53979599 4282601271
0.41497421 0.012424111 0.53980005 4282337845
0.45388561 0.068898901 0.5397712 4279374082
0.45439941 0.069156125 0.53991324 4279374859
0.4547354 0.06947124 0.53996325 4279834648
0.45516121 0.069758669 0.54005927 4279638549
0.45549798 0.070074826 0.54010934 4279572754
0.45583501 0.070391402 0.5401594 4279506961
0.45626235 0.070680939 0.54025543 4279375627
0.45669025 0.070971318 0.54035151 4279507211
0.45702851 0.071289584 0.54040158 4279703567
0.45745748 0.071581431 0.54049766 4279571981
0.45788708 0.071874112 0.54059374 4279440398
0.45831728 0.07216765 0.54068983 4279440398
0.45865718 0.072488226 0.54073995 4279506961
0.4589974 0.072809234 0.54079002 4279572754
0.45933795 0.073130652 0.54084015 4279506963
0.45977008 0.073426917 0.54093629 4279506193
0.46020284 0.073724031 0.54103243 4279571476
0.46045297 0.074072294 0.54103655 4279375644
0.4211019 -0.023366719 0.55338174 4284575853
0.42145276 -0.023030713 0.55343229 4283652940
0.42186219 -0.022765651 0.55352849 4283783233
0.42221376 -0.022428572 0.55357897 4283585852
0.42250711 -0.022020131 0.5535838 4283520059
0.42285913 -0.021682441 0.55363435 4283191096
0.42321151 -0.021344304 0.55368489 4283059515
0.42356417 -0.021005765 0.55373538 4282402873
0.42385793 -0.020596683 0.55374026 4282139185
0.42415172 -0.020187616 0.55374503 4281941806
0.424505 -0.019848228 0.55379558 4281482025
0.41361284 0.011353143 0.54001451 4283127102
0.41386083 0.011698462 0.54001856 4282863930
0.41417298 0.011980608 0.54006845 4282798137
0.41454977 0.012200214 0.54016411 4282666810
0.45388913 0.068962522 0.54022843 4279440391
0.45422471 0.069277287 0.54027867 4279900443
0.45456058 0.069592468 0.54032898 4279769112
0.45489678 0.069908075 0.54037923 4279638296
0.45523328 0.070224099 0.54042947 4279704342
0.45557004 0.07054054 0.54047978 4279572756
0.45599699 0.070830017 0.54057628 4279376147
0.45633456 0.071147516 0.54062653 4279376147
0.45676255 0.071438462 0.54072309 4279703315
0.45719117 0.071730241 0.54081959 4279703315
0.45762041 0.072022863 0.54091614 4279636750
0.45795962 0.072342686 0.54096645 4279505934
0.45829913 0.07266292 0.54101676 4279505942
0.45872983 0.07295765 0.54111332 4279637528
0.45907012 0.073278934 0.54116368 4279506193
0.45959312 0.073549636 0.5413065 4279965456
0.45984292 0.073897481 0.54131055 4279899409
0.46018428 0.07422024 0.54136091 4279769108
0.46052587 0.074543417 0.54141128 4279769108
0.42141932 -0.023101375 0.55400407 4285234034
0.42177081 -0.022764236 0.5540548 4284179018
0.4220643 -0.022355586 0.55405962 4283717949
0.42241624 -0.022017807 0.55411035 4283652156
0.4227685 -0.02167961 0.55416113 4283585852
0.42306229 -0.021270528 0.55416596 4283256889
0.42335606 -0.020861447 0.55417079 4282993976
0.42364985 -0.02045238 0.55417562 4282401585
0.42400283 -0.020113125 0.55422634 4282269999
0.42423737 -0.019634217 0.55418521 4281941806
0.42459071 -0.019294545 0.55423599 4281876013
0.42476523 -0.018746853 0.55414891 4281678634
0.41350093 0.011411443 0.54042804 4283258436
0.41374907 0.011756979 0.5404321 4282864189
0.41406125 0.012039408 0.54048222 4282798396
0.45362568 0.069112182 0.54054725 4279571979
0.45396098 0.06942682 0.54059774 4279900698
0.45420748 0.069770038 0.54060179 4279900698
0.45463255 0.070057333 0.54069871 4279638296
0.45496878 0.070373222 0.54074919 4279704342
0.45530531 0.070689537 0.54079968 4279572756
0.4557319 0.07097894 0.54089665 4279375894
0.45606917 0.071296304 0.54094714 4279375894
0.45649683 0.07158719 0.54104412 4279703062
0.45683485 0.071905598 0.54109466 4279571476
0.45726359 0.072197959 0.54119164 4279702032
0.45769289 0.072491147 0.54128861 4279571727
0.45803213 0.072811246 0.54133916 4279703313
0.45846251 0.073105916 0.54143614 4279571727
0.45889348 0.073401429 0.54153317 4279571727
0.45923394 0.073723212 0.54158372 4280030477
0.45966595 0.074020199 0.54168075 4279965202
0.45991576 0.074368045 0.54168487 4279769360
0.46034873 0.074666277 0.5417819 4279769360
0.42138529 -0.023171604 0.55457717 4286024318
0.42167908 -0.022762522 0.554582 4285956208
0.42203104 -0.022424459 0.55463296 4283980867
0.42238334 -0.02208598 0.55468392 4283849281
0.42261893 -0.021605879 0.55464262 4283651904
0.42297149 -0.021266982 0.55469358 4283520066
0.42320678 -0.020787299 0.55465227 4283125562
0.42350069 -0.020378023 0.5546571 4282993976
0.42379463 -0.019968733 0.55466193 4282467630
0.42402929 -0.019489884 0.55462062 4282204458
0.4242636 -0.019011483 0.55457926 4282073390
0.42449766 -0.018533483 0.55453789 4281810220
0.42473143 -0.018055916 0.55449653 4281612841
0.45327371 0.069290213 0.54081899 4279836178
0.45360863 0.069604501 0.54086971 4280164373
0.45394385 0.069919199 0.54092038 4280164123
0.45436853 0.070206441 0.54101777 4279704342
0.45461518 0.070549861 0.54102182 4279704340
0.45504078 0.070838377 0.54111922 4279506961
0.45537734 0.071154967 0.54116988 4279441940
0.45580405 0.071444944 0.54126734 4279376147
0.45614135 0.071762592 0.54131806 4279703315
0.45656908 0.072054043 0.54141545 4279571729
0.45690718 0.072372742 0.54146624 4279898388
0.45742637 0.072639473 0.5416103 4279703315
0.4577654 0.072959431 0.54166108 4279440652
0.45819539 0.073254034 0.54175854 4279506188
0.45862597 0.073549487 0.54185599 4279703567
0.45905721 0.073845774 0.54195344 4279834381
0.45939785 0.074168056 0.54200429 4279834129
0.45964751 0.074515685 0.54200834 4279835410
0.45998859 0.074838594 0.54205918 4279769617
0.42135057 -0.023241371 0.55515164 4286090113
0.42164481 -0.022831663 0.55515647 4285759601
0.42193905 -0.022421956 0.5551613 4284441420
0.42229152 -0.022082984 0.5552125 4284178248
0.42252749 -0.021602541 0.55517095 4283651904
0.42276317 -0.021122515 0.55512941 4283585861
0.42305726 -0.020713016 0.55513424 4283256894
0.42335135 -0.020303518 0.55513906 4283125308
0.4235864 -0.019824341 0.55509752 4282665011
0.42382115 -0.019345582 0.55505598 4282401839
0.42405561 -0.018867239 0.55501437 4282336562
0.42423031 -0.018320262 0.5549264 4281876011
0.42446402 -0.017842978 0.55488479 4281678380
0.4530108 0.069439523 0.54113674 4280164373
0.45334545 0.069753654 0.54118764 4280230166
0.4536804 0.070068225 0.54123855 4280229914
0.45401567 0.070383213 0.54128945 4279770135
0.45444044 0.070671022 0.54138732 4279770135
0.45477647 0.070987061 0.54143822 4279572756
0.45511279 0.071303524 0.54148918 4279376145
0.4554494 0.071620405 0.54154015 4279376145
0.45587617 0.071910948 0.54163802 4279637777
0.45630354 0.07220234 0.54173583 4279637777
0.4567315 0.072494566 0.5418337 4280029974
0.45716009 0.072787642 0.54193157 4279703315
0.45749885 0.073107466 0.54198259 4279309582
0.45792848 0.07340201 0.54208046 4279506188
0.45835871 0.073697403 0.54217839 4279703567
0.45869863 0.074018911 0.54222935 4279703565
0.45912993 0.074315771 0.54232728 4279571727
0.45937943 0.074663192 0.5423314 4279835408
0.42166778 -0.022971451 0.55577886 4285959038
0.4218466 -0.022419155 0.55569053 4285761659
0.42219931 -0.022079676 0.55574197 4285166179
0.42243567 -0.02159889 0.55570018 4284309584
0.42267174 -0.021118522 0.55565846 4284046412
0.42290753 -0.02063857 0.55561662 4283520068
0.42314303 -0.020159051 0.55557489 4283454275
0.42337817 -0.019679949 0.55553311 4283191103
0.42361307 -0.019201249 0.55549133 4282862136
0.42384762 -0.018722981 0.55544949 4282534195
0.4240225 -0.018176168 0.55536109 4282139953
0.42419681 -0.01763019 0.55527264 4281811503
0.45274806 0.069588669 0.54145396 4280033559
0.45281643 0.069987133 0.54136384 4280165145
0.45341718 0.070217103 0.54155624 4280033559
0.45375219 0.070531949 0.54160738 4279770133
0.4540875 0.070847228 0.54165858 4279704340
0.45451236 0.071135603 0.54175681 4279572754
0.45484841 0.071451932 0.54180801 4279376145
0.45527437 0.07174179 0.5419063 4279309331
0.45552146 0.072085842 0.54191035 4279637777
0.45594829 0.072376952 0.54200864 4279768855
0.45637578 0.07266891 0.54210699 4279900441
0.45680383 0.072961718 0.54220527 4279506963
0.45714217 0.073281199 0.54225647 4279178766
0.45766178 0.073549837 0.54240197 4279571981
0.45809165 0.073845163 0.54250032 4279703567
0.45852211 0.074141324 0.54259866 4279703315
0.45877132 0.074488327 0.54260278 4279571476
0.4591116 0.074810542 0.54265398 4279835410
0.42151666 -0.022897616 0.55626261 4285959040
0.42181164 -0.022486866 0.5562675 4285827454
0.42210662 -0.0220761 0.55627233 4285694323
0.42234343 -0.021594957 0.55623031 4284507481
0.42252153 -0.021044075 0.5561415 4284310354
0.4227576 -0.02056399 0.55609953 4283651654
0.4229933 -0.020084321 0.55605751 4283651654
0.42322877 -0.01960507 0.55601549 4283520068
0.42346388 -0.019126251 0.55597347 4283125308
0.4235805 -0.018509626 0.55583781 4282732344
0.42381471 -0.018032059 0.55579579 4282337845
0.42398924 -0.017486244 0.55570686 4281942835
0.42416316 -0.016941249 0.55561799 4281745456
0.42433646 -0.016397104 0.55552912 4281482284
0.42456901 -0.015921861 0.55548704 4281415980
0.45273116 0.070079617 0.54177481 4279968033
0.45306545 0.070393704 0.54182619 4280098328
0.45340005 0.070708208 0.54187757 4279835156
0.45382398 0.070995681 0.54197627 4279704342
0.45415932 0.071311235 0.54202765 4279572756
0.45449495 0.071627215 0.54207903 4279506963
0.45492038 0.071916796 0.54217774 4279375126
0.45525679 0.072233826 0.54222918 4279637526
0.45568329 0.072524875 0.54232788 4279637526
0.45611036 0.072816774 0.54242665 4279637526
0.45644799 0.073135488 0.54247808 4279309584
0.45696637 0.07340309 0.54262424 4279506961
0.45730489 0.07372307 0.54267561 4279571727
0.45773426 0.074018113 0.54277444 4279703313
0.45816422 0.074314013 0.54287326 4279703313
0.4585948 0.074610747 0.54297203 4279834129
0.45875299 0.074982464 0.54292881 4279769617
0.42171824 -0.022483379 0.5567987 4285892996
0.42195559 -0.022001684 0.5567565 4285761410
0.42213458 -0.021450117 0.55666727 4285366137
0.42237115 -0.020969465 0.55662501 4285166183
0.42254904 -0.020419374 0.55653578 4284178514
0.42278489 -0.01993978 0.55649352 4283849549
0.42302042 -0.019460618 0.55645132 4283717447
0.42325568 -0.018981859 0.55640906 4283454275
0.4233726 -0.018365458 0.55627269 4283192643
0.42360693 -0.017887965 0.55623043 4282798396
0.42378166 -0.017342284 0.55614114 4282403127
0.4239558 -0.016797453 0.55605179 4282008369
0.42418891 -0.016321644 0.55600953 4281810990
0.42430222 -0.015710294 0.5558731 4281548847
0.42447454 -0.015167966 0.55578369 4281023016
0.42470628 -0.014694065 0.55574143 4280825126
0.45347175 0.071171366 0.54224598 4279638549
0.45389575 0.071459413 0.54234511 4279506963
0.45423114 0.071775243 0.54239672 4279572754
0.45456684 0.07209152 0.54244834 4279637779
0.45499235 0.07238166 0.54254752 4279506710
0.45532879 0.072698981 0.54259914 4279375126
0.45566553 0.073016711 0.54265076 4279506712
0.45618257 0.073283061 0.54279757 4279309584
0.45661032 0.073576376 0.54289675 4279506963
0.45703873 0.073870525 0.54299599 4279506193
0.45746773 0.074165508 0.54309523 4279637779
0.45780677 0.07448639 0.54314691 4279703315
0.45823681 0.074782863 0.54324615 4279965202
0.45857656 0.075104803 0.54329783 4279900946
0.42174652 -0.021856695 0.55719388 4285696387
0.42209965 -0.021515965 0.55724603 4285367422
0.42222053 -0.020894736 0.557109 4285430899
0.42239881 -0.020344555 0.55701929 4284508251
0.4226349 -0.019864827 0.55697685 4283850321
0.4228121 -0.019316137 0.55688709 4283717963
0.42304745 -0.018837467 0.55684465 4283520584
0.4232825 -0.018359214 0.55680221 4283455563
0.42339915 -0.017743871 0.55666512 4282864189
0.42357409 -0.017198339 0.55657536 4282599734
0.42374843 -0.016653657 0.55648559 4282468148
0.42398167 -0.016177922 0.5564431 4282073390
0.42409527 -0.015566781 0.55630594 4281745710
0.42426783 -0.015024617 0.55621618 4281220136
0.42443973 -0.014483303 0.55612636 4280890917
0.4528535 0.071428642 0.54237139 4279704091
0.45345446 0.071661606 0.54256654 4279506963
0.4538784 0.071950011 0.5426662 4279506963
0.45421371 0.07226593 0.54271799 4279769106
0.45463869 0.07255581 0.54281765 4279637530
0.45497474 0.072872773 0.54286945 4279505944
0.45540079 0.073164128 0.54296911 4279637530
0.45582747 0.073456317 0.54306877 4279505940
0.45625472 0.073749356 0.54316843 4279506963
0.45659244 0.074068636 0.54322028 4279375377
0.45711109 0.074337944 0.5433678 4279506963
0.45726874 0.074708462 0.54332405 4279506963
0.45769799 0.075004235 0.54342377 4279900692
0.45812783 0.075300843 0.54352349 4280360977
0.42165291 -0.021852449 0.55772626 4285892996
0.42183259 -0.021300733 0.55763608 4285499008
0.42201167 -0.020749897 0.55754596 4285695104
0.42224833 -0.020269603 0.55750328 4285430897
0.42242634 -0.019720212 0.5574131 4284707174
0.42266226 -0.01924099 0.55737042 4283850832
0.42283922 -0.018693075 0.55728024 4283783756
0.42313316 -0.018283784 0.55728507 4283653455
0.42325029 -0.017668456 0.55714732 4283192904
0.42342559 -0.017122865 0.55705714 4282929217
0.42365953 -0.016646355 0.55701441 4282797631
0.42377439 -0.016034186 0.55687666 4282732092
0.4239479 -0.015491128 0.55678642 4282468148
0.42406109 -0.014881253 0.55664861 4282007597
0.42429304 -0.014407501 0.55660588 4281284905
0.45310271 0.071836352 0.5428347 4279638549
0.45343712 0.072151288 0.54288673 4279572756
0.45377183 0.072466642 0.54293877 4279769106
0.45419618 0.072756037 0.54303885 4279637276
0.45462114 0.073046274 0.54313892 4279703066
0.45504665 0.073337354 0.543239 4279703066
0.45538306 0.073655024 0.54329109 4279506193
0.45580965 0.073947579 0.54339117 4279637777
0.45623684 0.074240968 0.5434913 4279309331
0.45657444 0.074560329 0.5435434 4279506710
0.4570027 0.074855193 0.54364353 4279572754
0.45743158 0.075150907 0.54374367 4279900946
0.4217968 -0.021365985 0.55821663 4286024833
0.42197657 -0.020814657 0.55812603 4285892734
0.42209765 -0.020194501 0.55798769 4285893247
0.42221782 -0.019575596 0.55784935 4285630075
0.42245382 -0.019096449 0.55780643 4284248670
0.42268956 -0.018617705 0.55776358 4283851075
0.42292494 -0.018139392 0.55772066 4283719239
0.42310122 -0.017592892 0.55763 4283390022
0.4232769 -0.017047226 0.55753934 4283324229
0.42345196 -0.01650241 0.55744863 4283258182
0.42356715 -0.015890464 0.55731022 4282929471
0.42374086 -0.015347555 0.55721951 4282928701
0.42391396 -0.014805466 0.55712879 4282336564
0.42408645 -0.014264226 0.55703807 4281942322
0.45257387 0.072064668 0.54300547 4279638296
0.45299646 0.072352111 0.54310596 4279572503
0.45341969 0.072640389 0.54320645 4279769108
0.4538435 0.072929516 0.54330695 4279637276
0.45426792 0.073219478 0.5434075 4279637530
0.45469296 0.073510289 0.54350799 4279505944
0.45502892 0.073827624 0.54356027 4279505940
0.45545501 0.074119896 0.54366088 4279769358
0.45588171 0.074413016 0.54376137 4279637777
0.4562189 0.07473202 0.54381371 4279637777
0.45664662 0.075026616 0.54391432 4279900946
0.4220047 -0.020188823 0.55852056 4285828222
0.42206737 -0.019500345 0.55833358 4285499257
0.42230365 -0.019021064 0.55829042 4284841577
0.42248121 -0.018473238 0.55819935 4284181323
0.42271674 -0.017995 0.55815619 4283916614
0.4228932 -0.017448649 0.55806512 4283586629
0.42306909 -0.016903132 0.55797398 4283586629
0.42324439 -0.016358465 0.55788291 4283455815
0.42335987 -0.015746742 0.55774379 4283324229
0.4235338 -0.015203983 0.55765259 4283192643
0.42370713 -0.014662027 0.55756146 4282533941
0.42387983 -0.014120936 0.55747032 4282271287
0.45204586 0.072292402 0.54317445 4279441687
0.45264524 0.072525837 0.54337227 4279507480
0.45306793 0.072813854 0.54347324 4279638296
0.45358032 0.073076464 0.54362261 4279703319
0.45391515 0.073392391 0.54367512 4279769114
0.45433965 0.073682919 0.54377609 4279637528
0.45467523 0.073999904 0.54382861 4279440400
0.45510077 0.074291915 0.54392958 4279703824
0.45552695 0.07458476 0.54403061 4279703572
0.45586374 0.074903421 0.54408312 4279835158
0.45638114 0.075172976 0.54423267 4279835158
0.42215326 -0.01894553 0.55877489 4285631097
0.42238951 -0.018466532 0.55873156 4285169259
0.42262542 -0.017987937 0.55868816 4284904026
0.42274383 -0.017372862 0.55854845 4284177991
0.42292005 -0.016827285 0.5584569 4284046405
0.4230957 -0.016282558 0.55836529 4283850055
0.42327076 -0.015738666 0.55827373 4283718985
0.42338598 -0.015128016 0.55813396 4283718987
0.4235003 -0.014518604 0.55799413 4283323459
0.42367321 -0.013977662 0.55790251 4282994494
0.42384556 -0.013437569 0.5578109 4282797115
0.45271665 0.072987005 0.54373908 4279507482
0.45322841 0.073249415 0.54388916 4279572505
0.45365193 0.073539048 0.54399061 4279703321
0.45398679 0.073855266 0.5440433 4279703321
0.45441139 0.074146368 0.54414475 4279506193
0.45474702 0.074463628 0.5441975 4279703570
0.45517266 0.074756213 0.54429889 4279769365
0.45568883 0.075024724 0.54444909 4280032280
0.42241699 -0.017843395 0.55912417 4284906089
0.42265272 -0.017365307 0.5590806 4284442192
0.42282948 -0.016819462 0.55898863 4284376399
0.42300564 -0.016274452 0.5588966 4283980869
0.45278803 0.073448166 0.54410589 4279572503
0.45329994 0.07371144 0.54425669 4279572503
0.45372355 0.07400164 0.54435855 4279506710
0.45405847 0.074318141 0.54441148 4279703572
0.45448315 0.074609801 0.54451334 4279769617
0.45499808 0.074877292 0.54466414 4279769365
0.42303237 -0.015653953 0.55928767 4283785030
0.45303726 0.07385774 0.54457098 4279703572
0.45346051 0.074147865 0.54467332 4279637779
0.45379516 0.074464232 0.54472649 4279769365
0.42363283 -0.012524068 0.56261051 4283916116
0.42392689 -0.01211457 0.56261533 4283850321
0.42416167 -0.011639595 0.56256992 4283916114
0.4232479 -0.012921154 0.56314236 4283787356
0.42354226 -0.012511238 0.56314719 4283982420
0.42383665 -0.012101322 0.56315207 4283982420
0.42401266 -0.011560604 0.56305599 4283785041
0.42424738 -0.011085913 0.56301033 4283719246
0.423098 -0.012842491 0.56362927 4283788123
0.42333373 -0.012366623 0.56358349 4283852117
0.42362812 -0.011956692 0.56358832 4283851604
0.42386341 -0.011481449 0.56354243 4283654225
0.4240984 -0.011006624 0.56349659 4283719248
0.45028105 -0.0093848705 0.57565802 4279443221
0.45041585 -0.0087543502 0.5755111 4279180049
0.42288935 -0.012697801 0.56406575 4284510297
0.42318389 -0.012287676 0.56407058 4283983440
0.42341959 -0.011812091 0.56402457 4283851856
0.42365497 -0.011336908 0.56397849 4283654477
0.42394921 -0.0109272 0.56398332 4283719246
0.44931534 -0.010831907 0.57633442 4279178250
0.44958127 -0.010314226 0.57628882 4280230938
0.45011771 -0.0085355341 0.57594812 4279246869
0.45025173 -0.0079067275 0.57580048 4279312148
0.4502545 -0.0071659088 0.57555085 4279377941
0.45045173 -0.006596446 0.57545424 4279048212
0.4506484 -0.0060278326 0.57535756 4278850065
0.45084444 -0.0054600462 0.57526094 4278652684
0.45103991 -0.0048931092 0.57516426 4278652684
0.45116878 -0.0042714402 0.57501656 4278521098
0.45136288 -0.0037063956 0.57491988 4278652171
0.45168883 -0.0032524988 0.57492524 4278586631
0.42297524 -0.012142986 0.56450707 4284180303
0.42326978 -0.011732846 0.5645119 4283982672
0.42350543 -0.011257544 0.56446564 4283785293
0.44862294 -0.011013597 0.57671607 4279112205
0.44888884 -0.010496184 0.57667029 4280889897
0.44915438 -0.0099792182 0.57662451 4281679413
0.44941968 -0.0094626695 0.57657868 4279970341
0.44981974 -0.0083168745 0.5763846 4279510295
0.44995397 -0.0076884925 0.57623637 4279707160
0.45002216 -0.0070048124 0.57603681 4279772953
0.45015442 -0.0063791573 0.57588851 4279706647
0.45035112 -0.0058109015 0.57579142 4279179533
0.45054725 -0.0052434802 0.57569432 4279177998
0.45080844 -0.0047326088 0.57564843 4279046161
0.45100349 -0.0041666552 0.57555133 4278848782
0.45132992 -0.0037121251 0.5755567 4278914826
0.45165634 -0.0032575876 0.57556206 4278849031
0.45204902 -0.0028579235 0.57561862 4279704594
0.42311975 -0.011653483 0.56499976 4284048717
0.42335564 -0.011178032 0.56495321 4284047950
0.44786781 -0.011136547 0.5770455 4279769363
0.4481335 -0.010619655 0.57699943 4279111952
0.44846293 -0.010160908 0.57700485 4280692520
0.44872814 -0.0096446425 0.57695884 4281876794
0.44899309 -0.0091287941 0.57691282 4279771937
0.44932222 -0.0086704716 0.57691818 4279575322
0.44952202 -0.0080983639 0.57682073 4279641881
0.44972122 -0.0075270981 0.57672322 4279707672
0.44985485 -0.0069001913 0.57657421 4279707672
0.44998756 -0.0062745512 0.57642525 4279838231
0.45018464 -0.0057062358 0.57632774 4279574289
0.45044655 -0.0051945895 0.57628167 4279572754
0.45064259 -0.0046277344 0.57618409 4279375126
0.45083797 -0.0040617213 0.57608652 4279309333
0.45116454 -0.0036069825 0.57609189 4279309584
0.45149112 -0.0031522363 0.57609725 4280494108
0.45188385 -0.0027522966 0.57615405 4282732092
0.45240957 -0.0024610832 0.57631385 4280889636
0.4529362 -0.0021686107 0.57647365 4279639569
0.44698721 -0.011142105 0.57727021 4280232991
0.44737971 -0.010742292 0.57732725 4279703572
0.4477087 -0.010284185 0.57733268 4279243791
0.44810164 -0.0098837465 0.57738972 4279573524
0.44836664 -0.0093679726 0.57734346 4279836696
0.44875991 -0.0089671016 0.57740057 4279507993
0.44902462 -0.0084517524 0.57735431 4279442453
0.44915998 -0.0078231767 0.5772047 4279772186
0.44935906 -0.0072524771 0.57710671 4280101405
0.44962242 -0.0067390203 0.57706046 4280101405
0.44975546 -0.0061136037 0.57691079 4279969819
0.4498876 -0.0054894462 0.57676113 4279838233
0.45014948 -0.0049780905 0.57671481 4279838233
0.45041102 -0.0044671595 0.5766685 4279903002
0.45067227 -0.0039566457 0.57662213 4279903002
0.45099899 -0.0035016984 0.57662749 4281282852
0.45132571 -0.0030467436 0.57663286 4283126328
0.45171851 -0.0026465058 0.57668996 4282863926
0.45224404 -0.0023548752 0.57685041 4281349417
0.45277047 -0.0020619556 0.57701087 4280165143
0.4532313 -0.001713708 0.57711971 4283060817
0.44623572 -0.011263177 0.57759649 4280165141
0.44656408 -0.010805905 0.57760191 4279969047
0.44695604 -0.010406643 0.57765919 4279440398
0.44728455 -0.0099491775 0.57766455 4279374605
0.44767696 -0.0095492899 0.57772183 4279375375
0.44800562 -0.0090916008 0.57772726 4279638547
0.44833431 -0.0086339116 0.57773262 4279573526
0.448663 -0.0081762224 0.57773805 4279508246
0.44892722 -0.0076617822 0.57769156 4279838233
0.44906193 -0.0070346966 0.57754123 4280101405
0.4492605 -0.0064651892 0.57744282 4280101405
0.44952339 -0.0059526488 0.57739627 4280101405
0.44972089 -0.0053846315 0.57729787 4279969819
0.44991779 -0.0048174411 0.5771994 4279904026
