# .PCD v0.7 - Point Cloud Data file format
VERSION 0.7
FIELDS x y z rgb
SIZE 4 4 4 4
TYPE F F F U
COUNT 1 1 1 1
WIDTH 1103
HEIGHT 1
VIEWPOINT 0 0 0 1 0 0 0
POINTS 1103
DATA ascii
0.013164822 0.74407196 0.03357935 5324073
0.012746204 0.74421006 0.033576757 5192487
0.012327585 0.74434817 0.033574164 5192487
0.011908967 0.74448633 0.033571586 5324073
0.011490345 0.74462438 0.033568993 5389866
0.011071723 0.74476254 0.0335664 5324073
0.010426503 0.74413943 0.034188777 5324073
0.010009434 0.744277 0.034186199 5324073
0.0095923655 0.74441463 0.034183621 5324073
0.0091752931 0.74455225 0.034181044 5389866
0.0087582245 0.74468982 0.034178466 5389866
0.0081223063 0.74406362 0.034800917 5389866
0.0077067874 0.74420071 0.034798339 5389866
0.0072912686 0.7443378 0.034795776 5389866
0.0068757497 0.74447489 0.034793198 5389866
0.0064602308 0.74461198 0.034790635 5389866
0.0060447119 0.74474907 0.034788057 5455659
0.0054196529 0.74411935 0.035410553 5389866
0.0050056837 0.7442559 0.035408005 5324073
0.0045917146 0.74439251 0.035405442 5389866
0.0041777454 0.74452907 0.035402879 5192747
0.0037637763 0.74466562 0.035400316 5258540
0.0033498071 0.74480224 0.035397753 5258540
0.0027355887 0.74416888 0.036020339 5258540
0.0023231693 0.74430496 0.03601779 5258540
0.0019107498 0.74444103 0.036015242 5258540
0.0014983341 0.74457711 0.036012694 5389612
0.0010859147 0.74471319 0.036010146 5389612
0.00067349523 0.74484921 0.036007583 5455405
7.0143491e-05 0.74421233 0.036630213 5455405
-0.0003407225 0.74434787 0.03662768 5389612
-0.00075159222 0.74448341 0.036625132 5521198
-0.0011624582 0.74461901 0.036622584 5455405
-0.0015733279 0.74475455 0.036620051 5455405
-0.0019841976 0.74489009 0.036617503 5455405
-0.0025767051 0.74424958 0.037240222 5455405
-0.0029860251 0.74438465 0.037237704 5455405
-0.0033953413 0.74451965 0.037235171 5455405
-0.0038046576 0.74465472 0.037232637 5455405
-0.0042139776 0.74478972 0.037230104 5455405
-0.0046232939 0.74492478 0.037227571 5521452
-0.0052049421 0.74428076 0.037850335 5455659
-0.0056127086 0.74441528 0.037847817 5455659
-0.0060204752 0.74454981 0.037845284 5455659
-0.0064282417 0.74468434 0.037842765 5521452
-0.006836012 0.74481887 0.037840247 5455659
-0.0072437786 0.74495339 0.037837729 5455659
-0.0076515451 0.74508792 0.037835211 5521452
-0.0080593117 0.74522245 0.037832677 5455405
-0.0084670782 0.74535698 0.037830159 5389612
-0.0088748448 0.7454915 0.037827641 5455405
-0.0092826113 0.74562603 0.037825108 5389612
-0.0098456629 0.74497581 0.038448006 5455659
-0.010251876 0.74510986 0.038445488 5455659
-0.010658097 0.74524391 0.038442969 5521452
-0.01106431 0.7453779 0.038440466 5521452
-0.011470526 0.74551189 0.038437948 5455659
-0.011876743 0.74564594 0.038435429 5455659
-0.012428936 0.74499214 0.039058402 5521452
-0.012833603 0.74512565 0.039055899 5521452
-0.01323827 0.74525917 0.039053395 5455659
-0.013642937 0.74539268 0.039050892 5455659
-0.0140476 0.74552619 0.039048389 5455659
-0.014452267 0.74565965 0.0390459 5521452
-0.014993612 0.74500227 0.039668903 5521452
-0.015396729 0.74513531 0.039666414 5521452
-0.015799839 0.74526829 0.039663926 5455659
-0.01620296 0.74540126 0.039661422 5455659
-0.016606074 0.7455343 0.039658934 5521452
-0.017009191 0.74566728 0.039656445 5521452
-0.017539676 0.74500632 0.040279552 5455659
-0.01794124 0.74513882 0.040277064 5521452
-0.018342808 0.74527133 0.04027459 5521452
-0.018744372 0.74540377 0.040272102 5455659
-0.019145936 0.74553627 0.040269613 5455659
-0.019547503 0.74566877 0.04026714 5521452
-0.020067129 0.74500424 0.040890276 5455659
-0.020467144 0.7451362 0.040887803 5521452
-0.020867158 0.74526817 0.040885329 5521452
-0.021267172 0.74540013 0.040882856 5455659
-0.021667194 0.7455321 0.040880382 5455659
-0.022067208 0.74566412 0.040877908 5455659
-0.022467222 0.74579608 0.040875435 5587245
-0.022867236 0.74592805 0.040872961 5587245
-0.023267251 0.74606001 0.040870488 5521452
-0.023771387 0.74539036 0.041493759 5521452
-0.024169851 0.74552178 0.0414913 5521452
-0.024568316 0.74565327 0.041488826 5521452
-0.02496678 0.74578476 0.041486353 5455659
-0.025365245 0.74591619 0.041483894 5521452
-0.025763709 0.74604768 0.041481435 5521452
-0.026162174 0.7461791 0.041478962 5521452
-0.026560638 0.74631059 0.041476503 5455659
-0.026959099 0.74644208 0.041474044 5455659
-0.027357563 0.74657351 0.041471571 5455659
-0.027756032 0.746705 0.041469112 5455659
-0.028154496 0.74683642 0.041466638 5521452
-0.028467443 0.74777567 0.040838316 5455659
-0.028867457 0.74790764 0.040835842 5455659
-0.029267475 0.7480396 0.040833369 5389866
-0.029667489 0.74817157 0.040830895 5258794
-0.030067503 0.74830359 0.040828422 5258794
-0.030467518 0.74843556 0.040825948 5258794
-0.030867532 0.74856752 0.040823475 5258794
-0.031267546 0.74869949 0.040821001 5258794
-0.03166756 0.74883145 0.040818527 5258794
0.049122114 0.74415696 0.025433794 5454889
0.048681784 0.74430227 0.025431067 5323303
0.048241455 0.74444753 0.025428355 5126694
0.047454905 0.7438702 0.026048437 5060901
0.047016133 0.74401498 0.026045725 5126694
0.046577353 0.7441597 0.026043013 5126694
0.046138581 0.74430448 0.026040301 5324073
0.045699809 0.74444926 0.026037589 5192487
0.045261029 0.74459404 0.026034862 5192487
0.044485312 0.74401307 0.026655048 5324073
0.04404809 0.74415731 0.026652336 5192487
0.04361086 0.74430156 0.026649639 5192487
0.042841364 0.74371862 0.02726984 5192487
0.042405691 0.74386239 0.027267128 5192487
0.041970018 0.7440061 0.027264446 5126694
0.041206706 0.74342108 0.027884692 5126694
0.040772583 0.74356431 0.02788201 5126694
0.040338453 0.74370754 0.027879328 5126694
0.03990433 0.74385077 0.027876645 5192487
0.039470207 0.743994 0.027873948 5192487
0.039036084 0.74413723 0.027871266 5192487
0.038283635 0.74354863 0.028491572 5192487
0.037851069 0.74369138 0.028488889 5192487
0.037418488 0.74383408 0.028486222 5324073
0.036985915 0.74397683 0.02848354 5323303
0.036553342 0.74411952 0.028480858 5454889
0.036120769 0.74426222 0.02847819 5192487
0.035688195 0.74440491 0.028475508 5192487
0.035255615 0.74454767 0.028472841 5192487
0.034823049 0.74469042 0.028470159 5192487
0.034086097 0.7440967 0.029090554 5192487
0.033655073 0.74423885 0.029087886 5192487
0.03322405 0.74438107 0.029085219 5126694
0.032793026 0.74452329 0.029082566 5126694
0.032362003 0.7446655 0.029079884 5192487
0.031930979 0.74480772 0.029077232 5192487
0.03120489 0.74421042 0.029697716 5192487
0.030775417 0.7443521 0.029695049 5324073
0.030345943 0.74449384 0.029692397 5192487
0.029916469 0.74463546 0.029689744 5192487
0.029486995 0.7447772 0.029687077 5126694
0.028770212 0.74417686 0.030307591 5192487
0.028342288 0.74431801 0.030304939 5324073
0.027914364 0.74445921 0.030302286 5192487
0.027203772 0.74385679 0.030922875 5192487
0.026777398 0.74399745 0.030920237 5126694
0.026351023 0.74413812 0.0309176 5324073
0.025646646 0.74353373 0.031538188 5324073
0.025221828 0.74367386 0.031535566 5324073
0.024797004 0.74381399 0.031532943 5192487
0.024372179 0.74395418 0.031530321 5192487
0.023947362 0.74409437 0.031527683 5192487
0.023522537 0.7442345 0.031525061 5192487
0.022829 0.74362648 0.032145739 5192487
0.022405725 0.74376607 0.032143116 5192487
0.021982457 0.74390572 0.032140508 5192487
0.021559183 0.74404538 0.032137886 5192487
0.021135915 0.74418503 0.032135263 5192487
0.02071264 0.74432468 0.032132655 5192487
0.020029966 0.74371308 0.032753378 5324073
0.019608248 0.74385226 0.03275077 5192487
0.019186523 0.74399137 0.032748163 5192487
0.018764805 0.74413049 0.032745555 5192487
0.01834308 0.74426961 0.032742947 5192487
0.017921362 0.74440879 0.03274034 5324073
0.017249536 0.74379361 0.033361137 5324073
0.01682936 0.74393225 0.033358544 5389866
0.016409192 0.74407083 0.033355936 5324073
0.015989024 0.74420947 0.033353344 5324073
0.015568856 0.74434811 0.033350736 5324073
0.015148681 0.74448669 0.033348143 5192487
0.014728513 0.74462533 0.03334555 5324073
0.014308337 0.74476397 0.033342943 5455659
0.013888169 0.74490261 0.03334035 5324073
0.013231847 0.74428225 0.033961266 5324073
0.012813229 0.74442041 0.033958673 5324073
0.012394611 0.74455845 0.033956081 5324073
0.011975985 0.74469662 0.033953488 5324073
0.011557367 0.74483472 0.033950895 5389866
0.011138748 0.74497283 0.033948317 5324073
0.010493275 0.74434894 0.034569278 5324073
0.010076206 0.74448657 0.0345667 5324073
0.0096591376 0.74462414 0.034564108 5324073
0.009242069 0.74476177 0.034561545 5389866
0.0088250004 0.74489933 0.034558952 5389866
0.0081888326 0.74427241 0.035180002 5389866
0.0077733137 0.7444095 0.035177425 5389866
0.0073577948 0.74454659 0.035174847 5389866
0.0069422759 0.74468368 0.035172284 5389866
0.006526757 0.74482071 0.035169721 5389866
0.0061112382 0.7449578 0.035167143 5455659
0.0054859295 0.74432731 0.035788238 5455659
0.0050719604 0.74446392 0.035785675 5324073
0.0046579912 0.74460047 0.035783112 5389866
0.0042440221 0.74473703 0.035780549 5389866
0.0038300529 0.74487364 0.035777986 5389866
0.0034160875 0.7450102 0.035775423 5258794
0.0028016157 0.74437606 0.036396593 5324587
0.0023892 0.74451214 0.036394045 5324587
0.0019767806 0.74464822 0.036391497 5258794
0.0015643649 0.7447843 0.036388949 5455659
0.0011519454 0.74492037 0.0363864 5389866
0.000739526 0.74505639 0.036383837 5455659
0.00013592467 0.74441874 0.037005052 5455659
-0.00027494133 0.74455428 0.037002504 5389612
-0.00068581104 0.74468982 0.036999971 5455405
-0.001096677 0.74482536 0.036997423 5455405
-0.0015075468 0.74496096 0.036994889 5455405
-0.0019184165 0.7450965 0.036992341 5455405
-0.0025111735 0.74445522 0.037613645 5455405
-0.0029204898 0.74459028 0.037611127 5455405
-0.0033298098 0.74472529 0.037608594 5521198
-0.0037391298 0.74486035 0.037606061 5455405
-0.0041484423 0.74499536 0.037603527 5455405
-0.0045577623 0.74513042 0.037600994 5521452
-0.0051396564 0.74448562 0.038222343 5455659
-0.0055474229 0.74462008 0.038219824 5455659
-0.0059551895 0.74475467 0.038217306 5521452
-0.006362956 0.7448892 0.038214773 5521452
-0.0067707263 0.74502373 0.038212255 5521452
-0.0071784928 0.74515826 0.038209736 5521452
-0.0075862594 0.74529278 0.038207218 5521452
-0.0079940259 0.74542731 0.038204685 5455405
-0.0084017925 0.74556184 0.038202167 5455405
-0.0088095628 0.74569637 0.038199648 5455405
-0.0092173256 0.74583089 0.03819713 5389612
-0.0097806267 0.74517989 0.038818598 5455405
-0.01018684 0.74531394 0.038816079 5521198
-0.01059306 0.74544799 0.038813561 5521452
-0.010999274 0.74558198 0.038811058 5521452
-0.01140549 0.74571598 0.03880854 5455659
-0.011811707 0.74585003 0.038806021 5521452
-0.012364149 0.74519539 0.039427578 5521452
-0.012768816 0.7453289 0.039425075 5521452
-0.013173483 0.74546242 0.039422572 5455659
-0.013578147 0.74559593 0.039420068 5455659
-0.013982814 0.74572945 0.039417565 5455659
-0.014387481 0.74586296 0.039415076 5521452
-0.014929071 0.74520481 0.040036678 5521452
-0.015332188 0.74533784 0.040034175 5521452
-0.015735302 0.74547082 0.040031686 5521452
-0.01613842 0.7456038 0.040029198 5521452
-0.016541533 0.74573684 0.040026695 5521452
-0.016944651 0.74586982 0.040024206 5521452
-0.017475385 0.74520802 0.040645897 5521452
-0.017876949 0.74534053 0.040643424 5521452
-0.018278513 0.74547303 0.040640935 5521452
-0.018680077 0.74560553 0.040638447 5521452
-0.019081641 0.74573803 0.040635958 5455659
-0.019483212 0.74587047 0.040633485 5521452
-0.020003084 0.74520516 0.041255221 5455659
-0.020403098 0.74533713 0.041252747 5521452
-0.020803113 0.74546909 0.041250274 5455659
-0.021203127 0.74560112 0.0412478 5455659
-0.021603148 0.74573308 0.041245326 5455659
-0.022003163 0.74586505 0.041242838 5455659
-0.022403177 0.74599701 0.041240364 5587245
-0.022803191 0.74612898 0.041237891 5587245
-0.023203205 0.746261 0.041235417 5521452
-0.023707591 0.74559051 0.041857272 5521452
-0.024106055 0.745722 0.041854814 5521452
-0.02450452 0.74585342 0.041852355 5455659
-0.024902984 0.74598491 0.041849881 5521452
-0.025301449 0.7461164 0.041847423 5521452
-0.025699914 0.74624783 0.041844949 5521452
-0.026098378 0.74637932 0.04184249 5521452
-0.026496843 0.74651074 0.041840017 5455659
-0.026895303 0.74664223 0.041837558 5389866
-0.027293768 0.74677372 0.041835099 5455659
-0.027692236 0.74690515 0.041832626 5455659
-0.028090701 0.74703664 0.041830167 5521452
-0.028403398 0.74797666 0.04120326 5521452
-0.028803412 0.74810863 0.041200787 5455659
-0.02920343 0.74824059 0.041198313 5455659
-0.029603444 0.74837255 0.04119584 5258794
-0.030003458 0.74850452 0.041193366 5193001
-0.030403472 0.74863648 0.041190892 5258794
-0.030803487 0.74876845 0.041188404 5258794
-0.031203501 0.74890047 0.04118593 5258794
-0.031603515 0.74903244 0.041183457 5193001
0.048490342 0.74293447 0.027078271 5454889
0.048053119 0.74307871 0.027075559 5323303
0.047615889 0.74322295 0.027072862 5126694
0.047178667 0.7433672 0.027070165 5126694
0.046741445 0.7435115 0.027067453 5126694
0.046304215 0.74365574 0.027064741 5126694
0.045525167 0.74307507 0.027683467 5324073
0.045089494 0.74321878 0.027680784 5192487
0.044653822 0.74336255 0.027678072 5324073
0.044218142 0.74350631 0.02767539 5324073
0.043782469 0.74365002 0.027672693 5192487
0.043346796 0.74379373 0.027669996 5192487
0.042578582 0.74320948 0.028288811 5192487
0.042144459 0.74335277 0.028286114 5324073
0.041710336 0.74349594 0.028283432 5192487
0.040948343 0.74290967 0.028902262 5126694
0.040515769 0.74305236 0.02889958 5126694
0.040083196 0.74319512 0.028896913 5126694
0.039650615 0.74333781 0.028894246 5192487
0.039218042 0.74348056 0.028891563 5192487
0.038785469 0.74362326 0.028888881 5192487
0.038352896 0.74376595 0.028886214 5324073
0.037920322 0.74390864 0.028883532 5192487
0.037487749 0.7440514 0.028880864 5324073
0.036741253 0.74346 0.029499784 5454889
0.036310229 0.74360222 0.029497117 5454889
0.035879206 0.74374437 0.029494449 5192487
0.035448182 0.74388659 0.029491782 5324073
0.035017151 0.74402881 0.029489115 5192487
0.034586135 0.74417102 0.029486448 5192487
0.034155104 0.74431324 0.02948378 5192487
0.033724088 0.74445546 0.029481113 5192487
0.033293057 0.74459761 0.029478461 5192487
0.032562066 0.74400109 0.030097485 5126694
0.032132592 0.74414277 0.030094832 5192487
0.031703118 0.74428451 0.03009218 5192487
0.031273644 0.74442619 0.030089527 5324073
0.030844171 0.74456787 0.03008686 5324073
0.030122492 0.74396825 0.030705929 5192487
0.029694568 0.74410945 0.030703276 5192487
0.029266644 0.74425066 0.030700624 5192487
0.028838728 0.7443918 0.030697986 5192487
0.028410804 0.744533 0.030695334 5324073
0.027982879 0.74467421 0.030692697 5324073
0.027272034 0.74407101 0.031311855 5192487
0.02684566 0.74421167 0.031309217 5192487
0.026419293 0.74435234 0.03130658 5324073
0.025714662 0.74374712 0.031925768 5324073
0.025289845 0.74388731 0.031923145 5324073
0.02486502 0.74402744 0.031920522 5192487
0.02416658 0.74342012 0.032539755 5192487
0.023743305 0.74355978 0.032537133 5192487
0.023320038 0.74369943 0.03253451 5192487
0.022896763 0.74383909 0.032531902 5192487
0.022473495 0.74397874 0.03252928 5324073
0.022050221 0.74411839 0.032526657 5324073
0.021362651 0.74350756 0.033145949 5192487
0.020940926 0.74364668 0.033143342 5192487
0.020519208 0.74378586 0.033140734 5192487
0.020097483 0.74392498 0.033138126 5324073
0.019675765 0.74406409 0.033135518 5192487
0.019254047 0.74420321 0.033132911 5324073
0.018577319 0.74358881 0.033752263 5324073
0.018157143 0.74372745 0.03374967 5192487
0.017736975 0.74386609 0.033747062 5324073
0.017316807 0.74400467 0.033744469 5324073
0.016896632 0.74414331 0.033741862 5389866
0.016476464 0.74428195 0.033739269 5389866
0.016056295 0.74442053 0.033736676 5324073
0.01563612 0.74455917 0.033734068 5389866
0.015215952 0.74469781 0.033731461 5324073
0.014554728 0.74407822 0.034350947 5389866
0.01413611 0.74421632 0.034348354 5455659
0.013717491 0.74435449 0.034345761 5324073
0.013298873 0.74449253 0.034343168 5324073
0.012880247 0.74463069 0.03434059 5324073
0.012461629 0.7447688 0.034337997 5324073
0.01181126 0.74414569 0.034957513 5324073
0.011394192 0.74428326 0.034954935 5389866
0.010977123 0.74442089 0.034952357 5324073
0.010560051 0.74455845 0.03494978 5389866
0.010142982 0.74469608 0.034947187 5389866
0.0097259097 0.74483371 0.034944609 5324073
0.0090863965 0.74420696 0.035564214 5389866
0.0086708777 0.74434406 0.035561651 5389866
0.0082553588 0.74448115 0.035559073 5389866
0.007622052 0.74385238 0.036178708 5389866
0.0072080828 0.74398899 0.036176145 5389866
0.0067941137 0.74412555 0.036173582 5389866
0.0063801445 0.7442621 0.036171019 5389866
0.0059661753 0.74439871 0.036168456 5455659
0.0053421594 0.7437669 0.036788166 5455659
0.00492974 0.74390292 0.036785603 5389866
0.0045173205 0.744039 0.036783054 5389866
0.0041049011 0.74417508 0.036780506 5389866
0.0036924817 0.74431115 0.036777958 5455659
0.003280066 0.74444723 0.03677541 5258794
0.002666913 0.74381185 0.037395135 5258794
0.002256047 0.74394739 0.037392601 5324587
0.0018451773 0.74408293 0.037390053 5324587
0.0014343075 0.74421847 0.03738752 5324587
0.0010234416 0.74435401 0.037384972 5258794
0.00061257556 0.74448955 0.037382424 5324587
1.0263175e-05 0.74385059 0.038002267 5258794
-0.00039905682 0.74398565 0.037999734 5324333
-0.00080836937 0.74412066 0.037997201 5324333
-0.0012176894 0.74425572 0.037994668 5324333
-0.0016270056 0.74439073 0.037992135 5324333
-0.0020363219 0.74452579 0.037989601 5455405
-0.0026277713 0.74388325 0.03860949 5455405
-0.0030355342 0.74401778 0.038606972 5521198
-0.0034433044 0.74415231 0.038604438 5521198
-0.0038510747 0.74428684 0.03860192 5455405
-0.0042588376 0.74442136 0.038599402 5455405
-0.0046666078 0.74455589 0.038596869 5586991
-0.0050743707 0.74469042 0.03859435 5521198
-0.0054821409 0.74482501 0.038591832 5389866
-0.0058899038 0.74495947 0.038589314 5521452
-0.006297674 0.74509406 0.038586795 5521452
-0.0067054443 0.74522853 0.038584262 5521452
-0.0071132071 0.74536312 0.038581744 5521452
-0.0076845065 0.7447139 0.039201751 5521452
-0.0080907233 0.74484789 0.039199233 5455659
-0.0084969401 0.74498194 0.03919673 5455659
-0.008903157 0.74511594 0.039194211 5455659
-0.0093093701 0.74524999 0.039191708 5455659
-0.0097155906 0.74538398 0.03918919 5455659
-0.010121804 0.74551803 0.039186671 5521452
-0.010528024 0.74565202 0.039184168 5521452
-0.011085365 0.74499822 0.03980428 5521452
-0.011490028 0.74513173 0.039801776 5455659
-0.011894695 0.74526519 0.039799273 5521452
-0.012299363 0.7453987 0.03979677 5521452
-0.012704026 0.74553221 0.039794266 5521452
-0.013108697 0.74566573 0.039791763 5455659
-0.013655186 0.74500835 0.040411919 5455659
-0.014058299 0.74514133 0.040409431 5521452
-0.014461417 0.74527431 0.040406942 5521452
-0.01486453 0.74540734 0.040404439 5521452
-0.015267648 0.74554032 0.04040195 5521452
-0.015670761 0.7456733 0.040399462 5521452
-0.016206399 0.74501234 0.041019708 5521452
-0.016607966 0.74514484 0.041017219 5521452
-0.017009523 0.74527729 0.041014731 5587245
-0.017411094 0.74540979 0.041012257 5521452
-0.017812658 0.74554229 0.041009769 5521452
-0.018214222 0.74567473 0.04100728 5521452
-0.018739004 0.7450102 0.041627586 5521452
-0.019139018 0.74514222 0.041625112 5521452
-0.019539032 0.74527419 0.041622639 5521452
-0.019939043 0.74540615 0.04162015 5455659
-0.020339057 0.74553812 0.041617677 5521452
-0.020739071 0.74567008 0.041615203 5521452
-0.021253008 0.74500191 0.042235583 5455659
-0.021651473 0.7451334 0.042233124 5521452
-0.022049941 0.74526489 0.042230666 5455659
-0.022448406 0.74539632 0.042228192 5587245
-0.02284687 0.7455278 0.042225733 5587245
-0.023245335 0.74565923 0.042223275 5521452
-0.023643795 0.74579072 0.042220801 5521452
-0.02404226 0.74592221 0.042218342 5521452
-0.024440724 0.74605364 0.042215869 5521452
-0.024939142 0.7453804 0.042836338 5521452
-0.025336057 0.74551135 0.04283388 5521452
-0.025732972 0.7456423 0.042831421 5521452
-0.026129883 0.74577326 0.042828962 5521452
-0.026526798 0.74590421 0.042826504 5521452
-0.026923712 0.74603516 0.04282406 5455659
-0.027320623 0.74616611 0.042821601 5521452
-0.02762844 0.74710536 0.042196155 5455659
-0.028026905 0.74723679 0.042193681 5521452
-0.028425369 0.74736828 0.042191222 5455659
-0.028823834 0.7474997 0.042188764 5455659
-0.029222298 0.74763119 0.04218629 5455659
-0.029620763 0.74776268 0.042183831 5258794
-0.030019224 0.74789411 0.042181373 5258794
-0.030417688 0.7480256 0.042178899 5258794
-0.030816153 0.74815702 0.04217644 5258794
-0.031214617 0.74828851 0.042173967 5258794
-0.031613082 0.74842 0.042171508 5258794
0.04856034 0.74315417 0.02747716 5454889
0.048123118 0.74329841 0.027474448 5454889
0.047685895 0.74344265 0.027471751 5192487
0.047248665 0.7435869 0.027469039 5126694
0.046811443 0.74373114 0.027466342 5126694
0.04637422 0.74387538 0.02746363 5192487
0.045594919 0.74329394 0.02808094 5324073
0.045159247 0.74343765 0.028078243 5192487
0.044723574 0.74358141 0.028075546 5324073
0.044287894 0.74372518 0.028072864 5192487
0.043852221 0.74386889 0.028070152 5192487
0.043416549 0.74401265 0.02806747 5192487
0.042648081 0.74342763 0.028684855 5192487
0.042213965 0.7435708 0.028682172 5192487
0.041779835 0.74371409 0.02867949 5126694
0.041017596 0.74312699 0.029296905 5126694
0.040585022 0.74326968 0.029294223 5126694
0.040152449 0.74341244 0.029291555 5126694
0.039719868 0.74355513 0.029288873 5324073
0.039287303 0.74369788 0.029286206 5192487
0.038854722 0.74384058 0.029283524 5192487
0.038422149 0.74398327 0.029280841 5192487
0.037989575 0.74412596 0.029278174 5454889
0.037557002 0.74426872 0.029275492 5454889
0.03681026 0.74367654 0.029893011 5454889
0.036379237 0.74381876 0.029890344 5454889
0.035948213 0.74396098 0.029887676 5324073
0.03551719 0.74410313 0.029885009 5389866
0.035086159 0.74424535 0.029882342 5192487
0.034655143 0.74438757 0.029879674 5192487
0.034224119 0.74452972 0.029877007 5192487
0.033793095 0.74467194 0.02987434 5192487
0.033362065 0.74481416 0.029871672 5192487
0.032630827 0.74421686 0.030489311 5126694
0.032201353 0.74435854 0.030486643 5192487
0.03177188 0.74450022 0.030483991 5192487
0.031342406 0.7446419 0.030481339 5192487
0.030912932 0.74478364 0.030478686 5324073
0.030191008 0.74418324 0.031096324 5192487
0.029763084 0.74432445 0.031093687 5192487
0.02933516 0.74446559 0.031091034 5192487
0.028907236 0.74460679 0.031088382 5192487
0.028479312 0.744748 0.031085745 5324073
0.028051388 0.74488914 0.031083092 5324073
0.027340297 0.74428523 0.03170085 5192487
0.026913922 0.74442589 0.031698197 5192487
0.026487555 0.74456656 0.031695575 5324073
0.025782678 0.74396056 0.032313332 5324073
0.025357854 0.74410069 0.032310709 5324073
0.024933036 0.74424088 0.032308072 5324073
0.024234343 0.74363279 0.032925904 5192487
0.023811076 0.74377245 0.032923281 5192487
0.023387801 0.7439121 0.032920673 5192487
0.022964533 0.74405169 0.032918051 5192487
0.022541258 0.74419141 0.032915428 5324073
0.022117991 0.744331 0.032912821 5324073
0.021430168 0.7437194 0.033530682 5324073
0.021008443 0.74385858 0.03352809 5192487
0.020586725 0.74399769 0.033525467 5192487
0.020165008 0.74413681 0.033522859 5324073
0.019743282 0.74427593 0.033520252 5324073
0.019321565 0.7444151 0.033517644 5324073
0.01864459 0.74379992 0.03413558 5324073
0.018224414 0.74393851 0.034132987 5192487
0.017804246 0.74407715 0.034130394 5324073
0.017384078 0.74421573 0.034127787 5324073
0.016963903 0.74435437 0.034125194 5389866
0.016543735 0.74449301 0.034122586 5389866
0.016123567 0.74463165 0.034119993 5389866
0.015703391 0.74477029 0.034117401 5389866
0.015283223 0.74490887 0.034114793 5389866
0.014621753 0.74428856 0.034732848 5389866
0.014203135 0.74442667 0.034730256 5455659
0.013784517 0.74456477 0.034727678 5324073
0.013365891 0.74470288 0.034725085 5324073
0.012947273 0.74484098 0.034722492 5324073
0.012528654 0.74497908 0.034719899 5389866
0.011878032 0.7443552 0.035338014 5389866
0.011460964 0.74449277 0.035335422 5389866
0.011043895 0.7446304 0.035332844 5324073
0.010626826 0.74476802 0.035330266 5389866
0.010209754 0.74490559 0.035327688 5389866
0.0097926855 0.74504322 0.03532511 5389866
0.0091529228 0.7444157 0.0359433 5389866
0.0087374039 0.74455279 0.035940737 5389866
0.008321885 0.74468988 0.035938159 5389866
0.0076883249 0.7440604 0.036556363 5389866
0.0072743595 0.74419695 0.036553815 5455659
0.0068603903 0.74433351 0.036551252 5389866
0.0064464211 0.74447012 0.036548689 5389866
0.006032452 0.74460667 0.036546126 5455659
0.0054081865 0.74397409 0.03716442 5455659
0.004995767 0.74411011 0.037161857 5389866
0.0045833476 0.74424618 0.037159309 5389866
0.0041709319 0.74438226 0.037156761 5455659
0.0037585124 0.74451834 0.037154213 5455659
0.0033460967 0.74465442 0.037151664 5258794
0.0027326941 0.7440182 0.037769973 5258794
0.0023218282 0.74415374 0.03776744 5324587
0.0019109584 0.74428934 0.037764892 5324587
0.0015000887 0.74442488 0.037762359 5324587
0.0010892227 0.74456042 0.037759811 5258794
0.00067835674 0.74469602 0.037757277 5324333
7.5794756e-05 0.74405622 0.038375691 5258540
-0.00033352152 0.74419123 0.038373157 5324333
-0.00074283779 0.74432629 0.038370624 5324333
-0.0011521578 0.74446136 0.038368106 5324333
-0.0015614741 0.74459636 0.038365573 5324333
-0.0019707903 0.74473143 0.038363039 5324333
-0.0025624856 0.74408811 0.038981497 5324333
-0.0029702522 0.74422264 0.038978979 5324333
-0.0033780225 0.74435717 0.038976461 5390126
-0.003785789 0.7444917 0.038973927 5324333
-0.0041935556 0.74462622 0.038971409 5324333
-0.0046013221 0.74476075 0.038968891 5390126
-0.0050090887 0.74489528 0.038966358 5455919
-0.0054168552 0.74502981 0.038963839 5324587
-0.0058246218 0.74516433 0.038961321 5324587
-0.006232392 0.74529886 0.038958803 5390380
-0.0066401586 0.74543345 0.038956285 5390380
-0.0070479251 0.74556792 0.038953751 5521452
-0.0076194704 0.74491799 0.039572358 5521452
-0.0080256872 0.74505198 0.03956984 5455659
-0.008431904 0.74518597 0.039567322 5389866
-0.0088381208 0.74532002 0.039564818 5455659
-0.009244334 0.74545407 0.0395623 5455659
-0.0096505545 0.74558806 0.039559782 5455659
-0.010056768 0.74572206 0.039557278 5521452
-0.010462988 0.74585611 0.03955476 5521452
-0.011020575 0.74520147 0.040173456 5521452
-0.011425242 0.74533498 0.040170953 5521452
-0.011829909 0.7454685 0.040168449 5521452
-0.012234572 0.74560201 0.040165946 5587245
-0.012639239 0.74573553 0.040163442 5521452
-0.013043907 0.74586904 0.040160939 5521452
-0.013590645 0.74521089 0.040779695 5521452
-0.013993759 0.74534386 0.040777192 5521452
-0.014396876 0.74547684 0.040774703 5521452
-0.014799993 0.74560988 0.0407722 5521452
-0.015203107 0.74574286 0.040769711 5521452
-0.015606221 0.74587584 0.040767223 5521452
-0.016142108 0.7452141 0.041386053 5521452
-0.016543671 0.74534655 0.041383564 5521452
-0.016945232 0.74547905 0.041381091 5587245
-0.017346799 0.74561155 0.041378602 5521452
-0.017748363 0.74574399 0.041376114 5521452
-0.018149931 0.74587649 0.04137364 5587245
-0.018674958 0.74521118 0.041992515 5521452
-0.019074973 0.74534315 0.041990042 5521452
-0.019474987 0.74547511 0.041987568 5521452
-0.019874997 0.74560708 0.041985095 5455659
-0.020275012 0.7457391 0.041982621 5521452
-0.020675026 0.74587107 0.041980147 5521452
-0.021189213 0.74520212 0.042599112 5455659
-0.021587677 0.74533355 0.042596638 5521452
-0.021986146 0.74546504 0.04259418 5521452
-0.02238461 0.74559653 0.042591721 5587245
-0.022783075 0.74572796 0.042589247 5587245
-0.023181539 0.74585944 0.042586789 5521452
-0.02358 0.74599087 0.04258433 5521452
-0.023978464 0.74612236 0.042581856 5521452
-0.024376929 0.74625385 0.042579398 5521452
-0.024875596 0.74557978 0.043198436 5521452
-0.025272511 0.74571073 0.043195978 5521452
-0.025669426 0.74584168 0.043193534 5521452
-0.026066337 0.74597263 0.043191075 5521452
-0.026463252 0.74610358 0.043188617 5521452
-0.026860166 0.74623454 0.043186158 5455659
-0.027257077 0.74636549 0.043183714 5455659
-0.027564645 0.74730551 0.042559668 5455659
-0.027963109 0.747437 0.04255721 5521452
-0.028361574 0.74756843 0.042554736 5455659
-0.028760038 0.74769992 0.042552277 5455659
-0.029158503 0.74783134 0.042549819 5455659
-0.029556967 0.74796283 0.042547345 5389866
-0.029955428 0.74809432 0.042544886 5389866
-0.030353893 0.74822575 0.042542428 5258794
-0.030752357 0.74835724 0.042539954 5258794
-0.031150822 0.74848866 0.042537495 5258794
-0.031549286 0.74862015 0.042535022 5258794
0.048630346 0.74337375 0.027876049 5454889
0.048193116 0.74351805 0.027873337 5454889
0.047755893 0.7436623 0.027870625 5323303
0.047318671 0.74380654 0.027867928 5257510
0.046881441 0.74395078 0.027865231 5323303
0.046444219 0.74409503 0.027862519 5323303
0.045664672 0.74351281 0.028478414 5324073
0.045228999 0.74365652 0.028475717 5324073
0.044793326 0.74380028 0.02847302 5192487
0.044357646 0.74394405 0.028470322 5192487
0.043921974 0.74408776 0.028467625 5324073
0.043486301 0.74423152 0.028464943 5192487
0.042717587 0.74364567 0.029080912 5192487
0.042283464 0.74378896 0.02907823 5192487
0.041849341 0.74393213 0.029075548 5192487
0.041086849 0.74334431 0.029691547 5126694
0.040654276 0.743487 0.029688865 5126694
0.040221702 0.74362969 0.029686198 5192487
0.039789129 0.74377245 0.029683515 5324073
0.039356556 0.7439152 0.029680848 5192487
0.038923983 0.74405789 0.029678166 5192487
0.038491409 0.74420059 0.029675484 5192487
0.038058836 0.74434328 0.029672816 5454889
0.037626255 0.74448603 0.029670134 5323303
0.036879268 0.74389303 0.030286238 5454889
0.036448244 0.74403524 0.03028357 5454889
0.03601722 0.74417746 0.030280903 5324073
0.035586197 0.74431968 0.030278236 5389866
0.035155173 0.74446189 0.030275568 5192487
0.03472415 0.74460411 0.030272901 5192487
0.034293126 0.74474633 0.030270234 5192487
0.033862103 0.74488848 0.030267566 5192487
0.033431072 0.7450307 0.030264914 5192487
0.032699589 0.74443263 0.030881122 5192487
0.032270115 0.74457431 0.030878454 5192487
0.031840641 0.74471599 0.030875802 5324073
0.031411167 0.74485767 0.03087315 5324073
0.030981693 0.74499941 0.030870497 5324073
0.030259516 0.74439824 0.03148672 5324073
0.029831592 0.74453938 0.031484082 5192487
0.029403668 0.74468058 0.03148143 5192487
0.028975744 0.74482179 0.031478792 5192487
0.028547827 0.74496293 0.03147614 5324073
0.028119903 0.74510413 0.031473488 5324073
0.027408559 0.74449939 0.032089829 5192487
0.026982192 0.74464005 0.032087192 5324073
0.026555818 0.74478072 0.032084554 5324073
0.025850695 0.74417394 0.032700896 5324073
0.02542587 0.74431413 0.032698274 5324073
0.025001053 0.74445426 0.032695651 5324073
0.024302114 0.74384546 0.033312052 5192487
0.023878839 0.74398506 0.033309445 5192487
0.023455571 0.74412471 0.033306822 5192487
0.023032296 0.74426436 0.033304214 5324073
0.022609029 0.74440402 0.033301592 5324073
0.022185754 0.74454367 0.033298969 5324073
0.021497685 0.74393129 0.03391543 5324073
0.021075968 0.74407041 0.033912823 5192487
0.020654242 0.74420953 0.033910215 5192487
0.020232525 0.7443487 0.033907607 5324073
0.0198108 0.74448782 0.033904999 5389866
0.019389082 0.74462694 0.033902392 5389866
0.018711854 0.74401098 0.034518912 5389864
0.018291686 0.74414957 0.03451632 5324071
0.017871518 0.74428821 0.034513712 5324073
0.017451342 0.74442685 0.034511119 5324073
0.017031174 0.74456549 0.034508526 5389866
0.016611006 0.74470413 0.034505919 5389866
0.016190831 0.74484271 0.034503326 5324073
0.015770663 0.74498135 0.034500718 5389866
0.015350495 0.74511999 0.034498125 5389866
0.014688779 0.74449885 0.035114765 5389866
0.014270153 0.74463695 0.035112172 5455659
0.013851535 0.74477506 0.03510958 5389866
0.013432916 0.74491316 0.035106987 5389866
0.01301429 0.74505126 0.035104409 5389866
0.012595672 0.74518943 0.035101816 5455659
0.011944808 0.74456471 0.035718501 5455659
0.011527736 0.74470234 0.035715923 5389866
0.011110667 0.74483991 0.035713345 5389866
0.010693599 0.74497753 0.035710767 5389866
0.01027653 0.74511516 0.035708189 5389866
0.0098594613 0.74525273 0.035705611 5389866
0.009219449 0.74462444 0.036322385 5389866
0.0088039301 0.74476153 0.036319807 5389866
0.0083884113 0.74489862 0.036317244 5455659
0.0077546053 0.7442683 0.036934033 5389866
0.0073406361 0.74440491 0.036931485 5455659
0.0069266669 0.74454147 0.036928922 5389866
0.0065126978 0.74467808 0.036926359 5389866
0.0060987286 0.74481463 0.036923796 5455659
0.0054742135 0.74418128 0.037540674 5455659
0.0050617978 0.74431729 0.037538111 5389866
0.0046493784 0.74445337 0.037535563 5389866
0.0042369626 0.74458945 0.037533015 5455659
0.0038245432 0.74472553 0.037530467 5455659
0.0034121238 0.7448616 0.037527919 5389866
0.0027984753 0.74422467 0.038144812 5389866
0.0023876093 0.74436021 0.038142279 5455659
0.0019767396 0.74449575 0.038139731 5455659
0.0015658699 0.74463129 0.038137197 5455659
0.0011550039 0.74476683 0.038134649 5455659
0.00074413791 0.74490237 0.038132101 5455405
0.00014132634 0.74426186 0.038749114 5389612
-0.00026798993 0.74439687 0.03874658 5324333
-0.00067730621 0.74453193 0.038744047 5324333
-0.0010866262 0.74466693 0.038741529 5324333
-0.0014959387 0.744802 0.038738996 5324333
-0.0019052587 0.74493706 0.038736463 5324333
-0.0024971999 0.74429297 0.03935352 5324333
-0.0029049665 0.7444275 0.039350986 5324333
-0.003312733 0.74456203 0.039348468 5390126
-0.0037205033 0.74469656 0.03934595 5324333
-0.0041282699 0.74483109 0.039343417 5324333
-0.0045360364 0.74496561 0.039340898 5390126
-0.004943803 0.74510014 0.03933838 5521712
-0.0053515695 0.74523467 0.039335847 5324333
-0.0057593361 0.7453692 0.039333329 5324333
-0.0061671026 0.74550372 0.03933081 5390380
-0.0065748729 0.74563825 0.039328292 5390380
-0.0069826394 0.74577284 0.039325774 5390380
-0.0075544342 0.74512202 0.03994295 5390380
-0.0079606511 0.74525607 0.039940432 5390380
-0.0083668679 0.74539006 0.039937913 5324587
-0.0087730847 0.74552411 0.03993541 5324587
-0.0091792978 0.7456581 0.039932892 5324587
-0.0095855184 0.74579215 0.039930373 5390380
-0.0099917315 0.74592614 0.03992787 5390380
-0.010397952 0.74606019 0.039925352 5390380
-0.010955784 0.74540478 0.040542632 5390380
-0.011360452 0.74553829 0.040540129 5390380
-0.011765119 0.74567181 0.040537626 5390380
-0.012169782 0.74580532 0.040535137 5456173
-0.012574453 0.74593878 0.040532634 5390380
-0.012979116 0.74607229 0.04053013 5390380
-0.013526104 0.74541336 0.041147456 5390380
-0.013929222 0.74554634 0.041144967 5456173
-0.014332335 0.74567938 0.041142464 5390380
-0.014735453 0.74581236 0.041139975 5521452
-0.01513857 0.74594533 0.041137487 5521452
-0.01554168 0.74607837 0.041134983 5521452
-0.016077816 0.74541581 0.041752398 5521452
-0.01647938 0.74554831 0.041749924 5521452
-0.016880941 0.74568081 0.041747436 5587245
-0.017282508 0.74581325 0.041744947 5521452
-0.017684072 0.74594575 0.041742474 5521452
-0.01808564 0.74607825 0.041739985 5521452
-0.018610917 0.74541211 0.042357445 5521452
-0.019010931 0.74554408 0.042354971 5521452
-0.019410945 0.74567604 0.042352498 5521452
-0.019810956 0.74580806 0.042350024 5521452
-0.02021097 0.74594003 0.04234755 5521452
-0.020610984 0.74607199 0.042345077 5521452
-0.021125417 0.74540228 0.042962641 5521452
-0.021523882 0.74553376 0.042960167 5521452
-0.02192235 0.74566519 0.042957708 5521452
-0.022320814 0.74579668 0.042955235 5587245
-0.022719279 0.74592817 0.042952776 5587245
-0.023117743 0.7460596 0.042950302 5521452
-0.023516204 0.74619108 0.042947844 5521452
-0.023914669 0.74632251 0.042945385 5521452
-0.024313133 0.746454 0.042942911 5521452
-0.02481205 0.74577916 0.04356055 5521452
-0.025208965 0.74591017 0.043558091 5521452
-0.02560588 0.74604106 0.043555632 5521452
-0.026002791 0.74617207 0.043553174 5455659
-0.026399706 0.74630296 0.04355073 5521452
-0.02679662 0.74643397 0.043548271 5455659
-0.027193531 0.74656487 0.043545812 5521452
-0.027500849 0.74750566 0.042923197 5455659
-0.027899314 0.74763715 0.042920738 5455659
-0.028297778 0.74776864 0.042918265 5455659
-0.028696243 0.74790007 0.042915806 5455659
-0.029094707 0.74803156 0.042913333 5455659
-0.029493172 0.74816298 0.042910874 5455659
-0.029891632 0.74829447 0.0429084 5389866
-0.030290097 0.74842596 0.042905942 5258794
-0.030688561 0.74855739 0.042903483 5258794
-0.031087026 0.74868888 0.042901009 5389866
-0.031485491 0.7488203 0.042898551 5389866
0.048700351 0.74359345 0.028274924 5454889
0.047912803 0.74301302 0.028889358 5454889
0.04747713 0.74315673 0.028886676 5323303
0.04704145 0.74330044 0.028883979 5323303
0.046605777 0.7434442 0.028881282 5454889
0.046170104 0.74358797 0.028878585 5454889
0.045734424 0.74373168 0.028875887 5454889
0.045298751 0.74387544 0.02887319 5454889
0.044863079 0.74401915 0.028870493 5192487
0.04408947 0.74343407 0.029485032 5192487
0.043655347 0.74357736 0.02948235 5324073
0.043221217 0.74372053 0.029479668 5192487
0.042453829 0.74313349 0.030094221 5192487
0.042021256 0.74327618 0.030091539 5192487
0.041588683 0.74341893 0.030088872 5192487
0.041156109 0.74356163 0.03008619 5192487
0.040723536 0.74370432 0.030083507 5126694
0.040290963 0.74384701 0.03008084 5192487
0.039534416 0.74325639 0.030695468 5324073
0.039103393 0.74339855 0.030692801 5324073
0.038672369 0.74354076 0.030690134 5192487
0.038241345 0.74368298 0.030687466 5192487
0.037810322 0.7438252 0.030684799 5520682
0.037379298 0.74396741 0.030682132 5323303
0.036948275 0.74410963 0.030679464 5454889
0.036517251 0.74425185 0.030676812 5454889
0.036086228 0.744394 0.03067413 5454889
0.035345186 0.7437982 0.031288862 5454889
0.034915712 0.74393988 0.03128621 5323303
0.034486238 0.74408162 0.031283557 5323303
0.034056764 0.7442233 0.031280905 5192487
0.03362729 0.74436498 0.031278253 5192487
0.033197824 0.74450666 0.031275585 5192487
0.03276835 0.74464834 0.031272933 5192487
0.032338876 0.74479008 0.031270266 5192487
0.031909402 0.74493176 0.031267613 5324073
0.031479929 0.74507344 0.031264961 5192487
0.031050455 0.74521518 0.031262308 5324073
0.030328032 0.74461323 0.03187713 5192487
0.029900108 0.74475443 0.031874478 5324073
0.029472183 0.74489558 0.031871825 5192487
0.028755944 0.7442916 0.032486722 5192487
0.02832957 0.74443227 0.032484084 5324073
0.027903195 0.74457294 0.032481447 5389866
0.027193177 0.74396694 0.033096358 5192487
0.026768353 0.74410707 0.033093736 5324073
0.026343528 0.7442472 0.033091098 5324073
0.025918711 0.74438739 0.033088475 5324073
0.025493886 0.74452758 0.033085853 5324073
0.025069062 0.74466771 0.03308323 5324073
0.024095532 0.74330831 0.034315825 5324073
0.023673814 0.74344748 0.034313217 5192487
0.023252089 0.7435866 0.034310609 5192487
0.022830371 0.74372572 0.034308001 5324073
0.022408646 0.74386489 0.034305394 5324073
0.021986928 0.74400401 0.034302771 5324073
0.021300156 0.74339032 0.034917831 5324073
0.02087998 0.74352896 0.034915239 5192487
0.020459812 0.7436676 0.034912646 5324073
0.020039637 0.74380618 0.034910038 5324073
0.019619469 0.74394482 0.034907445 5389864
0.019199301 0.7440834 0.034904838 5389864
0.018779133 0.74422204 0.034902245 5520680
0.018358957 0.74436069 0.034899652 5520680
0.017938789 0.74449933 0.034897044 5389866
0.017267521 0.74388045 0.035512209 5389866
0.016848896 0.74401855 0.035509616 5455659
0.016430277 0.74415672 0.035507038 5455659
0.016011659 0.74429482 0.035504445 5389866
0.015593041 0.74443293 0.035501853 5389866
0.015174415 0.74457103 0.035499275 5389866
0.014755797 0.74470913 0.035496682 5389866
0.014337178 0.74484724 0.035494089 5455659
0.01391856 0.74498534 0.035491496 5389866
0.01326279 0.74436146 0.03610675 5389866
0.012845721 0.74449903 0.036104172 5389866
0.012428652 0.74463665 0.03610158 5455659
0.011779089 0.74401069 0.036716893 5521452
0.01136357 0.74414778 0.036714315 5455659
0.010948051 0.74428487 0.036711752 5389866
0.010532532 0.74442196 0.036709189 5389866
0.010117013 0.74455905 0.036706612 5455659
0.0097014941 0.74469614 0.036704034 5389866
0.0090627894 0.7440666 0.037319392 5389866
0.0086488202 0.74420315 0.037316829 5455659
0.0082348511 0.7443397 0.037314266 5455659
0.0076023377 0.74370813 0.037929684 5455659
0.0071899183 0.74384415 0.037927121 5455659
0.0067774989 0.74398023 0.037924573 5455659
0.0063650832 0.74411631 0.037922025 5389866
0.0059526637 0.74425238 0.037919477 5455659
0.0055402443 0.74438846 0.037916929 5455659
0.0051278286 0.74452448 0.037914366 5455659
0.0047154091 0.74466056 0.037911817 5389866
0.0040968619 0.7440244 0.03852728 5455659
0.0036859922 0.74415994 0.038524747 5455659
0.0032751225 0.74429548 0.038522199 5389866
0.0028642565 0.74443102 0.038519651 5455659
0.0024533905 0.74456656 0.038517118 5455659
0.0020425208 0.74470216 0.038514584 5455659
0.0014348142 0.7440623 0.039130136 5455659
0.0010254942 0.74419737 0.039127603 5455659
0.00061618164 0.74433243 0.03912507 5455659
0.00020686164 0.7444675 0.039122537 5455659
-0.00020245835 0.7446025 0.039120018 5324333
-0.0006117709 0.74473757 0.039117485 5324333
-0.0012086146 0.74409419 0.039733097 5324333
-0.0016163811 0.74422872 0.039730564 5324333
-0.0020241477 0.74436331 0.039728045 5324333
-0.0024319142 0.74449778 0.039725527 5324333
-0.0028396808 0.74463236 0.039723009 5390126
-0.003247451 0.74476689 0.039720476 5390126
-0.0038334467 0.74411994 0.040336162 5324333
-0.0042396635 0.74425393 0.040333644 5258540
-0.0046458803 0.74438798 0.040331125 5390126
-0.0050520971 0.74452198 0.040328622 5455919
-0.005458314 0.74465603 0.040326104 5324333
-0.0058645271 0.74479002 0.040323585 5324333
-0.0062707476 0.74492407 0.040321082 5390380
-0.0066769645 0.74505806 0.040318564 5390380
-0.0070831813 0.74519211 0.04031606 5390380
-0.0076536685 0.74453998 0.040931851 5390380
-0.0080583356 0.74467349 0.040929347 5390380
-0.008462999 0.744807 0.040926844 5390380
-0.0088676661 0.74494052 0.04092434 5390380
-0.0092723332 0.74507403 0.040921837 5324587
-0.0096769966 0.74520755 0.040919334 5390380
-0.010081667 0.74534106 0.04091683 5324587
-0.010486331 0.74547458 0.040914327 5456173
-0.010890998 0.74560809 0.040911824 5390380
-0.011445984 0.74495089 0.041527689 5390126
-0.011849102 0.74508393 0.0415252 5390126
-0.012252215 0.74521691 0.041522712 5390380
-0.012655333 0.74534988 0.041520208 5390380
-0.01305845 0.74548292 0.04151772 5390380
-0.013461564 0.7456159 0.041515231 5456173
-0.014005695 0.74495512 0.042131186 5456173
-0.014407258 0.74508762 0.042128697 5390380
-0.014808826 0.74522007 0.042126209 5521452
-0.01521039 0.74535257 0.042123735 5587245
-0.015611958 0.74548507 0.042121246 5521452
-0.016146783 0.74482125 0.042737246 5521452
-0.016546797 0.74495322 0.042734772 5587245
-0.016946811 0.74508518 0.042732298 5587245
-0.017346825 0.74521714 0.042729825 5521452
-0.01774684 0.74534917 0.042727351 5521452
-0.018146854 0.74548113 0.042724878 5521452
-0.018546872 0.7456131 0.042722389 5521452
-0.018946886 0.74574506 0.042719916 5521452
-0.0193469 0.74587703 0.042717442 5521452
-0.019866228 0.74520808 0.04333356 5521452
-0.020264689 0.74533951 0.043331087 5521452
-0.020663157 0.745471 0.043328628 5521452
-0.021061622 0.74560249 0.043326169 5521452
-0.021460086 0.74573392 0.043323696 5521452
-0.021858554 0.7458654 0.043321237 5521452
-0.022367019 0.74519289 0.043937385 5521452
-0.022763934 0.74532384 0.043934941 5521452
-0.023160845 0.74545479 0.043932483 5521452
-0.02355776 0.74558574 0.043930024 5521452
-0.023954671 0.74571669 0.043927565 5521452
-0.024351586 0.74584764 0.043925107 5521452
-0.0247485 0.74597859 0.043922663 5521452
-0.025145415 0.74610955 0.043920204 5521452
-0.02554233 0.7462405 0.043917745 5521452
-0.025939241 0.74637145 0.043915302 5521452
-0.026336156 0.7465024 0.043912843 5521452
-0.026733071 0.74663335 0.043910384 5455659
-0.027129982 0.7467643 0.043907925 5521452
-0.0275269 0.74689525 0.043905467 5521452
-0.027923815 0.74702621 0.043903023 5455659
-0.028320726 0.74715716 0.043900564 5455659
-0.028717641 0.74728811 0.043898106 5455659
-0.029114556 0.74741906 0.043895647 5455659
-0.02951147 0.74755001 0.043893188 5455659
-0.029908385 0.74768096 0.043890744 5389866
-0.030305296 0.74781191 0.043888286 5324587
-0.030624766 0.7487576 0.043267012 5258794
-0.03102323 0.74888903 0.043264538 5324073
-0.031421695 0.74902052 0.043262079 5455659
0.047982555 0.74323189 0.029286832 5520682
0.047546882 0.7433756 0.029284135 5323303
0.047111202 0.74351931 0.029281437 5454889
0.046675529 0.74366307 0.029278755 5454889
0.046239857 0.74380684 0.029276058 5323303
0.045804176 0.74395055 0.029273361 5454889
0.045368504 0.74409431 0.029270664 5454889
0.044932831 0.74423802 0.029267967 5192487
0.044158977 0.74365222 0.02988109 5192487
0.043724854 0.74379539 0.029878408 5324073
0.043290723 0.74393868 0.029875726 5324073
0.04252309 0.74335074 0.030488864 5192487
0.042090509 0.7434935 0.030486181 5324073
0.041657936 0.74363625 0.030483514 5192487
0.041225363 0.74377894 0.030480832 5192487
0.040792789 0.74392164 0.03047815 5126694
0.040360216 0.74406433 0.030475482 5192487
0.039603423 0.74347293 0.031088695 5324073
0.0391724 0.74361515 0.031086028 5324073
0.038741376 0.74375731 0.03108336 5324073
0.038310353 0.74389952 0.031080693 5324073
0.037879329 0.74404174 0.031078026 5389866
0.037448306 0.7441839 0.031075358 5324073
0.037017282 0.74432611 0.031072691 5454889
0.036586259 0.74446833 0.031070024 5520682
0.036155235 0.74461055 0.031067356 5454889
0.035413947 0.74401397 0.031680688 5454889
0.034984473 0.74415565 0.031678021 5323303
0.034554999 0.74429739 0.031675369 5323303
0.034125526 0.74443907 0.031672716 5324073
0.033696052 0.74458075 0.031670064 5324073
0.033266578 0.74472243 0.031667411 5324073
0.032837104 0.74486411 0.031664744 5192487
0.03240763 0.74500585 0.031662092 5324073
0.031978156 0.74514753 0.031659424 5324073
0.031548683 0.74528921 0.031656772 5324073
0.031119216 0.74543089 0.031654119 5192487
0.03039654 0.74482822 0.032267526 5192487
0.029968616 0.74496937 0.032264888 5324073
0.029540692 0.74511057 0.032262236 5324073
0.028824206 0.74450576 0.032875717 5324073
0.028397832 0.74464643 0.032873064 5324071
0.027971458 0.7447871 0.032870442 5389864
0.027261186 0.74418032 0.033483937 5324071
0.026836369 0.74432051 0.0334813 5324071
0.026411545 0.74446064 0.033478677 5192485
0.02598672 0.74460077 0.033476055 5324071
0.025561903 0.74474096 0.033473417 5324073
0.025137078 0.74488115 0.033470795 5324073
0.024163049 0.7435202 0.034700572 5389866
0.023741331 0.74365932 0.03469795 5324073
0.023319606 0.74379849 0.034695342 5192487
0.022897888 0.74393761 0.034692734 5192487
0.022476163 0.74407673 0.034690127 5324073
0.022054445 0.74421585 0.034687519 5324073
0.02136742 0.74360138 0.035301164 5324073
0.020947251 0.74374002 0.035298556 5192487
0.020527083 0.74387866 0.035295963 5389866
0.020106908 0.74401724 0.03529337 5389866
0.01968674 0.74415588 0.035290763 5389864
0.019266572 0.74429452 0.03528817 5389864
0.018846396 0.74443316 0.035285562 5520680
0.018426228 0.74457181 0.035282969 5520680
0.01800606 0.74471039 0.035280377 5520680
0.017334539 0.7440908 0.035894126 5520680
0.016915921 0.7442289 0.035891533 5455657
0.016497303 0.744367 0.03588894 5455657
0.016078677 0.74450511 0.035886347 5389864
0.015660059 0.74464321 0.035883769 5389864
0.01524144 0.74478137 0.035881177 5389864
0.014822822 0.74491942 0.035878584 5389864
0.014404196 0.74505758 0.035876006 5455657
0.013985578 0.74519569 0.035873413 5389864
0.013329569 0.74457097 0.036487237 5389864
0.012912493 0.7447086 0.036484659 5389864
0.012495425 0.74484617 0.036482081 5455657
0.011845615 0.74421942 0.037095964 5521450
0.011430096 0.74435651 0.037093401 5455657
0.011014577 0.7444936 0.037090838 5389864
0.010599058 0.74463069 0.03708826 5389864
0.010183539 0.74476779 0.037085697 5455657
0.0097680204 0.74490488 0.037083119 5389866
0.009129066 0.7442745 0.037697062 5389866
0.0087150969 0.74441111 0.037694499 5389866
0.0083011277 0.74454772 0.037691936 5455659
0.0076683648 0.74391532 0.038305938 5455659
0.0072559454 0.74405134 0.038303375 5455659
0.0068435296 0.74418741 0.038300827 5455659
0.0064311102 0.74432349 0.038298279 5455659
0.0060186945 0.74445957 0.038295731 5455659
0.0056062751 0.74459565 0.038293183 5455659
0.0051938556 0.74473166 0.03829062 5455659
0.0047814362 0.7448678 0.038288072 5389866
0.0041626431 0.74423081 0.038902119 5455659
0.0037517734 0.74436635 0.038899586 5455659
0.0033409037 0.74450189 0.038897038 5455659
0.0029300377 0.74463749 0.038894504 5455659
