# .PCD v0.7 - Point Cloud Data file format
VERSION 0.7
FIELDS x y z rgb
SIZE 4 4 4 4
TYPE F F F U
COUNT 1 1 1 1
WIDTH 1079
HEIGHT 1
VIEWPOINT 0 0 0 1 0 0 0
POINTS 1079
DATA ascii
0.015322685 0.74677008 0.072132215 10191974
0.015058473 0.74713713 0.072129548 10191974
0.014794275 0.74750417 0.072126865 10388583
0.014530063 0.74787122 0.072124198 10322790
0.014265865 0.74823827 0.072121516 10322790
0.014001667 0.74860531 0.072118849 10388583
0.012987077 0.74850297 0.072586015 10454376
0.012723818 0.7488687 0.072583348 10454376
0.012460575 0.74923444 0.07258068 10520169
0.012197316 0.74960011 0.072578013 10520169
-0.024579018 0.7976675 0.073160693 11835775
-0.024840355 0.79803061 0.073158041 11901568
-0.025101706 0.79839367 0.073155403 11901568
-0.025363043 0.79875672 0.073152751 11967361
-0.025009423 0.79977733 0.072678894 11967361
-0.025271729 0.80014175 0.072676241 12033154
-0.026760131 0.79918575 0.073616043 11902338
-0.027020514 0.79954749 0.073613405 11902338
-0.027280897 0.79990923 0.073610768 11902338
-0.027541295 0.80027097 0.07360813 11902338
-0.027801678 0.80063272 0.073605508 11902340
-0.028062075 0.80099446 0.07360287 11968133
-0.028322458 0.8013562 0.073600233 11968133
-0.027976468 0.80238742 0.073126301 12099719
-0.02823782 0.80275047 0.073123664 12099721
-0.027894691 0.80378568 0.072649702 12165514
-0.028156981 0.80415004 0.07264705 12231307
-0.028419286 0.80451447 0.072644398 12231307
-0.028681576 0.80487883 0.07264173 12362893
-0.028943866 0.80524325 0.072639078 12428686
-0.029206172 0.80560762 0.072636425 12494992
-0.028869718 0.80665207 0.072162405 12626578
-0.029132962 0.8070178 0.072159737 12561049
-0.029396206 0.80738354 0.07215707 12561049
-0.029063582 0.80843329 0.071683004 12826020
-0.029327795 0.80880034 0.071680337 13549743
-0.029591992 0.80916739 0.071677655 13813946
-0.029263169 0.81022245 0.07120356 14208704
-0.02952832 0.8105908 0.071200877 13418418
-0.029202372 0.81164986 0.070726752 11247249
-0.029468492 0.81201953 0.07072407 10454903
-0.029734612 0.81238925 0.070721373 9862766
-0.030000716 0.81275892 0.070718676 10058085
-0.030266821 0.81312859 0.070715979 10189671
-0.030532941 0.81349832 0.070713297 10255462
-0.029628262 0.81526524 0.069767594 10255462
-0.029896289 0.81563759 0.069764867 10124644
-0.030164301 0.81600994 0.069762155 10124644
-0.029849797 0.81708485 0.069287911 10124644
-0.030118763 0.81745851 0.069285184 10124644
-0.029226497 0.81924272 0.068339378 10190437
-0.02949737 0.819619 0.068336636 10124644
-0.029768258 0.81999534 0.068333894 10058851
-0.029461354 0.82108092 0.06785956 10058851
-0.029733196 0.82145852 0.067856804 10058853
-0.030005038 0.82183617 0.067854047 10124646
-0.029127091 0.82364023 0.066908091 10058853
-0.029400826 0.8240205 0.06690532 10124646
-0.029674575 0.82440078 0.066902548 10058851
-0.029948324 0.82478106 0.066899776 10058851
-0.030222058 0.82516134 0.066897005 10058851
0.018615156 0.74560982 0.071603596 9270620
0.018349051 0.74597949 0.071600899 10191722
0.018082947 0.74634922 0.071598217 9994341
0.017816827 0.74671888 0.07159552 10060134
0.015504926 0.74690413 0.072524145 10257767
0.015240729 0.74727118 0.072521478 10191974
0.014976531 0.74763823 0.072518796 10257767
0.014712319 0.74800527 0.072516128 10191974
0.014448121 0.74837232 0.072513461 10322790
0.014183909 0.74873936 0.072510779 10388583
0.013168663 0.74863654 0.07297653 10454376
0.012905419 0.74900222 0.072973862 10520169
0.01264216 0.74936795 0.072971195 10520169
0.012378916 0.74973369 0.072968543 10520169
-0.024398744 0.79780012 0.073548377 11835775
-0.024660081 0.79816318 0.073545724 11901568
-0.024921432 0.79852629 0.073543087 11967361
-0.025182769 0.79888934 0.073540449 11967361
-0.024828494 0.79991043 0.073068008 12033154
-0.025090784 0.80027485 0.073065355 12033154
-0.025353089 0.80063921 0.073062703 11836545
-0.025615379 0.80100358 0.073060036 11902338
-0.025877684 0.801368 0.073057383 11902338
-0.026139975 0.80173242 0.073054731 11902338
-0.026402265 0.80209678 0.073052078 11837060
-0.02666457 0.80246115 0.073049426 11902853
-0.02692686 0.80282557 0.073046774 11902853
-0.027189165 0.80318993 0.073044121 12034439
-0.027451456 0.80355436 0.073041454 12034441
-0.02710861 0.80459136 0.072568908 12100234
-0.027371868 0.80495703 0.072566241 12166027
-0.027635112 0.80532277 0.072563574 12166027
-0.027296111 0.80636507 0.072090983 12231820
-0.027560323 0.80673212 0.072088316 12231820
-0.027824521 0.80709916 0.072085634 12363406
-0.028088719 0.80746621 0.072082967 12560785
-0.028352931 0.80783325 0.072080284 12560531
-0.028617129 0.8082003 0.072077617 12626324
-0.028284788 0.8092519 0.071604967 12495510
-0.028549939 0.80962026 0.07160227 12561303
-0.028220475 0.81067574 0.071129605 12760227
-0.028486595 0.81104547 0.071126908 13418157
-0.028752699 0.8114152 0.071124211 13813948
-0.029018819 0.81178486 0.071121529 14340292
-0.029284924 0.81215453 0.071118832 14010557
-0.029551029 0.8125242 0.071116135 12168353
-0.02922824 0.81358904 0.07064338 11244421
-0.029495314 0.81396008 0.070640683 9994354
-0.029762387 0.81433105 0.070637971 10124394
-0.029443383 0.8154012 0.070165187 10190187
-0.029711396 0.81577361 0.070162475 10321257
-0.029979423 0.8161459 0.070159763 10255464
-0.029664248 0.81722134 0.069686919 10124646
-0.029933229 0.81759501 0.069684207 10124646
-0.029039636 0.81938016 0.068741217 10190439
-0.029310524 0.81975645 0.068738475 10124646
-0.029581398 0.82013273 0.068735734 10124646
-0.029273838 0.82121879 0.068262815 10058853
-0.02954568 0.82159644 0.068260059 10058853
-0.029817522 0.8219741 0.068257302 10124646
-0.028938264 0.82377911 0.067314178 10058853
-0.029211998 0.82415938 0.067311406 10124646
-0.029485747 0.82453966 0.067308635 9993058
-0.029759482 0.82491994 0.067305863 10058851
-0.030033231 0.82530022 0.067303091 10058851
0.021933168 0.74441969 0.071080863 6902583
0.021665156 0.74479198 0.071078151 7165755
0.021397129 0.74516433 0.071075439 7560515
0.020363078 0.74508619 0.071539581 7955273
0.020096004 0.74545723 0.071536884 9402721
0.019828945 0.74582827 0.071534172 9863272
0.018798739 0.74574482 0.071998358 9929063
0.018532619 0.74611449 0.071995676 9994856
0.018266499 0.74648422 0.071992978 10126440
0.018000394 0.74685389 0.071990281 10126440
0.017734289 0.74722362 0.071987584 10192233
0.017468169 0.74759328 0.071984902 10192233
0.015687183 0.74703819 0.07291609 10257767
0.015422985 0.74740523 0.072913408 10257767
0.015158772 0.74777228 0.072910741 10257767
0.014894575 0.74813932 0.072908059 10191974
0.014630362 0.74850637 0.072905391 10388583
0.014366165 0.74887341 0.072902724 10454376
0.013350263 0.74877012 0.073367044 10520169
0.013087004 0.74913579 0.073364392 10520169
0.012823761 0.74950153 0.073361725 10520169
0.012560517 0.74986726 0.073359057 10520169
0.013793066 0.75118428 0.072422296 10651242
0.0135279 0.75155264 0.072419614 10651242
0.013262749 0.751921 0.072416931 10651242
0.012997583 0.75228935 0.072414249 10717035
0.012732431 0.75265777 0.072411567 10717035
-0.02421847 0.79793274 0.073936075 11901568
-0.024479806 0.7982958 0.073933423 11901568
-0.024741143 0.79865885 0.073930785 11967361
-0.025002494 0.79902196 0.073928133 11967361
-0.024647564 0.80004346 0.073457107 12033154
-0.024909854 0.80040789 0.073454455 12033154
-0.025172144 0.80077231 0.073451802 11902338
-0.025434449 0.80113667 0.07344915 11902338
-0.02569674 0.80150104 0.073446497 11968131
-0.025959045 0.80186546 0.073443845 11968131
-0.026221335 0.80222988 0.073441178 11902853
-0.026483625 0.80259424 0.073438525 12100232
-0.02674593 0.80295861 0.073435873 12034439
-0.027008221 0.80332303 0.07343322 12034439
-0.027270526 0.80368745 0.073430568 12034441
-0.026927024 0.80472493 0.072959423 12100234
-0.027190268 0.80509067 0.072956771 12100234
-0.027453527 0.80545634 0.072954103 12166027
-0.02711387 0.80649912 0.072482929 12231820
-0.027378067 0.80686617 0.072480246 12231820
-0.027642265 0.80723321 0.072477579 12363406
-0.027906477 0.80760026 0.072474897 12494992
-0.028170675 0.80796731 0.07247223 12494992
-0.028434888 0.80833435 0.072469547 12494992
-0.028101876 0.80938637 0.071998313 12560531
-0.028367028 0.80975479 0.071995631 12626324
-0.028036907 0.8108108 0.071524367 12495508
-0.028303027 0.81118047 0.07152167 12692887
-0.028569132 0.81155014 0.071518987 12825252
-0.028835237 0.81191987 0.07151629 13088424
-0.029101357 0.81228954 0.071513593 13878971
-0.029367477 0.81265926 0.071510896 14405315
-0.029044032 0.81372452 0.071039557 14405061
-0.029311091 0.81409556 0.07103686 13089201
-0.029578149 0.8144666 0.071034163 11574418
-0.02925849 0.81553721 0.07056278 10192765
-0.029526517 0.81590956 0.070560068 9861737
-0.029794544 0.81628191 0.070557356 9993323
-0.029478714 0.81735778 0.070085928 10124646
-0.02974768 0.8177315 0.070083216 10124646
-0.028852776 0.81951755 0.069143057 10190439
-0.029123664 0.8198939 0.069140315 10124646
-0.029394537 0.82027018 0.069137573 10124646
-0.029086336 0.82135671 0.068666071 10058853
-0.029358163 0.82173437 0.068663314 10058853
-0.029630005 0.82211202 0.068660557 10124646
-0.029325634 0.8232038 0.06818904 10124646
-0.029598415 0.82358277 0.068186283 10124646
-0.02987121 0.82396173 0.068183526 9993058
-0.029570654 0.82505882 0.067711949 10058851
-0.029844403 0.82543916 0.067709178 10058853
-0.030118138 0.82581943 0.067706406 9927267
-0.030391872 0.82619971 0.067703635 9993058
-0.030665621 0.82658005 0.067700863 9927265
0.022118062 0.74455565 0.071478456 7099449
0.021850035 0.744928 0.071475744 7691586
0.021582007 0.74530029 0.071473032 8744789
0.020547301 0.74522173 0.071935758 9271133
0.020280227 0.74559271 0.071933061 9797477
0.020013168 0.74596375 0.071930349 10126442
0.019746095 0.74633479 0.071927652 10126442
0.019479036 0.74670577 0.071924955 10126442
0.019211978 0.74707681 0.071922243 10257513
0.018183962 0.74698889 0.072385043 10191720
0.017917857 0.74735862 0.072382361 10257513
0.017651737 0.74772829 0.072379664 10191720
0.017385632 0.74809802 0.072376966 10257767
0.017119512 0.74846768 0.072374284 10323560
0.016853407 0.74883735 0.072371587 10257767
0.016587287 0.74920708 0.07236889 10257767
0.016321182 0.74957675 0.072366193 10388583
0.015301764 0.74947697 0.072829068 10454376
0.015036598 0.74984533 0.072826385 10520169
0.014771447 0.75021368 0.072823703 10520169
0.01450628 0.7505821 0.072821021 10520169
0.014241129 0.75095046 0.072818339 10520169
0.013975978 0.75131881 0.072815657 10651242
0.013710812 0.75168717 0.072812974 10651242
0.01344566 0.75205553 0.072810292 10651242
0.013180494 0.75242388 0.07280761 10717035
0.012915343 0.75279224 0.072804928 10717035
-0.023586422 0.80046988 0.073381916 11967361
-0.023849681 0.80083561 0.073379248 11967361
-0.024112925 0.80120128 0.073376596 12033154
-0.024376169 0.80156702 0.073373929 11902338
-0.024639428 0.80193269 0.073371261 11968131
-0.024902672 0.80229843 0.073368594 11968131
-0.024553776 0.80332977 0.072898924 11902338
-0.024817973 0.80369681 0.072896257 11902853
-0.025082186 0.80406386 0.072893575 12034439
-0.025346383 0.8044309 0.072890908 12100232
-0.025610596 0.80479795 0.072888225 12100232
-0.025874794 0.80516499 0.072885558 12034439
-0.026138991 0.80553204 0.072882876 12100232
-0.026403204 0.80589908 0.072880208 12166025
-0.026667401 0.80626613 0.072877526 12166025
-0.026328012 0.8073107 0.072407767 12231818
-0.026593179 0.80767906 0.072405085 12231818
-0.02685833 0.80804747 0.072402403 12363404
-0.027123496 0.80841583 0.072399706 12363404
-0.027388647 0.80878419 0.072397023 12494992
-0.027653813 0.8091526 0.072394341 12363406
-0.02732113 0.81020641 0.071924523 12494992
-0.027587235 0.81057608 0.071921825 12560785
-0.02785334 0.81094581 0.071919128 12363922
-0.02811946 0.81131548 0.071916446 12561301
-0.028385565 0.8116852 0.071913749 12627096
-0.028058603 0.812747 0.071443856 12692889
-0.028325662 0.81311798 0.071441144 12627871
-0.028592736 0.81348902 0.071438447 12759457
-0.028269559 0.81455612 0.070968509 13221041
-0.028537571 0.81492853 0.070965797 13878971
-0.028805599 0.81530082 0.070963085 14274245
-0.029073611 0.81567317 0.070960373 13879487
-0.029341638 0.81604552 0.070957661 12693412
-0.02960965 0.81641787 0.070954949 11048587
-0.02929318 0.81749427 0.070484951 10257011
-0.029562145 0.81786793 0.070482224 9730667
-0.02866593 0.819655 0.069544896 9993573
-0.028936803 0.82003129 0.069542155 10059366
-0.029207677 0.82040763 0.069539413 10255462
-0.02889882 0.82149464 0.069069326 10255462
-0.029170647 0.82187223 0.069066569 10189669
-0.029442489 0.82224989 0.069063812 10255462
-0.029137462 0.8233422 0.068593711 10124646
-0.029410243 0.82372117 0.068590954 10124646
-0.029683039 0.82410014 0.068588197 9993058
-0.029381827 0.8251977 0.068118036 9993058
-0.029655561 0.82557803 0.068115264 10058853
-0.02992931 0.82595831 0.068112493 9927267
-0.030203044 0.82633859 0.068109721 9993058
-0.030476794 0.82671893 0.068106949 9927265
0.02230294 0.74469161 0.071876049 8349518
0.022034913 0.74506396 0.071873337 9599585
0.021766901 0.74543631 0.071870625 9862757
0.020731524 0.74535722 0.072331935 9928550
0.02046445 0.74572819 0.072329238 10060136
0.020197392 0.74609923 0.072326541 10191722
0.019930333 0.74647027 0.072323829 10257515
0.019663259 0.74684125 0.072321132 10257515
0.019396201 0.74721229 0.072318435 10257513
0.018367529 0.7471239 0.072779819 10257513
0.018101424 0.74749362 0.072777122 10257513
0.017835304 0.74786329 0.072774425 10191720
0.017569199 0.74823296 0.072771728 10257513
0.017303079 0.74860269 0.072769046 10323306
0.017036974 0.74897242 0.072766349 10323306
0.016770855 0.74934208 0.072763652 10257513
0.01650475 0.74971175 0.072760969 10388329
0.015484661 0.7496115 0.073222429 10454122
0.01521951 0.74997985 0.073219746 10519915
0.014954358 0.75034821 0.073217049 10519915
0.014689192 0.75071657 0.073214367 10520169
0.014424041 0.75108492 0.073211685 10585962
0.014158875 0.75145334 0.073209003 10651242
0.013893723 0.7518217 0.07320632 10717035
0.013628557 0.75219005 0.073203638 10717035
0.013363406 0.75255841 0.073200956 10717035
0.01309824 0.75292683 0.073198274 10717035
-0.023404837 0.80060339 0.073772445 11967361
-0.023668081 0.80096912 0.073769778 12033154
-0.023931324 0.80133486 0.073767111 12033154
-0.024194583 0.80170059 0.073764443 12098947
-0.024457827 0.80206633 0.073761791 12098947
-0.024721086 0.802432 0.073759124 11968131
-0.02437152 0.80346382 0.073290855 11902338
-0.024635732 0.80383086 0.073288187 11968133
-0.02489993 0.80419791 0.07328552 12099719
-0.025164127 0.80456495 0.073282838 12165512
-0.02542834 0.804932 0.073280171 12165512
-0.025692552 0.80529904 0.073277488 12166025
-0.02595675 0.80566609 0.073274821 12166025
-0.026220948 0.80603313 0.073272139 12166025
-0.02648516 0.80640018 0.073269472 12166025
-0.026145115 0.80744529 0.072801113 12231818
-0.026410267 0.80781364 0.072798431 12231818
-0.026675418 0.808182 0.072795749 12363404
-0.026940584 0.80855036 0.072793067 12363404
-0.027205735 0.80891871 0.072790384 12494990
-0.027470902 0.80928707 0.072787702 12494990
-0.027137548 0.81034142 0.072319284 12494992
-0.027403668 0.81071115 0.072316587 12494992
-0.027669773 0.81108081 0.072313905 12429969
-0.027935892 0.81145048 0.072311208 12495762
-0.028201997 0.81182021 0.072308511 12495762
-0.02787438 0.81288248 0.071840033 12561555
-0.028141439 0.81325352 0.071837336 12430229
-0.028408498 0.8136245 0.071834624 12561815
-0.02808468 0.81469214 0.071366102 12627871
-0.028352693 0.81506449 0.071363389 12693664
-0.02862072 0.81543684 0.071360677 13089453
-0.028888732 0.81580913 0.071357965 13615797
-0.029156744 0.81618154 0.071355253 14274499
-0.029424772 0.81655383 0.071352541 14142913
-0.02910763 0.81763071 0.07088396 13352627
-0.029376596 0.81800437 0.070881233 11773595
-0.028479069 0.81979239 0.069946736 10652286
-0.028749943 0.82016873 0.069943994 9928563
-0.029020831 0.82054508 0.069941252 10189671
-0.028711304 0.8216325 0.069472581 10321257
-0.028983131 0.82201016 0.069469824 10255462
-0.029254973 0.82238781 0.069467068 10321255
-0.028949291 0.82348061 0.068998381 10189669
-0.029222071 0.82385957 0.068995625 10189669
-0.029494867 0.82423854 0.068992868 10058853
-0.029192984 0.82533658 0.068524122 10058853
-0.029466733 0.82571691 0.068521351 9993060
-0.029740483 0.82609719 0.068518579 9927267
-0.030014217 0.82647747 0.068515807 9993060
-0.030287951 0.82685781 0.068513036 9993060
0.022487819 0.74482763 0.072273642 9336926
0.022219807 0.74519992 0.07227093 9797477
0.02195178 0.74557227 0.072268218 9994343
0.020915747 0.7454927 0.072728127 10060136
0.020648688 0.74586368 0.072725415 10191722
0.020381615 0.74623471 0.072722718 10257515
0.020114556 0.74660575 0.072720021 10257515
0.019847482 0.74697673 0.072717309 10257515
0.019580424 0.74734777 0.072714612 10257513
0.018551096 0.7472589 0.073174581 10257513
0.018284991 0.74762863 0.073171884 10257513
0.018018872 0.7479983 0.073169202 10257513
0.017752767 0.74836802 0.073166505 10257513
0.017486647 0.74873769 0.073163807 10257513
0.017220542 0.74910736 0.07316111 10323306
0.016954422 0.74947709 0.073158428 10323306
0.016688317 0.74984682 0.073155731 10388329
0.015667573 0.74974602 0.073615775 10454122
0.015402421 0.75011438 0.073613092 10519915
0.015137255 0.75048274 0.07361041 10519915
0.014872104 0.75085109 0.073607728 10519915
0.014606953 0.75121951 0.073605046 10585708
0.014341787 0.75158787 0.073602349 10717035
0.014076635 0.75195622 0.073599666 10717035
0.013811469 0.75232458 0.073596984 10717035
0.013546318 0.75269294 0.073594302 10717035
0.013281152 0.75306129 0.07359162 10848621
0.013761088 0.7539134 0.073126107 10848621
0.013494983 0.75428307 0.07312341 10717035
0.013228863 0.7546528 0.073120713 10651242
-0.023223236 0.80073696 0.07416296 11967361
-0.023486495 0.8011027 0.074160293 12033156
-0.023749739 0.80146843 0.074157625 12033156
-0.024012983 0.80183411 0.074154973 12098949
-0.024276242 0.80219984 0.074152306 12098949
-0.024539486 0.80256557 0.074149638 12099719
-0.024189278 0.80359787 0.0736828 11968133
-0.024453476 0.80396491 0.073680118 11968133
-0.024717674 0.80433196 0.07367745 12099719
-0.024981886 0.804699 0.073674768 12165512
-0.025246084 0.80506605 0.073672101 12165512
-0.025510296 0.80543309 0.073669434 12231305
-0.025774494 0.80580014 0.073666751 12231305
-0.026038706 0.80616713 0.073664084 12231818
-0.026302904 0.80653423 0.073661402 12166025
-0.025962204 0.80757976 0.073194459 12297611
-0.026227355 0.80794811 0.073191777 12231818
-0.026492506 0.80831653 0.073189095 12297611
-0.026757672 0.80868489 0.073186412 12363404
-0.027022839 0.80905324 0.07318373 12494990
-0.02728799 0.80942166 0.073181048 12494990
-0.026953995 0.81047642 0.072714046 12494990
-0.0272201 0.81084609 0.072711363 12494990
-0.027486205 0.81121582 0.072708666 12429967
-0.027752325 0.81158549 0.072705969 12495760
-0.02801843 0.81195521 0.072703272 12495762
-0.027690142 0.81301796 0.07223621 12495762
-0.027957216 0.813389 0.072233513 12430229
-0.028224289 0.81376004 0.072230801 12364436
-0.027899802 0.8148281 0.071763694 12430231
-0.028167814 0.81520045 0.071760982 12496024
-0.028435826 0.8155728 0.07175827 12561565
-0.028703853 0.81594515 0.071755558 12758944
-0.028971866 0.8163175 0.071752846 12956838
-0.029239893 0.81668985 0.071750134 13548975
-0.028922081 0.81776714 0.071282968 13878969
-0.029191062 0.81814086 0.071280241 14142141
-0.028292209 0.81992984 0.070348576 14141889
-0.028563082 0.82030618 0.070345834 12891822
-0.02883397 0.82068253 0.070343092 11310986
-0.028523788 0.82177043 0.069875836 9863540
-0.028795615 0.82214808 0.06987308 9729636
-0.029067457 0.82252574 0.069870323 10190187
-0.028761119 0.82361901 0.069403052 10255462
-0.029033899 0.82399797 0.069400296 10123876
-0.029306695 0.82437694 0.069397539 10123876
-0.029004157 0.82547545 0.068930209 10123876
-0.029277906 0.82585579 0.068927437 10123876
-0.029551655 0.82623607 0.068924665 10123876
-0.029825389 0.82661641 0.068921894 10058083
-0.030099124 0.82699668 0.068919122 10058083
0.02344422 0.74541199 0.072210073 9797477
0.02317524 0.74578571 0.072207347 9994856
0.022906274 0.74615932 0.07220462 10060136
0.021868646 0.74608064 0.072663099 10191722
0.021600634 0.74645293 0.072660387 10191720
0.021332607 0.74682528 0.072657675 10257513
0.021064579 0.74719763 0.072654963 10257513
0.020796567 0.74756998 0.072652251 10257513
0.020528555 0.74794233 0.072649539 10257513
0.020260528 0.74831468 0.072646827 10323306
0.019992515 0.74868703 0.072644114 10257513
0.019724488 0.74905932 0.072641402 10257513
0.018696383 0.74896735 0.073099971 10257513
0.018429324 0.74933839 0.073097274 10257513
0.018162251 0.74970937 0.073094577 10323306
0.017895192 0.75008041 0.073091865 10323306
0.017628118 0.75045145 0.073089167 10323306
0.01660578 0.75035149 0.07354781 10323306
0.01633966 0.75072116 0.073545113 10389099
0.016073555 0.75109088 0.073542416 10389099
0.015807435 0.75146055 0.073539719 10585708
0.01554133 0.75183022 0.073537037 10585708
0.01527521 0.75219995 0.07353434 10651501
0.015009105 0.75256968 0.073531643 10651501
0.014742985 0.75293934 0.073528945 10717035
0.01447688 0.75330901 0.073526263 10717035
0.014210775 0.75367874 0.073523566 10848621
0.013944656 0.75404841 0.073520869 10848621
0.013678551 0.75441813 0.073518172 10717035
0.013412431 0.7547878 0.07351549 10651242
-0.022332236 0.80292553 0.073622704 12098949
-0.022597402 0.80329388 0.073620021 12098949
-0.022862554 0.80366224 0.073617339 12230535
-0.023127705 0.80403066 0.073614657 12099719
-0.023392871 0.80439901 0.073611975 12099719
-0.023658022 0.80476737 0.073609278 11968133
-0.023923188 0.80513573 0.073606595 12099719
-0.023577079 0.80617511 0.073141143 12165512
-0.023843199 0.80654478 0.073138446 12165512
-0.024109304 0.80691451 0.073135749 12231305
-0.024375409 0.80728424 0.073133051 12231305
-0.024641529 0.8076539 0.073130369 12231818
-0.024907634 0.80802357 0.073127672 12231818
-0.025173753 0.8083933 0.073124975 12231818
-0.025439858 0.80876297 0.073122278 12297611
-0.025705978 0.8091327 0.073119596 12363404
-0.025369406 0.81018531 0.072654009 12363404
-0.025636464 0.81055635 0.072651312 12494990
-0.025903538 0.81092739 0.072648615 12494990
-0.026170596 0.81129837 0.072645903 12364174
-0.02643767 0.81166941 0.072643206 12364174
-0.02610679 0.81273001 0.072177574 12429967
-0.026374817 0.81310236 0.072174862 12495760
-0.026642829 0.81347471 0.07217215 12429969
-0.026910856 0.81384706 0.072169438 12495762
-0.027178869 0.81421942 0.072166726 12364690
-0.027446896 0.81459177 0.072164014 12364690
-0.027714908 0.81496406 0.072161302 12364436
-0.02798292 0.81533647 0.07215859 12430229
-0.028250948 0.81570876 0.072155878 12561817
-0.027929634 0.81678259 0.071690142 12759196
-0.0281986 0.81715631 0.071687415 12759196
-0.027880132 0.81823415 0.071221665 12890782
-0.028150067 0.81860912 0.071218938 13088420
-0.028420001 0.81898415 0.071216196 13285799
-0.028105348 0.82006729 0.070750415 13483952
-0.028376222 0.82044363 0.070747674 13878710
-0.02864711 0.82081991 0.070744932 14339522
-0.028336272 0.82190835 0.070279092 14076350
-0.028608099 0.82228601 0.070276335 12694184
-0.028879941 0.82266366 0.070273578 10391429
-0.027994111 0.8244735 0.069344595 9993839
-0.028267846 0.82485378 0.069341823 9467495
-0.028541595 0.82523406 0.069339067 9795683
-0.028815329 0.82561433 0.069336295 10058855
-0.029089078 0.82599467 0.069333524 10189669
-0.028788716 0.82709765 0.068867579 10123876
-0.029063419 0.8274793 0.068864793 10058083
-0.029338121 0.82786095 0.068862021 10058083
0.023629755 0.74554849 0.072609082 9994343
0.023360789 0.74592215 0.072606355 10060136
0.023091808 0.74629581 0.072603628 10191722
0.022053525 0.7462166 0.073060691 10257515
0.021785513 0.74658895 0.073057979 10257513
0.021517485 0.7469613 0.073055267 10257513
0.021249473 0.74733365 0.073052555 10257513
0.020981446 0.74770594 0.073049843 10323306
0.020713434 0.74807829 0.073047131 10257513
0.020445406 0.74845064 0.073044419 10323306
0.020177394 0.74882299 0.073041707 10257513
0.019909382 0.74919534 0.073038995 10257513
0.018880606 0.74910283 0.073496163 10257513
0.018613547 0.74947387 0.073493451 10257513
0.018346488 0.74984491 0.073490754 10323306
0.018079415 0.75021589 0.073488057 10323306
0.017812356 0.75058693 0.073485345 10389099
0.016789347 0.75048649 0.073942572 10323306
0.016523227 0.75085616 0.073939875 10389099
0.016257122 0.75122589 0.073937178 10389099
0.015991002 0.75159556 0.073934495 10585708
0.015724897 0.75196528 0.073931798 10585708
0.015458778 0.75233495 0.073929101 10651501
0.015192673 0.75270462 0.073926404 10651501
0.014926553 0.75307435 0.073923722 10716781
0.014660448 0.75344402 0.073921025 10716781
0.014394343 0.75381374 0.073918328 10848621
0.014128223 0.75418341 0.073915631 10717035
0.013862118 0.75455308 0.073912948 10717035
0.013595998 0.75492281 0.073910251 10651242
-0.022149324 0.80306005 0.07401605 12098949
-0.022414491 0.80342841 0.074013367 12098949
-0.022679642 0.80379677 0.074010685 12098949
-0.022944808 0.80416512 0.074008003 12165512
-0.023209959 0.80453348 0.074005321 12099719
-0.023475111 0.8049019 0.074002638 11968133
-0.023740277 0.80527025 0.073999956 12099719
-0.023393512 0.80631012 0.073535904 12165512
-0.023659617 0.80667984 0.073533207 12165512
-0.023925737 0.80704951 0.07353051 12231305
-0.024191841 0.80741918 0.073527828 12231305
-0.024457961 0.80778891 0.073525131 12231818
-0.024724066 0.80815864 0.073522434 12231818
-0.024990186 0.8085283 0.073519737 12297611
-0.025256291 0.80889797 0.073517054 12297611
-0.025522411 0.8092677 0.073514357 12363404
-0.025185183 0.81032085 0.073050201 12363404
-0.025452241 0.81069183 0.073047489 12363404
-0.025719315 0.81106287 0.073044792 12494990
-0.025986373 0.81143391 0.073042095 12364174
-0.026253432 0.81180489 0.073039383 12429967
-0.025921911 0.81286597 0.072575167 12429967
-0.026189923 0.81323838 0.072572455 12495760
-0.02645795 0.81361067 0.072569743 12429969
-0.026725963 0.81398302 0.072567031 12495762
-0.02699399 0.81435537 0.072564319 12495762
-0.027262002 0.81472772 0.072561607 12495762
-0.027530029 0.81510007 0.072558895 12430229
-0.027798042 0.81547242 0.072556183 12496022
-0.028066069 0.81584477 0.072553471 12561815
-0.027744085 0.81691909 0.072089151 12693401
-0.028013051 0.81729275 0.072086439 12693401
-0.027693942 0.81837112 0.071622089 12693401
-0.027963877 0.81874609 0.071619362 12759196
-0.028233796 0.81912112 0.07161662 12824989
-0.027918488 0.82020473 0.071152255 12890782
-0.028189376 0.82058102 0.071149513 13153954
-0.028460264 0.82095736 0.071146771 13351594
-0.028148755 0.82204628 0.070682347 13812145
-0.028420582 0.82242393 0.07067959 13681590
-0.028692424 0.82280159 0.070676833 13681590
-0.027805269 0.82461238 0.069750682 13287604
-0.028079018 0.82499266 0.06974791 12103330
-0.028352767 0.82537293 0.069745138 10456191
-0.028626502 0.82575321 0.069742382 9469296
-0.028900236 0.82613355 0.06973961 9992808
-0.028599232 0.82723707 0.069275081 9927015
-0.028873935 0.82761872 0.069272295 10254948
-0.029148623 0.82800031 0.069269523 10254948
0.023815304 0.74568492 0.07300809 10191722
0.023546323 0.74605858 0.073005363 10191722
0.023277357 0.7464323 0.073002636 10257515
0.022238418 0.74635255 0.073458299 10257515
0.021970391 0.7467249 0.073455587 10257513
0.021702379 0.74709725 0.073452875 10257513
0.021434352 0.7474696 0.073450148 10323306
0.02116634 0.74784195 0.073447436 10323306
0.020898312 0.7482143 0.073444724 10257513
0.0206303 0.74858665 0.073442012 10323306
0.020362273 0.74895895 0.0734393 10257513
0.020094261 0.7493313 0.073436588 10389099
0.019064844 0.74923837 0.07389234 10323306
0.01879777 0.74960935 0.073889643 10323306
0.018530712 0.74998039 0.073886931 10323306
0.018263638 0.75035143 0.073884234 10323306
0.017996579 0.75072241 0.073881522 10519915
0.016972914 0.7506215 0.074337333 10519915
0.016706795 0.75099123 0.074334636 10519915
0.01644069 0.75136089 0.074331939 10519915
0.01617457 0.75173056 0.074329257 10585708
0.015908465 0.75210029 0.07432656 10585708
0.015642345 0.75246996 0.074323863 10651501
0.01537624 0.75283968 0.074321181 10651501
0.01511012 0.75320935 0.074318483 10650988
0.014844015 0.75357902 0.074315786 10848367
0.014577895 0.75394875 0.074313089 10848367
0.01431179 0.75431842 0.074310407 10716781
0.014045686 0.75468814 0.07430771 10716781
0.013779566 0.75505781 0.074305013 10650988
-0.021966413 0.80319458 0.074409395 11968133
-0.022231579 0.80356294 0.074406713 12099719
-0.02249673 0.8039313 0.074404031 12099719
-0.022761896 0.80429971 0.074401349 12165512
-0.023027048 0.80466807 0.074398667 12165512
-0.023292214 0.80503643 0.074395984 12099719
-0.023557365 0.80540478 0.074393302 12165512
-0.023209944 0.80644512 0.073930666 12100232
-0.023476064 0.80681485 0.073927969 12100232
-0.023742169 0.80718452 0.073925287 12166025
-0.024008274 0.80755424 0.073922589 12166025
-0.024274394 0.80792391 0.073919892 12231818
-0.024540499 0.80829358 0.073917195 12231818
-0.024806619 0.80866331 0.073914513 12297611
-0.025072724 0.80903304 0.073911816 12297611
-0.025338843 0.8094027 0.073909119 12363404
-0.02500096 0.81045634 0.073446378 12494990
-0.025268018 0.81082737 0.073443681 12363404
-0.025535077 0.81119835 0.073440969 12494990
-0.02580215 0.81156933 0.073438272 12364174
-0.026069209 0.81194037 0.07343556 12429967
-0.025737032 0.81300199 0.07297276 12429967
-0.026005045 0.81337434 0.072970048 12495760
-0.026273072 0.81374669 0.072967336 12429969
-0.026541084 0.81411898 0.072964624 12495762
-0.026809096 0.81449139 0.072961912 12495762
-0.027077124 0.81486368 0.0729592 12495762
-0.027345151 0.81523603 0.072956488 12561301
-0.027613163 0.81560838 0.072953776 12627094
-0.027881175 0.81598073 0.072951064 12824473
-0.027558535 0.81705558 0.072488159 12824473
-0.027827516 0.81742924 0.072485447 12824473
-0.027507737 0.81850803 0.072022513 12692887
-0.027777672 0.81888306 0.072019786 12693401
-0.028047591 0.81925803 0.072017044 12759194
-0.027731627 0.82034212 0.071554095 12824989
-0.028002515 0.82071847 0.071551353 12890782
-0.028273404 0.82109475 0.071548611 12956575
-0.027961239 0.82218421 0.071085602 13022368
-0.028233066 0.82256186 0.071082845 13089192
-0.028504908 0.82293952 0.071080089 13483950
-0.027616441 0.82475126 0.070156768 13484211
-0.027890176 0.82513154 0.070153996 14076348
-0.028163925 0.82551181 0.070151225 14274761
-0.028437674 0.82589215 0.070148453 13156280
-0.028711408 0.82627243 0.070145696 11772312
-0.028409749 0.82737643 0.069682583 10390659
-0.028684437 0.82775807 0.069679797 9992810
-0.02895914 0.82813966 0.069677025 9927017
-0.028661311 0.82924891 0.069213882 10123876
-0.028936967 0.82963192 0.069211096 10189669
-0.029212624 0.83001482 0.069208309 10058851
0.022386998 0.74806345 0.073390767 10323306
0.022118032 0.74843705 0.07338804 10389099
0.021849051 0.74881077 0.073385328 10323306
0.020815179 0.74872261 0.07383962 10323306
0.020547166 0.74909496 0.073836908 10323306
0.020279139 0.74946725 0.073834196 10389099
0.020011127 0.74983966 0.073831484 10323306
0.0197431 0.75021195 0.073828772 10323306
0.019475088 0.7505843 0.07382606 10323306
0.01920706 0.75095665 0.073823333 10389099
0.018939048 0.751329 0.073820621 10519915
0.018671021 0.75170135 0.073817909 10519915
0.017866969 0.75281835 0.073809773 10519915
0.017598957 0.75319076 0.073807061 10585708
0.01733093 0.75356305 0.073804349 10651501
0.017062917 0.7539354 0.073801637 10651501
-0.025701985 0.81639504 0.072439328 12561301
-0.025971919 0.81677002 0.072436601 12561301
-0.026241839 0.81714505 0.072433874 12627094
-0.026511773 0.81752002 0.072431132 12824475
-0.026781693 0.817895 0.072428405 12824475
-0.027051613 0.81826997 0.072425678 12692889
-0.026142716 0.82005626 0.071505353 12692889
-0.026414558 0.82043391 0.071502611 12693403
-0.026686385 0.82081151 0.071499854 12759196
-0.026371688 0.82189882 0.071038306 12759196
-0.026644483 0.82227778 0.071035534 12824989
-0.026917264 0.82265675 0.071032777 12824989
-0.027190059 0.82303572 0.071030021 12956575
-0.02746284 0.82341468 0.071027249 12957088
-0.027735636 0.82379365 0.071024492 12957088
-0.027427614 0.82489014 0.070562854 12826018
-0.027701348 0.82527041 0.070560083 13220776
-0.027396172 0.82637095 0.070098415 13419188
-0.02767086 0.82675254 0.070095643 13813946
-0.027945563 0.82713419 0.070092857 14340038
-0.028220251 0.82751578 0.070090085 14405831
-0.028494954 0.82789743 0.070087299 13417907
-0.028769642 0.82827902 0.070084512 11707289
-0.028471172 0.8293888 0.0696228 10717564
-0.028746814 0.82977176 0.069620013 9796462
-0.02902247 0.83015466 0.069617212 9861735
0.022572547 0.74819988 0.073789775 10323306
0.022303566 0.74857354 0.073787048 10389099
0.0220346 0.7489472 0.073784336 10389099
0.021000057 0.74885857 0.074237213 10323306
0.020732045 0.74923092 0.074234501 10389099
0.020464033 0.74960327 0.074231789 10389099
0.020196006 0.74997562 0.074229077 10323306
0.019927979 0.75034797 0.074226364 10323306
0.019659966 0.75072026 0.074223652 10389099
0.019391954 0.75109267 0.07422094 10389099
0.019123927 0.75146496 0.074218228 10519915
0.018855914 0.75183731 0.074215516 10519915
0.018051848 0.75295436 0.07420738 10519915
0.017783836 0.75332671 0.074204654 10585708
0.017515808 0.75369906 0.074201941 10651501
0.017247796 0.75407135 0.074199229 10651501
-0.02551578 0.81653202 0.072839752 12561301
-0.025785714 0.81690699 0.072837025 12561303
-0.026055634 0.81728196 0.072834298 12627096
-0.026325569 0.81765699 0.072831556 12824475
-0.026595488 0.81803197 0.072828829 12824475
-0.026865423 0.81840694 0.072826102 12692889
-0.0259552 0.82019418 0.071908608 12824475
-0.026227042 0.82057178 0.071905866 12759196
-0.026498869 0.82094944 0.07190311 12759196
-0.026183516 0.82203716 0.071442962 12759196
-0.026456311 0.82241619 0.071440205 12824989
-0.026729092 0.82279515 0.071437448 12824987
-0.027001888 0.82317412 0.071434692 12890780
-0.027274668 0.82355309 0.07143192 12957088
-0.027547464 0.82393205 0.071429163 12957088
-0.027238786 0.82502902 0.070968941 12826272
-0.027512521 0.82540929 0.070966169 13023651
-0.027206689 0.82651031 0.070505917 13154985
-0.027481377 0.8268919 0.070503145 13154985
-0.027756065 0.82727355 0.070500359 13352879
-0.028030768 0.8276552 0.070497572 13550258
-0.028305471 0.82803679 0.070494801 13879741
-0.028580159 0.82841837 0.070492014 14669257
-0.028281018 0.82952863 0.070031717 14208452
-0.028556675 0.82991159 0.070028931 12958385
-0.028832316 0.83029455 0.070026129 11706519
0.022758082 0.74833632 0.074188784 10454122
0.022489116 0.74871004 0.074186057 10519915
0.022220135 0.74908364 0.074183345 10389099
0.021184951 0.74899459 0.074634805 10389099
0.020916924 0.74936688 0.074632093 10454892
0.020648912 0.74973923 0.074629381 10389099
0.020380884 0.75011158 0.074626669 10323306
0.020112872 0.75048393 0.074623957 10389099
0.019844845 0.75085628 0.074621245 10389099
0.019576833 0.75122863 0.074618533 10389099
0.019308805 0.75160098 0.074615821 10519915
0.019040793 0.75197327 0.074613109 10519915
0.018236727 0.75309032 0.074604973 10585708
0.017968714 0.75346267 0.074602261 10585708
0.017700702 0.75383502 0.074599549 10651501
0.017432675 0.75420737 0.074596837 10651501
0.0020471662 0.77710879 0.073979184 11646886
0.0017781854 0.77748245 0.073976457 11713962
0.0015092194 0.77785611 0.073973745 11911341
0.0012402534 0.77822977 0.073971018 11911341
-0.02532959 0.81666893 0.073240176 12561301
-0.025599509 0.8170439 0.073237449 12561303
-0.025869444 0.81741893 0.073234722 12627096
-0.026139379 0.81779391 0.07323198 12692889
-0.026409298 0.81816888 0.073229253 12692889
-0.026679218 0.81854391 0.073226526 12692889
-0.025767684 0.82033205 0.072311863 12824475
-0.026039526 0.82070971 0.072309121 12890268
-0.026311353 0.82108736 0.072306365 12956061
-0.025995344 0.82217556 0.071847633 12824989
-0.026268139 0.82255453 0.071844876 12890782
-0.02654092 0.8229335 0.071842119 12890780
-0.026813716 0.82331246 0.071839362 12890780
-0.027086496 0.82369149 0.071836591 12957088
-0.027359292 0.82407045 0.071833834 12957088
-0.027049959 0.82516789 0.071375027 13088674
-0.027323693 0.82554817 0.071372256 13154467
-0.027017191 0.82664967 0.070913419 13154213
-0.027291894 0.82703125 0.070910633 13154213
-0.027566582 0.8274129 0.070907861 13089192
-0.02784127 0.82779455 0.070905074 13089192
-0.028115973 0.82817614 0.070902303 13155500
-0.028390676 0.82855773 0.070899516 13418672
-0.028090864 0.82966852 0.07044062 13813948
-0.028366536 0.83005142 0.070437834 15064015
-0.028642178 0.83043438 0.070435047 15722207
0.0022327006 0.77724528 0.074378192 11909804
0.0019637346 0.77761889 0.07437548 11778990
0.0016947538 0.77799261 0.074372754 11778990
0.0014257878 0.77836627 0.074370027 12042162
-0.023897648 0.8196612 0.07227163 12627096
-0.024170443 0.82004017 0.072268873 12692889
-0.024443239 0.82041913 0.072266117 12692889
-0.02471602 0.8207981 0.07226336 12824475
-0.0249888 0.82117707 0.072260588 12890268
-0.025261596 0.82155603 0.072257832 12824989
-0.025534391 0.821935 0.072255075 12890782
-0.025218666 0.82302499 0.071797729 12890782
-0.025492415 0.82340533 0.071794957 12890782
-0.025766149 0.8237856 0.071792185 12956575
-0.026039898 0.82416588 0.071789429 12956575
-0.026313633 0.82454622 0.071786657 12956575
-0.026587367 0.8249265 0.071783885 13022368
-0.026278317 0.82602578 0.071326479 13088420
-0.026553005 0.82640743 0.071323693 13154213
-0.026827693 0.82678902 0.071320921 13088420
-0.027102396 0.82717061 0.071318135 13088420
-0.027377099 0.82755226 0.071315363 13154213
-0.027651787 0.82793391 0.071312577 13154213
-0.02792649 0.8283155 0.071309805 13023399
-0.028201193 0.82869714 0.071307018 13023399
0.0024182498 0.77738172 0.074777201 9014664
0.002149269 0.77775538 0.074774489 9476245
0.001880303 0.77812904 0.074771762 9476245
0.0016113222 0.7785027 0.074769035 9476245
-0.023709476 0.8197996 0.072676301 12627094
-0.023982272 0.82017857 0.072673544 12692887
-0.024255067 0.82055753 0.072670788 12890266
-0.024527848 0.8209365 0.072668031 12824987
-0.024800628 0.82131547 0.072665259 12824987
-0.025073424 0.82169443 0.072662503 12824989
-0.02534622 0.8220734 0.072659746 12890782
-0.025029838 0.82316387 0.072203815 12890782
-0.025303572 0.8235442 0.072201043 12956575
-0.025577322 0.82392448 0.072198272 12891295
-0.025851056 0.82430482 0.0721955 12891295
-0.026124805 0.8246851 0.072192743 12891041
-0.02639854 0.82506537 0.072189972 12956834
-0.026088819 0.8261652 0.071733981 12956834
-0.026363522 0.82654679 0.071731195 13088420
-0.02663821 0.82692838 0.071728423 13154213
-0.026912913 0.82731003 0.071725637 13088420
-0.027187601 0.82769167 0.071722865 13154213
-0.027462304 0.82807326 0.071720079 13154213
-0.027736992 0.82845485 0.071717292 13154215
-0.028011695 0.8288365 0.07171452 13154215
0.0026037842 0.77751815 0.075176209 10792107
0.0023348182 0.77789187 0.075173497 11911360
0.0020658374 0.77826548 0.07517077 11977153
0.0017968714 0.7786392 0.075168043 11516602
-0.022103578 0.81949985 0.072637603 12693141
-0.022377327 0.81988013 0.072634831 12693141
-0.022651076 0.82026041 0.072632074 12692887
-0.023521304 0.819938 0.073080972 12824473
-0.0237941 0.82031697 0.073078215 12693401
-0.024066895 0.82069594 0.073075458 12759194
-0.024339676 0.8210749 0.073072702 12824987
-0.024612457 0.82145387 0.07306993 12824987
-0.024885252 0.82183284 0.073067173 12824989
-0.025158048 0.8222118 0.073064417 12890782
-0.024841011 0.82330275 0.072609901 12890782
-0.025114745 0.82368308 0.07260713 12956575
-0.025388494 0.82406336 0.072604358 12957088
-0.025662228 0.8244437 0.072601587 12957088
-0.025935978 0.82482398 0.072598815 12957088
-0.026209712 0.82520425 0.072596058 12957088
-0.025899321 0.82630455 0.072141483 12956834
-0.026174024 0.82668614 0.072138697 13088420
-0.026448727 0.82706773 0.072135925 13154213
-0.026723415 0.82744938 0.072133139 13154213
-0.026998118 0.82783103 0.072130367 13220006
-0.027272806 0.82821262 0.072127581 13220006
-0.027547508 0.82859421 0.072124794 13154213
-0.027822196 0.82897586 0.072122023 13220006
-0.02191475 0.81963873 0.073043689 12824727
-0.022188485 0.82001901 0.073040918 12693141
-0.022462234 0.82039928 0.073038146 12692887
-0.022735983 0.82077962 0.073035389 12824473
-0.023009717 0.8211599 0.073032618 12693401
-0.023283467 0.82154024 0.073029846 12759194
-0.023557201 0.82192051 0.073027074 12824987
-0.023237586 0.82300931 0.072574005 12824987
-0.023512274 0.82339096 0.072571218 12824989
-0.023786977 0.82377255 0.072568446 12890782
-0.02406168 0.8241542 0.07256566 12890782
-0.024336368 0.82453579 0.072562873 12956575
-0.024611056 0.82491744 0.072560102 12957088
-0.024885759 0.82529902 0.072557315 12957088
-0.025160447 0.82568067 0.072554544 12957088
0.04240413 0.74449372 0.070004746 7561035
0.042121798 0.74488592 0.070001885 7824207
0.04183948 0.74527812 0.069999039 8613723
0.040760949 0.74524224 0.070443004 9534825
0.040479586 0.74563313 0.070440158 9600618
0.040198207 0.74602401 0.070437312 9797997
0.039123461 0.74598289 0.070881337 9994604
0.038843036 0.7463724 0.070878506 10191983
0.038562626 0.74676198 0.07087566 10257776
0.038282201 0.74715155 0.070872828 10257776
-0.021725923 0.81977761 0.073449776 12693141
-0.021999657 0.82015789 0.073447004 12693141
-0.022273406 0.82053816 0.073444232 12824473
-0.022547156 0.8209185 0.073441476 12890266
-0.02282089 0.82129878 0.073438704 12890266
-0.023094639 0.82167912 0.073435932 12890266
-0.023368374 0.82205939 0.073433161 12890780
-0.023048088 0.82314873 0.072981507 12824987
-0.023322791 0.82353032 0.07297872 12824987
-0.023597479 0.82391191 0.072975934 12890780
-0.023872182 0.82429355 0.072973162 12956575
-0.02414687 0.8246752 0.072970375 12956575
-0.024421573 0.82505679 0.072967604 13022368
-0.024696261 0.82543838 0.072964817 13153954
-0.024970964 0.82582003 0.072962046 13088674
0.042598888 0.74463689 0.070423573 8679516
0.042316556 0.74502915 0.070420712 8942688
0.042034239 0.74542135 0.070417851 9797743
0.040955052 0.74538499 0.070860401 9863536
0.040673673 0.74577594 0.070857555 9995376
0.040392295 0.74616683 0.070854709 9995376
0.039316893 0.7461251 0.071297333 10126192
0.039036483 0.74651468 0.071294487 10257778
0.038756058 0.74690425 0.071291655 10323569
0.038475648 0.74729383 0.071288824 10323569
-0.0028057992 0.79542989 0.073591948 12239023
-0.0030805022 0.79581153 0.073589161 12502195
-0.0033552051 0.79619312 0.073586389 12830131
-0.0036298931 0.79657477 0.073583603 11777443
-0.021537095 0.81991649 0.073855862 12824727
-0.02181083 0.82029676 0.07385309 12824727
-0.022084579 0.8206771 0.073850319 12824473
-0.022358328 0.82105738 0.073847547 12890266
-0.022632062 0.82143766 0.073844776 12759194
-0.022905797 0.82181799 0.073842019 12824987
-0.023179546 0.82219827 0.073839247 12890780
-0.022858605 0.82328808 0.073388994 12890780
-0.023133308 0.82366967 0.073386222 12956573
-0.023407996 0.82405126 0.073383436 12956573
-0.023682699 0.82443291 0.073380664 12891295
-0.023957387 0.82481456 0.073377877 12891295
-0.02423209 0.82519615 0.073375106 13088674
-0.024506778 0.8255778 0.073372319 13088674
-0.024781466 0.82595938 0.073369533 13088674
0.042793632 0.74478018 0.070842385 9731950
0.042511314 0.74517238 0.070839524 9731950
0.042228982 0.74556458 0.070836663 9863536
0.041149139 0.74552774 0.071277812 10126708
0.040867776 0.74591863 0.071274966 10192755
0.040586397 0.74630952 0.07127212 10192755
0.039510339 0.74626738 0.071713328 10323571
0.039229915 0.74665695 0.071710482 10323571
0.038949504 0.74704653 0.071707651 10323569
0.03866908 0.74743611 0.071704805 10323569
-0.0026163161 0.7955693 0.07399945 12239023
-0.0028910041 0.79595089 0.073996663 12502195
-0.003165707 0.79633248 0.073993877 13026742
-0.0034404099 0.79671413 0.073991105 10855573
0.04298839 0.74492341 0.071261197 10192755
0.042706057 0.74531561 0.071258351 10192755
0.04242374 0.74570787 0.07125549 10126962
0.041343242 0.7456705 0.071695209 10192755
0.041061863 0.74606144 0.071692362 10324339
0.040780485 0.74645233 0.071689516 10324339
0.039703771 0.74640965 0.072129309 10389362
0.039423347 0.74679923 0.072126478 10323569
0.039142936 0.74718881 0.072123632 10323569
0.038862512 0.74757838 0.072120801 10323569
0.015053391 0.77296281 0.074133188 9540488
0.01477775 0.77334577 0.074130401 8356982
0.014502093 0.77372873 0.074127614 7830638
0.014226452 0.77411163 0.074124813 8818557
-0.0024268329 0.79570866 0.074406937 12501166
-0.0027015209 0.79609025 0.074404165 10461583
-0.0029762238 0.79647189 0.074401379 8618609
-0.0032509118 0.79685348 0.074398607 8881781
0.015243545 0.77310264 0.074542105 11712427
0.014967889 0.7734856 0.074539319 11450023
0.014692247 0.77386856 0.074536532 11910574
0.01441659 0.77425146 0.074533731 12042673
-0.0022373348 0.79584801 0.074814439 9212543
-0.0025120378 0.7962296 0.074811667 10199438
-0.0027867258 0.79661125 0.074808881 12040872
-0.0030614287 0.7969929 0.074806094 12896181
-0.0020112097 0.79861355 0.073918194 12435630
-0.00228782 0.79899776 0.073915407 12238251
-0.0025644153 0.79938203 0.073912606 12173482
-0.0028410256 0.7997663 0.073909804 12370861
-0.0031176209 0.80015057 0.073907003 12040872
-0.0033942312 0.80053484 0.073904201 8224878
-0.0036708415 0.80091912 0.0739014 6117712
-0.0039474368 0.80130339 0.073898613 6709849
0.015433684 0.77324247 0.074951023 11450023
0.015158042 0.77362543 0.074948236 11253157
0.014882386 0.77400839 0.07494545 10332055
0.014606744 0.77439135 0.074942648 9739920
-0.0013809353 0.79660207 0.074780852 12370609
-0.0016565919 0.79698503 0.074778065 12633781
-0.0019322336 0.79736793 0.074775279 12370607
-0.0022078902 0.79775089 0.074772477 12304814
-0.0018204153 0.79875386 0.074328527 12239021
-0.0020970106 0.79913813 0.07432574 12239021
-0.002373606 0.7995224 0.074322939 12830642
-0.0026502162 0.79990661 0.074320138 12896435
-0.0029268265 0.80029094 0.074317336 11316640
-0.0032034218 0.80067515 0.074314535 8355955
-0.0034800321 0.80105948 0.074311733 5723469
-0.0037566274 0.8014437 0.074308932 6315606
0.015623838 0.77338237 0.075359941 11516329
0.015348181 0.77376533 0.075357139 11055778
0.015072539 0.77414823 0.075354353 11055778
0.014796883 0.77453119 0.075351566 11450536
0.01139541 0.78388458 0.073977798 10662066
0.011116892 0.78427148 0.073974982 10333101
0.010838389 0.78465843 0.073972166 8360333
0.010559872 0.78504533 0.073969334 8623505
0.010281354 0.78543222 0.073966518 10859695
0.010002851 0.78581917 0.073963702 12241348
0.0097243339 0.78620607 0.073960885 11780283
0.010142982 0.78716707 0.073518679 10990767
0.0098635107 0.78755534 0.073515847 10728113
0.0095840544 0.7879436 0.073513016 9543839
0.0093045831 0.78833187 0.073510185 8885909
0.0090251267 0.78872007 0.073507369 8491151
0.0073483288 0.79104954 0.073490396 11518912
0.0070688725 0.7914378 0.073487565 10597556
0.0067894012 0.79182601 0.073484734 10202798
0.0065099448 0.79221427 0.073481902 9018011
0.0062304735 0.79260254 0.073479071 10268078
0.0059510171 0.79299074 0.073476255 12043973
0.0056715459 0.79337901 0.073473424 12043973
0.0053920746 0.79376721 0.073470592 12043969
0.0051126182 0.79415548 0.073467761 11978176
0.0048331469 0.79454374 0.07346493 11715774
0.005231753 0.79553258 0.073022529 11715774
0.004951328 0.79592216 0.073019698 11913155
0.004670918 0.79631174 0.073016852 11978948
0.004390493 0.79670131 0.073014021 11649983
0.0034358203 0.79648495 0.073450789 11978948
0.003156364 0.79687321 0.073447973 12307145
0.0028768927 0.79726148 0.073445141 12307145
0.0025974363 0.79764968 0.07344231 12438731
0.002317965 0.79803795 0.073439479 12701903
0.0020384938 0.79842615 0.073436648 10923693
0.0017590374 0.79881442 0.073433816 6910320
-0.0011907965 0.7967419 0.075189769 8290166
-0.0014664382 0.79712486 0.075186983 10724507
-0.0017420948 0.79750782 0.075184181 12107435
-0.0020177364 0.79789078 0.075181395 12304814
-0.0016296059 0.79889417 0.07473886 12239275
-0.0019062012 0.79927844 0.074736059 11318173
-0.0021828115 0.79966271 0.074733257 9144953
-0.0024594069 0.80004698 0.074730456 8223851
-0.0027360171 0.80043125 0.074727669 7368290
-0.0030126274 0.80081552 0.074724868 6512981
-0.0032892227 0.80119979 0.074722067 6777182
-0.003565833 0.80158406 0.074719265 8224628
-0.0018740147 0.80386162 0.073397055 9277061
-0.0021534711 0.80424982 0.073394224 9277061
-0.0024329424 0.80463809 0.073391408 9473153
0.01158753 0.78402591 0.074390963 9938343
0.011309013 0.7844128 0.074388146 11583168
