# .PCD v0.7 - Point Cloud Data file format
VERSION 0.7
FIELDS x y z rgb
SIZE 4 4 4 4
TYPE F F F U
COUNT 1 1 1 1
WIDTH 1096
HEIGHT 1
VIEWPOINT 0 0 0 1 0 0 0
POINTS 1096
DATA ascii
-0.032666557 0.75524497 0.036866754 8282953
-0.032984421 0.7555337 0.036864117 8546125
-0.033302292 0.75582236 0.036861479 8742991
-0.033168852 0.75677103 0.036229834 8874577
-0.033487931 0.75706083 0.036227182 9006163
-0.033807009 0.75735056 0.036224529 9071956
-0.021896437 0.74468285 0.037958682 4798241
-0.022213086 0.74497044 0.037956044 4798241
-0.022529736 0.74525797 0.037953407 4798241
-0.022846401 0.74554557 0.037950784 4864034
-0.023163065 0.74583316 0.037948146 4864034
-0.023479715 0.74612075 0.037945509 4864034
-0.023796365 0.74640834 0.037942886 4864034
-0.024113029 0.74669588 0.037940249 4864288
-0.024429694 0.74698347 0.037937611 4864288
-0.025233254 0.74664223 0.038562298 4798495
-0.025548711 0.74692869 0.038559675 4864288
-0.025864154 0.74721515 0.038557053 4995360
-0.026179612 0.74750167 0.03855443 4995360
-0.026495054 0.74778813 0.038551807 4995106
-0.026810512 0.74807465 0.038549185 4929313
-0.027605608 0.74772573 0.039173916 4600862
-0.027919844 0.74801111 0.039171293 4798241
-0.028234087 0.7482965 0.039168686 4667168
-0.02854833 0.74858189 0.039166078 4667168
-0.028862566 0.74886727 0.03916347 4667168
-0.029176809 0.7491526 0.039160848 4667168
-0.029491045 0.74943799 0.03915824 4732448
-0.029805288 0.74972337 0.039155632 4798241
-0.030119523 0.75000876 0.03915301 4864034
-0.030433767 0.75029415 0.039150402 4864034
-0.03074801 0.75057954 0.039147794 4929827
-0.031062245 0.75086492 0.039145172 4995620
-0.030911334 0.75179887 0.038515091 5389864
-0.031226784 0.75208533 0.038512468 5521450
-0.031542234 0.75237185 0.038509846 5653036
-0.031857684 0.75265831 0.038507223 5982001
-0.032173127 0.75294483 0.038504601 6572855
-0.032488577 0.75323129 0.038501978 7033406
-0.032346115 0.75417292 0.037871808 7494207
-0.032662772 0.75446051 0.03786917 7757379
-0.032523952 0.75540543 0.03723897 8217160
-0.032841817 0.75569409 0.037236333 8480332
-0.033159681 0.75598276 0.037233695 8677711
-0.033025712 0.75693208 0.036603466 8809297
-0.033344783 0.75722182 0.036600813 8940883
-0.033663854 0.75751162 0.036598161 9006676
-0.021754369 0.74484265 0.038329467 4798241
-0.022071019 0.74513024 0.03832683 4798241
-0.022387683 0.74541783 0.038324207 4864034
-0.022704333 0.74570537 0.03832157 4864034
-0.023020998 0.74599296 0.038318932 4864034
-0.023337647 0.74628055 0.038316309 4864034
-0.024145395 0.745942 0.038939536 4864034
-0.024460837 0.74622846 0.038936913 4864288
-0.024776295 0.74651498 0.03893429 4864288
-0.025579184 0.74617201 0.039557546 4798495
-0.02589342 0.7464574 0.039554939 4864288
-0.026207671 0.74674278 0.039552331 4929567
-0.026521906 0.74702817 0.039549723 4995360
-0.026836142 0.74731356 0.039547101 4995106
-0.027150378 0.74759895 0.039544493 4929313
-0.027464628 0.74788433 0.039541885 4732448
-0.027778864 0.74816972 0.039539263 4798241
-0.028093107 0.74845505 0.039536655 4667168
-0.028883912 0.74810117 0.04016003 4667168
-0.029196948 0.74838543 0.040157437 4732961
-0.029509977 0.74866974 0.04015483 4667168
-0.029823005 0.748954 0.040152222 4600862
-0.030136034 0.74923831 0.040149629 4798241
-0.03044907 0.74952257 0.040147021 4864034
-0.030292787 0.75045276 0.039518371 4864034
-0.03060703 0.75073814 0.039515764 4929827
-0.030921265 0.75102353 0.039513141 4995620
-0.031235501 0.75130892 0.039510533 5389864
-0.031549744 0.75159431 0.039507926 5455657
-0.031863987 0.75187969 0.039505303 5784622
-0.031716153 0.75281751 0.038876593 5982001
-0.032031611 0.75310397 0.038873971 6441782
-0.032347053 0.75339049 0.038871348 6902333
-0.032662503 0.75367695 0.038868725 7428416
-0.032977954 0.75396347 0.038866103 7757381
-0.032837369 0.75490791 0.038237333 8086344
-0.033154026 0.7551955 0.038234696 8217930
-0.033470683 0.75548303 0.038232058 8546895
-0.033334941 0.75643188 0.037603259 8678481
-0.033652805 0.75672054 0.037600622 8940883
-0.033970669 0.75700927 0.037597984 9006676
-0.021612301 0.74500251 0.038700268 4798241
-0.021928951 0.74529004 0.03869763 4798241
-0.022245616 0.74557763 0.038695008 4864034
-0.022562265 0.74586523 0.03869237 4864034
-0.02287893 0.74615282 0.038689733 4864034
-0.02319558 0.74644041 0.03868711 4864034
-0.024003878 0.7461012 0.039308935 4864034
-0.024319321 0.74638772 0.039306313 4864034
-0.024634764 0.74667418 0.03930369 4864034
-0.025438204 0.74633062 0.039925516 4798495
-0.02575244 0.74661601 0.039922908 4864288
-0.026066691 0.74690139 0.0399203 4995360
-0.026380926 0.74718678 0.039917693 4995360
-0.026695162 0.74747217 0.03991507 4995106
-0.027009413 0.74775755 0.039912462 4929313
-0.027323648 0.74804294 0.039909855 4798241
-0.027637884 0.74832833 0.039907232 4798241
-0.027952127 0.74861372 0.039904624 4732448
-0.028743476 0.74825919 0.040526584 4732448
-0.029056504 0.74854344 0.040523976 4798241
-0.029369533 0.7488277 0.040521383 4600862
-0.029682562 0.74911201 0.040518776 4600862
-0.029995598 0.74939632 0.040516168 4798241
-0.030308627 0.74968058 0.040513575 4864034
-0.030151807 0.75061136 0.03988634 4864034
-0.03046605 0.75089675 0.039883733 5060899
-0.030780286 0.75118214 0.03988111 5192485
-0.031094521 0.75146753 0.039878502 5389864
-0.031408764 0.75175291 0.039875895 5455657
-0.031723008 0.75203824 0.039873272 5784622
-0.031574637 0.75297678 0.039245993 5982001
-0.031890079 0.75326324 0.03924337 6441782
-0.032205537 0.7535497 0.039240748 6902333
-0.03252098 0.75383615 0.039238125 7428416
-0.03283643 0.75412267 0.039235502 7691588
-0.032695301 0.75506771 0.038608134 8020553
-0.033011958 0.7553553 0.038605496 8217932
-0.033328615 0.75564289 0.038602859 8546897
-0.033192329 0.75659233 0.037975475 8678483
-0.033510193 0.756881 0.037972838 8810069
-0.033828065 0.75716966 0.037970185 8875862
-0.021470234 0.74516231 0.039071068 4798241
-0.021786883 0.7454499 0.039068431 4864034
-0.022103548 0.74573749 0.039065808 4864034
-0.022420213 0.74602509 0.039063171 4864034
-0.022736862 0.74631262 0.039060533 4864034
-0.023053512 0.74660021 0.03905791 4864034
-0.023862347 0.7462604 0.039678305 4864034
-0.02417779 0.74654692 0.039675683 4864034
-0.024493247 0.74683338 0.03967306 4798241
-0.025297225 0.74648923 0.040293485 4798241
-0.02561146 0.74677461 0.040290877 4864034
-0.025925711 0.74706 0.04028827 4995106
-0.026239946 0.74734539 0.040285647 4929313
-0.026554182 0.74763077 0.040283039 4995106
-0.026868418 0.74791616 0.040280432 4929313
-0.027182654 0.74820149 0.040277809 4798241
-0.027496904 0.74848688 0.040275201 4864034
-0.02781114 0.74877226 0.040272593 4798241
-0.028603032 0.74841714 0.040893137 4732448
-0.028916068 0.74870145 0.04089053 4798241
-0.029229097 0.74898571 0.040887922 4732448
-0.029542126 0.74927002 0.040885329 4732448
-0.029855162 0.74955428 0.040882722 4798241
-0.030168191 0.74983859 0.040880114 4864034
-0.030010819 0.75076997 0.040254295 4929827
-0.030325063 0.75105536 0.040251687 4929827
-0.030639306 0.75134075 0.040249079 5061413
-0.030953541 0.75162613 0.040246457 5389864
-0.031267777 0.75191152 0.040243849 5455657
-0.031582028 0.75219691 0.040241241 5784622
-0.031433113 0.75313598 0.039615363 5982001
-0.031748563 0.75342244 0.03961274 6442036
-0.032064006 0.7537089 0.039610118 6902587
-0.032379456 0.75399542 0.039607495 7428418
-0.032694906 0.75428188 0.039604872 7691590
-0.032553233 0.75522757 0.038978934 8020553
-0.03286989 0.7555151 0.038976297 8217932
-0.033186547 0.75580269 0.038973659 8546897
-0.033049725 0.75675273 0.038347691 8612690
-0.033367589 0.75704145 0.038345039 8810069
-0.033685453 0.75733012 0.038342401 8875862
-0.021328166 0.74532211 0.039441869 4864034
-0.021644831 0.7456097 0.039439231 4864036
-0.02196148 0.74589729 0.039436609 4929829
-0.022774473 0.74556023 0.040055558 4864036
-0.02308993 0.74584669 0.040052935 4864036
-0.023405373 0.74613315 0.040050313 4864034
-0.023720816 0.74641967 0.04004769 4929827
-0.024036273 0.74670613 0.040045068 4864034
-0.024351716 0.74699259 0.040042445 4798241
-0.025156245 0.74664783 0.040661454 4798241
-0.02547048 0.74693322 0.040658846 4864034
-0.025784716 0.74721861 0.040656239 4995106
-0.026584402 0.74686944 0.041275293 4929313
-0.026897445 0.7471537 0.0412727 4995106
-0.027210474 0.74743801 0.041270092 4929313
-0.027523503 0.74772227 0.041267484 4864034
-0.027836531 0.74800658 0.041264892 4864034
-0.028149568 0.74829084 0.041262284 4798243
-0.028940797 0.74793404 0.041881412 4732450
-0.029252619 0.74821723 0.041878819 4798241
-0.02956444 0.74850041 0.041876227 4732448
-0.029876262 0.74878359 0.041873634 4732448
-0.030188084 0.74906677 0.041871041 4798241
-0.030499905 0.74934995 0.041868448 4864034
-0.030340783 0.75028086 0.041244075 4929827
-0.030653819 0.75056517 0.041241467 4929827
-0.030966848 0.75084943 0.041238874 5061413
-0.031279877 0.75113368 0.041236266 5389864
-0.031592906 0.75141799 0.041233659 5455657
-0.031905942 0.75170231 0.041231066 5784876
-0.031755283 0.75264084 0.040606588 5982255
-0.032069519 0.75292623 0.04060398 6507829
-0.032383762 0.75321162 0.040601373 6902587
-0.032698005 0.753497 0.04059875 7296832
-0.033012241 0.75378239 0.040596142 7691590
-0.033326477 0.75406778 0.040593535 8020553
-0.033184275 0.75501406 0.039969012 8217932
-0.033499733 0.75530052 0.03996639 8481104
-0.033361137 0.75625008 0.039341822 8612690
-0.033677801 0.75653768 0.039339185 8810069
-0.033994459 0.75682527 0.039336562 8875862
-0.021186098 0.74548197 0.039812654 4864034
-0.021502763 0.74576956 0.039810032 4864034
-0.021819413 0.74605715 0.039807394 4929827
-0.022632957 0.74571943 0.040424943 4864034
-0.022948399 0.74600589 0.04042232 4864034
-0.023263857 0.74629235 0.040419698 4864034
-0.023579299 0.74657887 0.040417075 4864034
-0.023894742 0.74686533 0.040414453 4864034
-0.0242102 0.74715185 0.04041183 4798241
-0.025015265 0.74680644 0.041029423 4798241
-0.0253295 0.74709183 0.041026801 4864034
-0.025643751 0.74737722 0.041024193 4995106
-0.026443973 0.7470274 0.041641846 4995106
-0.026757002 0.74731171 0.041639239 4864034
-0.027070031 0.74759603 0.041636646 4798241
-0.027383059 0.74788028 0.041634038 4864034
-0.027696095 0.74816453 0.041631445 4864034
-0.028009132 0.74844885 0.041628838 4732450
-0.028800897 0.7480914 0.04224655 4732450
-0.029112719 0.74837458 0.042243958 4798243
-0.029424541 0.74865776 0.042241365 4732450
-0.02973637 0.74894094 0.042238772 4798241
-0.030048192 0.74922419 0.042236179 4798241
-0.030360013 0.74950731 0.042233586 4798241
-0.030200347 0.75043887 0.041610628 4929827
-0.030513376 0.75072312 0.041608021 4929827
-0.030826405 0.75100744 0.041605413 4995620
-0.031139441 0.75129169 0.04160282 5258792
-0.03145247 0.75157601 0.041600212 5324585
-0.031765506 0.75186026 0.041597605 5784876
-0.031614304 0.75279945 0.040974557 5982255
-0.031928539 0.75308484 0.04097195 6377013
-0.032242782 0.75337023 0.040969342 6771771
-0.032557026 0.75365561 0.040966719 7231552
-0.032871261 0.753941 0.040964112 7626310
-0.033185497 0.75422639 0.040961504 8020553
-0.033042759 0.75517327 0.040338397 8217932
-0.033358201 0.75545979 0.040335774 8415311
-0.033219077 0.75640994 0.039712623 8612690
-0.033535734 0.75669754 0.039709985 8810069
-0.033852391 0.75698507 0.039707363 8875862
-0.021044031 0.74564183 0.040183455 4929827
-0.021360695 0.74592936 0.040180832 4929827
-0.02167736 0.74621695 0.040178195 4929827
-0.02249144 0.74587864 0.040794328 4864034
-0.022806883 0.74616516 0.040791705 4864034
-0.023122326 0.74645162 0.040789083 4864034
-0.023437783 0.74673808 0.04078646 4864034
-0.023753226 0.74702454 0.040783837 4864034
-0.024068668 0.74731106 0.040781215 4798241
-0.024874285 0.74696505 0.041397393 4798241
-0.025188521 0.74725044 0.04139477 4864034
-0.025502756 0.74753582 0.041392162 5060899
-0.02630353 0.74718541 0.0420084 4995106
-0.026616558 0.74746972 0.042005807 4864034
-0.026929602 0.74775398 0.042003199 4798241
-0.027242631 0.74803829 0.042000592 4798241
-0.027555659 0.74832255 0.041997999 4864034
-0.027868688 0.74860686 0.041995391 4732450
-0.028660998 0.74824882 0.042611673 4732450
-0.028972819 0.748532 0.042609081 4732450
-0.029284649 0.74881518 0.042606488 4732450
-0.02959647 0.74909836 0.04260391 4798241
-0.029908292 0.74938154 0.042601317 4798241
-0.030220114 0.74966472 0.042598724 4798241
-0.030059904 0.75059682 0.041977167 4929827
-0.03037294 0.75088114 0.041974574 4929827
-0.030685969 0.75116539 0.041971967 4995620
-0.030999005 0.7514497 0.041969359 5258792
-0.031312034 0.75173402 0.041966766 5324585
-0.031625062 0.75201827 0.041964158 5784876
-0.031473324 0.75295806 0.041342527 5982255
-0.031787559 0.75324345 0.041339904 6507829
-0.032101803 0.75352883 0.041337296 6902587
-0.032416046 0.75381422 0.041334689 7296832
-0.032730281 0.75409961 0.041332066 7691590
-0.033044517 0.75438499 0.041329458 8020553
-0.032901235 0.75533247 0.040707782 8217932
-0.033216685 0.75561899 0.040705159 8415311
-0.033077009 0.75656974 0.040083408 8546897
-0.033393666 0.75685734 0.040080786 8810069
-0.033710331 0.75714493 0.040078148 8875862
-0.020901978 0.74580163 0.040554255 4929827
-0.021218628 0.74608922 0.040551633 4929827
-0.021535292 0.74637675 0.040548995 4929827
-0.022349909 0.74603784 0.041163713 4864034
-0.022665352 0.7463243 0.04116109 4864034
-0.022980809 0.74661082 0.041158468 4864034
-0.023296252 0.74689728 0.041155845 4864034
-0.023611695 0.7471838 0.041153222 4864034
-0.023927152 0.74747026 0.0411506 4798241
-0.025224 0.7464906 0.042382762 4798241
-0.025537029 0.74677485 0.042380154 4864034
-0.025850058 0.74705911 0.042377561 5060899
-0.026650175 0.74670708 0.042992383 4995106
-0.026961997 0.74699026 0.04298979 4995106
-0.027273819 0.74727345 0.042987198 4929313
-0.027585633 0.74755663 0.042984605 4798241
-0.027897462 0.74783981 0.042982012 4864034
-0.028209284 0.74812299 0.042979419 4732448
-0.029000938 0.74776322 0.043594316 4732448
-0.029311553 0.74804533 0.043591738 4798241
-0.029622167 0.74832737 0.043589145 4798241
-0.029932782 0.74860948 0.043586567 4798241
-0.030243397 0.74889159 0.043583989 4798241
-0.030554011 0.74917364 0.043581396 4864034
-0.030864626 0.74945575 0.043578818 4864034
-0.030703865 0.7503885 0.042958677 4929827
-0.031015687 0.75067168 0.042956084 4995620
-0.031327508 0.75095487 0.042953491 5258792
-0.03163933 0.75123805 0.042950898 5324585
-0.031951152 0.75152123 0.042948306 5784876
-0.031797655 0.75246054 0.042328104 5982255
-0.032110691 0.75274485 0.042325512 6442036
-0.03242372 0.75302911 0.042322904 6902587
-0.032736748 0.75331342 0.042320311 7231039
-0.033049777 0.75359768 0.042317703 7757383
-0.033362813 0.75388199 0.042315096 8020555
-0.032759711 0.75549173 0.041077167 8217934
-0.033075154 0.75577819 0.041074544 8415311
-0.032934949 0.7567296 0.040454224 8546897
-0.033251598 0.75701714 0.040451586 8810069
-0.033568263 0.75730473 0.040448949 8810069
-0.025083557 0.74664855 0.042749316 4798241
-0.0253966 0.74693286 0.042746708 4798241
-0.025709629 0.74721712 0.042744115 5060899
-0.026510268 0.74686444 0.043357506 4995106
-0.02682209 0.74714762 0.043354914 4995106
-0.027133912 0.7474308 0.043352321 4929313
-0.027445741 0.74771398 0.043349728 4798241
-0.027757563 0.74799716 0.043347135 4864034
-0.028069384 0.74828041 0.043344542 4732448
-0.028861582 0.74791998 0.043958038 4732448
-0.029172197 0.74820209 0.04395546 4798241
-0.029482812 0.74848413 0.043952867 4798241
-0.029793426 0.74876624 0.043950289 4798241
-0.030104041 0.74904835 0.043947712 4798241
-0.030414656 0.7493304 0.043945119 4864034
-0.030725271 0.74961251 0.043942541 4864034
-0.030563965 0.75054586 0.043323815 4929827
-0.030875787 0.7508291 0.043321222 4995620
-0.031187609 0.75111222 0.043318629 5192999
-0.031499431 0.75139546 0.043316036 5324585
-0.031811252 0.75167865 0.043313444 5784876
-0.031657219 0.75261855 0.042694658 5982255
-0.031970248 0.75290287 0.042692065 6442034
-0.032283276 0.75318712 0.042689458 6902585
-0.032596312 0.75347137 0.04268685 7231037
-0.032909341 0.75375569 0.042684257 7757381
-0.033222377 0.75404 0.042681649 8086348
-0.032618187 0.75565094 0.041446537 8217934
-0.032933637 0.7559374 0.041443914 8481106
0.026634321 0.74536455 0.017561212 4271131
0.026270539 0.74569499 0.017558187 4402717
0.025906742 0.74602532 0.017555162 4271131
-0.024943128 0.74680656 0.043115869 4995106
-0.025256157 0.74709082 0.043113261 4929313
-0.025569186 0.74737513 0.043110654 4995106
-0.026370376 0.74702179 0.043722644 4995106
-0.026682198 0.74730504 0.043720052 4995106
-0.02699402 0.74758822 0.043717459 4995106
-0.027305841 0.7478714 0.043714866 4798241
-0.027617663 0.74815458 0.043712273 4798241
-0.027929485 0.74843776 0.04370968 4732448
-0.028722227 0.74807674 0.044321761 4732448
-0.029032841 0.74835885 0.044319183 4798241
-0.029343456 0.74864089 0.04431659 4798241
-0.029654071 0.748923 0.044314012 4798241
-0.029964685 0.74920511 0.044311434 4798241
-0.0302753 0.74948716 0.044308841 4798241
-0.030585915 0.74976927 0.044306263 4864034
-0.030424073 0.75070328 0.043688953 4929827
-0.030735895 0.75098646 0.04368636 5061413
-0.031047717 0.75126964 0.043683767 5192999
-0.031359538 0.75155282 0.043681175 5324585
-0.03167136 0.751836 0.043678582 5784874
-0.031516775 0.7527765 0.043061212 5982253
-0.031829812 0.75306082 0.043058604 6442034
-0.03214284 0.75334513 0.043056011 6902585
-0.032455876 0.75362939 0.043053403 7231037
-0.032768905 0.75391364 0.043050796 7691588
-0.033081934 0.75419796 0.043048203 8086346
-0.032476664 0.75581014 0.041815922 8217932
-0.032792114 0.7560966 0.041813299 8415311
0.029582605 0.74410093 0.017393127 4074268
0.029217601 0.74443239 0.017390087 4140059
0.028852612 0.74476385 0.017387062 4271645
0.027888924 0.74455702 0.017996281 4337438
0.027525127 0.74488741 0.017993256 4271645
0.02716133 0.7452178 0.017990232 4271131
0.026797533 0.74554819 0.017987207 4402717
0.026433751 0.74587858 0.017984182 4402717
0.026069954 0.74620897 0.017981157 4271131
-0.024802685 0.74696457 0.043482423 4929313
-0.025115713 0.74724883 0.043479815 4995106
-0.025428742 0.74753308 0.043477207 4995106
-0.026719198 0.74654102 0.04470098 4929313
-0.027029797 0.74682307 0.044698387 4995106
-0.02734042 0.74710518 0.044695809 4929313
-0.028136104 0.74674577 0.045306429 4995106
-0.028445512 0.74702674 0.045303851 4995106
-0.02875492 0.74730778 0.045301288 4732448
-0.029064327 0.74758875 0.04529871 4732448
-0.029373735 0.74786973 0.045296133 4732448
-0.029683135 0.74815071 0.04529357 4798241
-0.029992543 0.74843174 0.045290992 4798241
-0.02982533 0.74936187 0.044675142 4798241
-0.030135944 0.74964398 0.044672564 4798241
-0.030446559 0.74992609 0.044669986 4864034
-0.030757174 0.75020814 0.044667393 4929827
-0.031067789 0.75049025 0.044664815 5061413
-0.031378403 0.75077236 0.044662237 5258792
-0.031689018 0.75105441 0.044659659 5324585
-0.031999633 0.75133651 0.044657066 5784874
-0.03184329 0.7522766 0.044041112 5982253
-0.032155111 0.75255978 0.044038519 6507827
-0.032466933 0.75284296 0.044035941 6902585
-0.032778755 0.75312614 0.044033349 7231037
-0.033090577 0.75340933 0.044030756 7691588
-0.033402398 0.75369251 0.044028163 8020553
-0.033254527 0.75464022 0.043412149 8217932
-0.033567563 0.75492454 0.043409541 8415311
-0.033880591 0.75520879 0.043406948 8546897
-0.03328149 0.75682878 0.042177439 8810069
-0.033596933 0.75711524 0.042174816 8941655
0.029746369 0.74428511 0.017820537 4074268
0.029381365 0.74461663 0.017817497 4271645
0.029016361 0.74494809 0.017814457 4337438
0.028052136 0.74474066 0.018422276 4337438
0.027688339 0.74507105 0.018419236 4271645
0.027324542 0.74540138 0.018416226 4140059
0.026960745 0.74573183 0.018413186 4337438
-0.026579842 0.74669778 0.045064688 4929313
-0.026890457 0.74697983 0.04506211 4995106
-0.027201071 0.74726194 0.045059532 4929313
-0.0279973 0.74690193 0.045668736 4864034
-0.028306708 0.74718291 0.045666158 4864034
-0.028616108 0.74746394 0.045663595 4732448
-0.028925516 0.74774492 0.045661017 4732448
-0.029234916 0.74802589 0.045658439 4798241
-0.029544324 0.74830687 0.045655876 4732448
-0.029853731 0.74858791 0.045653298 4798241
-0.029685974 0.74951863 0.045038864 4798241
-0.029996589 0.74980074 0.045036286 4798241
-0.030307204 0.75008285 0.045033708 4864034
-0.030617818 0.7503649 0.045031115 4929827
-0.030928433 0.75064701 0.045028538 5061413
-0.031239048 0.75092912 0.04502596 5258792
-0.031549662 0.75121117 0.045023382 5324585
-0.031860277 0.75149328 0.045020789 5784874
-0.03170339 0.75243396 0.04440625 5982253
-0.032015219 0.75271714 0.044403657 6442034
-0.032327041 0.75300038 0.044401065 6770999
-0.032638863 0.7532835 0.044398472 7231037
-0.032950684 0.75356674 0.044395879 7625795
-0.033262506 0.75384992 0.044393286 8020553
-0.033114091 0.75479823 0.043778703 8349518
-0.033427119 0.75508249 0.043776095 8481104
-0.033740148 0.7553668 0.043773502 8546897
-0.033139966 0.75698799 0.042546824 8810069
-0.033455417 0.75727451 0.042544201 8875862
0.031612143 0.74400783 0.017647684 4140059
0.031245932 0.74434042 0.017644629 4140059
0.030879721 0.74467301 0.017641589 4140059
0.029910117 0.74446934 0.018247932 4074266
0.029545113 0.74480081 0.018244907 4271645
0.02918011 0.74513233 0.018241867 4337438
0.028215349 0.74492425 0.01884827 4337438
0.027851552 0.74525464 0.01884523 4271645
0.027487755 0.74558502 0.01884222 4271645
0.027123958 0.74591541 0.01883918 4337438
-0.026440486 0.74685454 0.04542841 4929567
-0.026751101 0.74713659 0.045425832 4864288
-0.027061716 0.7474187 0.045423254 4798495
-0.027858481 0.74705809 0.046031028 4864288
-0.028167889 0.74733907 0.046028465 4798495
-0.028477296 0.74762011 0.046025887 4798241
-0.028786704 0.74790108 0.046023324 4798241
-0.029096112 0.74818206 0.046020746 4798241
-0.029405512 0.74846303 0.046018168 4732448
-0.02971492 0.74874407 0.046015605 4798241
-0.029546626 0.74967545 0.045402586 4798241
-0.029857233 0.7499575 0.045400009 4798241
-0.030167855 0.75023961 0.045397431 4864034
-0.030478463 0.75052172 0.045394838 4929827
-0.030789077 0.75080383 0.04539226 5061413
-0.031099692 0.75108588 0.045389682 5324071
-0.031410307 0.75136799 0.045387089 5455657
-0.031720921 0.75165009 0.045384511 5784876
-0.031563491 0.75259137 0.044771388 5982255
-0.03187532 0.75287455 0.044768795 6442034
-0.032187141 0.75315773 0.044766203 6705206
-0.032498963 0.75344092 0.04476361 7231037
-0.032810785 0.7537241 0.044761017 7625795
-0.033122607 0.75400728 0.044758424 8151369
-0.032973647 0.75495625 0.044145256 8348748
-0.033286683 0.7552405 0.044142649 8546127
-0.033599712 0.75552481 0.044140041 8677713
-0.032998443 0.75714719 0.042916209 8940885
-0.033313885 0.75743371 0.042913586 9006678
0.031776443 0.74419272 0.018076509 4271645
0.031410232 0.74452525 0.018073454 4140059
0.031044021 0.74485785 0.018070415 4140059
0.030073866 0.74465358 0.018675357 4140059
0.029708877 0.74498504 0.018672317 4271645
0.029343873 0.74531651 0.018669277 4337438
0.028378561 0.74510789 0.019274265 4337438
0.028014764 0.74543828 0.019271225 4271645
0.027650967 0.74576867 0.019268215 4271645
0.02728717 0.74609905 0.019265175 4337438
-0.026791453 0.74637127 0.046401069 4995360
-0.027100861 0.74665225 0.046398491 4864288
-0.027410269 0.74693328 0.046395913 4864288
-0.027719676 0.74721426 0.04639335 4864288
-0.028029084 0.74749529 0.046390772 4864288
-0.028338484 0.74777627 0.046388209 4864288
-0.028647892 0.74805725 0.046385631 4798495
-0.028957292 0.74833822 0.046383053 4798241
-0.0292667 0.7486192 0.04638049 4732448
-0.029576108 0.74890023 0.046377912 4798241
-0.029885516 0.74918121 0.046375334 4798241
-0.030194916 0.74946219 0.046372771 4864034
-0.030504324 0.74974322 0.046370193 4864034
-0.030813724 0.7500242 0.046367615 4929827
-0.031123132 0.75030518 0.046365052 5061413
-0.031432539 0.75058615 0.046362475 5324071
-0.031270951 0.75152475 0.045750812 5455657
-0.031581566 0.75180686 0.045748234 5653290
-0.03189218 0.7520889 0.045745656 5916462
-0.032202795 0.75237101 0.045743078 6442034
-0.03251341 0.75265312 0.045740485 6770999
-0.032359064 0.75359833 0.045128748 7231037
-0.032670885 0.75388145 0.045126155 7625795
-0.032982707 0.7541647 0.045123562 8085576
-0.033294529 0.75444788 0.045120969 8348748
-0.03360635 0.75473106 0.045118377 8546127
-0.03391818 0.75501424 0.045115784 8677713
-0.032856919 0.75730646 0.043285578 8809299
-0.033172369 0.75759292 0.043282956 9006678
-0.026652649 0.74652743 0.046763361 4864288
-0.026962057 0.74680841 0.046760798 4930081
-0.027271464 0.74708945 0.04675822 4930081
-0.027580857 0.74737042 0.046755657 4864288
-0.027890265 0.74765146 0.046753079 4864288
-0.028199673 0.74793243 0.046750501 4864288
-0.02850908 0.74821341 0.046747938 4798495
-0.028818488 0.74849439 0.04674536 4798241
-0.029127888 0.74877536 0.046742797 4798241
-0.029437296 0.7490564 0.046740219 4798241
-0.029746696 0.74933738 0.046737641 4798241
-0.030056104 0.74961835 0.046735078 4798241
-0.030365512 0.74989939 0.0467325 4864034
-0.030674919 0.75018036 0.046729922 4929827
-0.030984327 0.75046134 0.046727359 5061413
-0.031293727 0.75074232 0.046724781 5389864
-0.031131603 0.75168151 0.046114534 5455657
-0.03144221 0.75196362 0.046111956 5587497
-0.031752825 0.75224566 0.046109378 5982255
-0.032063439 0.75252777 0.046106786 6507825
-0.032374054 0.75280988 0.046104208 6770997
-0.032219172 0.75375569 0.045493886 7231035
-0.032530993 0.75403887 0.045491293 7625793
-0.032842815 0.75432205 0.0454887 8085576
-0.033154637 0.75460523 0.045486107 8348748
-0.033466458 0.75488842 0.045483515 8546127
-0.03377828 0.75517166 0.045480922 8677713
-0.02651383 0.7466836 0.047125667 4930081
-0.026823238 0.74696457 0.047123104 4930081
-0.027132645 0.74724561 0.047120526 4930081
-0.027442053 0.74752659 0.047117949 4930081
-0.027751461 0.74780762 0.047115386 4864288
-0.028060861 0.7480886 0.047112808 4864034
-0.028370269 0.74836957 0.047110245 4798241
-0.028679669 0.74865055 0.047107667 4864034
-0.028989077 0.74893153 0.047105089 4798241
-0.029298484 0.74921256 0.047102526 4798241
-0.029607892 0.74949354 0.047099948 4798241
-0.029917292 0.74977452 0.047097385 4864034
-0.0302267 0.75005555 0.047094807 4864034
-0.030536108 0.75033653 0.047092229 4929827
-0.030845508 0.7506175 0.047089666 5061413
-0.031154916 0.75089848 0.047087088 5389864
-0.030992247 0.75183833 0.046478257 5455657
-0.031302862 0.75212038 0.046475679 5587497
-0.031613477 0.75240248 0.046473086 5916462
-0.031924091 0.75268459 0.046470508 6507312
-0.032234706 0.75296664 0.04646793 6770484
-0.032079272 0.75391304 0.045859024 7165242
-0.032391101 0.75419629 0.045856431 7625793
-0.032702923 0.75447941 0.045853838 8085574
-0.033014745 0.75476265 0.045851246 8348746
-0.033326566 0.75504583 0.045848653 8546125
-0.033638388 0.75532901 0.04584606 8677711
-0.026866958 0.74619794 0.048092663 4930081
-0.027175158 0.74647784 0.0480901 4995874
-0.027483359 0.74675769 0.048087537 4930081
-0.027791552 0.74703759 0.048084974 4930081
-0.028099746 0.74731749 0.048082411 4864288
-0.028407946 0.7475974 0.048079848 4864288
-0.028716147 0.7478773 0.048077285 4864288
-0.02902434 0.74815714 0.048074722 4864034
-0.029332533 0.74843705 0.048072159 4798241
-0.029640734 0.74871695 0.048069596 4732448
-0.029948935 0.74899685 0.048067033 4798241
-0.030257128 0.74927676 0.04806447 4864034
-0.030565321 0.74955666 0.048061907 4864034
-0.030397296 0.75049269 0.047454536 4864034
-0.030706704 0.75077367 0.047451973 4995620
-0.031016104 0.75105464 0.047449395 5258792
-0.031325512 0.75133562 0.047446817 5324585
-0.031634912 0.75161666 0.047444254 5587497
-0.031474121 0.75255924 0.046836808 5916462
-0.031784736 0.75284135 0.04683423 6310448
-0.03209535 0.7531234 0.046831653 6705206
-0.032405965 0.75340551 0.046829075 7099451
-0.032716572 0.75368762 0.046826482 7625795
-0.033027187 0.75396967 0.046823904 8151367
-0.032874845 0.75492001 0.046216384 8282953
-0.033186667 0.75520319 0.046213791 8480332
-0.033498488 0.75548637 0.046211198 8611918
-0.02672869 0.74635345 0.048453555 4995874
-0.02703689 0.74663335 0.048450992 4995874
-0.027345091 0.74691325 0.048448429 4930081
-0.027653284 0.74719316 0.048445866 4930081
-0.027961478 0.74747306 0.048443303 4864288
-0.028269678 0.7477529 0.04844074 4864288
-0.028577879 0.74803281 0.048438177 4864288
-0.028886072 0.74831271 0.048435614 4864288
-0.029194266 0.74859262 0.048433051 4798495
-0.029502466 0.74887252 0.048430488 4732448
-0.029810667 0.74915242 0.048427925 4798241
-0.030118853 0.74943233 0.048425362 4864288
-0.030427054 0.74971223 0.048422799 4864288
-0.030258477 0.75064886 0.047816843 4864288
-0.030567884 0.75092983 0.04781428 4995874
-0.030877292 0.75121081 0.047811702 5259046
-0.0311867 0.75149179 0.047809124 5324839
-0.031496108 0.75177282 0.047806561 5587497
-0.031334765 0.752716 0.047200531 5850669
-0.03164538 0.75299811 0.047197953 6244655
-0.031955995 0.75328022 0.047195375 6705206
-0.032266609 0.75356233 0.047192782 7099451
-0.032577224 0.75384438 0.047190204 7494209
-0.032887839 0.75412649 0.047187626 8085574
-0.032734945 0.75507742 0.046581522 8282953
-0.033046767 0.7553606 0.046578929 8480332
-0.033358589 0.75564378 0.046576336 8611918
-0.026590422 0.74650902 0.048814446 4995874
-0.026898623 0.74678892 0.048811883 4995874
-0.027206823 0.74706882 0.04880932 4930081
-0.027515009 0.74734873 0.048806757 4864288
-0.02782321 0.74762857 0.048804194 4864288
-0.02813141 0.74790847 0.048801631 4864288
-0.028439604 0.74818838 0.048799068 4864288
-0.028747797 0.74846828 0.048796505 4864288
-0.029055998 0.74874818 0.048793942 4798495
-0.029364198 0.74902809 0.048791379 4798495
-0.029672392 0.74930799 0.048788816 4798495
-0.029980585 0.74958789 0.048786253 4733215
-0.030288786 0.74986774 0.04878369 4799008
-0.030119672 0.75080502 0.04817915 4930081
-0.03042908 0.751086 0.048176572 4995874
-0.03073848 0.75136697 0.048174009 5259046
-0.031047888 0.75164795 0.048171431 5324839
-0.031357288 0.75192899 0.048168868 5587497
-0.03119541 0.75287282 0.047564253 5850669
-0.031506024 0.75315487 0.047561675 6244657
-0.031816639 0.75343698 0.047559097 6639415
-0.032127254 0.75371909 0.04755652 7099451
-0.032437868 0.75400114 0.047553927 7494209
-0.032748483 0.75428325 0.047551349 8019781
-0.032595053 0.75523478 0.04694666 8282953
-0.032906875 0.75551796 0.046944067 8480332
-0.033218697 0.75580114 0.046941474 8611918
-0.025527567 0.74582487 0.049183011 4930081
-0.025835767 0.74610478 0.049180448 4930081
-0.026143953 0.74638468 0.049177885 4930081
-0.026452154 0.74666458 0.049175322 4995874
-0.026760355 0.74694449 0.049172774 4995874
-0.02706854 0.74722433 0.049170211 4995874
-0.027376741 0.74750423 0.049167648 4864288
-0.027684942 0.74778414 0.049165085 4864288
-0.027993143 0.74806404 0.049162522 4864288
-0.028787673 0.74769366 0.049760476 4864288
-0.029094666 0.74797249 0.049757913 4864288
-0.029401653 0.74825126 0.049755365 4798495
-0.029708639 0.74853003 0.049752817 4733215
-0.029534124 0.74946356 0.049149707 4733215
-0.029842317 0.7497434 0.049147144 4733215
-0.030150518 0.75002331 0.049144581 4799008
-0.030458719 0.75030321 0.049142018 4864801
-0.030766912 0.75058311 0.049139455 4930594
-0.031075105 0.75086302 0.049136892 5259046
-0.031383306 0.75114286 0.049134329 5324839
-0.031691499 0.75142276 0.049131766 5456425
-0.031999692 0.75170267 0.049129203 5719597
-0.031837292 0.75264716 0.048526019 6309935
-0.032146692 0.75292814 0.048523456 6704693
-0.031987906 0.75387585 0.047920227 7099451
-0.032298513 0.7541579 0.047917649 7494209
-0.032609127 0.75444001 0.047915071 8019781
-0.032919742 0.75472212 0.047912478 8282953
-0.033230357 0.75500417 0.047909901 8480332
-0.033540972 0.75528628 0.047907323 8611918
-0.025389299 0.74598044 0.049543917 4930081
-0.025697485 0.74626034 0.049541354 4930081
-0.026005685 0.74654025 0.049538791 4995620
-0.026313886 0.74682015 0.049536228 4995620
-0.026622072 0.7471 0.049533665 4995620
-0.026930273 0.7473799 0.049531102 4929827
-0.027238473 0.7476598 0.049528539 4864034
-0.027546674 0.74793971 0.049525976 4864034
-0.027854867 0.74821961 0.049523413 4864034
-0.028649949 0.74784863 0.050119951 4864034
-0.028956935 0.7481274 0.050117388 4864034
-0.029263929 0.74840617 0.05011484 4798241
-0.029570915 0.748685 0.050112292 4732961
-0.029395849 0.74961907 0.049510598 4732961
-0.029704049 0.74989897 0.049508035 4733215
-0.03001225 0.75017887 0.049505472 4864801
-0.030320443 0.75045878 0.049502909 4864801
-0.030628636 0.75073862 0.049500346 4930594
-0.030936837 0.75101852 0.049497783 5259046
-0.031245038 0.75129843 0.04949522 5324839
-0.031553231 0.75157833 0.049492657 5390632
-0.031861424 0.75185823 0.049490094 5719597
-0.03169848 0.75280333 0.048888326 6309935
-0.032007888 0.7530843 0.048885763 6704693
-0.03184855 0.75403261 0.048283949 7099451
-0.032159165 0.75431472 0.048281372 7494209
-0.032469779 0.75459683 0.048278794 8020035
-0.032780387 0.75487888 0.048276201 8217414
-0.033091001 0.75516099 0.048273623 8480586
-0.033401616 0.7554431 0.048271045 8612172
-0.024634629 0.7455762 0.04990992 4995874
-0.02494283 0.74585611 0.049907357 4995874
-0.025251016 0.74613601 0.049904794 4995874
-0.026056319 0.7457732 0.050499842 4930081
-0.026363298 0.74605197 0.050497293 4995620
-0.026670292 0.74633074 0.05049473 4995620
-0.026977286 0.74660957 0.050492182 4995620
-0.027284265 0.7468884 0.050489634 4929827
-0.027591258 0.74716717 0.050487071 4864034
-0.027898245 0.74744594 0.050484523 4864034
-0.028205231 0.74772477 0.050481975 4864034
-0.028512225 0.74800354 0.050479427 4864034
-0.028819211 0.74828231 0.050476864 4864034
-0.029126197 0.74856114 0.050474316 4798241
-0.029433191 0.74883997 0.050471768 4798241
-0.02974017 0.74911875 0.05046922 4798241
-0.030047163 0.74939752 0.050466657 4732961
-0.03035415 0.74967635 0.050464109 4864547
-0.030661136 0.74995512 0.05046156 4864801
-0.03096813 0.75023395 0.050458997 4930594
-0.031275116 0.75051272 0.050456449 5193253
-0.031582102 0.75079155 0.050453901 5324839
-0.031889096 0.75107032 0.050451338 5521704
-0.032196082 0.75134909 0.05044879 5850669
-0.032031357 0.75229371 0.049848422 6309935
-0.032339551 0.75257361 0.049845874 6638900
-0.032178476 0.75352144 0.049245492 7164474
-0.032487884 0.75380242 0.049242914 7559232
-0.032797292 0.7540834 0.049240351 8020035
-0.032641038 0.75503564 0.048639923 8151621
-0.032951653 0.75531775 0.048637345 8349000
-0.03326226 0.75559986 0.048634768 8546379
-0.024496362 0.74573177 0.050270811 5126946
-0.024804562 0.74601167 0.050268248 5126946
-0.025112748 0.74629158 0.050265685 5126946
-0.025918588 0.74592811 0.050859317 5126946
-0.026225582 0.74620694 0.050856769 4995620
-0.026532561 0.74648571 0.050854206 4995620
-0.026839554 0.74676454 0.050851658 4929827
-0.027146533 0.74704331 0.05084911 4864034
-0.027453527 0.74732208 0.050846547 4929827
-0.027760521 0.74760091 0.050843999 4864034
-0.028067507 0.74787968 0.050841451 4864034
-0.028374493 0.74815851 0.050838903 4864034
-0.028681479 0.74843729 0.05083634 4864034
-0.028988473 0.74871612 0.050833791 4798241
-0.029295459 0.74899489 0.050831243 4798241
-0.029602446 0.74927366 0.050828695 4798241
-0.029909432 0.74955249 0.050826132 4732961
-0.030216426 0.74983126 0.050823584 4864547
-0.030523412 0.75011009 0.050821036 4864801
-0.030830398 0.75038886 0.050818473 4930594
-0.031137392 0.75066769 0.050815925 5193253
-0.031444378 0.75094646 0.050813377 5259046
-0.031751364 0.75122523 0.050810814 5521704
-0.032058351 0.75150406 0.050808266 5850669
-0.031893089 0.75244927 0.050209314 6309937
-0.032201283 0.75272912 0.050206751 6573109
-0.032039665 0.75367761 0.049607798 7164474
-0.032349072 0.75395858 0.049605221 7427646
-0.032658473 0.75423956 0.049602658 8020035
-0.032501683 0.75519246 0.049003646 8151621
-0.032812297 0.75547457 0.049001068 8349000
-0.033122905 0.75575662 0.04899849 8546379
-0.024358094 0.74588734 0.050631702 5126946
-0.024666294 0.74616724 0.050629139 5126946
-0.02497448 0.74644709 0.050626576 5126946
-0.025780857 0.74608308 0.051218793 5126946
-0.02608785 0.74636185 0.051216245 4995620
-0.026394829 0.74664068 0.051213682 4995620
-0.026701823 0.74691945 0.051211134 4929827
-0.027008817 0.74719822 0.051208586 4864034
-0.027315795 0.74747705 0.051206023 4929827
-0.027622789 0.74775589 0.051203474 4864034
-0.027929783 0.74803466 0.051200926 4864034
-0.028236762 0.74831343 0.051198378 4864034
-0.028543755 0.74859226 0.051195815 4864034
-0.028850742 0.74887103 0.051193267 4798241
-0.029157728 0.7491498 0.051190719 4798241
-0.029464722 0.74942863 0.051188171 4798241
-0.029771708 0.74970746 0.051185608 4732961
-0.030078694 0.74998623 0.05118306 4798754
-0.030385688 0.750265 0.051180512 4864801
-0.030692674 0.75054383 0.051177949 4930594
-0.03099966 0.7508226 0.051175401 5193253
-0.031306647 0.75110137 0.051172853 5259046
-0.031613633 0.75138021 0.05117029 5587497
-0.031920627 0.75165904 0.051167741 5850669
-0.031754814 0.75260478 0.050570205 6178864
-0.032063007 0.75288469 0.050567657 6507829
-0.031900853 0.75383377 0.049970105 7164474
-0.032210261 0.75411475 0.049967527 7427646
-0.032519668 0.75439572 0.049964949 7888449
-0.032362327 0.75534922 0.049367368 8151621
-0.032672942 0.75563133 0.04936479 8349000
-0.032983556 0.75591338 0.049362198 8546379
-0.024722174 0.74540162 0.051585913 5126946
-0.025029153 0.74568045 0.051583365 5061153
-0.025336146 0.74595922 0.051580817 5126946
-0.025643125 0.74623799 0.051578268 5126946
-0.025950119 0.74651682 0.051575705 4995620
-0.026257113 0.74679559 0.051573157 4995620
-0.027059183 0.74642658 0.052163973 4929827
-0.027364962 0.74670422 0.052161425 4929827
-0.027670741 0.74698198 0.052158892 4929827
-0.02797652 0.74725962 0.052156344 4864034
-0.0282823 0.74753737 0.052153811 4864034
-0.028588079 0.74781501 0.052151263 4864034
-0.028893858 0.74809277 0.05214873 4864034
-0.029199637 0.74837047 0.052146181 4864034
-0.029505417 0.74864817 0.052143633 4798241
-0.029811203 0.74892586 0.0521411 4798241
-0.030116975 0.74920356 0.052138552 4732961
-0.030422762 0.74948126 0.052136004 4798754
-0.030728541 0.74975896 0.052133471 4864801
-0.031034321 0.75003666 0.052130923 4930594
-0.0313401 0.75031435 0.052128389 5193253
-0.031168923 0.75125635 0.051532328 5259046
-0.031475909 0.75153518 0.051529765 5587497
-0.031782895 0.75181395 0.051527217 5850669
-0.032089889 0.75209272 0.051524669 6178864
-0.032396875 0.75237155 0.051522106 6507829
-0.032703862 0.75265032 0.051519558 7164474
-0.033010855 0.75292915 0.05151701 7427646
-0.033317834 0.75320792 0.051514462 7888195
-0.033157527 0.75415981 0.050918281 8151367
-0.033465728 0.75443971 0.050915733 8348746
-0.033773921 0.75471961 0.05091317 8546125
-0.024584442 0.74555659 0.051945388 5126946
-0.024891436 0.74583536 0.05194284 5061153
-0.025198415 0.74611413 0.051940292 5126946
-0.025505409 0.74639297 0.051937744 5126946
-0.025812402 0.74667174 0.051935181 4995620
-0.026119381 0.74695057 0.051932633 4995620
-0.026922002 0.7465809 0.052522033 4929827
-0.027227774 0.7468586 0.0525195 4929827
-0.027533554 0.74713629 0.052516952 4929827
-0.027839333 0.74741399 0.052514404 4929827
-0.02814512 0.74769169 0.052511871 4864034
-0.028450891 0.74796939 0.052509323 4864034
-0.028756678 0.74824709 0.05250679 4864034
-0.02906245 0.74852479 0.052504241 4864034
-0.029368237 0.74880248 0.052501693 4798241
-0.029674016 0.74908018 0.05249916 4798241
-0.029979795 0.74935788 0.052496612 4798241
-0.030285574 0.74963558 0.052494079 4864034
-0.030591354 0.74991328 0.052491531 4930081
-0.030897133 0.75019097 0.052488983 4995874
-0.031202912 0.75046867 0.052486449 5061667
-0.031031191 0.75141132 0.051891804 5259046
-0.031338185 0.75169009 0.051889241 5456425
-0.031645171 0.75196886 0.051886693 5719597
-0.031952158 0.75224769 0.051884145 6178864
-0.032259151 0.75252652 0.051881582 6507829
-0.032566138 0.75280529 0.051879033 7164474
-0.032873124 0.75308406 0.051876485 7427646
-0.03318011 0.75336289 0.051873937 7822402
-0.03301926 0.75431538 0.051279187 8151367
-0.03332746 0.75459528 0.051276624 8348746
-0.033635654 0.75487518 0.051274061 8546125
-0.024446711 0.74571151 0.052304864 5192739
-0.024753705 0.74599028 0.052302316 5126946
-0.025060698 0.74626911 0.052299768 5126946
-0.025367677 0.74654794 0.05229722 5126946
-0.025674671 0.74682671 0.052294657 4995874
-0.02598165 0.74710548 0.052292109 4995874
-0.026784807 0.74673522 0.052880093 4995620
-0.027090594 0.74701291 0.05287756 4929827
-0.027396366 0.74729061 0.052875012 4929827
-0.027702153 0.74756831 0.052872464 4929827
-0.028007932 0.74784601 0.052869931 4864034
-0.028313711 0.74812371 0.052867383 4864034
-0.028619491 0.7484014 0.05286485 4864034
-0.02892527 0.7486791 0.052862301 4864034
-0.029231049 0.7489568 0.052859753 4798241
-0.029536828 0.7492345 0.05285722 4798241
-0.029842608 0.7495122 0.052854672 4732448
-0.030148387 0.74978995 0.052852139 4798241
-0.030454174 0.75006759 0.052849591 4929827
-0.030759946 0.75034535 0.052847043 5061413
-0.031065732 0.75062299 0.052844509 5061667
-0.030893467 0.75156623 0.052251279 5259046
-0.031200454 0.75184506 0.052248716 5456425
-0.031507447 0.75212383 0.052246168 5653804
-0.031814434 0.75240266 0.05224362 6048048
-0.03212142 0.75268143 0.052241057 6311220
-0.032428414 0.75296021 0.052238509 7033658
-0.0327354 0.75323904 0.052235961 7296830
-0.033042386 0.75351781 0.052233413 7822402
-0.032880992 0.75447094 0.051640064 8151367
-0.033189185 0.75475085 0.051637501 8348748
-0.033497386 0.75503075 0.051634938 8546127
-0.024308994 0.74586642 0.05266434 5192739
-0.024615973 0.74614525 0.052661791 5192739
-0.024922967 0.74642408 0.052659243 5192739
-0.025730297 0.74605644 0.053245783 5126946
-0.026036069 0.7463342 0.053243235 4995874
-0.026341841 0.74661183 0.053240702 4995874
-0.026647627 0.74688959 0.053238153 4995620
-0.026953414 0.74716723 0.05323562 4929827
-0.027259186 0.74744499 0.053233072 4929827
-0.028058067 0.74706972 0.053819701 4929827
-0.028362632 0.74734628 0.053817168 4864034
-0.028667204 0.74762291 0.053814635 4864034
-0.028971776 0.74789947 0.053812101 4864034
-0.029276349 0.7481761 0.053809568 4864034
-0.029580921 0.74845266 0.053807035 4798241
-0.029885486 0.74872929 0.053804502 4864034
-0.030190058 0.74900591 0.053801984 4798241
-0.03049463 0.74928248 0.05379945 4798241
-0.030316986 0.75022197 0.053207651 4929827
-0.030622765 0.75049967 0.053205103 4995620
-0.030928545 0.75077736 0.053202569 5061413
-0.031234324 0.75105506 0.053200021 5324585
-0.031540103 0.75133276 0.053197473 5456425
-0.031845883 0.75161046 0.05319494 5653804
-0.032151662 0.75188816 0.053192392 6048048
-0.032457441 0.75216585 0.053189859 6311220
-0.03276322 0.75244355 0.053187311 7033658
-0.033069 0.75272125 0.053184763 7296830
-0.033374779 0.75299895 0.053182229 7822404
-0.033680558 0.75327665 0.053179681 8151369
-0.033518635 0.75423038 0.052587777 8348748
-0.033825621 0.75450915 0.052585229 8480334
-0.024171263 0.74602139 0.053023815 5192739
-0.024478242 0.74630022 0.053021267 5126946
-0.024785236 0.74657899 0.053018719 5126946
-0.025593102 0.74621081 0.053603843 5192739
-0.025898889 0.74648851 0.053601295 5126692
-0.026204661 0.74676621 0.053598762 5126692
-0.026510432 0.74704391 0.053596213 5060899
-0.026816219 0.74732161 0.05359368 5126692
-0.027122006 0.7475993 0.053591132 5060899
-0.027921423 0.74722338 0.054176345 4995106
-0.028225988 0.7475 0.054173812 4995106
-0.02853056 0.74777663 0.054171279 4995106
-0.028835133 0.74805319 0.054168746 4995106
-0.029139705 0.74832982 0.054166213 5060899
-0.029444277 0.74860644 0.054163679 4864034
-0.029748842 0.74888301 0.054161146 4864034
-0.030053414 0.74915963 0.054158628 4798241
-0.030357987 0.74943626 0.054156095 4798241
-0.030179799 0.75037628 0.053565711 4929827
-0.030485578 0.75065398 0.053563163 4995620
-0.030791357 0.75093168 0.053560629 5061413
-0.031097136 0.75120938 0.053558081 5324585
-0.031402916 0.75148708 0.053555548 5456171
-0.031708695 0.75176477 0.053553 5653550
-0.032014474 0.75204247 0.053550452 5982255
-0.032320254 0.75232017 0.053547919 6311220
-0.032626033 0.75259787 0.053545371 6967865
-0.032931812 0.75287557 0.053542823 7296830
-0.033237591 0.75315326 0.053540289 7822404
-0.033543371 0.75343096 0.053537741 8085576
-0.033380903 0.75438529 0.052947253 8348748
-0.03368789 0.75466412 0.052944705 8480334
-0.024033532 0.74617636 0.053383291 5192739
-0.024340525 0.74645513 0.053380743 5126946
-0.024647504 0.7467339 0.053378195 5126946
-0.025455922 0.74636513 0.053961903 5192739
-0.025761694 0.74664283 0.05395937 4995620
-0.02606748 0.74692053 0.053956822 4995620
-0.026373252 0.74719822 0.053954273 4929827
-0.026679039 0.74747592 0.05395174 4995620
-0.026984811 0.74775362 0.053949192 4929827
-0.02778478 0.74737716 0.05453299 4864034
-0.028089345 0.74765372 0.054530457 4864034
-0.028393924 0.74793035 0.054527923 4864034
-0.028698489 0.74820697 0.05452539 4864034
-0.029003061 0.74848354 0.054522857 4864034
-0.029307634 0.74876016 0.054520324 4864034
-0.029612198 0.74903673 0.054517791 4864034
-0.029916778 0.74931335 0.054515272 4798241
-0.030221343 0.74958992 0.054512739 4798241
-0.030042611 0.7505306 0.053923771 4929827
-0.03034839 0.7508083 0.053921223 4995620
-0.03065417 0.751086 0.053918689 5192999
-0.030959949 0.75136375 0.053916141 5324585
-0.031265728 0.75164139 0.053913608 5390378
-0.031571507 0.75191915 0.05391106 5521964
-0.031877294 0.75219679 0.053908512 6113071
-0.032183066 0.75247455 0.053905979 6442036
-0.032488853 0.75275218 0.053903431 6836279
-0.032794625 0.75302994 0.053900898 7296830
-0.033100411 0.75330758 0.053898349 7756609
-0.033406183 0.75358534 0.053895801 8019781
-0.033243179 0.75454026 0.053306729 8217160
-0.033550166 0.75481904 0.053304181 8480332
-0.024401397 0.74568635 0.054327592 5192739
-0.024707168 0.74596405 0.054325044 5126946
-0.025012955 0.74624175 0.054322511 4995620
-0.025820717 0.74587125 0.054904819 5061413
-0.026125282 0.74614787 0.0549023 4995620
-0.026429847 0.74642444 0.054899767 4995620
-0.026734427 0.74670106 0.054897234 4929827
-0.027038991 0.74697769 0.054894701 4995620
-0.027343564 0.74725425 0.054892167 4864034
-0.028142832 0.74687606 0.05547455 4864034
-0.028446198 0.74715161 0.055472016 4864034
-0.028749555 0.74742711 0.055469498 4864034
-0.029052921 0.7477026 0.05546698 4864034
-0.029356286 0.74797809 0.055464447 4864034
-0.029659644 0.74825358 0.055461928 4864034
-0.029963002 0.74852908 0.05545941 4929827
-0.030266367 0.74880457 0.055456892 4798241
-0.030569732 0.74908012 0.055454373 4798241
-0.030389272 0.75002027 0.05486685 4929827
-0.030693844 0.75029689 0.054864317 4995620
-0.030998416 0.75057352 0.054861784 5061413
-0.031302989 0.75085008 0.054859251 5258792
-0.031607553 0.75112665 0.054856718 5390378
-0.031912133 0.75140327 0.054854184 5521964
-0.031740107 0.75235116 0.054266572 5982001
-0.032045886 0.75262886 0.054264039 6310966
-0.032351665 0.75290656 0.054261491 6836279
-0.032657444 0.75318426 0.054258943 7231037
-0.032963224 0.75346196 0.054256409 7756609
-0.033269003 0.75373966 0.054253861 8019781
-0.033574782 0.75401735 0.054251328 8217160
-0.033880562 0.75429505 0.05424878 8480332
-0.024264202 0.74584067 0.054685652 5192739
-0.024569988 0.74611843 0.054683104 5126946
-0.024875775 0.74639612 0.054680571 5061413
-0.025684074 0.74602497 0.055261478 5061413
-0.025988638 0.74630159 0.055258945 4995620
-0.026293203 0.74657822 0.055256411 4995620
-0.026597783 0.74685478 0.055253878 4929827
-0.026902348 0.74713135 0.055251345 4995620
-0.027206913 0.74740797 0.055248812 4864034
-0.028006732 0.74702919 0.055829763 4798241
-0.02831009 0.74730468 0.055827245 4864034
-0.028613456 0.74758017 0.055824727 4864034
-0.028916821 0.74785572 0.055822209 4798241
-0.029220179 0.74813122 0.05581969 4864034
-0.029523544 0.74840671 0.055817157 4864034
-0.029826909 0.7486822 0.055814639 4864034
-0.030130267 0.74895775 0.05581212 4798241
-0.030433632 0.74923325 0.055809587 4798241
-0.030252628 0.75017399 0.055223495 4929827
-0.0305572 0.75045061 0.055220962 4929827
-0.030861773 0.75072718 0.055218428 4995620
-0.031166345 0.7510038 0.055215895 5258792
-0.03147091 0.75128043 0.055213362 5521450
-0.031775489 0.75155699 0.055210829 5784622
-0.031602919 0.75250548 0.054624647 5982001
-0.031908698 0.75278318 0.054622099 6310966
-0.032214478 0.75306088 0.054619551 6770486
-0.032520257 0.75333858 0.054617018 7231037
-0.032826036 0.75361627 0.054614469 7756609
-0.033131815 0.75389397 0.054611921 8019781
-0.033437595 0.75417167 0.054609388 8217160
