# .PCD v0.7 - Point Cloud Data file format
VERSION 0.7
FIELDS x y z rgb
SIZE 4 4 4 4
TYPE F F F U
COUNT 1 1 1 1
WIDTH 1095
HEIGHT 1
VIEWPOINT 0 0 0 1 0 0 0
POINTS 1095
DATA ascii
0.00059008598 0.74527442 0.071724936 9867911
0.00020446628 0.74515104 0.071722686 9867911
-0.00018116087 0.7450276 0.071720451 9998216
-0.00056678802 0.74490416 0.071718201 9142907
-0.00095241517 0.74478072 0.071715966 9208438
-0.0017961785 0.74540448 0.071187034 8879473
-0.0021833628 0.74528056 0.071184784 8483943
-0.0025705472 0.74515665 0.071182534 7826013
-0.002957724 0.74503273 0.071180284 7298640
-0.0033449009 0.74490881 0.071178034 6838089
-0.0037320852 0.74478483 0.071175769 6574915
-0.0041192695 0.74466097 0.071173519 5982778
-0.0045064464 0.744537 0.071171269 6180157
-0.005364202 0.74515629 0.070642278 5719606
-0.0057529286 0.74503183 0.070640013 5719604
-0.00614167 0.74490744 0.070637763 5653811
-0.0065304041 0.74478304 0.070635498 5653811
-0.0069191381 0.74465859 0.070633233 5653811
-0.0073078722 0.74453413 0.070630968 5521714
-0.0076966062 0.74440974 0.070628718 5390128
-0.0080853477 0.74428535 0.070626453 5324848
-0.0084740743 0.74416089 0.070624188 5193262
-0.0093474016 0.74477518 0.070095077 4799274
-0.0097376928 0.7446503 0.070092812 4865067
-0.010127984 0.74452537 0.070090547 4733481
-0.010518275 0.74440044 0.070088267 4733481
-0.010908566 0.74427551 0.070086002 4667688
-0.011298858 0.74415058 0.070083737 4667688
-0.011689149 0.74402571 0.070081457 4733481
-0.01207944 0.74390078 0.070079193 4601895
-0.01296673 0.74451053 0.069550037 4601895
-0.013358571 0.74438512 0.069547758 4601895
-0.013750426 0.74425972 0.069545478 4601897
-0.014142267 0.74413431 0.069543198 4404518
-0.014534108 0.7440089 0.069540918 4535850
-0.014925964 0.74388349 0.069538638 4535850
-0.015824147 0.74448979 0.069009393 4535850
-0.016217552 0.7443639 0.069007099 4535850
-0.016610958 0.74423802 0.069004804 4536104
-0.017004348 0.74411207 0.069002524 4404518
-0.017397739 0.74398613 0.069000229 4536104
-0.018305264 0.74458951 0.06847094 4404518
-0.01870022 0.74446309 0.068468645 4536104
-0.019095175 0.74433666 0.06846635 4601897
-0.020008929 0.74493808 0.067937016 4601897
-0.020405434 0.74481118 0.067934707 4601897
-0.020801939 0.74468422 0.067932397 4601897
-0.021198459 0.74455732 0.067930087 4536104
-0.021594964 0.74443042 0.067927778 4536104
-0.021991469 0.74430346 0.067925483 4536104
-0.022916086 0.74490136 0.067396104 4404518
-0.023314156 0.74477398 0.067393795 4536104
-0.023712225 0.74464655 0.06739147 4536104
-0.02411028 0.74451911 0.06738916 4404518
-0.02450835 0.74439174 0.067386851 4404518
-0.02544228 0.74498665 0.066857398 4536104
-0.025841914 0.74485874 0.066855073 4404518
-0.026241533 0.74473083 0.066852748 4404518
-0.027181722 0.74532372 0.066323265 4536104
-0.027582891 0.74519533 0.066320926 4536104
-0.02798406 0.74506694 0.066318586 4404518
-0.028930433 0.7456578 0.065789089 4404518
-0.029333182 0.74552894 0.065786749 4404518
-0.0297359 0.74540001 0.06578441 4404518
-0.030138634 0.74527109 0.06578207 4469541
-0.030541368 0.74514222 0.065779716 4469541
-0.030944087 0.7450133 0.065777376 4338471
0.049242198 0.75927019 0.073404372 9011319
0.048859678 0.75914776 0.073402151 8945526
0.048477165 0.75902534 0.073399931 8945526
0.048094645 0.75890285 0.073397696 9076852
0.047712132 0.75878042 0.073395476 9011059
0.04732962 0.75865799 0.073393255 9076852
0.046947099 0.75853556 0.07339102 9011059
0.046564586 0.75841314 0.0733888 8879473
0.046182066 0.75829071 0.07338658 8879473
0.045799553 0.75816828 0.073384359 8879473
0.045417033 0.75804579 0.073382124 8879473
0.04503452 0.75792336 0.073379904 8879473
0.044652008 0.75780094 0.073377684 8879473
0.044269487 0.75767851 0.073375449 9010289
0.043886974 0.75755608 0.073373228 8944496
0.043504454 0.75743365 0.073371008 8944496
0.043121941 0.75731122 0.073368773 8944496
0.042739429 0.7571888 0.073366553 8944496
0.042356908 0.75706637 0.073364332 9010289
0.041974396 0.75694394 0.073362097 9010289
0.041591875 0.75682151 0.073359877 9010289
0.041209362 0.75669909 0.073357657 9010289
0.04082685 0.7565766 0.073355421 9010289
0.040444329 0.75645417 0.073353201 8878703
0.040061817 0.75633174 0.073350981 8944496
0.039679296 0.75620931 0.073348746 9010289
0.039296784 0.75608689 0.073346525 9010289
0.038914271 0.75596446 0.073344305 9010289
0.03853175 0.75584203 0.07334207 9010289
0.038149238 0.75571954 0.07333985 9141873
0.037766717 0.75559711 0.073337629 9141873
0.037384205 0.75547469 0.073335394 9076850
0.037001692 0.75535226 0.073333174 9011057
0.036619172 0.75522983 0.073330954 8879471
0.036236659 0.7551074 0.073328719 9011057
0.035854138 0.75498497 0.073326498 9011057
0.035471626 0.75486255 0.073324278 9011057
0.035089113 0.75474012 0.073322043 9011057
0.034706593 0.75461769 0.073319823 9011057
0.03432408 0.75449526 0.073317602 9141873
0.033941559 0.75437284 0.073315367 9010287
0.033559047 0.75425035 0.073313147 9141873
0.033176534 0.75412792 0.073310927 9207666
0.032794014 0.75400549 0.073308691 9141873
0.032086827 0.75467384 0.07278198 9141873
0.031702757 0.75455093 0.072779745 9141873
0.031318687 0.75442797 0.07277751 9207666
0.030934617 0.75430501 0.072775275 9273459
0.030550547 0.7541821 0.072773039 9339252
0.03016647 0.7540592 0.072770819 9273459
0.029782407 0.75393623 0.072768584 9273459
0.02939833 0.75381333 0.072766349 9339252
0.028677151 0.75447714 0.072239548 9405045
0.028291523 0.75435376 0.072237313 9405045
0.027905896 0.75423032 0.072235063 9405045
0.027520277 0.75410688 0.072232828 9405045
0.027134649 0.75398344 0.072230577 9339252
0.02709391 0.75307572 0.072752938 9339252
0.026709832 0.75295281 0.072750703 9339252
0.02632577 0.75282985 0.072748467 9339252
0.025941692 0.75270694 0.072746232 9339252
0.025206521 0.75336629 0.072219372 9405045
0.024820894 0.75324285 0.072217122 9339252
0.024789482 0.75233811 0.072739527 9405299
0.024405412 0.75221521 0.072737306 9339506
0.024021342 0.75209224 0.072735071 9339506
0.023996152 0.75118953 0.073257521 9405299
0.023613639 0.75106704 0.073255301 9339506
0.023231119 0.75094461 0.073253065 9339506
0.022848599 0.75082219 0.073250845 9471092
0.022466086 0.75069976 0.073248625 9471092
0.022083573 0.75057733 0.07324639 9602678
0.021701053 0.7504549 0.073244169 9602678
0.02131854 0.75033247 0.073241949 9602678
0.02093602 0.75021005 0.073239714 9602678
0.020553507 0.75008762 0.073237494 9602424
0.020170994 0.74996519 0.073235273 9602424
0.019788474 0.74984276 0.073233038 9668217
0.019405961 0.74972034 0.073230818 9668217
0.019023441 0.74959785 0.073228598 9537401
0.018640928 0.74947542 0.073226362 9537401
0.018258415 0.74935299 0.073224142 9603194
0.017875902 0.74923056 0.073221922 9668987
0.017493382 0.74910814 0.073219687 9603194
0.017110869 0.74898571 0.073217466 9668987
0.016728349 0.74886328 0.073215246 9668987
0.016345836 0.74874079 0.073213011 9537401
0.015963316 0.74861836 0.073210791 9603194
0.015580803 0.74849594 0.07320857 9603194
0.015198283 0.74837351 0.073206335 9603194
0.01481577 0.74825108 0.073204115 9537401
0.01443325 0.74812865 0.073201895 9537401
0.01405073 0.74800622 0.07319966 9603194
0.013668217 0.7478838 0.073197439 9668989
0.013285704 0.74776137 0.073195219 9668989
0.012903191 0.74763894 0.073192984 9472124
0.012520678 0.74751651 0.073190764 9537917
0.012138158 0.74739408 0.073188543 9472124
0.011755638 0.7472716 0.073186308 9472124
0.011373125 0.74714917 0.073184088 9668987
0.010990612 0.74702674 0.073181868 9668987
0.010194793 0.74766672 0.072654635 9800573
0.0098107234 0.74754381 0.0726524 9932159
0.0094266534 0.74742085 0.072650164 9997952
0.0090425834 0.74729794 0.072647929 10063745
0.008658506 0.74717498 0.072645694 9866882
0.008274436 0.74705207 0.072643459 9998468
0.007890366 0.74692911 0.072641224 9998468
0.007506296 0.7468062 0.072638988 9932675
0.0071222261 0.74668324 0.072636753 9998214
0.0067381486 0.74656034 0.072634533 9998214
0.0063540861 0.74643743 0.072632298 10064007
0.0059700087 0.74631447 0.072630063 10129800
0.0051539764 0.746948 0.072102726 10064007
0.0047683567 0.7468245 0.072100475 10129800
0.0043827295 0.74670112 0.072098225 10064774
0.0039971098 0.74657768 0.07209599 10196360
0.0036114827 0.74645424 0.07209374 10196106
0.0032258555 0.74633086 0.072091505 10196106
0.0028402284 0.74620736 0.072089255 10196106
0.0024546012 0.74608397 0.07208702 10196106
0.0020689741 0.74596053 0.07208477 10261899
0.0016833469 0.74583709 0.072082534 10261899
0.0012977198 0.74571371 0.072080284 10196106
0.00091209263 0.74559021 0.072078049 10261899
0.00052646548 0.74546683 0.072075799 10196876
0.00014084578 0.74534339 0.072073549 10065290
-0.00024478137 0.74521995 0.072071314 10196106
-0.00063040107 0.7450965 0.072069064 10064520
-0.0010160282 0.74497306 0.072066829 10196106
-0.0018600523 0.74559766 0.071539313 10064520
-0.0022472367 0.74547374 0.071537063 10327692
-0.0026344135 0.74534976 0.071534812 10064520
-0.0030215904 0.74522591 0.071532562 10261386
-0.0034087673 0.74510193 0.071530312 9603456
-0.0037959591 0.74497801 0.071528047 8682608
-0.0041831359 0.74485409 0.071525797 8156264
-0.0045703202 0.74473017 0.071523547 7826015
-0.0054283217 0.74535024 0.070995972 6970706
-0.0058170632 0.74522579 0.070993707 6904650
-0.0062057897 0.74510133 0.070991457 6246720
-0.0065945312 0.74497694 0.070989192 6114362
-0.0069832653 0.74485254 0.070986927 5851190
-0.0073719993 0.74472809 0.070984662 6179128
-0.0077607408 0.74460363 0.070982412 5915956
-0.0081494674 0.74447924 0.070980147 6113335
-0.0085382089 0.74435484 0.070977882 5981749
-0.0094117895 0.7449699 0.070450187 5719604
-0.0098020807 0.74484497 0.070447922 5456432
-0.010192372 0.7447201 0.070445657 5194032
-0.010582663 0.74459517 0.070443377 5194032
-0.010972947 0.74447024 0.070441112 5062446
-0.011363238 0.74434531 0.070438847 4996653
-0.011753537 0.74422038 0.070436567 4996653
-0.012143821 0.74409544 0.070434302 4799274
-0.013031371 0.74470603 0.069906563 4667688
-0.013423212 0.74458063 0.069904283 4667688
-0.013815068 0.74445522 0.069902003 4667690
-0.014206909 0.74432981 0.069899723 4601897
-0.01459875 0.74420434 0.069897443 4601643
-0.014990605 0.74407893 0.069895163 4601643
-0.015889041 0.74468607 0.069367319 4601643
-0.016282447 0.74456012 0.069365039 4601643
-0.016675852 0.74443424 0.069362745 4535850
-0.017069258 0.74430835 0.069360465 4535850
-0.017462648 0.74418241 0.06935817 4666920
-0.018370427 0.74478656 0.068830296 4535334
-0.018765368 0.74466014 0.068828002 4666920
-0.019160338 0.74453372 0.068825707 4732713
-0.019555278 0.7444073 0.068823412 4732713
-0.019950248 0.74428087 0.068821102 4732713
-0.020345189 0.74415445 0.068818808 4536104
-0.02126386 0.74475515 0.068290859 4536104
-0.021660365 0.74462819 0.06828855 4536104
-0.022056885 0.74450129 0.06828624 4536104
-0.02245339 0.74437439 0.068283945 4536104
-0.022849895 0.7442475 0.068281636 4536104
-0.023246415 0.7441206 0.068279326 4536104
-0.024175949 0.74471772 0.067751348 4404518
-0.024574019 0.74459028 0.067749023 4536104
-0.025508203 0.74518597 0.067221001 4536104
-0.025907837 0.74505806 0.067218676 4404518
-0.026307456 0.74493015 0.067216352 4404518
-0.026707076 0.74480224 0.067214027 4536104
-0.027106695 0.74467432 0.067211702 4536104
-0.027506329 0.74454641 0.067209378 4404518
-0.02845142 0.74513865 0.066681266 4404518
-0.028852589 0.74501026 0.066678941 4535334
-0.029253758 0.74488187 0.066676602 4535334
-0.030205078 0.74547201 0.06614849 4469541
-0.030607797 0.74534309 0.06614615 4469541
-0.031010531 0.74521422 0.066143811 4469287
0.044424191 0.75973016 0.072682396 8879473
0.044038564 0.75960672 0.072680146 8879473
0.043652937 0.75948334 0.07267791 9141875
0.04326731 0.75935984 0.07267566 9010289
0.04288169 0.75923645 0.072673425 9141875
0.042496063 0.75911301 0.072671175 9010289
0.042110436 0.75898957 0.07266894 9010289
0.041724809 0.75886613 0.07266669 9010289
0.041339181 0.75874269 0.07266444 9141875
0.040953554 0.75861931 0.072662205 9141875
0.040567935 0.75849587 0.072659954 9141875
0.040182307 0.75837243 0.072657719 9141875
0.039504409 0.75905102 0.072132587 8944496
0.039117225 0.75892711 0.072130337 9141875
0.039320812 0.75720114 0.073173881 9207668
0.038936742 0.75707817 0.073171645 9141875
0.038552672 0.75695527 0.07316941 9141875
0.038168602 0.75683236 0.073167175 9141875
0.037784532 0.7567094 0.07316494 9207666
0.037400462 0.75658649 0.073162705 9207666
0.037016384 0.75646353 0.07316047 9142643
0.036632322 0.75634062 0.073158249 9076850
0.036248244 0.75621772 0.073156014 9076850
0.035864174 0.75609475 0.073153779 9011057
0.035480104 0.75597179 0.073151544 9011057
0.035096034 0.75584888 0.073149309 9011057
0.034711964 0.75572598 0.073147073 9011057
0.034012295 0.75639755 0.072621822 9011057
0.033626668 0.7562741 0.072619587 9141873
0.033241041 0.75615072 0.072617337 9010287
0.032855414 0.75602728 0.072615102 9141873
0.032469794 0.75590384 0.072612852 9207666
0.032084167 0.7557804 0.072610602 9141873
0.03169854 0.75565696 0.072608367 9141873
0.03131292 0.75553358 0.072606117 9010287
0.030927293 0.75541013 0.072603881 9207666
0.030541666 0.75528669 0.072601631 9207666
0.030156039 0.75516325 0.072599396 9273459
0.029770412 0.75503981 0.072597146 9339252
0.029384784 0.75491643 0.072594911 9405045
0.028999157 0.75479299 0.072592661 9339252
0.028613538 0.75466955 0.072590426 9405045
0.02822791 0.75454611 0.072588176 9470838
0.027842283 0.75442266 0.07258594 9470838
0.027456656 0.75429928 0.07258369 9470838
0.027071029 0.75417584 0.07258144 9470838
0.026685409 0.7540524 0.072579205 9405045
0.026299782 0.75392896 0.072576955 9405045
0.025914155 0.75380552 0.07257472 9405045
0.025528528 0.75368214 0.07257247 9405045
0.025142901 0.7535587 0.072570235 9602424
0.024757281 0.75343525 0.072567984 9405045
0.024726123 0.75252974 0.073088989 9470838
0.024342053 0.75240678 0.073086753 9470838
0.023957983 0.75228387 0.073084518 9471092
0.023573913 0.75216091 0.073082283 9471092
0.023189843 0.752038 0.073080048 9471092
0.022805773 0.7519151 0.073077813 9405299
0.022421695 0.75179213 0.073075578 9602678
0.022037633 0.75166917 0.073073342 9602678
0.021653555 0.75154626 0.073071107 9668471
0.021269485 0.75142336 0.073068872 9668471
0.020885415 0.75130039 0.073066637 9668471
0.020501345 0.75117749 0.073064402 9734264
0.020117275 0.75105453 0.073062167 9668471
0.019733205 0.75093162 0.073059931 9668471
0.019349135 0.75080872 0.073057711 9734010
0.018965058 0.75068575 0.073055476 9734010
0.018580996 0.75056279 0.073053241 9603194
0.018196918 0.75043988 0.073051006 9603194
0.017812848 0.75031698 0.07304877 9668987
0.017428778 0.75019401 0.073046535 9668987
0.017044708 0.75007111 0.0730443 9668987
0.016660638 0.74994814 0.073042065 9668987
0.016276568 0.74982524 0.07303983 9668987
0.015892498 0.74970227 0.073037595 9603194
0.015508428 0.74957937 0.073035359 9668987
0.015124358 0.74945641 0.073033124 9603194
0.014740288 0.7493335 0.073030889 9603194
0.014356218 0.7492106 0.073028654 9603194
0.013972141 0.74908763 0.073026419 9537401
0.013188504 0.74973238 0.072500691 9668987
0.012802877 0.74960893 0.072498441 9668989
0.012417257 0.74948549 0.072496206 9734782
0.011627398 0.75012827 0.071970418 9734782
0.011240222 0.75000429 0.071968168 9734782
0.010853037 0.74988043 0.071965918 9734782
0.010465853 0.74975646 0.071963668 9800575
0.010078676 0.74963254 0.071961418 9932159
0.0096914992 0.74950862 0.071959168 9932159
0.0093043149 0.7493847 0.071956918 10063745
0.0089171305 0.74926078 0.071954653 10063745
0.0085299537 0.74913681 0.071952403 10195331
0.0081427768 0.74901295 0.071950153 10195331
0.0077555925 0.74888897 0.071947902 9998468
0.0073684081 0.74876505 0.071945652 10064261
0.0069812313 0.74864113 0.071943402 10064007
0.006594047 0.74851722 0.071941152 10064007
0.0062068626 0.7483933 0.071938887 10064007
0.0058196858 0.74826932 0.071936637 10129800
0.0054325089 0.7481454 0.071934387 10129800
0.0050453246 0.74802148 0.071932137 10261386
0.0046581402 0.74789757 0.071929887 10261386
0.0042709634 0.74777365 0.071927637 10261386
0.0038837865 0.74764973 0.071925372 10196106
0.0034966096 0.74752581 0.071923122 10261899
0.0031094179 0.74740183 0.071920872 10261899
0.002722241 0.74727792 0.071918622 10261899
0.0023350641 0.747154 0.071916372 10261899
0.0019478872 0.74703008 0.071914122 10261899
0.0015606955 0.74690616 0.071911871 10261899
0.0011735186 0.74678218 0.071909606 10327692
0.00078634173 0.74665833 0.071907356 10327692
0.0003991574 0.74653435 0.071905106 10393485
1.1973083e-05 0.74641043 0.071902856 10262669
-0.00037520379 0.74628651 0.071900606 10196876
-0.00076238066 0.74616259 0.071898356 10262669
-0.001149565 0.74603868 0.071896106 10196876
-0.0015367493 0.7459147 0.071893841 10327692
-0.0019239262 0.74579084 0.071891591 10327692
-0.002311103 0.74566686 0.071889341 10261899
-0.0026982874 0.74554294 0.071887091 10196106
-0.0030854717 0.74541903 0.071884841 10327692
-0.0034726486 0.74529511 0.071882591 10261899
-0.0043262467 0.74591744 0.071356446 10459278
-0.0047149807 0.74579298 0.071354195 10525071
-0.0051037148 0.74566853 0.07135193 10261899
-0.0054924563 0.74554414 0.071349666 10459278
-0.0058811903 0.74541974 0.071347401 9801089
-0.0062699243 0.74529529 0.07134515 9406331
-0.0066586658 0.74517083 0.071342885 8812908
-0.0070473924 0.74504644 0.071340621 7957599
-0.0074361339 0.74492204 0.071338356 7232332
-0.0083053038 0.74553937 0.070812106 6771781
-0.0086955875 0.74541444 0.070809841 6837058
-0.0090858862 0.74528956 0.070807576 6179128
-0.0094761699 0.74516463 0.070805296 5850679
-0.0098664612 0.7450397 0.070803031 5916472
-0.010256752 0.74491477 0.070800766 5851192
-0.010647044 0.74478984 0.070798486 5916985
-0.011037327 0.74466491 0.070796221 5916985
-0.011920474 0.74527776 0.070269927 5456434
-0.012312323 0.74515235 0.070267648 5588020
-0.012704164 0.74502695 0.070265368 5456434
-0.013096012 0.74490154 0.070263088 5390641
-0.013487853 0.74477613 0.070260808 5259055
-0.013879709 0.74465066 0.070258528 5127471
-0.01427155 0.74452525 0.070256248 5127471
-0.014663391 0.74439985 0.070253968 4930092
-0.015055247 0.74427438 0.070251688 4864299
-0.015953936 0.74488235 0.06972526 4798506
-0.016347356 0.7447564 0.06972298 4798506
-0.016740747 0.74463046 0.069720685 4732713
-0.017134152 0.74450457 0.069718406 4666920
-0.017527543 0.74437869 0.069716111 4732713
-0.018435575 0.74498355 0.069189653 4666920
-0.018830515 0.74485719 0.069187358 4666920
-0.019225486 0.74473071 0.069185063 4732713
-0.019620426 0.74460435 0.069182754 4666920
-0.020015396 0.74447793 0.069180459 4666920
-0.020410337 0.74435151 0.069178164 4536104
-0.021329261 0.74495292 0.068651631 4404518
-0.021725781 0.74482602 0.068649322 4536104
-0.022122286 0.74469912 0.068647012 4601897
-0.022518791 0.74457216 0.068644702 4536104
-0.022915311 0.74444526 0.068642408 4536104
-0.023311831 0.74431837 0.068640098 4404518
-0.024241619 0.74491632 0.068113521 4536104
-0.024639688 0.74478889 0.068111211 4536104
-0.025574125 0.74538535 0.067584604 4536104
-0.02597376 0.74525744 0.067582265 4536104
-0.026373379 0.74512953 0.06757994 4404518
-0.026772998 0.74500161 0.067577615 4536104
-0.027172618 0.7448737 0.067575291 4536104
-0.027572252 0.74474579 0.067572966 4404518
-0.028517611 0.7453388 0.067046285 4404518
-0.02891878 0.74521035 0.067043945 4535334
-0.029319949 0.74508196 0.067041621 4535334
-0.030271508 0.74567294 0.066514924 4535334
-0.030674227 0.74554402 0.06651257 4469541
-0.031076975 0.74541509 0.06651023 4469541
0.044360578 0.7599225 0.073033258 8879987
0.043974951 0.75979912 0.073031008 8879987
0.043589324 0.75967568 0.073028773 9011059
0.043203697 0.75955224 0.073026523 9011059
0.042818069 0.7594288 0.073024288 9011059
0.042432442 0.75930536 0.073022038 9011059
0.042046823 0.75918198 0.073019803 9141875
0.041661195 0.75905854 0.073017552 9010289
0.041275568 0.75893509 0.073015317 9273461
0.040889941 0.75881165 0.073013067 9207668
0.040504314 0.75868821 0.073010817 9207668
0.040118694 0.75856483 0.073008582 9207668
0.039440535 0.7592442 0.072484866 9207668
0.039053358 0.75912023 0.072482616 9273461
0.039257459 0.75739276 0.073523328 9273461
0.038873382 0.7572698 0.073521093 9273461
0.038489312 0.75714684 0.073518857 9273461
0.038105242 0.75702393 0.073516622 9273461
0.037721172 0.75690103 0.073514402 9208438
0.037337102 0.75677806 0.073512167 9208438
0.036953032 0.75665516 0.073509932 9208438
0.036568962 0.75653219 0.073507696 9208438
0.036184892 0.75640929 0.073505461 9208438
0.035800815 0.75628638 0.073503226 9142645
0.035416745 0.75616342 0.073500991 9076852
0.035032675 0.75604045 0.073498756 9076852
0.034648605 0.75591755 0.073496521 9076852
0.033948682 0.75658995 0.072972685 9142645
0.033563055 0.75646651 0.07297045 9142645
0.033177428 0.75634307 0.0729682 9011059
0.032791801 0.75621963 0.072965965 9076852
0.032406174 0.75609624 0.072963715 9076852
0.032020554 0.7559728 0.072961479 9141873
0.031634927 0.75584936 0.072959229 9141873
0.0312493 0.75572592 0.072956979 9141873
0.03086368 0.75560248 0.072954744 9207666
0.030478053 0.7554791 0.072952494 9207666
0.030092426 0.75535566 0.072950259 9273459
0.029706798 0.75523221 0.072948009 9339254
0.029321171 0.75510877 0.072945774 9405047
0.028935544 0.75498533 0.072943524 9405047
0.028549917 0.75486195 0.072941288 9405047
0.02816429 0.75473851 0.072939038 9470838
0.02777867 0.75461507 0.072936803 9470838
0.027393043 0.75449163 0.072934553 9470838
0.027007416 0.75436819 0.072932318 9470838
0.026621789 0.7542448 0.072930068 9470838
0.026236169 0.75412136 0.072927818 9602424
0.025850542 0.75399792 0.072925583 9470838
0.025464915 0.75387448 0.072923332 9470838
0.025079288 0.75375104 0.072921097 9668217
0.02469366 0.75362766 0.072918847 9470838
0.024662763 0.75272131 0.073438436 9602424
0.024278693 0.7525984 0.073436201 9470838
0.023894623 0.75247544 0.073433965 9602678
0.023510553 0.75235254 0.07343173 9668471
0.023126483 0.75222957 0.073429495 9602678
0.022742413 0.75210667 0.07342726 9602678
0.022358343 0.75198376 0.073425025 9537655
0.021974273 0.7518608 0.07342279 9537655
0.021590196 0.75173783 0.073420554 9537655
0.021206126 0.75161493 0.073418319 9537655
0.020822056 0.75149202 0.073416084 9537655
0.020437986 0.75136906 0.073413849 9603448
0.020053916 0.75124615 0.073411629 9603448
0.019669846 0.75112319 0.073409393 9603448
0.019285776 0.75100029 0.073407158 9603194
0.018901706 0.75087738 0.073404923 9668987
0.018517636 0.75075442 0.073402688 9668987
0.018133558 0.75063145 0.073400453 9603194
0.017749488 0.75050855 0.073398218 9668987
0.017365418 0.75038564 0.073395982 9734780
0.016981356 0.75026268 0.073393747 9734780
0.016597278 0.75013977 0.073391512 9734780
0.016213208 0.75001681 0.073389277 9734780
0.015829138 0.7498939 0.073387042 9668987
0.015445068 0.74977094 0.073384807 9668987
0.015060998 0.74964803 0.073382571 9668987
0.014676929 0.74952507 0.073380351 9668987
0.014292859 0.74940217 0.073378116 9734780
0.013908781 0.74927926 0.073375881 9734780
0.013124891 0.74992472 0.072851554 9734780
0.012739263 0.74980128 0.072849318 9734782
0.012353636 0.7496779 0.072847068 9734782
0.011563525 0.75032139 0.072322696 9800575
0.011176348 0.75019747 0.072320446 9800575
0.010789163 0.75007355 0.072318196 9932161
0.010401987 0.74994963 0.072315946 9997954
0.010014802 0.74982572 0.072313696 10129540
0.0096276253 0.74970174 0.072311446 10129540
0.009240441 0.74957782 0.072309196 10195333
0.0088532642 0.7494539 0.072306931 10195333
0.0084660873 0.74932998 0.072304681 10261126
0.008078903 0.74920607 0.072302431 10261126
0.0076917186 0.74908215 0.072300181 10130054
0.0073045418 0.74895823 0.072297931 10130054
0.0069173574 0.74883425 0.072295681 10261386
0.0065301731 0.74871033 0.072293431 10261386
0.0061429963 0.74858642 0.072291166 10261386
0.0057558194 0.7484625 0.072288916 10327179
0.0053686425 0.74833858 0.072286665 10261386
0.0049814507 0.74821466 0.072284415 10261386
0.0045942739 0.74809074 0.072282165 10261386
0.004207097 0.74796677 0.072279915 10261386
0.0038199201 0.74784285 0.072277665 10261899
0.0034327358 0.74771893 0.0722754 10327692
0.0030455515 0.74759501 0.07227315 10327692
0.0026583746 0.74747109 0.0722709 10327692
0.0022711977 0.74734712 0.07226865 10327692
0.0018840134 0.74722326 0.0722664 10327692
0.0014968291 0.74709928 0.07226415 10393485
0.0011096522 0.74697536 0.0722619 10393485
0.0007224679 0.74685144 0.072259635 10393485
0.00033528358 0.74672753 0.072257385 10459278
-5.1893294e-05 0.74660361 0.072255135 10459278
-0.00043907017 0.74647963 0.072252885 10393485
-0.00082625449 0.74635571 0.072250634 10328462
-0.0012134388 0.74623179 0.072248384 10262669
-0.0016006157 0.74610788 0.072246119 10393485
-0.0019877926 0.74598396 0.072243869 10459278
-0.0023749769 0.74586004 0.072241619 10459278
-0.0027621612 0.74573612 0.072239369 10393485
-0.0031493381 0.74561214 0.072237119 10394257
-0.0035365149 0.74548823 0.072234869 10460050
-0.0043903738 0.74611133 0.07171014 10328464
-0.0047791079 0.74598694 0.071707889 10262671
-0.0051678494 0.74586248 0.071705624 10262671
-0.0055565834 0.74573803 0.071703359 10262671
-0.0059453174 0.74561363 0.071701095 10196108
-0.0063340515 0.74548924 0.071698844 10196108
-0.0067227855 0.74536479 0.071696579 10261899
-0.007111527 0.74524033 0.071694314 10459278
-0.0075002536 0.74511594 0.07169205 10524298
-0.0083696842 0.7457341 0.071167216 10195333
-0.008759968 0.74560916 0.071164951 9470325
-0.0091502666 0.74548423 0.071162686 8943981
-0.0095405504 0.7453593 0.071160406 8483432
-0.0099308416 0.74523437 0.071158141 7825502
-0.010321133 0.74510944 0.071155876 7035984
-0.010711424 0.74498451 0.071153596 6641226
-0.011101715 0.74485964 0.071151331 6180159
-0.011985116 0.74547327 0.070626438 6180159
-0.012376964 0.74534786 0.070624173 6311230
-0.012768812 0.74522245 0.070621893 5916472
-0.013160653 0.74509698 0.070619613 5850679
-0.013552494 0.74497157 0.070617333 5850679
-0.01394435 0.74484617 0.070615053 5784886
-0.014336191 0.7447207 0.070612773 5653300
-0.014728032 0.74459529 0.070610493 5588022
-0.015119888 0.74446988 0.070608214 5324850
-0.016018845 0.74507856 0.070083201 5324850
-0.016412236 0.74495268 0.070080921 5324850
-0.016805641 0.74482673 0.070078626 5259057
-0.017199047 0.74470079 0.070076331 5193264
-0.017592438 0.7445749 0.070074052 4930092
-0.018500723 0.74518061 0.069549009 4864299
-0.018895678 0.74505419 0.069546714 4864299
-0.019290633 0.74492776 0.069544405 4798506
-0.019685589 0.74480134 0.06954211 4798506
-0.020080544 0.74467492 0.069539815 4732713
-0.020475499 0.7445485 0.06953752 4666920
-0.021394677 0.74515074 0.069012403 4732713
-0.021791197 0.74502385 0.069010094 4601897
-0.022187687 0.74489689 0.069007784 4601897
-0.022584207 0.74476999 0.069005474 4536104
-0.022980727 0.74464309 0.069003165 4536104
-0.023377232 0.74451613 0.06900087 4536104
-0.024307288 0.74511486 0.068475708 4536104
-0.024705358 0.74498749 0.068473399 4536104
-0.025640048 0.74558473 0.067948192 4536104
-0.026039682 0.74545681 0.067945868 4536104
-0.026439302 0.7453289 0.067943543 4404518
-0.026838921 0.74520099 0.067941219 4601897
-0.02723854 0.74507308 0.067938894 4536104
-0.027638175 0.74494517 0.067936569 4536104
-0.028583772 0.74553889 0.067411289 4536104
-0.028984956 0.7454105 0.067408964 4404518
-0.029386126 0.74528205 0.067406625 4404518
-0.030337937 0.74587381 0.066881344 4404518
-0.030740671 0.74574494 0.066879004 4338725
-0.031143405 0.74561602 0.066876665 4469541
0.044296958 0.76011491 0.073384121 8945780
0.04391133 0.75999147 0.073381871 8945780
0.043525711 0.75986803 0.073379636 9076852
0.043140084 0.75974464 0.073377386 9076852
0.042754456 0.7596212 0.073375151 9076852
0.042368829 0.75949776 0.0733729 9076852
0.04198321 0.75937432 0.073370665 9076852
0.041597582 0.75925088 0.073368415 9076852
0.041211955 0.7591275 0.07336618 9142645
0.040826328 0.75900406 0.07336393 9076852
0.040440701 0.75888062 0.073361695 9076852
0.040055074 0.75875717 0.073359445 9076852
0.039376661 0.75943732 0.072837144 9076852
0.038989484 0.7593134 0.072834894 9208438
0.0391941 0.75758433 0.073872775 9142645
0.038810022 0.75746143 0.07387054 9208438
0.038425952 0.75733846 0.073868319 9208438
0.038041882 0.7572155 0.073866084 9208438
0.037657812 0.7570926 0.073863849 9274231
0.037273742 0.75696969 0.073861614 9340024
0.036889672 0.75684673 0.073859379 9143159
0.036505602 0.75672382 0.073857144 9208952
0.036121532 0.75660086 0.073854908 9208952
0.035737462 0.75647795 0.073852673 9143159
0.035353385 0.75635505 0.073850438 9143159
0.034969315 0.75623208 0.073848203 9077366
0.034585245 0.75610912 0.073845968 9077366
0.033885069 0.75678229 0.073323548 9143159
0.033499442 0.75665891 0.073321313 9077366
0.033113815 0.75653541 0.073319063 9011573
0.032728188 0.75641203 0.073316827 9142645
0.032342561 0.75628859 0.073314577 9076852
0.031956933 0.75616515 0.073312342 9076852
0.031571314 0.75604177 0.073310092 9011059
0.031185687 0.75591826 0.073307857 9207666
0.030800059 0.75579488 0.073305607 9207666
0.030414432 0.75567144 0.073303372 9207666
0.030028805 0.755548 0.073301122 9273459
0.029643185 0.75542456 0.073298872 9339254
0.029257558 0.75530112 0.073296636 9339254
0.028871931 0.75517774 0.073294386 9470840
0.028486304 0.7550543 0.073292151 9470840
0.028100677 0.75493085 0.073289901 9602424
0.02771505 0.75480741 0.073287666 9470838
0.02732943 0.75468397 0.073285416 9470838
0.026943803 0.75456059 0.073283181 9470838
0.026558176 0.75443715 0.073280931 9602424
0.026172556 0.75431371 0.073278695 9668217
0.025786929 0.75419027 0.073276445 9668217
0.025401302 0.75406682 0.073274195 9668217
0.025015675 0.75394344 0.07327196 9668217
0.024630047 0.75382 0.07326971 9602424
0.024599411 0.75291294 0.073787883 9668217
0.024215333 0.75278997 0.073785648 9668217
0.023831271 0.75266707 0.073783413 9668217
0.023447193 0.75254411 0.073781177 9668217
0.023063123 0.7524212 0.073778942 9668471
0.022679053 0.75229824 0.073776707 9668471
0.022294983 0.75217533 0.073774472 9668471
0.021910913 0.75205243 0.073772237 9734264
0.021526836 0.75192946 0.073770002 9603448
0.021142773 0.7518065 0.073767781 9537655
0.020758696 0.75168359 0.073765546 9603448
0.020374633 0.75156069 0.073763311 9669241
0.019990556 0.75143772 0.073761076 9734780
0.019606486 0.75131482 0.073758841 9668987
0.019222416 0.75119185 0.073756605 9668987
0.018838346 0.75106895 0.07375437 9734780
0.018454276 0.75094604 0.073752135 9734780
0.018070199 0.75082308 0.0737499 9734780
0.017686136 0.75070012 0.073747665 9734780
0.017302066 0.75057721 0.07374543 9800573
0.016917996 0.75045431 0.073743194 9800573
0.016533926 0.75033134 0.073740959 9800573
0.016149849 0.75020844 0.073738724 9800573
0.015765779 0.75008547 0.073736489 9800573
0.015381709 0.74996257 0.073734269 9800573
0.014997639 0.7498396 0.073732033 9932159
0.014613569 0.7497167 0.073729798 9932159
0.014229499 0.74959373 0.073727563 9932159
0.013845421 0.74947083 0.073725328 9932159
0.013061278 0.75011712 0.073202416 9932159
0.01267565 0.74999368 0.073200181 9932161
0.012290023 0.74987024 0.073197931 9800575
0.011499651 0.75051457 0.07267499 9997954
0.011112474 0.75039065 0.072672725 9997954
0.010725297 0.75026667 0.072670475 9997954
0.010338113 0.75014275 0.072668225 10063747
0.0099509284 0.75001884 0.072665974 10195333
0.0095637515 0.74989492 0.072663724 10129540
0.0091765746 0.749771 0.072661474 10261126
0.0087893978 0.74964708 0.072659224 10392712
0.0084022135 0.74952316 0.072656959 10524298
0.0080150291 0.74939919 0.072654709 10458505
0.0076278523 0.74927527 0.072652459 10261640
0.0072406679 0.74915135 0.072650209 10393226
0.0068534836 0.74902743 0.072647959 10392972
0.0064663067 0.74890351 0.072645709 10327179
0.0060791299 0.74877954 0.072643459 10327179
0.0056919456 0.74865568 0.072641194 10392972
0.0053047687 0.7485317 0.072638944 10327179
0.0049175844 0.74840778 0.072636694 10327179
0.0045304075 0.74828386 0.072634444 10327179
0.0041432232 0.74815995 0.072632194 10327179
0.0037560463 0.74803603 0.072629943 10392972
0.003368862 0.74791205 0.072627679 10392972
0.0029816851 0.74778819 0.072625428 10327692
0.0025945008 0.74766421 0.072623178 10393485
0.0022073239 0.7475403 0.072620928 10459278
0.0018201396 0.74741638 0.072618678 10459278
0.0014329627 0.74729246 0.072616428 10393487
0.0010457784 0.74716854 0.072614178 10393487
0.00065859407 0.74704456 0.072611913 10459280
0.0002714172 0.74692065 0.072609663 10459280
-0.00011575967 0.74679673 0.072607413 10459278
-0.00050294399 0.74667281 0.072605163 10525071
-0.00089012831 0.74654889 0.072602913 10459278
-0.0012773052 0.74642497 0.072600663 10525071
-0.0016644821 0.74630105 0.072598413 10459278
-0.0020516664 0.74617708 0.072596148 10525071
-0.0024388507 0.74605316 0.072593898 10525071
-0.0028260276 0.74592924 0.072591648 10590864
-0.0032132044 0.74580532 0.072589397 10460048
-0.0036003813 0.74568141 0.072587147 10460048
-0.004454501 0.74630523 0.072063833 10394257
-0.004843235 0.74618083 0.072061583 10262671
-0.0052319691 0.74605644 0.072059318 10328464
-0.0056207106 0.74593198 0.072057053 10328464
-0.0060094446 0.74580753 0.072054788 10262671
-0.0063981786 0.74568313 0.072052538 10196878
-0.0067869201 0.74555874 0.072050273 10065292
-0.0071756467 0.74543428 0.072048008 10196878
-0.0075643882 0.74530983 0.072045743 10196106
-0.0084340647 0.74592876 0.071522325 10064520
-0.0088243559 0.74580383 0.07152006 10458251
-0.0092146471 0.7456789 0.071517795 10195079
-0.0096049383 0.74555403 0.071515515 10392458
-0.0099952295 0.7454291 0.07151325 9734528
-0.010385521 0.74530417 0.071510985 10260872
-0.010775812 0.74517924 0.071508706 9800321
-0.011166103 0.7450543 0.071506441 9076598
-0.012049757 0.74566877 0.070982963 8550254
-0.012441605 0.7455433 0.070980683 7826785
-0.012833454 0.74541789 0.070978403 7629406
-0.013225295 0.74529248 0.070976123 6839118
-0.013617136 0.74516702 0.070973843 6707532
-0.014008991 0.74504161 0.070971578 6246722
-0.014400832 0.7449162 0.070969298 6180929
-0.014792673 0.74479079 0.070967019 5851194
-0.015184529 0.74466538 0.070964739 5851194
-0.01608374 0.74527484 0.070441142 5982267
-0.016477145 0.7451489 0.070438847 5784888
-0.016870536 0.74502301 0.070436567 5719095
-0.017263956 0.74489707 0.070434272 5719095
-0.017657347 0.74477112 0.070431992 5653302
-0.018565871 0.74537766 0.069908366 5521716
-0.018960841 0.74525118 0.069906056 5521716
-0.019355781 0.74512482 0.069903761 5324337
-0.019750752 0.7449984 0.069901466 5127471
-0.020145692 0.74487197 0.069899172 5127471
-0.020540662 0.74474555 0.069896877 4995885
-0.021460094 0.74534857 0.069373161 4864299
-0.021856613 0.74522161 0.069370851 4864299
-0.022253104 0.74509472 0.069368556 4798506
-0.022649623 0.74496782 0.069366246 4732713
-0.023046143 0.74484086 0.069363937 4798506
-0.023442648 0.74471396 0.069361627 4732713
-0.024372943 0.74531347 0.068837896 4732713
-0.024771012 0.74518603 0.068835571 4666920
-0.025169082 0.74505866 0.068833262 4666920
-0.025567152 0.74493122 0.068830937 4666920
-0.025965221 0.74480379 0.068828627 4666920
-0.026904844 0.74540031 0.068304822 4732713
-0.027304463 0.7452724 0.068302497 4666920
-0.027704097 0.74514449 0.068300173 4666920
-0.028649963 0.74573904 0.067776307 4666920
-0.029051133 0.74561059 0.067773968 4535334
-0.029452302 0.74548221 0.067771643 4535334
-0.030404381 0.74607474 0.067247778 4535334
-0.030807115 0.74594581 0.067245424 4469541
-0.031209834 0.74581695 0.067243084 4469541
0.042907111 0.76167905 0.072693408 9011573
0.042518377 0.7615546 0.072691157 9011573
0.042129643 0.76143014 0.072688892 9142645
0.041740909 0.76130575 0.072686628 9142645
0.041352168 0.76118135 0.072684363 9142645
0.040963434 0.7610569 0.072682112 9142645
0.0405747 0.76093245 0.072679847 9142645
0.040185966 0.76080805 0.072677583 9208438
0.039797232 0.76068366 0.072675318 9208438
0.03940849 0.7605592 0.072673067 9208438
0.039019756 0.76043475 0.072670802 9142645
0.038631022 0.76031035 0.072668537 9274231
0.038538434 0.75938261 0.073184922 9208438
0.038151249 0.75925869 0.073182672 9274231
0.037764065 0.75913477 0.073180422 9340024
0.037376888 0.75901079 0.073178172 9340024
0.036989711 0.75888693 0.073175907 9208952
0.036602527 0.75876296 0.073173657 9208952
0.036215343 0.75863904 0.073171407 9208952
0.035828166 0.75851512 0.073169157 9208952
0.035440989 0.7583912 0.073166907 9208952
0.035053805 0.75826728 0.073164657 9208952
0.03466662 0.75814331 0.073162407 9340538
0.034279443 0.75801945 0.073160142 9208952
0.033892266 0.75789547 0.073157892 9208952
0.033505082 0.75777155 0.073155642 9340538
0.033117898 0.75764763 0.073153391 9143159
0.032730721 0.75752372 0.073151141 9077366
0.032343537 0.7573998 0.073148891 9143159
0.03195636 0.75727582 0.073146626 9011573
0.031569183 0.7571519 0.073144376 9076852
0.031181999 0.75702798 0.073142126 9076852
0.030794822 0.75690407 0.073139876 9142645
0.030407637 0.75678015 0.073137626 9142645
0.03002046 0.75665623 0.073135376 9142643
0.029633276 0.75653231 0.073133126 9142643
0.029246099 0.75640833 0.073130861 9208438
0.028858915 0.75628442 0.073128611 9208438
0.028471731 0.7561605 0.073126361 9340024
0.028084554 0.75603658 0.073124111 9340024
0.027697377 0.75591266 0.073121861 9471608
0.027310193 0.75578868 0.073119611 9471608
0.021095797 0.75290149 0.073600397 9865596
0.020710178 0.75277805 0.073598146 9799803
0.020324551 0.75265467 0.073595911 9734780
0.019938923 0.75253123 0.073593661 9734780
0.019553296 0.75240779 0.073591411 9800573
0.019167677 0.75228435 0.073589176 9734780
0.018782049 0.75216091 0.073586926 9734780
0.018396415 0.75203753 0.073584691 9800573
0.018010795 0.75191408 0.073582441 9669503
0.017625168 0.75179064 0.073580205 9669503
0.016856313 0.75244272 0.073058799 9669503
0.016469136 0.75231874 0.073056549 9669503
0.016081952 0.75219482 0.073054284 9669503
0.015694775 0.7520709 0.073052034 9669503
0.01530759 0.75194699 0.073049784 9669503
0.014920406 0.75182307 0.073047534 9669503
0.014533229 0.75169909 0.073045284 9932161
0.014146052 0.75157517 0.073043033 10063747
0.013758868 0.75145125 0.073040783 9997954
0.013371684 0.75132734 0.073038518 9997954
0.012984507 0.75120342 0.073036268 9997954
0.012197003 0.75184947 0.072514772 9997954
0.011808269 0.75172502 0.072512507 9997954
0.011419527 0.75160062 0.072510242 9997954
0.011030793 0.75147617 0.072507992 10129286
0.010642059 0.75135177 0.072505727 10260872
0.010253325 0.75122732 0.072503462 10195079
0.0098645911 0.75110292 0.072501197 10129286
0.0094758496 0.75097847 0.072498947 10195079
0.009087123 0.75085407 0.072496682 10260872
0.0086983815 0.75072962 0.072494417 10261386
0.0083096474 0.75060523 0.072492152 10327179
0.0079209134 0.75048077 0.072489902 10393226
0.0075321719 0.75035638 0.072487637 10393226
0.0071434453 0.75023192 0.072485372 10327433
0.0067547038 0.75010753 0.072483107 10393226
0.0063659623 0.74998307 0.072480857 10459019
0.0059772357 0.74985862 0.072478592 10459019
0.0055884942 0.74973422 0.072476327 10458765
0.0051997602 0.74960983 0.072474062 10392972
0.0048110262 0.74948537 0.072471812 10458765
0.0039908513 0.750121 0.071950093 10392972
0.0036005527 0.74999607 0.071947813 10392972
0.0036448166 0.74911213 0.072465017 10392972
0.0032560825 0.74898767 0.072462767 10392972
0.0028673485 0.74886322 0.072460502 10458765
0.0024786144 0.74873883 0.072458237 10459278
0.0020898804 0.74861443 0.072455972 10459278
0.0017011389 0.74848998 0.072453707 10525073
0.0013124123 0.74836552 0.072451457 10525073
0.00092367083 0.74824113 0.072449192 10459280
0.00053492934 0.74811673 0.072446927 10590866
0.00014620274 0.74799228 0.072444662 10525073
-0.00024253875 0.74786782 0.072442412 10590866
-0.00063127279 0.74774343 0.072440147 10525073
-0.0010200068 0.74761903 0.072437882 10525073
-0.0014087483 0.74749458 0.072435617 10525071
-0.0017974749 0.74737012 0.072433367 10525071
-0.0021862164 0.74724573 0.072431102 10590864
-0.0025749505 0.74712133 0.072428837 10722450
-0.0029636845 0.74699688 0.072426572 10590864
-0.003352426 0.74687243 0.072424322 10722450
-0.0037411526 0.74674803 0.072422057 10722450
-0.0041298941 0.74662364 0.072419792 10722450
-0.0049858317 0.74724782 0.071897879 10460050
-0.0053761229 0.74712288 0.071895599 10328464
-0.0057664141 0.74699795 0.071893334 10328464
-0.0061567128 0.74687302 0.071891055 10394257
-0.0065469965 0.74674809 0.07188879 10262671
-0.0069372877 0.74662316 0.071886525 10196878
-0.007327579 0.74649823 0.071884245 10131085
-0.0077178702 0.7463733 0.07188198 10196878
-0.0081081614 0.74624836 0.071879715 10196108
-0.0084984526 0.74612349 0.071877435 10196108
-0.0088887438 0.74599856 0.07187517 10261386
-0.009279035 0.74587363 0.071872905 10129800
-0.010155171 0.74649131 0.071350887 10129800
-0.01054702 0.7463659 0.071348608 9998214
-0.01093886 0.7462405 0.071346328 10129800
-0.011330709 0.74611503 0.071344048 10261386
-0.01172255 0.74598962 0.071341768 9736325
-0.012114398 0.74586421 0.071339488 9736325
-0.012506247 0.7457388 0.071337208 10065292
-0.012898095 0.74561334 0.071334928 10131085
-0.013788231 0.74622661 0.070812806 10261901
-0.014181636 0.74610066 0.070810527 9867143
-0.014575042 0.74597478 0.070808232 9471870
-0.014968432 0.74584883 0.070805952 8419182
-0.015361838 0.74572289 0.070803657 8089955
-0.015755244 0.745597 0.070801362 7497818
-0.016148634 0.74547112 0.070799083 7365203
-0.01654204 0.74534518 0.070796788 6970445
-0.016935445 0.74521923 0.070794508 6442816
-0.017328836 0.74509335 0.070792213 6377023
-0.017722227 0.7449674 0.070789933 5982265
-0.018631034 0.74557465 0.070267707 6377023
-0.019025989 0.74544823 0.070265412 5916472
-0.019420944 0.74532181 0.070263118 5916472
-0.019815899 0.74519539 0.070260823 5916472
-0.020210855 0.74506897 0.070258528 5719093
-0.02060581 0.74494255 0.070256218 5719093
-0.02152551 0.74554634 0.069733933 5455921
-0.021922015 0.74541944 0.069731623 5455921
-0.02231852 0.74529254 0.069729313 5455921
-0.02271504 0.74516559 0.069727018 5390128
-0.023111545 0.74503869 0.069724709 5192749
-0.02350805 0.74491179 0.069722399 5127471
-0.024438627 0.74551201 0.069200069 5127471
-0.024836697 0.74538463 0.069197759 4798506
-0.025234751 0.7452572 0.069195449 4732713
-0.025632821 0.74512982 0.069193125 4798506
-0.026030876 0.74500239 0.069190815 4798506
-0.026970766 0.74559969 0.06866841 4864299
-0.027370386 0.74547178 0.068666086 4732713
-0.02777002 0.74534386 0.068663761 4666920
-0.028716139 0.74593914 0.068141311 4666920
-0.029117323 0.74581075 0.068138987 4666920
-0.029518493 0.74568236 0.068136647 4666920
-0.030470826 0.74627566 0.067614198 4535334
-0.030873545 0.74614674 0.067611858 4469541
-0.031276278 0.74601781 0.067609519 4469541
0.042842984 0.76187295 0.073047101 9143159
0.04245425 0.76174855 0.073044851 9077366
0.042065516 0.7616241 0.073042586 9143159
0.041676775 0.76149964 0.073040321 9143159
0.041288041 0.76137525 0.073038056 9143159
0.040899307 0.76125085 0.073035806 9077366
0.040510572 0.7611264 0.073033541 9143159
0.040121838 0.76100194 0.073031276 9143159
0.039733104 0.76087755 0.073029011 9143159
0.039344363 0.76075315 0.073026761 9208952
0.038955629 0.7606287 0.073024496 9208952
0.038566895 0.76050425 0.073022231 9208952
0.03847456 0.75957572 0.073537201 9143159
0.038087375 0.75945187 0.073534951 9208952
0.037700199 0.75932789 0.073532701 9340538
0.037313014 0.75920397 0.07353045 9340538
0.036925837 0.75908005 0.073528185 9340538
0.036538653 0.75895613 0.073525935 9406331
0.036151476 0.75883222 0.073523685 9340538
0.035764292 0.75870824 0.073521435 9340538
0.035377115 0.75858432 0.073519185 9340538
0.034989931 0.7584604 0.073516935 9340538
0.034602754 0.75833648 0.073514685 9406331
0.034215577 0.75821257 0.07351242 9340538
0.033828393 0.75808865 0.07351017 9406331
0.033441208 0.75796473 0.07350792 9406331
0.033054031 0.75784075 0.07350567 9340538
0.032666847 0.75771683 0.07350342 9208952
0.03227967 0.75759292 0.07350117 9340538
0.031892486 0.757469 0.073498905 9143159
0.031505309 0.75734508 0.073496655 9143159
0.031118125 0.75722116 0.073494405 9011573
0.030730948 0.75709724 0.073492154 9077366
0.030343764 0.75697327 0.073489904 9077366
0.029956587 0.75684935 0.073487654 9011571
0.029569402 0.75672543 0.073485404 9077364
0.029182225 0.75660151 0.073483139 9274231
0.028795041 0.75647759 0.073480889 9274231
0.028407864 0.75635362 0.073478639 9340024
0.02802068 0.75622976 0.073476389 9471610
0.027633503 0.75610578 0.073474139 9602424
0.027246319 0.75598186 0.073471889 9602424
0.021032184 0.75309384 0.073951259 9931389
0.020646557 0.75297046 0.073949009 10062975
0.020260938 0.75284702 0.073946774 9932159
0.01987531 0.75272357 0.073944524 9800573
0.019489683 0.75260019 0.073942289 9932159
0.019104056 0.75247669 0.073940039 9800573
0.018718429 0.75235331 0.073937804 9932159
0.018332802 0.75222987 0.073935553 9932159
0.017947182 0.75210643 0.073933303 9801089
0.017561555 0.75198299 0.073931068 9669503
0.016792439 0.75263584 0.073411077 9801089
0.016405262 0.75251192 0.073408827 9801089
0.016018085 0.752388 0.073406562 9801089
0.015630901 0.75226402 0.073404312 9801089
0.015243717 0.7521401 0.073402062 9866882
0.01485654 0.75201619 0.073399812 9801089
0.014469363 0.75189227 0.073397562 9801089
0.014082186 0.75176835 0.073395312 9932675
0.013694994 0.75164443 0.073393062 9997954
0.013307817 0.75152051 0.073390797 10063747
0.012920633 0.75139654 0.073388547 9932675
0.012132876 0.75204337 0.072868466 9932675
0.011744134 0.75191897 0.072866201 9932421
0.0113554 0.75179452 0.072863936 9998214
0.010966666 0.75167012 0.072861686 10129800
0.010577932 0.75154567 0.072859421 10261386
0.010189198 0.75142127 0.072857156 10129800
0.0098004565 0.75129682 0.072854891 10064007
0.0094117224 0.75117242 0.072852641 10129800
0.0090229884 0.75104797 0.072850376 10327179
0.0086342543 0.75092357 0.072848111 10392972
0.0082455203 0.75079912 0.072845846 10392972
0.0078567863 0.75067472 0.072843596 10459019
0.0074680448 0.75055027 0.072841331 10393226
0.0070793107 0.75042588 0.072839066 10393226
0.0066905767 0.75030142 0.072836801 10459019
0.0063018352 0.75017703 0.072834551 10524812
0.0059131011 0.75005257 0.072832286 10524812
0.0055243671 0.74992812 0.072830021 10590351
0.0051356331 0.74980372 0.072827756 10458765
0.004746899 0.74967933 0.072825491 10458765
0.0039264634 0.75031567 0.072305202 10524558
0.0035361722 0.75019079 0.072302923 10458765
0.0035806894 0.74930602 0.072818711 10458765
0.0031919554 0.74918163 0.072816446 10458765
0.0028032213 0.74905717 0.072814196 10524558
0.0024144873 0.74893272 0.072811931 10459278
0.0020257458 0.74880832 0.072809666 10590864
0.0016370118 0.74868393 0.072807401 10590864
0.0012482777 0.74855947 0.072805151 10590864
0.00085954368 0.74843502 0.072802886 10525073
0.00047080219 0.74831063 0.072800621 10590866
8.2068145e-05 0.74818623 0.072798356 10722452
-0.0003066659 0.74806178 0.072796106 10590866
-0.00069539994 0.74793732 0.072793841 10722452
-0.001084134 0.74781293 0.072791576 10722452
-0.0014728755 0.74768853 0.072789311 10590864
-0.0018616095 0.74756408 0.072787061 10590864
-0.0022503436 0.74743962 0.072784796 10656144
-0.0026390776 0.74731523 0.072782531 10787730
-0.0030278116 0.74719083 0.072780266 10722450
-0.0034165531 0.74706638 0.072778016 10722450
-0.0038052872 0.74694192 0.072775751 10722450
-0.0041940212 0.74681753 0.072773486 10722450
-0.0050502196 0.74744248 0.072252989 10460050
-0.0054405108 0.74731755 0.072250709 10394257
-0.005830802 0.74719262 0.072248444 10328464
-0.0062210932 0.74706769 0.072246164 10394257
-0.0066113845 0.74694276 0.072243899 10328464
-0.0070016757 0.74681789 0.072241634 10196878
-0.0073919669 0.74669296 0.072239354 10131085
-0.0077822581 0.74656802 0.072237089 10196878
-0.0081725493 0.74644309 0.072234824 10261901
-0.0085628405 0.74631816 0.072232544 10261901
-0.0089531243 0.74619329 0.072230279 10327179
-0.0093434229 0.74606836 0.072228014 10327179
-0.010219812 0.74668682 0.071707413 10261386
-0.010611661 0.74656135 0.071705133 10129800
-0.011003502 0.74643594 0.071702853 10129800
-0.01139535 0.74631053 0.071700573 10129800
-0.011787191 0.74618512 0.071698293 9932934
-0.012179039 0.74605966 0.071696013 9867141
-0.012570888 0.74593425 0.071693733 9867911
-0.012962736 0.74580884 0.071691453 9802118
-0.013853125 0.74642283 0.071170747 9736327
-0.014246531 0.74629694 0.071168467 9736327
-0.014639936 0.746171 0.071166173 9932936
-0.015033327 0.74604511 0.071163878 10261901
