# .PCD v0.7 - Point Cloud Data file format
VERSION 0.7
FIELDS x y z rgb
SIZE 4 4 4 4
TYPE F F F U
COUNT 1 1 1 1
WIDTH 1080
HEIGHT 1
VIEWPOINT 0 0 0 1 0 0 0
POINTS 1080
DATA ascii
0.0048120171 0.82655877 0.072594076 14534069
0.0050759315 0.82619351 0.072591528 14534069
0.0060236156 0.82639062 0.073058859 14534069
0.0062865764 0.82602668 0.07305631 14469048
0.0065495223 0.82566279 0.073053762 14403255
0.0068124831 0.82529891 0.073051214 14337462
0.053207427 0.75354815 0.070219845 13222323
0.053475171 0.75317758 0.070217252 13222323
0.0537429 0.75280708 0.070214674 13222323
0.054010645 0.75243652 0.070212081 13090737
0.05377917 0.75124824 0.069737822 13091250
0.054047868 0.75087643 0.069735229 12893871
0.054316565 0.75050455 0.069732621 12828078
0.054585248 0.75013268 0.069730029 12828078
0.054853946 0.74976087 0.069727421 12630440
0.055122644 0.74938893 0.069724828 12433061
0.05489786 0.74819148 0.069250509 12432547
0.055167511 0.74781823 0.069247901 12169375
0.055437163 0.74744511 0.069245294 12234398
0.055216193 0.74624223 0.068770945 12168605
0.055486798 0.74586773 0.068768322 11839127
0.055757403 0.74549317 0.0687657 10720646
0.056028023 0.74511874 0.068763077 10127735
0.056298614 0.74474418 0.06876047 10061942
0.056083411 0.74353343 0.068286061 10126708
0.05635497 0.74315763 0.068283439 9731950
0.056626543 0.74278176 0.068280816 9074538
-0.0001975745 0.8300873 0.072081313 16245975
6.8247318e-05 0.82971936 0.07207875 14995908
0.00033406913 0.82935148 0.072076172 14666427
0.001295805 0.8295306 0.072541952 14666427
0.0015606731 0.82916403 0.072539389 14403769
0.0018255413 0.82879746 0.072536826 14403769
0.0020904094 0.82843089 0.072534263 14666427
0.0023552775 0.82806432 0.0725317 14534841
0.0026201457 0.82769775 0.072529137 14403255
0.003575176 0.82788604 0.072994977 14469048
0.0038390905 0.82752085 0.072992414 14469046
0.0041030049 0.82715559 0.072989866 14469046
0.0043669194 0.82679033 0.072987318 14403253
0.0046308339 0.82642508 0.072984755 14469046
0.0048947483 0.82605988 0.072982207 14403253
0.005843088 0.82625747 0.073448122 14403253
0.0061060339 0.82589352 0.073445573 14469048
0.0063689947 0.82552963 0.073443025 14403255
0.0066319555 0.82516569 0.073440477 14206390
0.053023621 0.75341254 0.070616186 13222577
0.053291366 0.75304198 0.070613593 13222577
0.053559095 0.75267148 0.070611015 13288116
0.053826839 0.75230098 0.070608422 13222323
0.053594708 0.75111216 0.070135579 13157043
0.053863391 0.75074029 0.070132971 13091250
0.054132089 0.75036848 0.070130378 13157043
0.053903788 0.74917442 0.069657519 13222836
0.05417344 0.74880123 0.069654897 13025711
0.054443091 0.74842805 0.069652289 13025711
0.054712743 0.74805486 0.069649681 12762539
0.054982394 0.74768168 0.069647074 12433574
0.055252045 0.74730849 0.069644466 12367268
0.05503042 0.74610519 0.069171518 12169889
0.055301026 0.74573064 0.06916891 12169375
0.055082276 0.74452341 0.068695948 11906203
0.055353835 0.74414754 0.068693325 11707539
0.055625409 0.74377173 0.068690687 10786437
0.055896983 0.74339592 0.068688065 10456702
0.056168541 0.74302006 0.068685442 10325116
0.0564401 0.74264425 0.06868282 9271663
-0.00038008392 0.82995266 0.072474822 14928318
-0.0001142472 0.82958478 0.072472259 14730939
0.00015157461 0.82921684 0.072469682 14535355
0.0011139661 0.82939643 0.072934046 14403769
0.0013788342 0.82902986 0.072931483 14272696
0.0016437024 0.82866329 0.07292892 14338489
0.0019085705 0.82829672 0.072926357 14403769
0.0021734387 0.82793021 0.072923794 14337976
0.0024383068 0.82756364 0.072921231 14272183
0.0033939928 0.82775241 0.073385656 14337976
0.0036579072 0.82738715 0.073383093 14337974
0.0039218217 0.82702196 0.073380545 14337974
0.0041857362 0.8266567 0.073377997 14272181
0.0044496506 0.82629144 0.073375434 14337974
0.0047135502 0.82592618 0.073372886 14272181
0.0056625605 0.82612431 0.073837385 14206388
0.0059255064 0.82576036 0.073834836 14272183
0.0061884671 0.82539648 0.073832288 14206390
0.0064514279 0.82503253 0.07382974 14206390
0.052839801 0.75327694 0.071012527 13288370
0.053107545 0.75290644 0.071009934 13222577
0.053375289 0.75253588 0.071007341 13288116
0.053643033 0.75216532 0.071004763 13222323
0.053410232 0.75097609 0.070533335 13288116
0.05367893 0.75060427 0.070530728 13222323
0.053947628 0.7502324 0.070528135 13288629
0.053718671 0.74903786 0.070056692 13288629
0.053988323 0.74866468 0.070054069 13288629
0.054257974 0.74829149 0.070051461 13222836
0.054527625 0.74791831 0.070048854 13157043
0.054797277 0.74754512 0.070046246 13091250
0.055066928 0.747172 0.070043638 12828078
0.054844633 0.7459681 0.069572106 12630699
0.055115238 0.74559367 0.069569498 12432807
0.054895833 0.74438584 0.069097951 12301221
0.055167407 0.74401003 0.069095328 12169121
0.05543898 0.74363422 0.069092691 12037535
0.055710539 0.74325836 0.069090068 11708570
0.055982098 0.74288255 0.069087446 11445398
0.056253657 0.74250674 0.069084808 10720140
-0.00056257844 0.82981801 0.072868332 14797245
-0.00029675663 0.82945013 0.072865769 14665659
-3.0919909e-05 0.82908225 0.072863191 14403771
0.00023490191 0.82871437 0.072860628 14403771
0.00050072372 0.82834649 0.07285805 14337978
0.00076656044 0.82797861 0.072855473 14403771
0.0010323822 0.82761073 0.07285291 14403769
0.0012982041 0.82724285 0.072850332 14337976
0.0015640408 0.82687497 0.072847754 14337976
0.0018298626 0.82650703 0.072845191 14337976
0.0020956844 0.82613915 0.072842613 14337974
0.0023615211 0.82577127 0.07284005 14337974
0.0026273429 0.82540339 0.072837472 14272181
0.052655995 0.7531414 0.071408868 13419702
0.052923739 0.75277084 0.071406275 13288116
0.053191468 0.75240028 0.071403682 13288116
0.053459212 0.75202978 0.071401104 13288116
0.053225771 0.75084001 0.070931092 13353909
0.053494468 0.75046813 0.070928484 13288116
0.053763151 0.75009632 0.070925891 13222836
0.053533539 0.74890131 0.070455864 13288629
0.053803191 0.74852812 0.070453241 13288629
0.054072842 0.74815494 0.070450634 13288629
0.054342493 0.74778175 0.070448026 13288629
0.054612145 0.74740857 0.070445418 13222836
0.054881796 0.74703538 0.070442811 13157043
0.054658845 0.74583113 0.069972694 13157043
0.05492945 0.74545658 0.069970086 13025459
0.054709405 0.74424833 0.069499955 12564908
0.054980963 0.74387252 0.069497332 12432809
0.055252537 0.74349666 0.069494694 12301223
0.055524096 0.74312085 0.069492072 12301223
0.055795655 0.74274504 0.069489449 12169637
0.056067228 0.74236917 0.069486812 11906215
-0.00074507296 0.82968342 0.073261842 14403771
-0.00047925115 0.82931554 0.073259279 14403771
-0.00021341443 0.82894766 0.073256701 14403771
5.2407384e-05 0.82857978 0.073254138 14403771
0.0003182292 0.82821184 0.07325156 14337978
0.00058405101 0.82784396 0.073248982 14403771
0.00084988773 0.82747608 0.073246419 14403769
0.0011157095 0.8271082 0.073243842 14403769
0.0013815314 0.82674032 0.073241264 14338489
0.0016473681 0.82637244 0.073238701 14338489
0.0019131899 0.82600451 0.073236123 14206903
0.0021790117 0.82563663 0.07323356 14272696
0.0024448484 0.82526875 0.073230982 14206903
0.052269816 0.75025749 0.070865467 13353909
0.052539453 0.74988425 0.070862859 13288629
0.052809119 0.74951112 0.070860252 13288629
0.053078756 0.74913794 0.070857644 13354422
0.053348407 0.74876475 0.070855021 13288629
0.053618059 0.74839157 0.070852414 13354422
0.05388771 0.74801838 0.070849806 13288629
0.053661242 0.74681759 0.070381135 13354424
0.053931847 0.74644303 0.070378527 13288631
0.05370827 0.7452383 0.069909841 13222838
0.053979844 0.74486244 0.069907218 13354424
0.054251403 0.74448663 0.069904581 13288631
0.054522961 0.74411082 0.069901958 13157045
0.054794535 0.74373496 0.069899336 13288118
0.055066094 0.74335915 0.069896698 12761774
0.054849207 0.74214506 0.069427937 12630188
0.05512172 0.74176794 0.0694253 12367016
0.055394247 0.74139082 0.069422662 11972517
-0.00092756748 0.82954878 0.073655352 14338491
-0.00066174567 0.8291809 0.073652789 14338491
-0.00039592385 0.82881302 0.073650211 14338491
-0.00013008714 0.82844514 0.073647648 14338491
0.00013573468 0.82807726 0.07364507 14272698
0.00040155649 0.82770932 0.073642492 14338491
0.00066737831 0.82734144 0.073639929 14338491
0.00093321502 0.82697356 0.073637351 14338491
0.0011990368 0.82660568 0.073634773 14272696
0.0014648587 0.8262378 0.07363221 14206903
0.0017306954 0.82586992 0.073629633 14141110
0.0019965172 0.82550204 0.07362707 14206903
0.002262339 0.82513416 0.073624492 14206903
0.022730976 0.79680687 0.073426425 11453889
0.022996798 0.79643899 0.073423862 9611683
0.023262635 0.79607111 0.073421285 8098444
0.023528457 0.79570323 0.073418707 9281686
0.023794279 0.79533535 0.073416144 10071202
0.0240601 0.79496741 0.073413566 13033430
0.024936482 0.7952702 0.073874533 14941427
0.025201365 0.79490364 0.07387197 13166050
0.025466233 0.79453707 0.073869407 8165782
0.025731102 0.7941705 0.073866844 12507350
0.02599597 0.79380393 0.073864281 15335423
0.026260838 0.79343736 0.073861718 14876664
0.026525706 0.79307079 0.073859155 15073275
0.026790574 0.79270422 0.073856592 15007739
0.027055457 0.79233772 0.073854029 14745591
0.027320325 0.79197115 0.073851466 14021611
0.027585194 0.79160458 0.073848903 13692646
0.027850062 0.79123801 0.07384634 13494748
0.02811493 0.79087144 0.073843777 13626334
0.028909534 0.7897718 0.073836088 14876665
0.029174417 0.78940523 0.073833525 14614261
0.029439285 0.78903866 0.073830962 13823711
0.052084684 0.75012088 0.071264639 13419704
0.052354336 0.74974775 0.071262032 13419704
0.052623987 0.74937451 0.071259424 13419704
0.052893639 0.74900138 0.071256801 13288631
0.05316329 0.7486282 0.071254194 13288631
0.053432941 0.74825501 0.071251586 13486010
0.053702593 0.74788183 0.071248978 13354424
0.053475454 0.7466805 0.070781723 13354424
0.053746074 0.746306 0.070779115 13288631
0.053521827 0.74510074 0.070311844 13288631
0.053793401 0.74472493 0.070309222 13354424
0.054064974 0.74434912 0.070306584 13288631
0.054336533 0.74397326 0.070303962 13288631
0.054608092 0.74359745 0.070301339 13288631
0.05487965 0.74322164 0.070298702 13157045
0.054662108 0.74200708 0.069831356 13090739
0.054934621 0.74162996 0.069828719 12761774
0.055207148 0.74125278 0.069826081 12104873
0.022548482 0.79667222 0.073819935 11125183
0.022814304 0.79630435 0.073817372 11191744
0.023080125 0.79593647 0.073814794 12573397
0.023345962 0.79556859 0.073812217 13691100
0.023611784 0.79520071 0.073809654 13164756
0.023877606 0.79483283 0.073807076 12243401
0.024754643 0.79513609 0.074266627 11782850
0.025019512 0.79476953 0.074264064 10665918
0.02528438 0.79440296 0.074261501 8757921
0.025549263 0.79403639 0.074258938 9283747
0.025814131 0.79366982 0.074256375 11191744
0.026078999 0.79330325 0.074253812 12638925
0.026343867 0.79293668 0.074251249 14217957
0.026608735 0.79257011 0.074248686 14481390
0.026873603 0.79220355 0.074246123 14612976
0.027138472 0.79183698 0.07424356 14811128
0.027403355 0.79147041 0.074240997 14548468
0.027668223 0.79110384 0.074238434 14481643
0.027933091 0.79073727 0.074235871 14415850
0.028727695 0.78963763 0.074228182 15073270
0.028992563 0.78927106 0.074225619 14219241
0.029257432 0.78890449 0.074223056 14086369
0.050932258 0.74677205 0.070269063 13354424
0.051204771 0.74639487 0.070266426 13354424
0.051477298 0.74601769 0.070263788 13354424
0.051749811 0.74564058 0.070261151 13486010
0.052022323 0.74526346 0.070258513 13551803
0.05229485 0.74488628 0.070255876 13486010
0.052567378 0.7445091 0.070253238 13288631
0.05283989 0.74413198 0.070250601 13288631
0.053112403 0.74375486 0.070247963 13354424
0.053878531 0.74421155 0.070708588 13354424
0.05415009 0.74383575 0.070705965 13486010
0.054421648 0.74345994 0.070703343 13288631
0.054693222 0.74308407 0.070700705 13222838
0.054475024 0.74186909 0.070234776 13222325
0.054747537 0.74149191 0.070232138 12893360
0.055020049 0.7411148 0.070229501 12499631
0.022365972 0.79653764 0.074213445 14153458
0.022631809 0.79616976 0.074210882 15466495
0.022897631 0.79580188 0.074208304 15466495
0.023163453 0.795434 0.074205726 15663103
0.023429289 0.79506612 0.074203163 15663103
0.023695111 0.79469824 0.074200585 15663103
0.024572805 0.79500192 0.074658722 15597566
0.024837673 0.79463536 0.074656159 15335423
0.025102541 0.79426879 0.074653596 15335423
0.025367409 0.79390228 0.074651033 15204347
0.025632277 0.79353571 0.07464847 15204347
0.025897145 0.79316914 0.074645907 14350057
0.026162028 0.79280257 0.074643344 12573646
0.026426896 0.792436 0.074640781 12047049
0.026691765 0.79206944 0.074638218 11981256
0.026956633 0.79170287 0.074635655 11455686
0.027221501 0.7913363 0.074633092 10205619
0.027486369 0.79096973 0.074630529 9811110
0.027751252 0.79060316 0.074627966 9811110
0.028545856 0.78950346 0.074620277 13165781
0.028810725 0.78913689 0.074617714 13297367
0.029075593 0.78877032 0.074615151 13428188
0.050745159 0.74663401 0.070672482 13354424
0.051017672 0.74625689 0.070669845 13288631
0.051290199 0.74587971 0.070667207 13354424
0.051562712 0.74550259 0.07066457 13486010
0.051835239 0.74512541 0.070661932 13617596
0.052107751 0.74474829 0.070659295 13486010
0.052380279 0.74437112 0.070656657 13354424
0.052652791 0.743994 0.07065402 13288631
0.052925318 0.74361682 0.070651382 13288631
0.053197846 0.74323964 0.070648745 13354424
0.053470358 0.74286252 0.070646107 13486010
0.053742886 0.7424854 0.07064347 13353911
0.054015398 0.74210823 0.070640832 13353911
0.014148727 0.80296326 0.073289067 15335416
0.014417425 0.80259144 0.073286459 14876401
0.014686123 0.80221957 0.073283866 12901335
0.01495482 0.8018477 0.073281258 8558997
0.015223518 0.80147588 0.073278666 8884878
0.015492216 0.80110401 0.073276073 11253426
0.015760899 0.80073214 0.073273465 11253939
0.016029596 0.80036032 0.073270872 12569799
0.016298294 0.79998845 0.073268265 15400957
0.015935346 0.79897094 0.072806567 15400957
0.016204998 0.79859781 0.072803959 10798015
0.017104372 0.79887283 0.073260471 10140085
0.01737307 0.79850101 0.073257864 13299434
0.017641768 0.79812914 0.073255271 14220536
0.017910466 0.79775727 0.073252663 14548983
0.018179163 0.79738545 0.07325007 14680057
0.018447861 0.79701358 0.073247463 13034464
0.018716544 0.79664171 0.07324487 13297636
0.018985242 0.79626989 0.073242262 10795709
0.019253939 0.79589802 0.073239669 10335158
0.019522637 0.79552615 0.073237062 10732996
0.019791335 0.79515433 0.073234469 14680063
0.020060018 0.79478246 0.073231861 14942207
0.022183478 0.79640305 0.074606955 12838372
0.0224493 0.79603517 0.074604392 14020843
0.022715136 0.79566723 0.074601814 15335423
0.022980958 0.79529935 0.074599236 15794175
0.02324678 0.79493147 0.074596673 15728638
0.023512617 0.79456359 0.074594095 15728638
0.024390966 0.79486775 0.075050816 15663101
0.024655834 0.79450125 0.075048253 15597564
0.024920702 0.79413468 0.07504569 15597564
0.02518557 0.79376811 0.075043127 15597564
0.025450438 0.79340154 0.075040564 15532027
0.025715306 0.79303497 0.075038001 15532025
0.025980189 0.7926684 0.075035438 15728636
0.026245058 0.79230183 0.075032875 15597564
0.026509926 0.79193527 0.075030312 15532027
0.026774794 0.79156876 0.075027749 15532030
0.027039662 0.79120219 0.075025186 15663103
0.02730453 0.79083562 0.075022623 15466493
0.027569398 0.79046905 0.07502006 14876148
0.028364018 0.78936934 0.075012371 10072749
0.028628886 0.78900278 0.075009808 10928058
0.028893754 0.78863621 0.075007245 12770262
0.026777402 0.78548604 0.073166862 11454402
0.027046099 0.78511417 0.073164269 12047053
0.027314782 0.78474236 0.073161662 14744566
0.026991054 0.7836706 0.072699592 15335423
0.027260706 0.78329742 0.072696984 15073275
0.027530357 0.78292423 0.072694376 15204347
0.047904462 0.74712896 0.070171148 13551290
0.048178896 0.74674916 0.070168495 13551290
0.048453331 0.74636936 0.070165843 13551290
0.048727766 0.74598956 0.07016319 13419704
0.0490022 0.74560976 0.070160538 13419704
0.04927662 0.74522996 0.070157871 13354424
0.050558075 0.74649602 0.071075901 13486010
0.050830588 0.7461189 0.071073264 13354424
0.0511031 0.74574172 0.071070626 13288631
0.051375613 0.74536455 0.071067989 13486010
0.05164814 0.74498743 0.071065351 13551803
0.051920667 0.74461025 0.071062714 13551290
0.05219318 0.74423313 0.071060076 13551290
0.052465692 0.74385595 0.071057439 13419704
0.052738219 0.74347883 0.071054801 13551290
0.053010747 0.74310166 0.071052164 13551290
0.053283259 0.74272454 0.071049526 13551290
0.053555787 0.74234736 0.071046889 13419704
0.053828299 0.74197018 0.071044251 13353911
0.013964266 0.80282724 0.073686823 10995131
0.014232963 0.80245537 0.073684216 10600373
0.014501646 0.80208349 0.073681623 11388096
0.014770344 0.80171168 0.073679015 11322303
0.015039042 0.80133981 0.073676422 9477017
0.015307739 0.80096793 0.073673815 12503495
0.015576437 0.80059606 0.073671222 9477530
0.015845135 0.80022418 0.073668629 8819600
0.016113833 0.79985237 0.073666021 9412769
0.015750229 0.79883444 0.073205739 11847110
0.016019881 0.7984612 0.073203132 14350837
0.016919911 0.79873681 0.073658228 15073279
0.017188609 0.79836494 0.07365562 14680061
0.017457306 0.79799306 0.073653027 14548987
0.017725989 0.79762125 0.07365042 14876669
0.017994687 0.79724938 0.073647827 15007743
0.018263385 0.7968775 0.073645219 10929090
0.018532082 0.79650569 0.073642626 10205367
0.01880078 0.79613382 0.073640019 11193293
0.019069478 0.79576194 0.073637426 13956599
0.019338176 0.79539007 0.073634818 14942207
0.019606858 0.7950182 0.073632225 13496309
0.019875556 0.79464638 0.073629618 10995914
0.020144254 0.79427451 0.073627025 11851223
0.026324227 0.78572178 0.073567227 14546421
0.026592925 0.78534997 0.073564619 14546421
0.026861623 0.78497809 0.073562026 15466493
0.027130321 0.78460622 0.073559418 15532030
0.026805922 0.78353405 0.073098764 15400956
0.027075574 0.78316087 0.073096156 15400956
0.027345225 0.78278768 0.073093548 15400956
0.047716066 0.74698997 0.070577398 13551803
0.047990486 0.74661016 0.070574746 13617083
0.048264921 0.74623036 0.070572093 13551290
0.048539355 0.74585056 0.070569441 13486010
0.04881379 0.74547076 0.070566788 13354424
0.04908821 0.74509096 0.070564121 13486010
0.049362645 0.74471116 0.070561469 13551803
0.049637079 0.74433136 0.070558816 13486010
0.049911514 0.74395156 0.070556164 13354424
0.050687239 0.74439919 0.071012452 13551803
0.05096072 0.7440207 0.0710098 13551803
0.051234186 0.74364221 0.071007162 13551290
0.051507667 0.74326372 0.07100451 13419704
0.051781133 0.74288529 0.071001872 13551290
0.052054614 0.7425068 0.07099922 13617083
0.052328095 0.74212831 0.070996583 13551290
0.013779804 0.80269116 0.07408458 15007737
0.014048487 0.80231929 0.074081972 15204348
0.014317185 0.80194741 0.074079379 15400959
0.014585882 0.80157554 0.074076772 10073263
0.01485458 0.80120373 0.074074179 7438463
0.015123278 0.80083185 0.074071571 10596527
0.015391961 0.80045998 0.074068978 12966358
0.015660658 0.80008817 0.074066371 13163737
0.015929356 0.79971629 0.074063778 10073261
0.015565112 0.79869783 0.073604912 10862777
0.015834764 0.7983247 0.073602304 15269887
0.016735449 0.79860073 0.074055985 14876667
0.017004132 0.79822886 0.074053377 14876667
0.01727283 0.79785699 0.074050784 14285298
0.017541528 0.79748511 0.074048176 11916750
0.017810225 0.7971133 0.074045584 11456199
0.018078923 0.79674143 0.074042976 11720402
0.018347606 0.79636955 0.074040383 14154743
0.018616304 0.79599774 0.074037775 14876671
0.018885002 0.79562587 0.074035183 13431030
0.019153699 0.79525399 0.074032575 11391449
0.019422397 0.79488218 0.074029982 12641516
0.019691095 0.7945103 0.074027374 14614527
0.019959778 0.79413843 0.074024782 15073279
0.026139766 0.78558576 0.073964983 11586248
0.026408464 0.78521389 0.073962376 11520455
0.026677161 0.78484201 0.073959783 11718086
0.026945844 0.7844702 0.073957175 12112844
0.026620805 0.7833975 0.073497936 13758187
0.026890457 0.78302431 0.073495328 14679289
0.027160108 0.78265113 0.073492721 14876666
0.047527656 0.74685097 0.070983648 13617083
0.047802076 0.74647117 0.070980996 13617083
0.04807651 0.74609137 0.070978343 13617083
0.048350945 0.74571157 0.070975691 13551290
0.04862538 0.74533176 0.070973039 13551290
0.0488998 0.74495196 0.070970371 13551803
0.049174234 0.74457216 0.070967719 13617596
0.049448669 0.74419236 0.070965067 13617594
0.049723104 0.74381256 0.070962414 13486008
0.050499484 0.74426067 0.071417287 13486008
0.050772965 0.74388218 0.071414635 13551801
0.051046446 0.74350369 0.071411997 13551288
0.051319912 0.74312526 0.071409345 13617081
0.051593378 0.74274677 0.071406707 13551290
0.051866874 0.74236834 0.071404055 13617083
0.05214034 0.74198985 0.071401417 13551290
0.013595328 0.80255508 0.074482337 15138814
0.013864025 0.80218321 0.074479729 15138814
0.014132723 0.80181134 0.074477136 15335423
0.014401421 0.80143952 0.074474528 12113362
0.014670119 0.80106765 0.074471936 8098707
0.014938802 0.80069578 0.074469328 10664634
0.015207499 0.80032396 0.074466735 15269887
0.015476197 0.79995209 0.074464127 15204351
0.015744895 0.79958022 0.074461535 15073278
0.01537998 0.79856133 0.074004084 15138815
0.015649632 0.79818809 0.074001476 15138814
0.016550973 0.79846466 0.074453741 15269887
0.016819671 0.79809278 0.074451134 14153712
0.017088369 0.79772091 0.074448526 12377301
0.017357066 0.7973491 0.074445933 13562345
0.017625749 0.79697722 0.07444334 14548984
0.017894447 0.79660535 0.074440733 15007743
0.018163145 0.79623353 0.07443814 13957878
0.018431842 0.79586166 0.074435532 11589080
0.01870054 0.79548979 0.074432939 12115424
0.018969223 0.79511791 0.074430332 14680063
0.019237921 0.79474604 0.074427739 14483455
0.019506618 0.79437423 0.074425131 14614526
0.019775316 0.79400235 0.074422538 14680063
0.025955305 0.78544968 0.07436274 15269887
0.026224002 0.78507781 0.074360132 15400959
0.026492685 0.78470594 0.074357539 14745591
0.026761383 0.78433406 0.074354932 14219503
0.026435688 0.78326094 0.073897108 14154230
0.02670534 0.78288776 0.073894501 14022644
0.026974991 0.78251457 0.073891893 14680062
0.025742516 0.7796483 0.072520837 14876667
0.026015028 0.77927119 0.0725182 14745593
0.026287556 0.77889401 0.072515562 14217706
0.026560068 0.77851689 0.072512925 11191228
0.026832595 0.77813971 0.072510287 11388096
0.027105108 0.77776253 0.07250765 15597567
0.027377635 0.77738541 0.072505012 14745593
0.047339246 0.74671197 0.071389899 13551803
0.047613665 0.74633217 0.071387246 13682876
0.047888115 0.74595237 0.071384594 13551290
0.048162535 0.74557257 0.071381927 13617083
0.048436984 0.74519277 0.071379274 13617083
0.048711404 0.74481302 0.071376622 13551803
0.048985824 0.74443322 0.071373969 13617596
0.049260259 0.74405342 0.071371317 13551803
0.049534693 0.74367362 0.071368665 13486010
0.050311729 0.74412215 0.071822122 13551803
0.050585225 0.74374372 0.071819469 13486010
0.050858691 0.74336523 0.071816832 13617083
0.051132172 0.7429868 0.071814179 13617083
0.051405638 0.74260831 0.071811527 13551290
0.051679119 0.74222982 0.07180889 13551290
0.0519526 0.74185133 0.071806237 13551290
0.025555417 0.77951032 0.072924256 14942206
0.025827944 0.77913314 0.072921619 14417654
0.026100472 0.77875602 0.072918981 11783365
0.026372984 0.77837884 0.072916344 12572881
0.026645496 0.77800173 0.072913706 11060158
0.026918024 0.77762455 0.072911069 12376018
0.027190551 0.77724743 0.072908431 14942204
0.048291281 0.74346936 0.071325526 13617596
0.048566684 0.74308825 0.071322858 13551803
0.048842058 0.74270707 0.071320206 13551803
0.049117461 0.74232596 0.071317539 13551803
0.025368333 0.77937233 0.073327675 13165532
0.025640845 0.77899516 0.073325038 11323328
0.025913373 0.77861798 0.0733224 13033432
0.026185885 0.77824086 0.073319763 12375502
0.026458412 0.77786368 0.073317125 13757155
0.026730925 0.77748656 0.073314488 13954534
0.027003452 0.77710938 0.07331185 15073278
0.04810223 0.74332988 0.071733192 13617342
0.048377618 0.74294877 0.071730524 13551803
0.048653007 0.74256766 0.071727872 13551803
0.048928395 0.74218655 0.071725205 13551803
0.0110102 0.79884607 0.073868215 15269884
0.011282727 0.79846895 0.073865578 15269884
0.01155524 0.79809177 0.07386294 15204351
0.011827767 0.79771465 0.073860303 14811129
0.015915558 0.79205739 0.073820755 9877433
0.01618807 0.79168022 0.073818117 14088185
0.016460598 0.7913031 0.07381548 13165802
0.025181234 0.77923429 0.073731095 12047053
0.025453761 0.77885711 0.073728457 13362913
0.025726274 0.77847999 0.07372582 14283497
0.025998786 0.77810287 0.073723182 12375500
0.026271313 0.7777257 0.073720545 10137257
0.026543841 0.77734852 0.073717907 14150630
0.026816353 0.7769714 0.07371527 11982028
0.047913164 0.74319041 0.072140858 13617342
0.048188552 0.7428093 0.07213819 13617596
0.048463941 0.74242818 0.072135538 13617596
0.048739329 0.74204707 0.072132871 13551803
0.010823116 0.79870808 0.074271634 14150879
0.011095628 0.7983309 0.074268997 14150879
0.011368155 0.79795378 0.074266359 12310995
0.011640668 0.79757661 0.074263722 11126721
0.015728459 0.79191935 0.074224174 11850705
0.016000986 0.79154223 0.074221537 10600638
0.016273513 0.79116511 0.074218899 9809841
0.010636017 0.79857004 0.074675053 10467505
0.010908529 0.79819292 0.074672416 10730677
0.011181056 0.7978158 0.074669778 13035749
0.011453569 0.79743862 0.074667141 14942207
0.015541375 0.79178137 0.074627593 12968671
0.015813887 0.79140425 0.074624956 13429222
0.016086414 0.79102707 0.074622318 14679291
-0.026249439 0.83083254 0.070003211 16776946
-0.025965437 0.83043951 0.070000455 16776946
-0.025681451 0.83004647 0.069997713 16776431
-0.02539745 0.82965344 0.069994956 16315109
0.010448918 0.79843205 0.075078472 13693679
0.01072143 0.79805493 0.075075835 15138815
0.010993958 0.79767776 0.075073197 15007743
0.011266485 0.79730058 0.07507056 14220284
0.015354276 0.79164338 0.075031012 15335421
0.015626803 0.7912662 0.075028375 15269884
0.015899315 0.79088902 0.075025737 15138814
0.023070917 0.77483487 0.073146224 16056316
0.023347259 0.77445239 0.073143542 15663103
0.023623601 0.77406996 0.073140875 11848645
0.023899958 0.77368748 0.073138192 9283493
0.024176285 0.77330506 0.073135525 13362659
0.024452642 0.77292264 0.073132843 14482164
0.024143055 0.77181876 0.072683319 13232097
0.024420366 0.77143496 0.072680637 13692909
0.024697661 0.77105117 0.072677955 14811134
0.024974957 0.77066743 0.072675273 14154228
0.025252268 0.7702837 0.072672591 13759470
0.025529563 0.7698999 0.072669908 11784647
0.025806859 0.76951611 0.072667226 13429472
0.02608417 0.76913238 0.072664529 11191479
0.026361465 0.76874864 0.072661847 11257272
0.026638761 0.76836485 0.072659165 14150628
0.026916072 0.76798105 0.072656482 15728636
0.027193367 0.76759732 0.0726538 16187384
0.027470678 0.76721352 0.072651118 16187384
0.027747974 0.76682979 0.072648436 15788252
0.028025284 0.76644599 0.072645754 13222325
0.028302565 0.76606226 0.072643071 13746870
0.028579876 0.76567847 0.072640389 13615284
-0.026444405 0.83068871 0.070423603 16775916
-0.026160404 0.83029568 0.070420861 16446180
-0.025876418 0.82990265 0.070418119 15522252
-0.025592417 0.82950962 0.070415363 14995908
0.022881195 0.77469492 0.073555291 16187389
0.023157537 0.77431244 0.073552623 15794172
0.023433879 0.77393001 0.073549956 15794172
0.023710236 0.77354753 0.073547274 11454148
0.023986563 0.77316511 0.073544607 9019807
0.02426292 0.77278268 0.073541924 11914699
0.023952678 0.77167833 0.073093817 15466495
0.024229988 0.77129453 0.073091134 15073277
0.024507284 0.77091074 0.073088452 14942203
0.02478458 0.77052701 0.07308577 14876671
0.02506189 0.77014327 0.073083088 14483193
0.025339201 0.76975948 0.073080391 13758954
0.025616482 0.76937568 0.073077708 15138815
0.025893793 0.76899195 0.073075026 15400956
0.026171088 0.76860815 0.073072344 15269882
0.026448384 0.76822442 0.073069662 15466487
0.026725695 0.76784062 0.07306698 15597561
0.027003005 0.76745689 0.073064297 16318454
0.027280301 0.76707309 0.073061615 16318454
0.027557597 0.7666893 0.073058933 16380387
0.027834907 0.76630557 0.073056251 13288116
0.028112188 0.76592183 0.073053569 13747124
0.028389499 0.76553804 0.073050886 13681331
-0.026639372 0.83054489 0.07084401 15719117
-0.026355386 0.83015186 0.070841268 14534843
-0.026071385 0.82975882 0.070838511 15059904
-0.025787398 0.82936579 0.070835769 15125697
0.022691473 0.77455497 0.073964372 16187389
0.02296783 0.77417248 0.073961705 16056316
0.023244157 0.77379006 0.073959023 15990779
0.023520514 0.77340758 0.073956355 15204349
0.023796856 0.77302516 0.073953688 9480358
0.024073198 0.77264273 0.073951006 12309457
0.023762316 0.7715379 0.073504314 15532031
0.024039611 0.77115411 0.073501632 14876666
0.024316907 0.77077031 0.073498949 14745336
0.024594218 0.77038658 0.073496252 13035747
0.024871513 0.77000284 0.07349357 13364712
0.025148824 0.76961905 0.073490888 13693677
0.025426105 0.76923525 0.073488206 14745597
0.025703415 0.76885152 0.073485523 14942201
0.025980711 0.76846772 0.073482841 15073275
0.026258022 0.76808393 0.073480159 15400954
0.026535317 0.7677002 0.073477477 15597565
0.026812628 0.76731646 0.073474795 16187384
0.027089924 0.76693267 0.073472112 16187384
0.027367219 0.76654887 0.07346943 16774631
0.02764453 0.76616514 0.073466748 13419188
0.027921826 0.7657814 0.073464066 13746870
0.028199121 0.76539761 0.073461384 13681077
0.022501752 0.77441502 0.074373454 16383998
0.022778109 0.77403253 0.074370787 16121852
0.023054436 0.77365011 0.074368104 15990522
0.023330793 0.77326769 0.074365437 15466495
0.023607135 0.7728852 0.074362755 12638676
0.023883477 0.77250278 0.074360088 9611944
0.023571938 0.77139747 0.073914796 12177871
0.023849234 0.77101368 0.073912114 15138814
0.02412653 0.77062988 0.073909432 14876666
0.02440384 0.77024615 0.073906749 13298149
0.024681136 0.76986241 0.073904067 13495528
0.024958447 0.76947862 0.073901385 15073279
0.025235727 0.76909482 0.073898703 15204351
0.025513038 0.76871109 0.073896021 14942203
0.025790334 0.7683273 0.073893338 14679543
0.026067644 0.7679435 0.073890656 15400956
0.02634494 0.76755977 0.073887974 15597567
0.026622251 0.76717603 0.073885292 16252921
0.026899546 0.76679224 0.07388261 16187384
0.027176842 0.76640844 0.073879927 16446180
0.027454153 0.76602471 0.073877245 13353909
0.027731448 0.76564097 0.073874563 13681590
0.028008744 0.76525718 0.073871866 13550004
0.027714416 0.76412803 0.073426425 13353395
0.027992681 0.76374292 0.073423728 13419188
0.028270945 0.76335788 0.073421031 13484981
0.028549194 0.76297277 0.073418349 13484981
0.028827444 0.76258767 0.073415652 13484981
0.029105708 0.76220262 0.073412955 13484981
0.022272348 0.7727921 0.074336037 15990522
0.022549644 0.77240831 0.074333355 15400957
0.022826955 0.77202451 0.074330673 15204090
0.02310425 0.77164078 0.07432799 9283493
0.022793025 0.77053368 0.0738841 11915213
0.023071274 0.77014852 0.073881418 15007739
0.023349538 0.76976347 0.07387872 13693159
0.023627803 0.76937836 0.073876023 11521225
0.023906052 0.76899326 0.073873341 11192260
0.024184301 0.76860821 0.073870644 11058877
0.024462566 0.76822311 0.073867947 11782600
0.02474083 0.767838 0.073865265 12638422
0.025019079 0.76745296 0.073862568 13756903
0.025297329 0.76706785 0.07385987 15663103
0.025575593 0.76668274 0.073857188 15597567
0.025853857 0.76629764 0.073854491 16252921
0.026132107 0.76591253 0.073851794 16252921
0.026410356 0.76552749 0.073849112 14998736
0.02668862 0.76514238 0.073846415 13419704
0.026966885 0.76475728 0.073843718 13550774
0.027245134 0.76437223 0.073841035 13484981
0.027523383 0.76398712 0.073838338 13288116
0.027801648 0.76360202 0.073835641 13288116
0.028079912 0.76321697 0.073832944 13353909
0.028358161 0.76283181 0.073830262 13419702
0.028636411 0.76244676 0.073827565 13419702
0.028914675 0.76206166 0.073824868 13419702
-0.003791675 0.80384129 0.073660433 13878708
-0.0035115033 0.80345356 0.073657721 13551028
-0.0032313466 0.80306584 0.073655009 13024684
-0.002951175 0.80267811 0.073652297 12502463
-0.0026710033 0.80229032 0.073649585 12831428
-0.0023908317 0.80190259 0.073646873 13296091
-0.0021106601 0.80151486 0.073644161 14611951
-0.0018304884 0.80112714 0.073641449 14548717
-0.0015503168 0.80073941 0.073638737 14285545
-0.0019367933 0.79973501 0.073197007 14286315
-0.001655668 0.79934597 0.07319428 14745586
-0.00070981681 0.79957616 0.073630616 15138811
-0.00042964518 0.79918844 0.073627904 15204348
-0.00014947355 0.79880071 0.073625192 15269886
0.00013069808 0.79841298 0.07362248 15204349
-0.00025004148 0.79740065 0.073180676 15335423
3.1083822e-05 0.79701161 0.073177963 14283761
0.00031220913 0.79662251 0.073175237 10534847
0.022081986 0.77265167 0.074746534 15925244
0.022359267 0.77226788 0.074743852 14809332
0.022636577 0.77188408 0.074741155 12309198
0.022913888 0.77150035 0.074738473 10008240
0.022601992 0.77039272 0.074296013 13758441
0.022880241 0.77000761 0.07429333 15007739
0.023158506 0.76962256 0.074290633 14745591
0.02343677 0.76923746 0.074287936 14941691
0.023715019 0.76885235 0.074285239 12375764
0.023993269 0.76846731 0.074282557 12046285
0.024271533 0.7680822 0.07427986 12770008
0.024549797 0.7676971 0.074277163 11519428
0.024828047 0.76731205 0.07427448 12901081
0.025106296 0.76692688 0.074271783 13163737
0.02538456 0.76654184 0.074269086 14413804
0.025662825 0.76615673 0.074266404 16252917
0.025941074 0.76577163 0.074263707 16383991
0.026219323 0.76538658 0.07426101 13879741
0.026497588 0.76500148 0.074258327 13682362
0.026775852 0.76461637 0.07425563 13550776
0.027054101 0.76423132 0.074252933 13484983
0.027332351 0.76384622 0.074250251 13288118
0.027610615 0.76346111 0.074247554 13288118
0.027888879 0.76307601 0.074244857 13353911
0.028167129 0.7626909 0.074242175 13222325
0.028445378 0.76230586 0.074239478 13419702
0.028723642 0.76192075 0.07423678 13419702
-0.0039840192 0.80369937 0.074075177 13878708
-0.0037038624 0.80331171 0.074072465 13353909
-0.0034236908 0.80292392 0.074069753 12169635
-0.0031435192 0.80253619 0.074067041 12832458
-0.0028633475 0.80214846 0.074064329 13753560
-0.0025831759 0.80176073 0.074061617 13033432
-0.0023030043 0.801373 0.074058905 12967639
-0.0020228326 0.80098522 0.074056208 13694180
-0.0017426759 0.80059755 0.074053496 14548977
-0.0021297932 0.79959261 0.073613167 15204348
-0.0018486828 0.79920357 0.07361044 14087915
-0.000902161 0.7994343 0.07404536 12507088
-0.00062198937 0.79904658 0.074042648 10730677
-0.00034181774 0.79865885 0.074039936 14152429
-6.1646104e-05 0.79827106 0.074037224 14612980
-0.00044304132 0.79725826 0.073596835 11455434
-0.00016191602 0.79686922 0.073594123 12573915
0.00011920929 0.79648018 0.073591396 14876671
0.021891609 0.77251124 0.075157031 13164766
0.02216889 0.77212745 0.075154349 12047569
0.0224462 0.77174366 0.075151652 13034464
0.022723511 0.77135992 0.07514897 13824493
0.022410959 0.77025181 0.074707925 13363942
0.022689208 0.7698667 0.074705243 13758700
0.022967473 0.76948166 0.074702546 13232356
0.023245737 0.76909655 0.074699849 12902880
0.023523986 0.76871145 0.074697152 12047571
0.023802236 0.76832634 0.07469447 13889773
0.0240805 0.7679413 0.074691772 14481910
0.024358764 0.76755619 0.074689075 10401201
0.024637014 0.76717108 0.074686393 10532787
0.024915263 0.76678598 0.074683696 12635594
0.025193527 0.76640093 0.074680999 16121855
0.025471792 0.76601583 0.074678302 16449525
0.025750041 0.76563072 0.07467562 15988974
0.02602829 0.76524568 0.074672922 13550006
0.026306555 0.76486057 0.074670225 13813178
0.026584819 0.76447546 0.074667543 13419704
0.026863068 0.76409036 0.074664846 13353911
0.027141318 0.76370525 0.074662149 13353911
0.027419582 0.76332021 0.074659467 13288118
0.027697846 0.7629351 0.07465677 13353911
0.027976096 0.76255 0.074654073 13419704
0.028254345 0.76216495 0.07465139 13419704
0.028532609 0.76177984 0.074648693 13419704
-0.0041763633 0.80355752 0.074489921 13747124
-0.0038962066 0.80316979 0.074487209 13156791
-0.003616035 0.80278206 0.074484497 12301482
-0.0033358634 0.80239433 0.074481785 14083038
-0.0030556917 0.8020066 0.074479073 13622487
-0.0027755201 0.80161881 0.074476361 13560288
-0.0024953485 0.80123109 0.074473649 14941941
-0.0022151768 0.80084336 0.074470937 15204348
-0.0019350201 0.80045563 0.074468225 13693157
-0.0023228079 0.79945028 0.074029326 10927291
-0.0020416826 0.79906118 0.0740266 8953501
-0.0010945052 0.79929245 0.074460089 9875118
-0.00081433356 0.79890466 0.074457377 11848908
-0.00053416193 0.79851693 0.07445468 12573145
-0.00025399029 0.7981292 0.074451968 9415081
-0.00063604116 0.79711592 0.074012995 13692398
-0.00035491586 0.79672682 0.074010283 15269887
-7.379055e-05 0.79633778 0.074007556 14745084
0.021010622 0.76715827 0.073803544 13034464
0.021291763 0.76676923 0.073800817 12837600
0.021572888 0.76638019 0.073798105 12442842
0.022439733 0.76672256 0.07423237 14745599
0.022719905 0.76633483 0.074229658 14680063
0.023000076 0.7659471 0.074226946 14481394
0.023280248 0.76555932 0.074224234 15466495
0.02356042 0.76517159 0.074221522 13228245
0.023840591 0.76478386 0.07421881 15925246
0.024120748 0.76439613 0.074216112 16711416
0.02440092 0.7640084 0.0742134 14869212
0.025259167 0.76436269 0.074647754 13748155
0.02553837 0.76397628 0.074645057 13682362
0.025817588 0.76358986 0.074642345 13550776
0.026096806 0.76320344 0.074639648 13550776
0.026376024 0.76281703 0.074636951 13484983
0.026655227 0.76243061 0.074634254 13484983
0.026934445 0.76204419 0.074631542 13550776
-0.0043687224 0.80341566 0.074904665 13747124
-0.0040885508 0.80302787 0.074901953 12960182
-0.0038083792 0.8026402 0.074899241 12960182
-0.0035282075 0.80225241 0.074896529 12110013
-0.0032480359 0.80186468 0.074893817 11386290
-0.0029678643 0.80147696 0.074891105 14217444
-0.0026876926 0.80108923 0.074888393 13098963
-0.0024075359 0.8007015 0.074885681 9940650
-0.0021273643 0.80031371 0.074882969 8887962
-0.0025158077 0.79930788 0.074445471 10269876
-0.0022346824 0.79891884 0.074442759 10796220
-0.0012868494 0.79915053 0.074874833 11520975
-0.0010066777 0.7987628 0.074872121 13692144
-0.00072650611 0.79837507 0.074869424 14481144
-0.00044634938 0.79798734 0.074866712 10862529
-0.00082905591 0.79697353 0.074429154 10796734
-0.0005479157 0.79658449 0.074426442 15400959
-0.00026679039 0.79619539 0.074423715 15269886
-0.0013056993 0.79454631 0.073551252 15335423
-0.0010226667 0.79415458 0.073548511 15728639
0.020817623 0.76701593 0.074219704 12639190
0.021098763 0.76662683 0.074216977 13495528
0.021379888 0.76623785 0.07421425 13956079
0.022247389 0.7665807 0.074647114 14679804
0.022527561 0.76619291 0.074644402 14745597
0.022807732 0.76580518 0.07464169 15532031
0.023087904 0.76541746 0.074638978 15532031
0.023368075 0.76502973 0.074636266 16121852
0.023648247 0.764642 0.074633554 16187389
0.023928404 0.76425421 0.074630857 15789285
0.024208575 0.76386654 0.074628145 13223358
0.025067478 0.76422131 0.075061083 13682108
0.025346681 0.76383489 0.075058371 13550522
0.025625899 0.76344848 0.075055674 13550776
0.025905117 0.76306206 0.075052977 13550776
0.026184335 0.76267564 0.075050279 13550776
0.026463538 0.76228923 0.075047567 13484983
0.026742756 0.76190281 0.07504487 13550776
-0.0060286224 0.80067027 0.074014053 12105388
-0.0057455897 0.80027854 0.074011326 12702152
-0.0054625422 0.79988682 0.074008584 13425875
-0.0051795095 0.79949516 0.074005842 9939878
-0.0048964769 0.79910344 0.0740031 8821397
-0.0046134293 0.79871178 0.074000359 9809577
-0.0043303967 0.79832006 0.073997617 11849160
-0.004047364 0.79792833 0.07399489 13033696
-0.0037643164 0.79753661 0.073992148 14086384
-0.0034812838 0.79714489 0.073989406 14613500
-0.0031982511 0.79675317 0.073986664 12705503
-0.0029152036 0.79636151 0.073983938 11652815
-0.0026321709 0.79596978 0.073981196 12771296
-0.0023491234 0.79557812 0.073978454 10994111
-0.0020660907 0.7951864 0.073975712 11915213
-0.001783058 0.79479468 0.07397297 15597567
-0.0015000105 0.79440296 0.073970228 15597567
-0.0012169778 0.79401124 0.073967502 15990783
0.022615388 0.76566333 0.075056434 13096659
0.022895545 0.7652756 0.075053722 15990783
0.023175716 0.76488781 0.07505101 16645880
0.023455888 0.76450008 0.075048298 16382708
0.02373606 0.76411235 0.075045586 13551551
0.024016231 0.76372463 0.075042874 13485758
0.024875775 0.76407993 0.075474411 13419450
0.025154993 0.76369345 0.075471699 13353657
0.025434211 0.76330709 0.075469002 13550776
0.025713429 0.76292062 0.075466305 13550776
0.025992647 0.76253426 0.075463593 13550776
0.02627185 0.76214778 0.075460896 13550776
0.026551068 0.76176143 0.075458199 13484983
-0.0062229484 0.80052692 0.074433044 12368560
-0.0059399009 0.80013525 0.074430302 13096657
-0.0056568682 0.79974353 0.074427575 9017491
-0.0053738207 0.79935181 0.074424833 9545122
-0.005090788 0.79896009 0.074422091 12703186
-0.0048077554 0.79856837 0.074419349 12572883
-0.0045247078 0.79817671 0.074416608 13757157
-0.0042416751 0.79778498 0.074413881 14349554
-0.0039586425 0.79739326 0.074411139 12507350
-0.0036755949 0.7970016 0.074408397 11521738
-0.0033925623 0.79660988 0.074405655 13824493
-0.0031095147 0.79621816 0.074402913 14876671
-0.0028264821 0.79582644 0.074400187 15007743
-0.0025434494 0.79543471 0.074397445 13560808
-0.0022604018 0.79504305 0.074394703 10863295
-0.0019773692 0.79465133 0.074391961 12572116
-0.0016943216 0.79425961 0.074389219 15663103
-0.001411289 0.79386795 0.074386492 15925247
-0.0064172596 0.80038357 0.074852034 11840933
-0.006134212 0.79999191 0.074849293 8687501
-0.0058511794 0.79960018 0.074846551 11516600
-0.0055681467 0.79920846 0.074843824 11979463
-0.0052850991 0.7988168 0.074841082 11979463
-0.0050020665 0.79842508 0.07483834 13296606
-0.0047190338 0.79803336 0.074835598 12770262
-0.0044359863 0.79764163 0.074832857 11850957
-0.0041529536 0.79724991 0.074830115 13824747
-0.0038699061 0.79685825 0.074827388 14680063
-0.0035868734 0.79646653 0.074824646 14417915
-0.0033038408 0.79607481 0.074821904 14614524
-0.0030207932 0.79568315 0.074819162 14548987
-0.0027377605 0.79529142 0.074816436 15007743
-0.0024547279 0.7948997 0.074813694 15007743
-0.0021716803 0.79450798 0.074810952 11125187
-0.0018886477 0.79411626 0.07480821 12704219
-0.0016056001 0.7937246 0.074805468 15925247
-0.0062577426 0.79665256 0.074396357 13361886
-0.0059728026 0.79625821 0.0743936 15073273
-0.0056878477 0.79586387 0.074390844 15269884
-0.0054028928 0.79546946 0.074388087 14876670
-0.0057863295 0.79445112 0.073956162 14680059
-0.0055004209 0.7940554 0.07395339 14876666
-0.0052145123 0.79365975 0.073950633 15073277
-0.0049286038 0.79326403 0.073947862 15073273
-0.0046426952 0.79286838 0.07394509 15204347
-0.00645338 0.79650825 0.074818164 11189947
-0.0061684251 0.79611385 0.074815422 9743530
-0.0058834702 0.7957195 0.074812651 9151393
-0.0055985153 0.79532516 0.074809894 10008240
-0.0059826076 0.79430628 0.074379399 10402998
-0.005696699 0.79391062 0.074376628 11323328
-0.0054108053 0.79351497 0.074373856 14810357
-0.0051248968 0.79311931 0.074371099 15597562
-0.0048389882 0.7927236 0.074368328 15400695
-0.0066490024 0.79636395 0.075239986 7438209
-0.0063640475 0.79596961 0.075237229 7046021
-0.0060790926 0.79557526 0.075234473 10862015
-0.0057941526 0.79518086 0.075231716 13363942
-0.0061789006 0.7941615 0.074802637 15073279
-0.005892992 0.79376584 0.074799865 15269884
-0.0056070834 0.79337013 0.074797094 15400958
-0.0053211749 0.79297447 0.074794322 15728636
-0.0050352663 0.79257882 0.074791566 15728636
-0.0060791969 0.7909199 0.07393606 15663103
-0.005791381 0.79052162 0.073933274 15072502
-0.0055035502 0.79012328 0.073930487 12113364
-0.0058777779 0.78908932 0.073501304 9744816
-0.0055889934 0.78868973 0.073498517 13624038
-0.0053002238 0.78829008 0.073495716 14413554
-0.0050114393 0.78789043 0.073492929 14478314
-0.0047226697 0.78749079 0.073490128 14544107
-0.0044339001 0.78709114 0.073487341 14348009
-0.0041451156 0.78669149 0.07348454 14413802
-0.003856346 0.78629184 0.073481739 14676972
-0.0029131919 0.78653836 0.073905423 14676972
-0.0026253611 0.78614002 0.073902637 14874351
-0.0023375452 0.78574169 0.07389985 15794173
-0.0020497292 0.78534341 0.073897064 15466495
-0.0017619133 0.78494507 0.073894277 15073017
-0.0014740825 0.78454673 0.073891491 14483452
-0.0082915276 0.79356241 0.07438162 11387844
-0.0080037117 0.79316407 0.074378833 14745336
-0.0077158958 0.79276574 0.074376047 15138814
-0.0074280649 0.79236746 0.07437326 14876665
-0.007140249 0.79196912 0.074370474 15269887
-0.0068524331 0.79157078 0.074367687 15532028
-0.0065646172 0.7911725 0.074364901 15466491
-0.0062768012 0.79077417 0.074362129 13559776
-0.0059889704 0.79037583 0.074359342 12836053
-0.0057011545 0.78997749 0.074356556 11981776
-0.006076023 0.78894311 0.073928788 12902878
-0.0057872534 0.78854346 0.073926002 13296868
-0.0054984838 0.78814381 0.0739232 11717836
-0.0052096993 0.78774416 0.073920399 10794422
-0.0049209297 0.78734452 0.073917612 13031384
-0.0046321452 0.78694487 0.073914826 15072502
-0.0043433756 0.78654522 0.073912024 15269881
-0.0040545911 0.78614557 0.073909223 15138806
-0.0031107813 0.78639257 0.074331492 14941427
-0.0028229654 0.78599429 0.074328706 14020841
-0.0025351495 0.78559595 0.074325919 12902360
-0.0022473186 0.78519762 0.074323133 12376018
-0.0019595027 0.78479934 0.074320346 13823464
-0.0016716868 0.784401 0.07431756 14679804
-0.0084891319 0.79341662 0.074807689 10993086
-0.0082013011 0.79301834 0.074804902 10072749
-0.0079134852 0.79262 0.074802116 12572883
-0.0076256692 0.79222167 0.074799329 15073277
-0.0073378533 0.79182339 0.074796543 13889003
-0.0070500225 0.79142505 0.074793756 11783877
-0.0067622066 0.79102671 0.074790969 11125947
-0.0064743906 0.79062843 0.074788183 11982028
-0.0061865747 0.79023004 0.074785396 14153197
-0.0058987588 0.78983176 0.07478261 15138814
-0.0062742829 0.7887969 0.074356273 15204351
-0.0059855133 0.78839719 0.074353471 15466495
-0.0056967288 0.7879976 0.074350685 15597567
-0.0054079592 0.78759789 0.074347883 15072250
-0.0051191747 0.78719831 0.074345097 13295839
-0.0048304051 0.78679866 0.074342296 11915465
-0.0045416355 0.78639901 0.074339509 14020841
-0.004252851 0.78599936 0.074336708 15204343
-0.0033083856 0.78624684 0.074757546 15335417
-0.0030205697 0.7858485 0.074754775 15073273
-0.0027327389 0.78545022 0.074751988 15269884
-0.0024449229 0.78505188 0.074749202 14810875
-0.002157107 0.78465354 0.074746415 12573913
-0.0018692762 0.78425521 0.074743629 11126732
-0.0086867213 0.79327089 0.075233757 14743285
-0.0083989054 0.79287255 0.075230956 13033434
-0.0081110895 0.79247427 0.075228184 7835787
-0.0078232586 0.79207593 0.075225398 8558745
-0.0075354427 0.79167759 0.075222611 8690331
-0.0072476268 0.79127932 0.075219825 13099225
-0.0069598109 0.79088092 0.075217038 15335419
-0.0066719949 0.79048264 0.075214252 15204350
-0.0063841641 0.7900843 0.075211465 14876665
-0.0060963482 0.78968596 0.075208679 15138812
-0.006472528 0.78865063 0.074783757 15269886
-0.0061837584 0.78825098 0.074780956 15466495
-0.0058949888 0.78785133 0.074778169 15400958
-0.0056062043 0.78745168 0.074775368 15204345
-0.0053174347 0.78705204 0.074772581 15400956
-0.0050286651 0.78665239 0.07476978 15073273
-0.0047398806 0.78625274 0.074766994 15007736
-0.004451111 0.78585309 0.074764192 15269882
-0.003505975 0.7861011 0.075183615 15335419
-0.0032181591 0.78570276 0.075180829 15597565
-0.0029303432 0.78530443 0.075178057 15532028
-0.0026425123 0.78490609 0.075175256 15335419
-0.0023546964 0.78450775 0.075172484 15007222
-0.0020668805 0.78410947 0.075169697 12047067
-0.010706291 0.78941715 0.073968798 12112078
-0.010414645 0.7890135 0.073965982 10467253
-0.010123 0.78860992 0.07396315 10467505
-0.009162873 0.78883851 0.074381009 13230811
-0.0088721812 0.78843623 0.074378192 14744564
-0.0085815042 0.78803396 0.074375391 15400958
-0.0082908124 0.78763163 0.074372575 15466493
-0.0080001205 0.78722936 0.074369758 15532030
-0.0077094287 0.78682709 0.074366942 15663103
-0.0080814958 0.7857846 0.073943406 14217195
-0.0077898502 0.78538096 0.073940575 11323330
-0.0074982047 0.78497738 0.073937759 14349808
-0.0072065592 0.78457379 0.073934942 15204347
-0.0069149137 0.78417015 0.073932111 15204347
-0.0066232681 0.78376651 0.073929295 14677744
-0.0063316226 0.78336293 0.073926464 11980231
-0.006039992 0.78295928 0.073923647 10993336
-0.0057483464 0.7825557 0.073920831 11190715
-0.010906518 0.78926945 0.074400529 14481140
