# .PCD v0.7 - Point Cloud Data file format
VERSION 0.7
FIELDS x y z rgb
SIZE 4 4 4 4
TYPE F F F U
COUNT 1 1 1 1
WIDTH 1109
HEIGHT 1
VIEWPOINT 0 0 0 1 0 0 0
POINTS 1109
DATA ascii
0.038662165 0.74869615 0.071868792 9140840
0.038325109 0.74850279 0.071866497 9140840
0.037988052 0.74830943 0.071864203 9140840
0.037651002 0.74811614 0.071861908 9206633
0.037313946 0.74792278 0.071859613 9338219
0.036976889 0.74772942 0.071857318 9206633
0.036639839 0.74753606 0.071855038 9338219
0.036302775 0.74734271 0.071852744 9338219
0.035965726 0.74714941 0.071850449 9207403
0.035628669 0.74695605 0.071848154 9075817
0.035291612 0.74676275 0.071845859 9075819
0.034954563 0.7465694 0.071843565 9075819
0.034617499 0.74637604 0.07184127 9075819
0.034280449 0.74618268 0.07183899 9010026
0.0339434 0.74598932 0.071836695 9010024
0.033606336 0.74579602 0.0718344 8944231
0.033269286 0.74560267 0.071832106 8878438
0.033464983 0.74474812 0.072377965 8944231
0.033129349 0.74455559 0.072375685 9010024
0.032793716 0.74436307 0.072373405 9075817
0.032458082 0.74417055 0.072371125 9075817
0.03158401 0.74463594 0.071820647 9010024
0.03124696 0.74444258 0.071818352 8944231
0.030909911 0.74424928 0.071816057 8944231
0.030572847 0.74405593 0.071813762 8944231
0.030235797 0.74386263 0.071811467 9010024
0.029898748 0.74366927 0.071809173 8944744
0.029561684 0.74347591 0.071806893 8944744
0.029224634 0.74328256 0.071804598 8813158
0.02888757 0.7430892 0.071802303 8813158
0.028550521 0.7428959 0.071800008 8747365
0.028213471 0.74270254 0.071797714 8747365
0.027876407 0.74250919 0.071795419 8548190
0.026983932 0.74296409 0.071244821 8087639
0.026645467 0.7427699 0.071242511 7560781
0.026307002 0.74257576 0.071240216 7034437
0.025968522 0.74238157 0.071237907 6639679
0.025630057 0.74218744 0.071235612 5850163
0.025291577 0.74199331 0.071233302 5915956
0.024953112 0.74179912 0.071231008 5915956
0.024614632 0.74160498 0.071228698 5653038
0.023709416 0.74205256 0.070677996 5521452
0.023369536 0.74185759 0.070675686 5061415
0.02302964 0.74166262 0.070673376 4929829
0.022118747 0.74210691 0.070122644 4864036
0.021777451 0.74191111 0.07012032 4864036
0.020862326 0.74235296 0.069569558 4863782
0.020519599 0.74215639 0.069567218 4797989
0.020176873 0.74195981 0.069564894 4732709
0.01925607 0.74239844 0.069014087 4732709
0.018911943 0.74220103 0.069011748 4666916
0.018567801 0.74200362 0.069009408 4666916
0.017641351 0.74243897 0.068458572 4535330
0.017295793 0.74224079 0.068456218 4535330
0.016950235 0.74204254 0.068453863 4666918
0.016604677 0.7418443 0.068451509 4732711
0.016259134 0.74164611 0.068449169 4666918
0.015913576 0.74144793 0.068446815 4666918
0.014977202 0.74187756 0.067895919 4666918
0.014630243 0.74167854 0.06789355 4666918
0.011799872 0.74295539 0.066240683 4601895
0.011448652 0.74275392 0.066238284 4601895
0.011097431 0.74255246 0.0662359 4404516
0.010746226 0.742351 0.066233516 4404516
0.0097928345 0.74277091 0.065682486 4536102
0.0094401985 0.74256861 0.065680087 4536102
0.0084825903 0.74298614 0.065129042 4536102
0.0081285536 0.74278307 0.065126628 4536102
0.0077744871 0.74257994 0.065124229 4536102
0.0068112016 0.74299419 0.064573139 4536102
0.0064557344 0.74279028 0.06457071 4535332
0.0061002672 0.74258637 0.064568296 4666918
0.0051313341 0.74299741 0.064017162 4732711
0.0047744513 0.74279267 0.064014733 4732711
0.0044175684 0.74258792 0.064012319 4666918
0.0040606856 0.74238324 0.06400989 4666918
0.0037038028 0.7421785 0.064007461 4666918
0.0027263463 0.74258465 0.063456267 4732711
0.0023680478 0.74237913 0.063453823 4732711
0.0020097494 0.74217355 0.063451394 4732711
0.0010266453 0.74257648 0.062900171 4732711
0.00066693127 0.74237013 0.062897727 4798504
0.00030721724 0.74216378 0.062895268 4798502
-0.00068156421 0.74256337 0.062344015 4798502
-0.0010427088 0.74235624 0.062341556 4667686
-0.0014038235 0.74214911 0.062339097 4667686
-0.0023982674 0.74254549 0.061787784 4667688
-0.0027607977 0.74233747 0.061785325 4601895
-0.0037594885 0.74273145 0.061234012 4667688
-0.0041234493 0.74252266 0.061231539 4667688
-0.0044874102 0.74231386 0.06122905 4733481
-0.0054917783 0.74270457 0.060677662 4733481
-0.0058571547 0.74249494 0.060675189 4668201
-0.0062225312 0.74228537 0.0606727 4733994
-0.0072325468 0.7426728 0.060121298 4668201
-0.0075993538 0.7424624 0.060118809 4668201
-0.0079661459 0.74225199 0.060116306 4537901
-0.016927168 0.74484622 0.055699036 4141346
-0.0173053 0.74462926 0.055696473 4207139
-0.017683432 0.74441242 0.055693895 4206885
-0.018061563 0.74419546 0.055691317 4206885
-0.019106984 0.74456263 0.055139676 4206885
-0.019486517 0.74434489 0.055137083 4206885
-0.019866064 0.74412715 0.055134505 4272932
-0.020245597 0.74390948 0.055131927 4338725
-0.020625129 0.7436918 0.055129349 4469541
-0.021004692 0.74347407 0.055126756 4403748
-0.022060022 0.74383551 0.054575041 4534821
-0.022440985 0.74361694 0.054572448 4600614
-0.022821948 0.74339843 0.054569855 4469028
-0.023202896 0.74317992 0.054567277 4469028
-0.023583844 0.74296141 0.054564685 4469028
-0.023964807 0.7427429 0.054562092 4534821
-0.02434577 0.74252433 0.054559499 4403748
-0.024726734 0.74230582 0.054556906 4403748
0.056239158 0.76093858 0.071239337 8219479
0.05589927 0.76074362 0.071237028 8483682
0.055559382 0.76054865 0.071234703 8878440
0.055654958 0.75963575 0.071778476 8944746
0.055316485 0.75944161 0.071776181 8944746
0.054978013 0.75924742 0.071773872 9142125
0.054639541 0.75905329 0.071771577 9142125
0.054301068 0.75885916 0.071769267 9273198
0.053962603 0.75866497 0.071766973 9273198
0.053624131 0.75847083 0.071764663 9273198
0.053285658 0.7582767 0.071762368 9207405
0.052947186 0.75808251 0.071760058 9273198
0.052608714 0.75788838 0.071757764 9207405
0.052270249 0.75769424 0.071755469 9207405
0.051931776 0.75750005 0.071753159 9207405
0.051593304 0.75730592 0.071750849 9075819
0.051254831 0.75711173 0.071748555 9075819
0.050916359 0.7569176 0.07174626 9207405
0.051034592 0.75601768 0.072290182 9075819
0.050697535 0.75582433 0.072287887 9010026
0.050360486 0.75563097 0.072285593 9075819
0.050023429 0.75543761 0.072283298 9140842
0.049686372 0.75524431 0.072281003 9206635
0.049349315 0.75505096 0.072278723 9206635
0.044823885 0.75342286 0.07170482 8878438
0.044485413 0.75322866 0.07170251 8944231
0.04414694 0.75303453 0.071700215 8878692
0.043808475 0.7528404 0.071697906 8812899
0.043470003 0.75264621 0.071695611 8812899
0.04313153 0.75245208 0.071693301 8878692
0.042793065 0.75225788 0.071691006 8747106
0.042454585 0.75206375 0.071688697 8812899
0.04211612 0.75186956 0.071686402 8812899
0.041777648 0.75167543 0.071684092 8878692
0.041439176 0.75148129 0.071681798 8812899
0.041597053 0.75060409 0.072225988 8812899
0.041260004 0.7504108 0.072223693 8812899
0.040922947 0.75021744 0.072221398 8878692
0.04058589 0.75002408 0.072219104 8878692
0.040248841 0.74983072 0.072216824 8878692
0.039911784 0.74963737 0.072214529 8944231
0.039574727 0.74944407 0.072212234 8944231
0.039237678 0.74925071 0.072209939 9075047
0.038900621 0.74905735 0.072207645 9075047
0.038563564 0.74886405 0.07220535 9140840
0.038226515 0.7486707 0.07220307 9140840
0.037889458 0.74847734 0.072200775 9140840
0.037552401 0.74828398 0.07219848 9206633
0.037215345 0.74809062 0.072196186 9338221
0.036878288 0.74789733 0.072193891 9206635
0.036541238 0.74770397 0.072191596 9338221
0.036204182 0.74751067 0.072189301 9338221
0.035867125 0.74731731 0.072187021 9207405
0.035530075 0.74712396 0.072184727 9075819
0.035193019 0.7469306 0.072182432 9075819
0.034855962 0.74673724 0.072180137 9075819
0.034518912 0.74654394 0.072177842 9075819
0.034181848 0.74635059 0.072175547 9010026
0.033844799 0.74615723 0.072173268 9010026
0.033507749 0.74596393 0.072170973 8944233
0.033170685 0.74577057 0.072168678 8944231
0.033366814 0.74491537 0.072713122 8944231
0.033031181 0.74472284 0.072710842 9010024
0.032695532 0.74453026 0.072708562 9075817
0.032359898 0.74433774 0.072706282 9075817
0.031485423 0.74480385 0.072157204 9010024
0.031148359 0.74461055 0.072154924 8944231
0.03081131 0.74441719 0.072152629 8944231
0.030474246 0.74422383 0.072150335 8944231
0.030137196 0.74403048 0.07214804 9010024
0.029800147 0.74383712 0.072145745 8944744
0.029463083 0.74364382 0.07214345 8944744
0.029126033 0.74345046 0.072141171 8878951
0.028788969 0.74325711 0.072138876 8878951
0.028451934 0.74306381 0.072136581 8878951
0.02811487 0.74287045 0.072134286 8878951
0.027777806 0.74267709 0.072131991 8944231
0.026884928 0.74313265 0.071582794 8944231
0.026546463 0.74293852 0.071580499 8746082
0.026207983 0.74274433 0.07157819 8219738
0.025869519 0.74255019 0.071575895 7758674
0.025531039 0.74235606 0.071573585 6969158
0.025192574 0.74216187 0.07157129 6376761
0.024854094 0.74196774 0.071568981 6376761
0.024515629 0.74177361 0.071566686 6178610
0.023609996 0.74222183 0.071017399 6112817
0.023270115 0.74202687 0.07101509 5915438
0.02293022 0.7418319 0.07101278 5586473
0.022018909 0.74227691 0.070463449 5061415
0.021677613 0.74208117 0.070461124 4995622
0.020762071 0.74252367 0.069911778 4929575
0.020419344 0.74232709 0.069909453 4863782
0.020076618 0.74213052 0.069907114 4863782
0.019155413 0.74256986 0.069357723 4797989
0.018811271 0.74237245 0.069355384 4666916
0.018467143 0.74217504 0.069353044 4732709
0.017540261 0.74261111 0.068803623 4666916
0.017194703 0.74241287 0.068801269 4666916
0.01684916 0.74221468 0.068798915 4666918
0.016503602 0.74201643 0.068796575 4732711
0.016158059 0.74181825 0.068794221 4666918
0.015812501 0.74162 0.068791866 4732711
0.01487571 0.74205041 0.068242386 4666918
0.014528736 0.74185139 0.068240017 4666918
0.011697128 0.74313033 0.066591397 4601895
0.011345908 0.74292886 0.066588998 4601895
0.010994688 0.7427274 0.066586614 4404516
0.010643482 0.74252594 0.066584229 4404516
0.0096896738 0.74294657 0.066034615 4536102
0.0093370527 0.74274433 0.066032216 4536102
0.0083790272 0.74316251 0.065482587 4536102
0.0080249757 0.74295938 0.065480173 4536102
0.0076709241 0.74275631 0.065477759 4404516
0.0067072213 0.74317122 0.064928085 4536102
0.0063517541 0.74296737 0.064925671 4666918
0.0059962869 0.74276346 0.064923257 4666918
0.0050269365 0.74317515 0.064373538 4732711
0.0046700537 0.74297047 0.064371109 4732711
0.0043131709 0.74276572 0.06436868 4666918
0.0039562881 0.74256098 0.064366251 4666918
0.0035994053 0.7423563 0.064363822 4666918
0.0026215315 0.7427631 0.063814044 4732711
0.0022632331 0.74255759 0.063811615 4797991
0.0019049346 0.74235207 0.063809171 4797991
0.0009214282 0.74275565 0.063259363 4797991
0.00056171417 0.7425493 0.063256919 4797991
0.00020200014 0.74234295 0.063254476 4798504
-0.00078719854 0.74274325 0.062704623 4798504
-0.0011483431 0.74253613 0.062702164 4798504
-0.0015094727 0.742329 0.062699705 4732711
-0.002504319 0.74272603 0.062149808 4667688
-0.0028668493 0.74251807 0.062147349 4601895
-0.0038659573 0.74291271 0.061597452 4667688
-0.0042299181 0.74270391 0.061594963 4667688
-0.0045938939 0.74249518 0.061592489 4864297
-0.0055986643 0.74288654 0.061042517 4864297
-0.0059640408 0.74267697 0.061040029 4799274
-0.0063294172 0.7424674 0.061037555 4799274
-0.0073398501 0.74285555 0.060487568 4667688
-0.0077066422 0.74264514 0.06048508 4667688
-0.0080734342 0.74243474 0.060482576 4602408
-0.017037794 0.74503458 0.056076616 3945250
-0.017415911 0.74481761 0.056074053 3945250
-0.017794043 0.74460077 0.056071475 4075812
-0.01817216 0.74438381 0.056068897 4075812
-0.019218013 0.74475169 0.055518672 4141092
-0.019597545 0.74453396 0.055516079 4206885
-0.019977078 0.74431622 0.055513501 4272932
-0.02035661 0.74409854 0.055510923 4272932
-0.020736158 0.74388081 0.055508345 4338725
-0.021115705 0.74366307 0.055505753 4338725
-0.022171468 0.74402523 0.054955453 4469541
-0.022552416 0.74380672 0.05495286 4469541
-0.022933379 0.74358821 0.054950267 4469541
-0.023314342 0.7433697 0.054947674 4403748
-0.02369529 0.74315119 0.054945081 4403748
-0.024076253 0.74293262 0.054942504 4535334
-0.024457216 0.74271411 0.054939911 4403748
-0.024838164 0.7424956 0.054937318 4403748
0.056139737 0.76110792 0.071578726 8614237
0.055799849 0.76091295 0.071576416 8878440
0.055459961 0.76071799 0.071574107 9075819
0.055555947 0.75980437 0.072116464 9010541
0.055217475 0.75961018 0.07211417 9010541
0.054879002 0.75941604 0.07211186 9142125
0.05454053 0.75922191 0.072109565 9142125
0.054202057 0.75902772 0.072107255 9273198
0.053863592 0.75883359 0.072104961 9273198
0.05352512 0.75863945 0.072102651 9273198
0.053186648 0.75844526 0.072100356 9207405
0.052848175 0.75825113 0.072098047 9207405
0.052509703 0.758057 0.072095752 9075819
0.052171238 0.75786281 0.072093442 9075819
0.051832765 0.75766867 0.072091147 9207405
0.051494293 0.75747448 0.072088838 9075819
0.05115582 0.75728035 0.072086543 9075819
0.050817356 0.75708616 0.072084233 9075819
0.050935999 0.75618553 0.072626755 9075819
0.050598942 0.75599223 0.07262446 9010026
0.050261885 0.75579888 0.072622165 9075819
0.049924836 0.75560552 0.07261987 9140842
0.049587779 0.75541222 0.072617576 9140842
0.049250722 0.75521886 0.072615281 9140842
0.04526335 0.75486898 0.071504757 9075049
0.044923455 0.75467402 0.071502447 9009256
0.044583574 0.75447905 0.071500123 9009256
0.044724874 0.75359142 0.072042793 9009254
0.044386402 0.75339729 0.072040498 9075047
0.044047937 0.75320315 0.072038189 9009508
0.043709464 0.75300896 0.072035894 8943715
0.043370992 0.75281483 0.072033584 8877922
0.04303252 0.75262064 0.072031289 8943715
0.042694047 0.75242651 0.07202898 8877922
0.042355582 0.75223231 0.072026685 8877922
0.04201711 0.75203818 0.072024375 8943715
0.041678637 0.75184405 0.07202208 8943715
0.041340165 0.75164986 0.072019771 8943715
0.04149846 0.750772 0.07256256 8746336
0.041161411 0.75057864 0.072560266 8747106
0.040824354 0.75038528 0.072557971 8812899
0.040487297 0.75019199 0.072555676 8812899
0.040150248 0.74999863 0.072553381 8812899
0.039813191 0.74980527 0.072551101 8944231
0.039476134 0.74961197 0.072548807 8878438
0.039139077 0.74941862 0.072546512 9075047
0.038802028 0.74922526 0.072544217 9075047
0.038464971 0.7490319 0.072541922 9140840
0.038127914 0.74883854 0.072539628 9140840
0.037790865 0.74864525 0.072537333 9140842
0.037453808 0.74845189 0.072535053 9206635
0.037116751 0.74825859 0.072532758 9338221
0.036779694 0.74806523 0.072530463 9338221
0.036442645 0.74787188 0.072528169 9206635
0.036105588 0.74767852 0.072525874 9338221
0.035768531 0.74748516 0.072523579 9338221
0.035431474 0.74729186 0.072521299 9338221
0.035094425 0.74709851 0.072519004 9075819
0.034757368 0.74690515 0.07251671 9075819
0.034420311 0.74671185 0.072514415 9075819
0.034083262 0.74651849 0.07251212 9010026
0.033746198 0.74632514 0.072509825 9010026
0.033409148 0.74613178 0.07250753 8944233
0.033072099 0.74593842 0.072505251 8944233
0.033268631 0.7450825 0.073048279 8944233
0.032932997 0.74488997 0.073045999 9010026
0.032597348 0.74469745 0.073043719 9075819
0.032261714 0.74450493 0.073041424 9075819
0.031386822 0.74497175 0.072493777 9010026
0.031049773 0.74477839 0.072491497 9010026
0.030712709 0.74458504 0.072489202 9010026
0.030375659 0.74439174 0.072486907 9010026
0.030038595 0.74419838 0.072484612 9010026
0.029701546 0.74400502 0.072482318 9010026
0.029364496 0.74381173 0.072480023 9010026
0.029027432 0.74361837 0.072477728 8944746
0.028690383 0.74342501 0.072475448 8944746
0.028353333 0.74323165 0.072473153 8878953
0.028016269 0.7430383 0.072470859 8878953
0.02767922 0.742845 0.072468564 8878951
0.02678591 0.74330127 0.071920782 8878951
0.026447445 0.74310708 0.071918473 8746852
0.026108965 0.74291295 0.071916178 8615266
0.0257705 0.74271882 0.071913868 8483680
0.025432035 0.74252462 0.071911573 8483680
0.02509357 0.74233049 0.071909264 7824467
0.02475509 0.74213636 0.071906969 7100744
0.024416611 0.74194217 0.071904659 6770749
0.023510575 0.74239111 0.071356803 6573370
0.02317068 0.7421962 0.071354479 6441782
0.022830799 0.74200118 0.071352169 6178610
0.021919072 0.7424469 0.070804268 5784622
0.021577775 0.74225116 0.070801944 5521450
0.021236464 0.74205536 0.070799619 5192747
0.020895168 0.74185956 0.070797294 4995368
0.020553857 0.74166381 0.070794985 4929575
0.019633651 0.74210465 0.070247009 4929575
0.019290939 0.74190807 0.070244685 4797989
0.018948212 0.7417115 0.070242345 4797989
0.018022344 0.74214906 0.06969434 4666916
0.017678201 0.74195164 0.069692001 4666916
0.017334059 0.74175423 0.069689661 4732711
0.016402528 0.74218857 0.069141626 4732711
0.01605697 0.74199033 0.069139272 4666918
0.015711412 0.74179214 0.069136918 4732711
0.014774218 0.74222326 0.068588853 4666918
0.014427245 0.74202418 0.068586484 4666918
0.014080271 0.74182516 0.068584129 4666918
0.013733312 0.74162614 0.068581775 4666918
0.013386339 0.74142712 0.068579406 4732711
0.012440637 0.74185336 0.068031266 4732711
0.012092248 0.7416535 0.068028897 4535332
0.011743873 0.74145365 0.068026528 4469539
0.010189518 0.74249941 0.066932544 4536102
0.009838298 0.74229795 0.06693016 4404516
0.0088812709 0.74271768 0.066381946 4404516
0.0085286349 0.74251539 0.066379547 4536102
0.0081759989 0.74231315 0.066377148 4404516
0.0072133094 0.74272954 0.06582889 4536102
0.0068592578 0.74252647 0.065826491 4666918
0.0065052062 0.7423234 0.065824077 4666918
0.0055368394 0.74273658 0.065275788 4732711
0.0051813722 0.74253273 0.065273374 4732711
0.004825905 0.74232882 0.065270945 4535332
0.0044704527 0.74212492 0.065268531 4535332
0.0041149855 0.74192101 0.065266117 4666918
0.0037595183 0.7417171 0.065263703 4732711
0.002781257 0.74212462 0.064715341 4797991
0.0024243742 0.74191988 0.064712912 4797991
0.0014418215 0.74232501 0.064164519 4797991
0.0010835379 0.74211949 0.064162076 4797991
0.00072523952 0.74191397 0.064159647 4797991
-0.00026294589 0.74231577 0.063611224 4863784
-0.00062265992 0.74210942 0.063608766 4798504
-0.00098237395 0.74190313 0.063606322 4732711
-0.0019762367 0.7423017 0.063057855 4798504
-0.0023373663 0.74209458 0.063055396 4732711
-0.0039724261 0.74309403 0.061960876 4798504
-0.0043363869 0.74288523 0.061958402 4798504
-0.0047003478 0.7426765 0.061955929 4798504
-0.0050643235 0.7424677 0.061953455 4864297
-0.0054282695 0.74225891 0.061950982 4864297
-0.0057922453 0.74205017 0.061948508 4930090
-0.0068016797 0.74243981 0.061399922 4798504
-0.0071670562 0.74223018 0.061397433 4798504
-0.0075324327 0.74202061 0.061394945 4602408
-0.00919725 0.74300301 0.060300216 4602408
-0.0095654577 0.74279177 0.060297698 4536615
-0.016485915 0.74463421 0.057000414 4671281
-0.016862631 0.74441814 0.056997851 4276523
-0.017239347 0.74420202 0.056995288 3682851
-0.017616048 0.74398595 0.056992725 3682851
-0.018660903 0.74435532 0.056443915 4010021
-0.01903902 0.74413836 0.056441337 4075814
-0.019417152 0.74392152 0.056438759 4075812
-0.020467654 0.74428761 0.055889919 4207398
-0.020847186 0.74406987 0.055887327 4272678
-0.021226734 0.74385214 0.055884749 4272678
-0.021606281 0.74363446 0.055882171 4469287
-0.021985814 0.74341673 0.055879593 4469287
-0.022365347 0.74319899 0.055877 4469287
-0.022744879 0.74298131 0.055874422 4403494
-0.023124442 0.74276364 0.055871844 4403748
-0.024187699 0.7431224 0.0553229 4535334
-0.024568662 0.74290383 0.055320308 4403748
-0.02494961 0.74268532 0.05531773 4403748
0.056040309 0.7612772 0.07191813 9009256
0.055700421 0.76108223 0.07191582 9010028
0.055360533 0.76088727 0.071913511 9075821
0.055020645 0.7606923 0.071911186 9142127
0.054680765 0.76049733 0.071908876 9010541
0.054340877 0.76030236 0.071906567 9207405
0.054000989 0.7601074 0.071904257 9207405
0.053661101 0.75991243 0.071901947 9273198
0.053321213 0.75971746 0.071899638 9207405
0.052981324 0.7595225 0.071897328 9207405
0.052641436 0.75932753 0.071895003 9207405
0.052301548 0.75913256 0.071892694 9207405
0.05196166 0.7589376 0.071890384 9075819
0.05162178 0.75874263 0.071888074 9075819
0.051281892 0.75854766 0.071885765 9075819
0.050942004 0.7583527 0.071883455 9075819
0.050602116 0.75815773 0.071881145 9075819
0.050262228 0.75796276 0.071878821 9075819
0.049464807 0.75847501 0.07133311 9075819
0.049123503 0.7582792 0.071330786 9010026
0.0487822 0.75808346 0.071328476 9075819
0.045163922 0.75503826 0.071844146 8944233
0.044824034 0.75484335 0.071841836 8878440
0.044484146 0.75464833 0.071839526 8878440
0.044625863 0.75376004 0.072380781 8878438
0.044287391 0.75356585 0.072378471 8944231
0.043948919 0.75337172 0.072376177 8943715
0.043610454 0.75317758 0.072373867 8943715
0.042784713 0.75367355 0.071827963 8877922
0.042444825 0.75347853 0.071825653 8746336
0.042104937 0.75328362 0.071823344 8746336
0.041765049 0.75308859 0.071821034 8877922
0.041425169 0.75289369 0.071818724 8943715
0.041085273 0.75269866 0.071816415 8943715
0.040745392 0.75250375 0.07181409 8943715
0.040405504 0.75230873 0.07181178 8746336
0.040065616 0.75211382 0.071809471 8877922
0.039725728 0.75191879 0.071807161 8943715
0.039887272 0.75104189 0.07234855 8877922
0.039548799 0.7508477 0.07234624 8943715
0.039210327 0.75065356 0.072343946 9009508
0.038871855 0.75045943 0.072341636 8943715
0.03853339 0.75026524 0.072339341 9009508
0.038194917 0.75007111 0.072337031 9075301
0.037856445 0.74987698 0.072334737 9075047
0.037517972 0.74968278 0.072332427 9140840
0.0371795 0.74948865 0.072330132 9140842
0.036841035 0.74929452 0.072327822 9206635
0.036502562 0.74910033 0.072325528 9338221
0.03616409 0.7489062 0.072323218 9338221
0.035825618 0.748712 0.072320923 9206635
0.035487145 0.74851787 0.072318614 9206635
0.03514868 0.74832368 0.072316319 9338221
0.034810208 0.74812955 0.072314009 9338221
0.034471735 0.74793541 0.072311714 9207405
0.03413327 0.74774122 0.072309405 9207405
0.033794791 0.74754709 0.07230711 9075819
0.033456326 0.74735296 0.072304815 9075819
0.033117846 0.74715877 0.072302505 9010026
0.032779381 0.74696463 0.072300196 9010026
0.032440916 0.7467705 0.072297901 9010026
0.032102436 0.74657631 0.072295606 9010026
0.031763971 0.74638218 0.072293296 9075819
0.031425506 0.74618804 0.072290987 9075819
0.031087026 0.74599385 0.072288692 9075819
0.030748561 0.74579972 0.072286397 9010026
0.030410081 0.74560559 0.072284088 9010026
0.030071616 0.7454114 0.072281778 9075819
0.029733136 0.74521726 0.072279483 9010026
0.029394671 0.74502313 0.072277188 9010026
0.029056206 0.74482894 0.072274879 9010026
0.028717726 0.74463481 0.072272569 9010026
0.028379261 0.74444067 0.072270274 9075819
0.028040782 0.74424648 0.072267979 9010026
0.027702317 0.74405229 0.07226567 9010026
0.027363852 0.74385816 0.072263375 9010026
0.027025372 0.74366403 0.072261065 9010024
0.026686907 0.74346983 0.07225877 9010024
0.026348442 0.7432757 0.072256461 8878438
0.025450468 0.74373025 0.071710065 8878438
0.025110587 0.74353528 0.071707755 8812645
0.024770692 0.74334031 0.071705446 8812645
0.024430811 0.74314535 0.071703136 8746852
0.024090916 0.74295038 0.071700811 8549473
0.023751035 0.74275541 0.071698502 8022361
0.02341114 0.74256045 0.071696192 7693396
0.023071259 0.74236548 0.071693882 7232070
0.022731364 0.74217051 0.071691573 6771519
0.021819234 0.74261695 0.071145073 6310968
0.021477923 0.74242115 0.071142763 6047796
0.021136627 0.74222541 0.071140438 5784884
0.02079533 0.74202961 0.071138114 5653298
0.020454019 0.74183381 0.071135789 5193260
0.019533396 0.74227536 0.070589244 5127467
0.019190684 0.74207878 0.070586905 4798502
0.018847957 0.74188221 0.07058458 4798502
0.017921671 0.74232048 0.070037991 4732709
0.017577529 0.74212307 0.070035651 4732709
0.017233402 0.74192566 0.070033312 4732711
0.016301438 0.74236071 0.069486678 4798504
0.01595588 0.74216247 0.069484323 4732711
0.015610337 0.74196428 0.069481969 4732711
0.014672711 0.74239606 0.06893532 4732711
0.014325753 0.74219704 0.06893295 4732711
0.013978779 0.74199802 0.068930596 4666918
0.013631821 0.741799 0.068928242 4666918
0.013284847 0.74159992 0.068925872 4666918
0.012338728 0.74202687 0.068379149 4732711
0.011990353 0.74182701 0.06837678 4666918
0.011641964 0.74162722 0.06837441 4469539
0.01008679 0.74267435 0.067283258 4666918
0.0097355694 0.74247289 0.067280874 4535332
0.0087781101 0.74289334 0.066734061 4404516
0.0084254742 0.74269104 0.066731662 4404516
0.0080728382 0.74248874 0.066729262 4404516
0.0071097463 0.74290591 0.066182435 4536102
0.0067556947 0.74270284 0.066180021 4666918
0.0064016432 0.74249977 0.066177621 4666918
0.0054328591 0.74291366 0.065630734 4666918
0.0050773919 0.74270976 0.06562832 4666918
0.0047219247 0.74250591 0.065625906 4535332
0.0043664724 0.74230194 0.065623492 4535332
0.0040110052 0.74209809 0.065621063 4666918
0.003655538 0.74189419 0.065618649 4732711
0.0026768595 0.74230242 0.065071702 4732711
0.0023199767 0.74209768 0.065069273 4732711
0.0013370216 0.74250352 0.064522296 4732711
0.00097872317 0.74229795 0.064519867 4666918
0.00062042475 0.74209243 0.064517424 4732711
-0.00036816299 0.74249494 0.063970417 4798504
-0.00072787702 0.74228865 0.063967973 4798504
-0.0010875911 0.7420823 0.063965514 4732711
-0.002081871 0.74248159 0.063418463 4798504
-0.0024430007 0.74227446 0.063416004 4732711
-0.0040788949 0.74327528 0.062324315 4732711
-0.0044428557 0.74306655 0.062321842 4798504
-0.0048068166 0.74285775 0.062319368 4798504
-0.0051707774 0.74264896 0.062316895 4864297
-0.0055347383 0.74244022 0.062314421 4798504
-0.0058987141 0.74223143 0.062311947 4930090
-0.0069085658 0.74262178 0.061764777 4798504
-0.0072739422 0.74241221 0.061762288 4798504
-0.0076393187 0.74220264 0.0617598 4667688
-0.0093049705 0.74318641 0.060667887 4733481
-0.0096731782 0.74297523 0.060665384 4733481
-0.016596124 0.74482185 0.057376578 4934453
-0.016972825 0.74460578 0.057374015 4934453
-0.017349556 0.74438965 0.057371452 4868408
-0.017726257 0.74417359 0.057368889 4210478
-0.018771514 0.74454367 0.056821495 3814439
-0.019149646 0.74432671 0.056818917 3748646
-0.019527763 0.74410987 0.056816339 3879205
-0.020578668 0.74447668 0.056268901 3944998
-0.0209582 0.74425894 0.056266323 4141607
-0.021337762 0.7440412 0.056263745 4141607
-0.021717295 0.74382353 0.056261167 4272678
-0.022096828 0.74360579 0.056258589 4338471
-0.022476375 0.74338806 0.056255996 4272678
-0.022855908 0.74317038 0.056253418 4272678
-0.023235455 0.74295264 0.05625084 4272678
-0.02429913 0.74331212 0.055703312 4338471
-0.024680093 0.74309361 0.055700719 4403748
-0.025061056 0.7428751 0.055698127 4403748
0.055940881 0.76144648 0.072257519 9207405
0.055601001 0.76125157 0.072255209 9207918
0.055261113 0.76105654 0.072252899 9142125
0.054921225 0.76086164 0.07225059 9207920
0.054581337 0.76066667 0.07224828 9142127
0.054241449 0.7604717 0.07224597 9207918
0.053901561 0.76027673 0.072243661 9207918
0.053561673 0.76008177 0.072241336 9207918
0.053221785 0.7598868 0.072239026 9142125
0.052881896 0.75969183 0.072236717 9010539
0.052542016 0.75949687 0.072234407 9142125
0.052202128 0.7593019 0.072232097 9010539
0.05186224 0.75910693 0.072229788 9010539
0.051522352 0.75891197 0.072227478 9010539
0.051182464 0.758717 0.072225153 9010539
0.050842576 0.75852203 0.072222844 9010539
0.050502688 0.75832707 0.072220534 9010539
0.050162807 0.7581321 0.072218224 9075819
0.049364969 0.758645 0.07167393 9075819
0.049023658 0.75844926 0.071671605 9010026
0.048682362 0.75825346 0.071669281 9075819
0.045064494 0.7552076 0.072183549 8944233
0.044724606 0.75501263 0.07218124 8878440
0.044384725 0.75481766 0.07217893 8878440
0.044526853 0.7539286 0.072718769 8812645
0.04418838 0.75373447 0.07271646 8878438
0.043849915 0.75354028 0.072714165 8877668
0.043511443 0.75334615 0.072711855 8877668
0.042685285 0.75384283 0.072167367 8746336
0.042345397 0.75364786 0.072165057 8746336
0.042005509 0.7534529 0.072162747 8746336
0.041665629 0.75325793 0.072160423 8746336
0.041325741 0.75306296 0.072158113 8877922
0.040985852 0.752868 0.072155803 8877922
0.040645964 0.75267303 0.072153494 8877922
0.040306076 0.75247806 0.072151184 8746336
0.039966188 0.7522831 0.072148874 8746336
0.0396263 0.75208813 0.072146565 8943715
0.039788261 0.75121045 0.072686538 8943715
0.039449789 0.75101632 0.072684228 8877922
0.039111316 0.75082219 0.072681934 8943715
0.038772844 0.75062799 0.072679624 8877922
0.038434371 0.75043386 0.072677329 8943715
0.038095906 0.75023973 0.07267502 9009508
0.037757434 0.75004554 0.072672725 9075047
0.037418962 0.74985141 0.072670415 9140840
0.037080497 0.74965727 0.07266812 9140842
0.036742024 0.74946308 0.072665811 9206635
0.036403552 0.74926895 0.072663516 9206635
0.036065079 0.74907476 0.072661206 9206635
0.035726607 0.74888062 0.072658911 9206635
0.035388142 0.74868643 0.072656602 9338221
0.035049669 0.7484923 0.072654307 9338221
0.034711197 0.74829817 0.072651997 9338221
0.034372732 0.74810398 0.072649702 9338221
0.034034252 0.74790984 0.072647393 9338221
0.033695787 0.74771571 0.072645098 9075819
0.033357307 0.74752152 0.072642788 9075819
0.033018842 0.74732739 0.072640494 9010026
0.032680377 0.74713326 0.072638184 9075819
0.032341897 0.74693906 0.072635889 9010026
0.032003433 0.74674493 0.072633579 9010026
0.031664953 0.7465508 0.072631285 9010026
0.031326488 0.74635661 0.072628975 9075819
0.030988023 0.74616247 0.07262668 9075819
0.030649543 0.74596834 0.07262437 9010026
0.030311078 0.74577415 0.072622076 9075819
0.029972598 0.74558002 0.072619766 9075819
0.029634133 0.74538589 0.072617471 9010026
0.029295653 0.74519169 0.072615162 9010026
0.028957188 0.74499756 0.072612867 9010026
0.028618723 0.74480337 0.072610557 9075819
0.028280243 0.74460924 0.072608262 9075819
0.027941778 0.74441504 0.072605953 9075819
0.027603313 0.74422091 0.072603658 9010026
0.027264833 0.74402678 0.072601348 9075819
0.026926368 0.74383259 0.072599053 9010024
0.026587889 0.74363846 0.072596744 9010024
0.026249424 0.74344432 0.072594449 9075817
0.025351048 0.74389958 0.072049469 9010024
0.025011152 0.74370456 0.072047144 8944231
0.024671271 0.74350965 0.072044834 8878438
0.024331376 0.74331462 0.072042525 8878438
0.023991495 0.74311972 0.072040215 8878438
0.0236516 0.74292469 0.072037905 8746854
0.023311719 0.74272978 0.072035596 8812647
0.022971824 0.74253476 0.072033286 8285531
0.022631943 0.74233985 0.072030962 7956566
0.021719396 0.74278694 0.071485892 7494988
0.021378085 0.74259114 0.071483567 6442300
0.021036789 0.7423954 0.071481243 6310968
0.020695493 0.7421996 0.071478918 6310968
0.020354182 0.7420038 0.071476609 5654065
0.019433141 0.74244606 0.070931464 5588272
0.019090429 0.74224949 0.07092914 5193514
0.018747702 0.74205291 0.0709268 4996135
0.017820999 0.7424919 0.070381626 4864295
0.017476872 0.74229449 0.070379287 4732709
0.017132729 0.74209708 0.070376948 4798502
0.016200349 0.74253285 0.069831729 4798502
0.015854806 0.7423346 0.069829375 4732709
0.015509248 0.74213642 0.069827035 4732709
0.01457122 0.74256891 0.069281787 4732711
0.014224261 0.74236989 0.069279432 4732711
0.013877288 0.74217081 0.069277063 4666918
0.013530329 0.74197179 0.069274709 4732711
0.013183355 0.74177277 0.069272339 4732711
0.012236819 0.74220037 0.068727031 4732711
0.01188843 0.74200058 0.068724662 4666918
0.011540055 0.74180073 0.068722293 4535332
0.0099840462 0.74284935 0.067633972 4535332
0.0096328259 0.74264789 0.067631572 4535332
0.0086749643 0.74306899 0.06708619 4404516
0.0083223283 0.74286669 0.067083791 4404516
0.0079696923 0.74266446 0.067081392 4404516
0.0070061833 0.74308228 0.06653598 4404516
0.0066521317 0.74287921 0.066533566 4666918
0.0062980801 0.74267614 0.066531152 4666918
0.0053288788 0.74309075 0.065985695 4732711
0.0049734116 0.74288684 0.065983281 4666918
0.0046179444 0.74268293 0.065980852 4535332
0.0042624921 0.74247903 0.065978438 4535332
0.0039070249 0.74227512 0.065976024 4666918
0.0035515577 0.74207121 0.06597361 4732711
0.002572462 0.74248016 0.065428078 4732711
0.0022155792 0.74227548 0.065425649 4732711
0.0012322068 0.74268198 0.064880088 4732711
0.0008739084 0.74247646 0.064877644 4666918
0.00051560998 0.74227095 0.064875215 4732711
-0.00047339499 0.74267417 0.064329609 4732711
-0.00083310902 0.74246782 0.064327165 4798504
-0.0011928231 0.74226147 0.064324722 4732711
-0.0021875054 0.74266148 0.063779071 4798504
-0.0025486499 0.74245435 0.063776627 4732711
-0.0041853637 0.7434566 0.062687755 4732711
-0.0045493245 0.74324787 0.062685281 4798504
-0.0049132854 0.74303907 0.062682807 4798504
-0.0052772611 0.74283028 0.062680334 4864297
-0.0056412071 0.74262154 0.06267786 4798504
-0.0060051829 0.74241275 0.062675387 4864297
-0.0070154518 0.74280381 0.062129617 4798504
-0.0073808283 0.74259424 0.062127143 4798504
-0.0077462047 0.74238461 0.062124655 4798504
-0.0094126761 0.74336982 0.061035573 4864297
-0.0097808838 0.74315864 0.06103307 4733481
-0.016706303 0.74500948 0.057752743 4472108
-0.017083019 0.74479342 0.05775018 4932659
-0.017459735 0.74457729 0.057747617 5064504
-0.017836437 0.74436122 0.057745054 5064504
-0.018882111 0.74473202 0.057199076 4933688
-0.019260243 0.74451506 0.057196498 4604723
-0.019638374 0.74429822 0.05719392 4275758
-0.020689696 0.74466574 0.056647897 3617828
-0.021069244 0.74444801 0.056645319 3879205
-0.021448776 0.74423027 0.056642741 3944998
-0.021828324 0.74401259 0.056640163 4141605
-0.022207856 0.74379486 0.05663757 4207398
-0.022587404 0.74357712 0.056634992 4207398
-0.022966936 0.74335945 0.056632414 4207398
-0.023346484 0.74314171 0.056629837 4272678
-0.024410561 0.7435019 0.056083724 4338471
-0.024791524 0.74328339 0.056081131 4403494
-0.025172487 0.74306488 0.056078538 4403494
0.055575259 0.76437771 0.070982739 8680289
0.055231124 0.7641803 0.0709804 9009254
0.054886989 0.76398289 0.07097806 9010537
0.055841461 0.76161581 0.072596923 9273709
0.055501573 0.76142085 0.072594613 9273711
0.055161685 0.76122588 0.072592303 9273711
0.054821797 0.76103091 0.072589993 9273713
0.054481909 0.76083595 0.072587669 9273713
0.054142028 0.76064098 0.072585359 9273713
0.05380214 0.76044601 0.07258305 9207920
0.053462252 0.76025105 0.07258074 9207918
0.053122364 0.76005608 0.07257843 9142125
0.052782476 0.75986111 0.07257612 8944746
0.052442588 0.75966614 0.072573811 9142125
0.0521027 0.75947118 0.072571486 9010539
0.051762812 0.75927621 0.072569177 9010539
0.051422924 0.75908124 0.072566867 9010539
0.051083043 0.75888628 0.072564557 9010539
0.050743155 0.75869131 0.072562248 9010539
0.050403267 0.75849634 0.072559938 9010539
0.050063379 0.75830138 0.072557628 9010539
0.049265124 0.75881505 0.072014734 9010539
0.04892382 0.75861925 0.07201241 8944746
0.048582517 0.75842345 0.0720101 9010539
0.047778606 0.75893384 0.071467176 8944746
0.047435895 0.75873727 0.071464837 8944746
0.047093168 0.75854063 0.071462512 8878953
0.046750449 0.75834405 0.071460173 8878953
0.046407729 0.75814748 0.071457848 8944233
0.04606501 0.7579509 0.071455508 9010026
0.045722291 0.75775433 0.071453184 8944233
0.045379572 0.75755769 0.071450859 8944233
0.045036852 0.75736111 0.07144852 8944233
0.044694133 0.75716454 0.071446195 8878440
0.044828184 0.75626993 0.071984559 8812647
0.044965073 0.75537688 0.072522938 8878440
0.044625185 0.75518191 0.072520629 8878440
0.044285297 0.754987 0.072518319 8812647
0.044427842 0.75409722 0.073056743 8877668
0.044089369 0.75390303 0.073054448 8877668
0.043750897 0.7537089 0.073052138 8877668
0.043412432 0.75351477 0.073049843 8746082
0.042585865 0.75401211 0.072506756 8746082
0.042245977 0.7538172 0.072504446 8877668
0.041906089 0.75362217 0.072502136 8746082
0.041566201 0.75342727 0.072499827 8746082
0.041226313 0.75323224 0.072497517 8877668
0.040886424 0.75303733 0.072495207 8877668
0.040546536 0.75284231 0.072492898 8877922
0.040206656 0.7526474 0.072490573 8746336
0.03986676 0.75245237 0.072488263 8746336
0.03952688 0.75225747 0.072485954 8943715
0.03968925 0.75137907 0.073024511 8943715
0.039350778 0.75118494 0.073022217 8877922
0.039012305 0.75099075 0.073019907 8943715
0.038673833 0.75079662 0.073017612 8877922
0.038335368 0.75060248 0.073015302 8943715
0.037996896 0.75040829 0.073013008 9009508
0.037658423 0.75021416 0.073010698 9009254
0.037319951 0.75002003 0.073008403 9075047
0.036981478 0.74982584 0.073006094 9140840
0.036643013 0.7496317 0.073003799 9206633
0.036304541 0.74943751 0.073001489 9206633
0.035966069 0.74924338 0.072999194 9206633
0.035627596 0.74904919 0.072996885 9338221
0.035289124 0.74885505 0.07299459 9338221
0.034950659 0.74866092 0.07299228 9338221
0.034612194 0.74846673 0.072989985 9404014
0.034273714 0.7482726 0.072987676 9338221
0.033935249 0.74807847 0.072985381 9338221
0.033596769 0.74788427 0.072983071 9075819
0.033258304 0.74769014 0.072980776 9075819
0.032919839 0.74749601 0.072978467 9075819
0.032581359 0.74730182 0.072976172 9075819
0.032242894 0.74710768 0.072973862 9075819
0.031904414 0.74691355 0.072971568 9010026
0.031565949 0.74671936 0.072969258 9010026
0.031227484 0.74652523 0.072966963 9075819
0.030889004 0.7463311 0.072964653 9075819
0.030550539 0.7461369 0.072962359 9010026
0.03021206 0.74594277 0.072960049 9075819
0.029873595 0.74574864 0.072957754 9075819
0.029535115 0.74555445 0.072955444 9075819
0.02919665 0.74536031 0.07295315 9010026
0.028858185 0.74516612 0.07295084 9010026
0.028519705 0.74497199 0.072948545 9207405
0.02818124 0.7447778 0.07294625 9207405
0.02784276 0.74458367 0.072943941 9273198
0.027504295 0.74438953 0.072941631 9075819
0.02716583 0.74419534 0.072939336 9075819
0.02682735 0.74400121 0.072937042 9075819
0.026488885 0.74380708 0.072934732 9075819
0.02615042 0.74361289 0.072932422 9207403
0.025251612 0.74406886 0.072388858 9207403
0.024911731 0.74387389 0.072386548 9075817
0.024571851 0.74367893 0.072384238 9010024
0.024231955 0.74348396 0.072381929 9075817
0.02389206 0.74328899 0.072379619 9010024
0.023552179 0.74309403 0.072377294 8878438
0.023212299 0.74289906 0.072374985 8878438
0.022872403 0.74270409 0.072372675 8878438
0.022532523 0.74250913 0.072370365 8615266
0.021619558 0.742957 0.071826696 8878438
0.021278247 0.74276119 0.071824372 8549473
0.020936951 0.74256539 0.071822062 7298375
0.020595655 0.74236965 0.071819738 6903617
0.020254344 0.74217385 0.071817413 6311482
0.019332886 0.74261677 0.071273685 6179896
0.018990174 0.7424202 0.07127136 5785138
0.018647447 0.74222362 0.071269035 5719345
0.017720327 0.74266332 0.070725262 5456432
0.017376199 0.74246591 0.070722923 5193260
0.017032072 0.7422685 0.070720583 4995881
0.016099274 0.74270499 0.07017678 4864295
0.015753731 0.74250674 0.070174441 4864295
0.015408173 0.7423085 0.070172086 4732709
0.014469728 0.7427417 0.069628254 4666918
0.014122754 0.74254268 0.069625899 4732711
0.013775781 0.74234366 0.06962353 4732711
0.013428822 0.74214464 0.069621176 4732711
0.013081849 0.74194562 0.069618821 4666918
0.01213491 0.74237394 0.069074914 4732711
0.01178652 0.74217409 0.069072545 4666918
0.011438146 0.74197423 0.069070175 4535332
0.01048553 0.74239933 0.068526238 4535332
0.010135725 0.74219871 0.068523869 4535332
0.0097859353 0.74199802 0.068521485 4404516
0.0088276565 0.74241984 0.067977518 4536102
0.0084764361 0.74221838 0.067975119 4404516
0.0075139105 0.74263781 0.067431122 4404516
0.0071612746 0.74243551 0.067428723 4666918
0.0068086386 0.74223328 0.067426324 4535332
0.0058404654 0.74264938 0.066882282 4732711
0.0054864138 0.7424463 0.066879883 4732711
0.0051323622 0.74224317 0.066877469 4535332
0.0041584969 0.74265611 0.066333398 4666918
0.0038030297 0.7424522 0.066330969 4666918
0.0034475774 0.7422483 0.066328555 4666918
0.0030921102 0.74204439 0.066326141 4732711
0.002736643 0.74184048 0.066323727 4666918
0.0017542988 0.74224854 0.065779582 4732711
0.001397416 0.74204379 0.065777153 4732711
0.0010405332 0.74183905 0.065774724 4666918
-0.00057862699 0.74285334 0.064688802 4732711
-0.00093834102 0.74264699 0.064686358 4732711
-0.0012980551 0.74244064 0.064683914 4732711
-0.0022931546 0.74284136 0.064139694 4732711
-0.0026542842 0.74263424 0.064137235 4732711
-0.0036536157 0.74303246 0.063592985 4732713
-0.004016161 0.74282455 0.063590512 4732713
-0.0043787211 0.74261653 0.063588053 4798506
-0.005383715 0.74301159 0.063043773 4864299
-0.0057476759 0.7428028 0.0630413 4732713
-0.0061116368 0.742594 0.063038826 4798506
-0.0064755976 0.74238527 0.063036337 4798506
-0.0068395734 0.74217647 0.063033864 4798506
-0.0072035342 0.74196768 0.06303139 4798504
-0.0082184672 0.74235702 0.062487021 4798504
-0.0085838437 0.74214745 0.062484533 4864297
-0.0089492202 0.74193788 0.062482044 4798504
-0.016152814 0.74460638 0.058670878 4470824
-0.016528115 0.74439108 0.05866833 4668203
-0.016903415 0.74417579 0.058665767 4405801
-0.017278701 0.7439605 0.058663219 4603180
-0.018323347 0.74433279 0.058118656 5196090
-0.018700048 0.74411672 0.058116093 4932918
-0.019076779 0.7439006 0.05811353 4670516
-0.019453481 0.74368453 0.058110967 4341551
-0.019830182 0.7434684 0.058108404 3881000
-0.020206884 0.74325234 0.058105841 3749414
-0.021261469 0.74361897 0.057561219 3814178
-0.0216396 0.74340206 0.057558641 3879971
-0.022017732 0.74318516 0.057556078 4141605
-0.02307795 0.74354851 0.057011411 4075812
-0.023457512 0.74333078 0.057008833 4272678
-0.023837045 0.74311304 0.05700624 4272678
-0.024216577 0.74289536 0.057003662 4403494
-0.02459614 0.74267763 0.057001084 4403494
0.055474594 0.76454914 0.07132639 9010024
0.055130459 0.76435173 0.07132405 9273196
0.054786325 0.76415431 0.071321696 9273709
0.054875471 0.76323295 0.071858346 9273709
0.054532751 0.76303637 0.071856022 9273709
0.054190025 0.76283979 0.071853682 9273709
0.053847305 0.76264322 0.071851358 9339504
0.053504586 0.76244658 0.071849018 9339504
0.053161867 0.76225001 0.071846694 9339504
0.05326093 0.76133436 0.072383404 9273711
0.052919626 0.76113862 0.072381079 9207918
0.052578323 0.76094282 0.072378755 9010539
0.052237019 0.76074708 0.072376445 8944746
0.051895715 0.76055127 0.07237412 9142125
0.051554412 0.76035547 0.072371796 9142125
0.051213108 0.76015973 0.072369471 9010539
0.050871804 0.75996393 0.072367162 9010539
0.050530501 0.75976813 0.072364837 9010539
0.050189197 0.75957239 0.072362512 9010539
0.049847893 0.75937659 0.072360188 9010539
0.04950659 0.75918078 0.072357863 9010539
0.049165286 0.75898504 0.072355554 9010539
0.048823982 0.75878924 0.072353229 8944746
0.048482679 0.75859344 0.072350904 9010539
0.047678359 0.75910455 0.071809396 8944746
0.04733564 0.75890797 0.071807057 8878953
0.04699292 0.75871134 0.071804732 8878953
0.046650201 0.75851476 0.071802408 8878953
0.046307482 0.75831819 0.071800068 8944233
0.045964763 0.75812161 0.071797743 9010026
0.045622043 0.75792503 0.071795404 8944233
0.045279317 0.7577284 0.071793079 8878440
0.044936597 0.75753182 0.07179074 8878440
0.044593878 0.75733525 0.071788415 8812647
0.044728346 0.75643992 0.072325364 8812647
0.044387043 0.75624412 0.072323054 8878440
0.044045739 0.75604832 0.072320729 8812647
0.043704435 0.75585258 0.072318405 8746854
0.043363132 0.75565678 0.07231608 8877668
0.043021828 0.75546104 0.072313756 8877668
0.042680524 0.75526524 0.072311446 8877668
0.042339221 0.75506949 0.072309121 8877668
0.041997917 0.75487369 0.072306797 8746082
0.042146549 0.75398648 0.07284385 8877668
0.041806661 0.75379151 0.07284154 8877668
0.041466773 0.75359654 0.07283923 8877668
0.041126892 0.75340158 0.072836906 8877668
0.040786996 0.75320661 0.072834596 8943461
0.040447116 0.75301164 0.072832286 8877922
0.040107228 0.75281668 0.072829977 8877922
0.039267495 0.75330746 0.07228823 8877922
0.038926184 0.75311166 0.072285905 8943715
0.038584888 0.75291592 0.072283581 8943715
0.038243577 0.75272012 0.072281256 8877922
0.037902281 0.75252438 0.072278947 8943715
0.03756097 0.75232857 0.072276622 8877922
0.037219673 0.75213277 0.072274297 8943715
0.036878362 0.75193703 0.072271973 8943715
0.036537066 0.75174123 0.072269648 9009254
0.036195762 0.75154543 0.072267339 9075047
0.036368467 0.75067204 0.07280454 9140840
0.036028579 0.75047708 0.072802231 9206633
0.035688698 0.75028211 0.072799921 9075817
0.035348803 0.75008714 0.072797611 9075817
0.035008922 0.74989218 0.072795302 9207405
0.034669027 0.74969721 0.072792992 9207405
0.034329146 0.74950224 0.072790682 9273198
0.033989266 0.74930727 0.072788358 9273198
0.03364937 0.74911231 0.072786048 9273198
0.033309489 0.74891734 0.072783738 9207405
0.032441422 0.74939191 0.072241798 9075819
0.032100126 0.74919611 0.072239473 9075819
0.031758815 0.74900031 0.072237149 9075819
0.031417519 0.74880457 0.072234839 9207405
0.031076208 0.74860877 0.072232515 9075819
0.030734912 0.74841297 0.07223019 9075819
0.0303936 0.74821723 0.072227865 9010026
0.030052304 0.74802142 0.072225541 9075819
0.029710993 0.74782562 0.072223231 9075819
0.029369697 0.74762988 0.072220907 9075819
0.029028401 0.74743408 0.072218582 9075819
0.02868709 0.74723834 0.072216257 9075819
0.028345779 0.74704254 0.072213948 9207405
0.028004482 0.7468468 0.072211623 9207405
0.027663171 0.74665099 0.072209299 9207405
0.027321875 0.74645519 0.072206974 9207405
0.0275314 0.74560291 0.072744444 9207405
0.02719152 0.74540794 0.072742134 9273198
0.026851624 0.74521297 0.07273981 9075819
0.026511744 0.74501801 0.0727375 9075819
0.025615349 0.74547631 0.072195366 9075819
0.025274053 0.7452805 0.072193041 9075819
0.024932757 0.74508476 0.072190732 9207403
0.024591446 0.74488896 0.072188407 9207403
0.024250135 0.74469316 0.072186083 9075817
0.023908839 0.74449742 0.072183758 9075817
0.023567542 0.74430168 0.072181433 9273196
0.023226231 0.74410588 0.072179124 9207403
0.02288492 0.74391007 0.072176799 9010537
0.022543624 0.74371433 0.072174475 9142123
0.022202328 0.74351853 0.07217215 9207916
0.021861017 0.74332273 0.07216984 9142123
0.021519721 0.74312699 0.072167516 8878951
0.021178409 0.74293119 0.072165191 8813158
0.020260796 0.74337727 0.071622908 8878692
0.019918069 0.74318069 0.071620584 8089176
0.019575357 0.74298412 0.071618244 8087639
0.019232646 0.74278748 0.071615919 7298123
0.018889919 0.7425909 0.07161358 6706240
0.018547192 0.74239433 0.071611255 6048310
0.017619669 0.74283475 0.071068913 6179896
0.017275527 0.74263734 0.071066558 5916724
0.0169314 0.74243993 0.071064219 5653298
0.0159982 0.74287707 0.070521832 5455919
0.015652642 0.74267888 0.070519492 5127467
0.015307084 0.74248064 0.070517138 4930088
0.014368221 0.74291456 0.06997472 4732711
0.014021263 0.74271554 0.069972366 4732711
0.013674289 0.74251652 0.069969997 4732711
0.01332733 0.74231744 0.069967642 4798504
0.012980357 0.74211848 0.069965288 4732711
0.012033001 0.74254751 0.069422796 4798504
0.011684611 0.74234766 0.069420427 4666918
0.011336222 0.7421478 0.069418058 4666918
0.010383204 0.74257362 0.068875536 4666918
0.010033414 0.74237293 0.068873167 4666918
0.009683609 0.74217224 0.068870783 4666918
0.008724913 0.74259484 0.068328217 4732711
0.0083736926 0.74239337 0.068325832 4666918
0.0074107498 0.74281347 0.067783237 4666918
0.0070581138 0.74261117 0.067780852 4666918
0.0067054778 0.74240887 0.067778453 4535332
0.0057369024 0.74282575 0.067235827 4666918
0.0053828508 0.74262261 0.067233413 4666918
0.0050287992 0.74241954 0.067231014 4535332
0.0040545166 0.74283314 0.066688344 4666918
0.0036990494 0.74262929 0.06668593 4666918
0.0033435971 0.74242532 0.066683516 4666918
0.0029881299 0.74222147 0.066681087 4666918
0.0026326627 0.74201757 0.066678673 4666918
0.0016499013 0.74242628 0.066135958 4732711
0.0012930185 0.74222159 0.066133529 4732711
0.00093613565 0.74201685 0.0661311 4666918
-0.00068384409 0.74303252 0.065047994 4732711
-0.0010435581 0.74282616 0.06504555 4732711
-0.0014032722 0.74261987 0.065043107 4666918
-0.0023987889 0.74302125 0.064500302 4601895
-0.0027599186 0.74281412 0.064497843 4536102
-0.0037596673 0.74321306 0.063955009 4732713
-0.0041222125 0.7430051 0.063952535 4666920
-0.0044847578 0.74279714 0.063950077 4732713
-0.0054901838 0.74319285 0.063407212 4798506
-0.0058541447 0.74298406 0.063404739 4732713
-0.0062181205 0.74277532 0.06340225 4798506
-0.0065820664 0.74256653 0.063399777 4732713
-0.0069460422 0.74235773 0.063397303 4732713
-0.0073099881 0.742149 0.06339483 4732711
-0.0083253533 0.74253905 0.062851876 4798504
-0.0086907297 0.74232948 0.062849388 4864297
-0.0090561062 0.74211985 0.062846899 4798504
-0.016262606 0.7447933 0.059045628 4601895
-0.016637892 0.744578 0.05904308 4667688
-0.017013177 0.74436271 0.059040517 4470824
-0.017388478 0.74414742 0.059037969 4470824
-0.018433556 0.74452043 0.058494821 4667949
