# .PCD v0.7 - Point Cloud Data file format
VERSION 0.7
FIELDS x y z rgb
SIZE 4 4 4 4
TYPE F F F U
COUNT 1 1 1 1
WIDTH 1121
HEIGHT 1
VIEWPOINT 0 0 0 1 0 0 0
POINTS 1121
DATA ascii
0.05459632 0.74806333 0.02892369 6045478
0.054426789 0.74768662 0.028921694 6176294
0.054257259 0.74730998 0.028919697 6176294
0.054087728 0.74693328 0.0289177 6045732
0.05470857 0.74646139 0.029600799 5979939
0.05453971 0.74608624 0.029598802 5979939
0.05437085 0.74571103 0.02959682 5979939
0.05420199 0.74533588 0.029594839 6045478
0.054033116 0.74496067 0.029592842 5979685
0.053864256 0.74458551 0.02959086 5979687
0.053695396 0.7442103 0.029588863 5913894
0.053526521 0.74383515 0.029586881 5782308
0.053357661 0.74345994 0.029584885 5716515
0.053188801 0.74308479 0.029582903 5584929
0.053019926 0.74270964 0.029580921 5584929
0.052851066 0.74233443 0.029578924 5584931
0.052682191 0.74195921 0.029576942 5519138
0.056744203 0.78484446 0.017845079 5914146
0.056563273 0.78444248 0.017842948 5914146
0.056382343 0.78404051 0.017840818 5914146
0.056201413 0.78363854 0.017838687 5848353
0.056020498 0.78323656 0.017836556 5914146
0.055839568 0.78283459 0.017834425 5914146
0.056392789 0.78221047 0.018515274 5979939
0.05621253 0.78180999 0.018513158 5979939
0.05603227 0.7814095 0.018511027 5979685
0.056588218 0.78079134 0.019191951 5913892
0.056408629 0.78039235 0.019189835 5913892
0.05622904 0.77999336 0.019187719 5848099
0.05678764 0.77938116 0.019868642 5913892
0.056608722 0.77898365 0.019866541 5913892
0.056429803 0.77858615 0.01986444 5913892
0.056991085 0.77797991 0.020545423 5913892
0.056812853 0.7775839 0.020543322 5913892
0.056634605 0.77718788 0.020541221 5913892
0.056456357 0.77679187 0.02053912 6110501
0.05627811 0.77639586 0.020537019 6110501
0.056099862 0.77599978 0.020534933 6110501
0.056665838 0.77540404 0.021215945 6110501
0.056488261 0.77500951 0.021213844 6110501
0.056310683 0.77461493 0.021211758 6044708
0.056133106 0.77422041 0.021209672 6110501
0.055955529 0.77382588 0.021207571 6110501
0.056525543 0.77323902 0.021888658 6110501
0.056348637 0.77284598 0.021886572 6176294
0.05617173 0.77245289 0.021884501 6176548
0.056744382 0.77187198 0.022565573 6176548
0.056568146 0.77148044 0.022563502 6176548
0.05639191 0.7710889 0.022561431 6176548
0.056215674 0.77069736 0.022559345 6110501
0.056039438 0.77030575 0.022557274 6176294
0.055863202 0.76991421 0.022555202 6176294
0.056440547 0.76934373 0.023236349 6176294
0.056264982 0.76895368 0.023234278 6045478
0.056089416 0.76856363 0.023232222 6045478
0.056669474 0.76799905 0.023913413 5979685
0.056494579 0.76761049 0.023911357 5979685
0.056319684 0.76722193 0.023909301 5979685
0.056144789 0.76683331 0.023907244 5979685
0.055969894 0.76644474 0.023905188 6045478
0.055794999 0.76605618 0.023903117 6045478
0.056379735 0.76550204 0.024584353 6045478
0.056205511 0.76511496 0.024582297 6045478
0.056031287 0.76472789 0.024580255 6176294
0.05661872 0.76417971 0.025261551 6176294
0.056445166 0.76379412 0.025259495 6176294
0.056271598 0.76340848 0.025257453 6176294
0.056098044 0.7630229 0.025255412 6176294
0.05592449 0.76263732 0.02525337 6176294
0.055750936 0.76225168 0.025251329 6176294
0.056343034 0.76171398 0.02593264 6176294
0.056170151 0.76132983 0.025930598 6045732
0.055997252 0.76094574 0.025928557 6177318
0.055824369 0.76056165 0.02592653 6045732
0.055651486 0.76017749 0.025924489 6045732
0.055478603 0.7597934 0.025922462 6045732
0.056075409 0.75926608 0.026603848 6045732
0.055903196 0.75888348 0.026601821 6045732
0.055730984 0.75850081 0.026599795 6045732
0.055558771 0.75811821 0.026597768 6045732
0.055386558 0.75773561 0.026595742 6177318
0.055214345 0.75735295 0.026593715 6177318
0.055815816 0.75683606 0.027275145 6177318
0.055644259 0.75645494 0.027273133 6045732
0.055472717 0.75607377 0.027271122 6177318
0.055301175 0.75569266 0.027269095 6243111
0.055129632 0.75531155 0.027267069 6177318
0.054958075 0.75493038 0.027265057 6177318
0.055564269 0.75442392 0.027946532 6177318
0.055393383 0.75404429 0.027944535 6045478
0.055222511 0.75366461 0.027942508 6045478
0.05505164 0.75328499 0.027940512 6045478
0.054880768 0.75290537 0.027938485 6045478
0.054709882 0.75252569 0.027936488 5979685
0.055320755 0.75202966 0.028618053 6045478
0.055150554 0.75165147 0.028616041 6045478
0.054980353 0.75127333 0.028614044 6045478
0.055593893 0.75078321 0.029295608 6177064
0.055424362 0.75040656 0.029293627 6177064
0.055254817 0.75002986 0.02929163 6177064
0.055085286 0.74965322 0.029289633 5979685
0.054915756 0.74927658 0.029287636 6045478
0.054746225 0.74889988 0.02928564 6045478
0.055364475 0.74842024 0.029967278 6045478
0.055195615 0.74804503 0.029965281 6045478
0.05502674 0.74766988 0.029963285 5979685
0.05485788 0.74729466 0.029961303 6045478
0.05468902 0.74691951 0.029959321 6045732
0.054520145 0.7465443 0.029957324 6045732
0.054351285 0.74616915 0.029955342 5979939
0.054182425 0.74579394 0.029953361 5979939
0.054806679 0.74532771 0.030635059 6045478
0.05463849 0.74495399 0.030633077 6045478
0.054470286 0.74458027 0.030631095 5979687
0.054302096 0.74420661 0.030629113 5913894
0.054133892 0.74383295 0.030627131 5782308
0.053965703 0.74345922 0.03062515 5782308
0.053797513 0.74308556 0.030623168 5584929
0.053629309 0.74271184 0.030621201 5584929
0.05346112 0.74233818 0.030619219 5584931
0.053292915 0.74196446 0.030617237 5519138
0.056900978 0.7875855 0.017558366 5979169
0.056719393 0.78718203 0.01755622 5979169
0.056537792 0.78677857 0.017554075 5914146
0.056356192 0.78637505 0.017551944 5848353
0.056174591 0.78597164 0.017549813 5914146
0.055992991 0.78556812 0.017547667 5914146
0.056542307 0.78493327 0.018227085 5914146
0.056361392 0.7845313 0.018224955 5914146
0.056180462 0.78412932 0.018222824 5914146
0.055999532 0.78372735 0.018220693 5914146
0.055818602 0.78332537 0.018218562 5914146
0.055637673 0.7829234 0.018216431 5914146
0.056191653 0.78229898 0.018895864 5979939
0.056011394 0.7818985 0.018893749 6045732
0.055831134 0.78149801 0.018891633 5979685
0.056387827 0.78087956 0.019571126 5979685
0.056208238 0.78048056 0.01956901 5979685
0.056028649 0.78008151 0.019566894 5913892
0.056587994 0.77946901 0.020246416 5913892
0.056409091 0.77907151 0.0202443 5913892
0.056230173 0.77867401 0.020242199 5913892
0.0567922 0.77806747 0.020921767 5979685
0.056613952 0.77767146 0.020919666 5979685
0.056435704 0.77727538 0.020917565 5979685
0.056257457 0.77687937 0.020915464 6110501
0.056079209 0.77648336 0.020913363 6110501
0.055900961 0.77608734 0.020911276 6110501
0.056467682 0.77549124 0.021590874 6110501
0.056290105 0.77509665 0.021588773 6110501
0.056112528 0.77470213 0.021586686 6110501
0.055934951 0.77430761 0.0215846 6110501
0.055757374 0.77391309 0.021582514 6110501
0.056328133 0.77332586 0.022262171 5979685
0.056151226 0.77293283 0.0222601 5979685
0.05597432 0.77253979 0.022258013 6045732
0.056547731 0.77195853 0.02293767 6045732
0.056371495 0.77156699 0.022935599 6045732
0.056195259 0.77117544 0.022933528 6045732
0.056019023 0.7707839 0.022931457 6045478
0.055842787 0.7703923 0.02292937 6045478
0.055666551 0.77000076 0.022927299 6176294
0.056244642 0.76942992 0.023607031 6176294
0.056069076 0.76903987 0.023604974 6176294
0.055893511 0.76864982 0.023602903 6176294
0.056474328 0.76808494 0.024282694 5979685
0.056299418 0.76769638 0.024280638 5979685
0.056124523 0.76730776 0.024278581 5979685
0.055949628 0.7669192 0.02427651 5979685
0.055774733 0.76653063 0.024274454 6045478
0.055599838 0.76614207 0.024272397 6045478
0.056185335 0.76558763 0.024952218 6045478
0.056011096 0.7652005 0.024950162 6045478
0.055836871 0.76481342 0.02494812 6176294
0.05642505 0.76426494 0.025627986 6176294
0.056251496 0.7638793 0.025625944 6176294
0.056077942 0.76349372 0.025623903 6176294
0.055904388 0.76310813 0.025621861 6176294
0.055730835 0.76272255 0.025619805 6176294
0.055557281 0.76233691 0.025617763 6176294
0.056150109 0.76179886 0.026297659 6176294
0.055977225 0.76141477 0.026295632 6176294
0.055804342 0.76103061 0.026293591 6307880
0.055631459 0.76064652 0.026291549 6045478
0.055458575 0.76026243 0.026289523 6045478
0.055285692 0.75987828 0.026287481 6045478
0.055883244 0.75935066 0.026967466 6045478
0.055711031 0.758968 0.026965439 6045478
0.055538818 0.75858539 0.026963413 6177064
0.055366606 0.75820279 0.026961386 6177318
0.055194393 0.75782013 0.02695936 6177318
0.05502218 0.75743753 0.026957333 6177318
0.055624396 0.75692028 0.027637348 6177318
0.055452853 0.75653917 0.027635336 6177318
0.055281296 0.75615805 0.027633309 6177318
0.055109754 0.75577688 0.027631283 6308904
0.054938212 0.75539577 0.027629271 6045732
0.05476667 0.75501466 0.027627245 6177064
0.055373594 0.75450784 0.028307319 6177064
0.055202723 0.75412816 0.028305307 6045478
0.055031836 0.75374854 0.028303295 6045478
0.054860964 0.75336891 0.028301284 5980198
0.054690093 0.75298923 0.028299272 5980198
0.054519221 0.75260961 0.02829726 5914405
0.055130839 0.75211322 0.028977424 5980198
0.054960623 0.75173509 0.028975412 5980198
0.054790422 0.7513569 0.028973401 5980198
0.055404723 0.75086647 0.029653564 6111784
0.055235177 0.75048983 0.029651582 6111784
0.055065647 0.75011313 0.029649585 6177064
0.054896116 0.74973649 0.029647589 5979685
0.054726586 0.74935979 0.029645592 6045478
0.05455704 0.74898314 0.029643595 5979685
0.055176049 0.74850315 0.030323803 6045478
0.05500719 0.74812794 0.030321822 6045478
0.054838315 0.74775279 0.03031984 5979685
0.054669455 0.74737757 0.030317843 6045478
0.054500595 0.74700242 0.030315861 6045732
0.05433172 0.74662721 0.030313864 6045732
0.05416286 0.74625206 0.030311882 5979939
0.053994 0.74587691 0.030309886 5979939
0.054618999 0.74541026 0.030990183 6045478
0.05445081 0.7450366 0.030988201 6045478
0.054282606 0.74466288 0.03098622 5979687
0.054114416 0.74428922 0.030984238 5913894
0.053946212 0.7439155 0.030982256 5848101
0.053778023 0.74354184 0.030980274 5848101
0.053609833 0.74316812 0.030978292 5716515
0.053441629 0.74279445 0.030976325 5584929
0.053273439 0.74242073 0.030974343 5584931
0.053105235 0.74204707 0.030972362 5584931
0.056698352 0.78767467 0.017941773 5979169
0.056516752 0.7872712 0.017939627 5979169
0.056335151 0.78686774 0.017937496 5914146
0.056153566 0.78646421 0.017935365 5848353
0.055971965 0.78606081 0.01793322 5914146
0.055790365 0.78565729 0.017931074 5914146
0.056340426 0.78502214 0.018609077 5914146
0.056159496 0.78462017 0.018606946 5914146
0.055978566 0.78421819 0.018604815 5914146
0.055797651 0.78381622 0.018602699 5914146
0.055616722 0.78341424 0.018600553 5914146
0.055435792 0.78301227 0.018598437 5914146
0.055990517 0.7823875 0.019276455 5979939
0.055810258 0.78198701 0.019274324 6045732
0.055629998 0.78158653 0.019272208 5979685
0.056187436 0.78096771 0.0199503 5979685
0.056007847 0.78056872 0.019948184 5979685
0.055828258 0.78016973 0.019946069 5913892
0.056388363 0.77955687 0.020624161 5913892
0.056209445 0.77915937 0.02062206 5913892
0.056030527 0.77876186 0.020619959 5913892
0.056593299 0.77815497 0.02129811 5979685
0.056415051 0.77775896 0.021296009 5979685
0.056236804 0.77736294 0.021293908 5979685
0.056058556 0.77696693 0.021291807 6110501
0.055880308 0.77657092 0.021289706 6110501
0.055702075 0.77617484 0.02128762 6110501
0.056269541 0.77557844 0.021965802 6110501
0.056091964 0.77518386 0.021963716 6110501
0.055914387 0.77478933 0.021961614 6110501
0.05573681 0.77439481 0.021959528 6110501
0.055559233 0.77400029 0.021957442 6110501
0.056130737 0.77341276 0.022635683 5979685
0.05595383 0.77301967 0.022633612 5979685
0.055776924 0.77262664 0.022631526 6045732
0.056351081 0.77204508 0.023309767 6045732
0.056174845 0.77165353 0.023307696 6045732
0.055998608 0.77126199 0.023305625 6045732
0.055822372 0.77087045 0.023303539 6045478
0.055646136 0.77047884 0.023301467 6045478
0.0554699 0.7700873 0.023299396 6176294
0.056048751 0.76951617 0.023977727 6176294
0.055873185 0.76912606 0.023975655 6176294
0.05569762 0.768736 0.023973584 6176294
0.056279168 0.76817083 0.02465196 5979685
0.056104273 0.76778221 0.024649888 5979685
0.055929378 0.76739365 0.024647832 5979685
0.055754483 0.76700509 0.024645776 5979685
0.055579588 0.76661652 0.024643719 6045478
0.055404693 0.76622796 0.024641663 6045478
0.055990919 0.76567316 0.025320068 6045478
0.055816695 0.76528609 0.025318012 6045478
0.055642471 0.76489896 0.02531597 6176294
0.056231394 0.76435018 0.02599442 6176294
0.056057841 0.76396453 0.025992379 6176294
0.055884287 0.76357895 0.025990337 6176294
0.055710733 0.76319337 0.025988296 6176294
0.055537164 0.76280773 0.025986254 6176294
0.05536361 0.76242214 0.025984198 6176294
0.055957198 0.76188374 0.026662678 6176294
0.055784315 0.76149964 0.026660651 6176294
0.055611432 0.76111555 0.02665861 6307880
0.055438548 0.7607314 0.026656583 6045478
0.055265665 0.76034731 0.026654541 6045478
0.055092782 0.75996321 0.026652515 6045478
0.055691078 0.75943524 0.027331084 6045478
0.055518866 0.75905257 0.027329057 6045478
0.055346653 0.75866997 0.027327031 6177064
0.05517444 0.75828731 0.027325004 6177318
0.055002227 0.75790471 0.027322963 6177318
0.054830015 0.75752211 0.027320936 6177318
0.055432975 0.75700456 0.02799955 6177318
0.055261433 0.75662339 0.027997524 6177318
0.055089876 0.75624228 0.027995497 6177318
0.054918334 0.75586116 0.027993485 6308904
0.054746792 0.75547999 0.027991474 6045732
0.05457525 0.75509888 0.027989447 6177064
0.055182919 0.75459176 0.028668106 6177064
0.055012047 0.75421208 0.028666094 6045478
0.054841176 0.75383246 0.028664082 6045478
0.054670304 0.75345278 0.028662071 5980198
0.054499418 0.75307316 0.028660059 5980198
0.054328546 0.75269353 0.028658047 5914405
0.054940909 0.75219679 0.02933678 5980198
0.054770708 0.75181866 0.029334784 5980198
0.054600507 0.75144047 0.029332772 5980198
0.055215538 0.75094974 0.03001152 6111784
0.055046007 0.75057304 0.030009523 6111784
0.054876477 0.7501964 0.030007526 6177064
0.054706946 0.7498197 0.03000553 5979685
0.054537401 0.74944305 0.030003533 6045478
0.05436787 0.74906635 0.030001536 5979685
0.054987624 0.74858606 0.030680344 6045478
0.054818764 0.74821085 0.030678362 6045478
0.054649889 0.7478357 0.030676365 5979685
0.05448103 0.74746048 0.030674383 6045478
0.05431217 0.74708533 0.030672386 6045732
0.054143295 0.74671018 0.030670404 6045732
0.053974435 0.74633497 0.030668408 5979939
0.05380556 0.74595982 0.030666426 5979939
0.054431319 0.74549288 0.031345308 6045478
0.05426313 0.74511915 0.031343311 6045478
0.054094926 0.74474549 0.031341344 5979687
0.053926736 0.74437177 0.031339362 5913894
0.053758532 0.74399811 0.03133738 5848101
0.053590342 0.74362445 0.031335399 5848101
0.053422153 0.74325073 0.031333417 5716515
0.053253949 0.74287701 0.031331435 5584929
0.053085759 0.74250335 0.031329453 5584931
0.05291757 0.74212962 0.031327486 5584931
0.057407767 0.79164934 0.017665848 5848866
0.057225496 0.79124439 0.017663702 5783073
0.057043225 0.79083943 0.017661557 5783073
0.056860954 0.79043448 0.017659411 5717280
0.056678697 0.79002953 0.017657265 5717280
0.056496426 0.78962457 0.017655119 5782560
0.057040513 0.78897423 0.018331602 5848353
0.056858912 0.78857076 0.018329471 5979169
0.056677312 0.7881673 0.018327326 5979169
0.057224095 0.78752285 0.019003868 6044962
0.05704318 0.78712088 0.019001737 6044962
0.05686225 0.7867189 0.018999606 5914146
0.05668132 0.78631693 0.018997476 5914146
0.05650039 0.7859149 0.018995345 5979939
0.05631946 0.78551292 0.018993214 5979939
0.056138545 0.78511095 0.018991083 5979939
0.055957615 0.78470898 0.018988952 5914146
0.055776685 0.784307 0.018986821 5979939
0.056330144 0.78367746 0.019663408 5914146
0.056149885 0.78327698 0.019661278 5979685
0.055969626 0.78287649 0.019659162 5979685
0.056525797 0.78225291 0.020335808 5979939
0.056346208 0.78185391 0.020333707 6045732
0.056166619 0.78145492 0.020331591 5979685
0.056725457 0.7808373 0.021008238 6045478
0.056546539 0.78043979 0.021006137 5979685
0.056367636 0.78004229 0.021004036 5979685
0.056929141 0.77943057 0.021680743 5979685
0.056750894 0.77903455 0.021678641 5913892
0.056572646 0.77863854 0.02167654 5913892
0.056394398 0.77824253 0.021674454 5979685
0.056216165 0.77784646 0.021672353 5979685
0.056037918 0.77745044 0.021670252 5979685
0.056604117 0.77684921 0.022347003 6110501
0.05642654 0.77645469 0.022344902 6110501
0.056248963 0.77606016 0.022342816 6044708
0.056817859 0.77546483 0.023019612 6110501
0.056640953 0.7750718 0.023017541 6176294
0.056464046 0.77467877 0.023015454 6110501
0.05628714 0.77428567 0.023013368 6176294
0.056110248 0.77389264 0.023011297 6110501
0.055933341 0.77349961 0.023009211 5979685
0.056506902 0.77291477 0.023686022 5979685
0.056330666 0.77252316 0.02368395 5979939
0.05615443 0.77213162 0.023681879 6045732
0.056730673 0.77155268 0.024358749 6045732
0.056555107 0.77116263 0.024356678 5979939
0.056379542 0.77077258 0.024354607 5979685
0.056203976 0.77038252 0.024352536 6045478
0.056028396 0.76999241 0.024350464 6177066
0.056608692 0.76942241 0.025027394 6045480
0.056433797 0.76903385 0.025025338 6176296
0.056258902 0.76864529 0.025023282 6176296
0.056084007 0.76825672 0.025021225 6110501
0.055909112 0.7678681 0.025019169 6176294
0.055734217 0.76747954 0.025017112 6176294
0.056319192 0.76691997 0.025694072 6176294
0.056144953 0.7665329 0.025692016 6176294
0.055970728 0.76614583 0.025689974 6176294
0.0565584 0.76559216 0.026366994 6176294
0.056384847 0.76520658 0.026364952 6176294
0.056211293 0.76482099 0.026362896 6176294
0.056037739 0.76443535 0.026360869 6176294
0.055864185 0.76404977 0.026358813 6176294
0.055690616 0.76366419 0.026356772 6110501
0.056282952 0.76312095 0.027033806 6176294
0.056110054 0.76273686 0.027031779 6176294
0.055937171 0.76235276 0.027029738 6176294
0.055764288 0.76196861 0.027027711 6176294
0.055591404 0.76158452 0.02702567 6307880
0.055418521 0.76120043 0.027023643 6307880
0.056015566 0.76066762 0.027700767 6176294
0.055843353 0.76028502 0.02769874 6176294
0.055671126 0.75990242 0.027696714 6045478
0.055498913 0.75951976 0.027694687 6177064
0.0553267 0.75913715 0.027692661 6045478
0.055154487 0.75875455 0.027690634 6177064
0.055756196 0.75823218 0.028367803 6177318
0.055584639 0.75785106 0.028365776 6177318
0.055413097 0.75746989 0.028363764 6045732
0.055241555 0.75708878 0.028361738 6177318
0.055070013 0.75670767 0.028359711 6177318
0.054898471 0.7563265 0.0283577 6177318
0.055504873 0.75581455 0.029034913 6308904
0.055334002 0.75543493 0.029032916 6045732
0.05516313 0.75505531 0.029030889 6177318
0.054992259 0.75467563 0.029028893 6177318
0.054821372 0.754296 0.029026866 6045478
0.0546505 0.75391638 0.029024869 6045478
0.055261612 0.75341487 0.029702157 5980198
0.055091396 0.75303668 0.02970016 5980198
0.054921195 0.75265855 0.029698148 5980198
0.055534974 0.75216299 0.030375451 6111784
0.055365443 0.75178629 0.030373454 6111784
0.055195898 0.75140965 0.030371457 5980198
0.055026367 0.75103295 0.030369461 6045478
0.054856837 0.75065631 0.030367464 6045478
0.054687291 0.75027966 0.030365467 6045478
0.055305794 0.74979448 0.031042844 5979685
0.055136919 0.74941933 0.031040862 5979685
0.054968059 0.74904418 0.031038865 5979685
0.055589199 0.74856496 0.031716257 5979685
0.05542101 0.7481913 0.031714275 6045478
0.055252805 0.74781758 0.031712294 5914405
0.055084616 0.74744391 0.031710327 5980198
0.054916427 0.74707019 0.03170833 5980452
0.054748222 0.74669653 0.031706363 5980452
0.054580033 0.74632281 0.031704381 5979939
0.054411829 0.74594915 0.031702399 5979939
0.054243639 0.74557543 0.031700417 6045478
0.05407545 0.74520177 0.031698436 5979685
0.053907245 0.74482805 0.031696454 5979685
0.053739056 0.74445438 0.031694472 5979685
0.053570867 0.74408066 0.031692505 5913892
0.053402662 0.743707 0.031690508 5913892
0.053234473 0.74333334 0.031688541 5716513
0.053066283 0.74295962 0.031686559 5716513
0.052898079 0.7425859 0.031684577 5716515
0.05272989 0.74221224 0.031682596 5716515
0.057204381 0.79173887 0.018050671 5914146
0.05702211 0.79133391 0.018048525 5848353
0.056839854 0.79092896 0.018046379 5848353
0.056657583 0.79052401 0.018044233 5848353
0.056475312 0.79011905 0.018042088 5914146
0.056293041 0.7897141 0.018039942 5914146
0.056837872 0.78906339 0.018715024 5914146
0.056656271 0.78865993 0.018712878 6044962
0.056474686 0.78825647 0.018710747 6110755
0.057022214 0.78761166 0.019385874 6110755
0.056841284 0.78720969 0.019383743 6044962
0.056660354 0.78680772 0.019381613 5914146
0.056479439 0.78640574 0.019379482 5914146
0.056298509 0.78600377 0.019377351 5979939
0.056117579 0.78560179 0.01937522 6045732
0.055936649 0.78519982 0.019373089 6045732
0.05575572 0.78479785 0.019370958 5979939
0.055574805 0.78439587 0.019368827 5979685
0.056129009 0.78376603 0.020043999 5979685
0.055948749 0.78336549 0.020041868 5979685
0.05576849 0.782965 0.020039752 5979685
0.056325406 0.78234112 0.020714983 5979685
0.056145817 0.78194207 0.020712867 5979685
0.055966228 0.78154308 0.020710751 5979685
0.056525826 0.78092515 0.021385998 5979685
0.056346908 0.78052765 0.021383896 6045478
0.05616799 0.78013015 0.021381795 5979685
0.056730255 0.77951813 0.022057086 5979685
0.056552008 0.77912205 0.022054985 5979685
0.05637376 0.77872604 0.022052884 5979685
0.056195512 0.77833003 0.022050798 5979685
0.056017265 0.77793401 0.022048697 5979685
0.055839017 0.777538 0.022046596 5979685
0.056405976 0.77693641 0.022721916 5979685
0.056228399 0.77654189 0.02271983 5979685
0.056050822 0.77614737 0.022717744 5913892
0.056620464 0.77555168 0.023393124 5979685
0.056443557 0.77515864 0.023391038 6045478
0.056266651 0.77476561 0.023388967 5979685
0.056089744 0.77437258 0.023386881 6176294
0.055912837 0.77397954 0.023384795 6110501
0.055735931 0.77358645 0.023382708 5979685
0.056310251 0.77300125 0.024058118 5979685
0.056134015 0.77260971 0.024056047 6045732
0.055957779 0.77221817 0.024053961 6045732
0.056534767 0.77163893 0.024729431 6045732
0.056359202 0.77124882 0.024727359 5979939
0.056183636 0.77085876 0.024725288 6110501
0.056008071 0.77046871 0.024723217 6110501
0.055832505 0.77007866 0.024721146 6110503
0.056413546 0.7695083 0.025396675 6176296
0.056238651 0.76911974 0.025394619 6176296
0.056063741 0.76873118 0.025392562 6307882
0.055888847 0.76834255 0.025390491 6176294
0.055713952 0.76795399 0.025388435 6176294
0.055539057 0.76756543 0.025386378 6176294
0.056124777 0.7670055 0.026061922 6176294
0.055950552 0.76661843 0.026059881 6176294
0.055776328 0.76623136 0.026057824 6176294
0.056364745 0.76567739 0.026733428 6307880
0.056191176 0.76529181 0.026731387 6176294
0.056017622 0.76490617 0.026729345 6176294
0.055844069 0.76452059 0.026727304 6307880
0.055670515 0.764135 0.026725262 6176294
0.055496961 0.76374942 0.026723206 6176294
0.056090027 0.76320589 0.02739884 6176294
0.055917144 0.76282173 0.027396798 6176294
0.055744261 0.76243764 0.027394772 6308134
0.055571377 0.76205355 0.02739273 6176548
0.055398494 0.7616694 0.027390704 6373927
0.055225611 0.76128531 0.027388662 6373927
0.055823401 0.7607522 0.02806437 6308134
0.055651188 0.7603696 0.028062344 6308134
0.05547896 0.759987 0.028060317 6045732
0.055306748 0.75960433 0.02805829 6177318
0.055134535 0.75922173 0.028056264 6177064
0.054962322 0.75883907 0.028054237 6177064
0.055564776 0.7583164 0.02872999 6177064
0.055393234 0.75793529 0.028727978 6177064
0.055221677 0.75755417 0.028725952 6045478
0.055050135 0.757173 0.028723925 6177064
0.054878592 0.75679189 0.028721914 6177064
0.05470705 0.75641072 0.028719902 6177064
0.055314213 0.75589848 0.0293957 6177318
0.055143327 0.75551885 0.029393688 6045732
0.054972455 0.75513917 0.029391676 6177318
0.054801583 0.75475955 0.029389665 6177318
0.054630712 0.75437993 0.029387653 6177318
0.054459825 0.75400025 0.029385641 6045732
0.055071682 0.75349844 0.030061513 6111784
0.054901481 0.75312024 0.030059516 5980198
0.05473128 0.75274211 0.03005752 5980198
0.055345803 0.7522462 0.030733407 6111784
0.055176273 0.75186956 0.03073141 6177064
0.055006728 0.75149292 0.030729413 6045478
0.054837197 0.75111622 0.030727416 6177064
0.054667667 0.75073957 0.03072542 6177064
0.054498121 0.75036287 0.030723423 6045478
0.055117369 0.74987745 0.031399384 6045478
0.054948494 0.74950224 0.031397387 6045478
0.054779634 0.74912709 0.031395406 6045478
0.055401519 0.74864757 0.032071382 6045478
0.05523333 0.74827385 0.0320694 6045478
0.055065125 0.74790019 0.032067418 5979685
0.054896936 0.74752647 0.032065436 6045478
0.054728746 0.74715281 0.032063454 6177318
0.054560542 0.74677908 0.032061487 6045732
0.054392353 0.74640542 0.032059491 5979939
0.054224163 0.74603176 0.032057524 5979939
0.054055959 0.74565804 0.032055542 5979939
0.05388777 0.74528438 0.03205356 5979939
0.053719565 0.74491066 0.032051578 5979685
0.053551376 0.744537 0.032049596 5913892
0.053383186 0.74416327 0.032047614 5913892
0.053214982 0.74378961 0.032045633 5913892
0.053046793 0.74341589 0.032043666 5716513
0.052878588 0.74304223 0.032041669 5716513
0.052710399 0.74266851 0.032039702 5716515
0.05254221 0.74229485 0.03203772 5716515
0.056825981 0.79330271 0.017766222 5848353
0.056643039 0.79289627 0.017764062 5848353
0.056460097 0.79248983 0.017761916 5914146
0.057000995 0.79182839 0.018435508 5979939
0.056818739 0.79142344 0.018433362 5914146
0.056636468 0.79101849 0.018431216 5914146
0.056454197 0.79061353 0.018429071 5848353
0.05627194 0.79020858 0.018426925 5914146
0.056089669 0.78980362 0.018424779 5914146
0.056635246 0.78915256 0.019098431 5914146
0.056453645 0.7887491 0.0190963 5914146
0.056272045 0.78834563 0.019094169 5979939
0.056820333 0.78770053 0.01976788 6176548
0.056639403 0.78729856 0.019765735 6110755
0.056458473 0.78689659 0.019763619 5914146
0.056277543 0.78649461 0.019761488 5914146
0.056096613 0.78609264 0.019759357 5979939
0.055915698 0.78569067 0.019757226 6045732
0.055734769 0.78528869 0.019755095 6045732
0.055553839 0.78488672 0.019752964 5979939
0.055372909 0.78448468 0.019750834 6045478
0.055927873 0.78385448 0.020424575 5979685
0.055747613 0.783454 0.020422459 5979685
0.055567354 0.78305352 0.020420343 5979685
0.056125015 0.78242928 0.021094158 5979685
0.055945426 0.78203028 0.021092042 5979685
0.055765837 0.78163129 0.021089926 5979685
0.056326181 0.78101301 0.021763757 6045478
0.056147262 0.78061551 0.021761656 6045478
0.055968344 0.78021795 0.021759555 6045478
0.056531355 0.77960563 0.02243343 5979685
0.056353107 0.77920961 0.022431329 5979685
0.056174859 0.7788136 0.022429228 5979685
0.055996612 0.77841759 0.022427127 5979685
0.055818364 0.77802151 0.022425026 5979685
0.055640116 0.7776255 0.02242294 6045478
0.056207821 0.77702361 0.023096859 5979685
0.056030244 0.77662909 0.023094758 5913892
0.055852666 0.77623451 0.023092672 5913892
0.056423068 0.77563858 0.023766637 5979685
0.056246161 0.77524555 0.023764551 6045478
0.056069255 0.77485245 0.023762479 6045478
0.055892348 0.77445942 0.023760393 6176548
0.055715442 0.77406639 0.023758307 6176548
0.055538535 0.77367336 0.023756221 5979939
0.056113601 0.7730878 0.024430215 5979939
0.05593735 0.77269626 0.024428144 6045732
0.055761129 0.77230471 0.024426073 6177318
0.056338862 0.77172512 0.025100112 6045732
0.056163296 0.77133507 0.025098041 6045732
0.055987731 0.77094501 0.025095969 6176294
0.055812165 0.7705549 0.025093898 6176294
0.0556366 0.77016485 0.025091827 6110501
0.056218386 0.76959419 0.025765941 6176294
0.056043491 0.76920563 0.025763869 6176296
0.055868596 0.76881707 0.025761813 6307882
0.055693701 0.76842844 0.025759757 6176294
0.055518806 0.76803988 0.0257577 6307880
0.055343896 0.76765132 0.025755644 6176294
0.055930376 0.7670911 0.026429772 6176294
0.055756152 0.76670396 0.026427731 6307880
0.055581912 0.76631689 0.026425675 6307880
0.056171075 0.76576263 0.027099863 6307880
0.055997521 0.76537704 0.027097821 6307880
0.055823967 0.7649914 0.02709578 6176294
0.055650413 0.76460582 0.027093738 6307880
0.055476859 0.76422024 0.027091697 6176294
0.055303305 0.7638346 0.027089655 6307880
0.055897117 0.76329076 0.027763858 6176294
0.055724233 0.76290667 0.027761832 6176294
0.05555135 0.76252252 0.02775979 6308134
0.055378467 0.76213843 0.027757764 6308134
0.055205584 0.76175433 0.027755722 6373927
0.0550327 0.76137018 0.027753681 6373927
0.055631235 0.76083678 0.028427988 6308134
0.055459023 0.76045418 0.028425962 6308134
0.055286795 0.76007152 0.028423935 6177318
0.055114582 0.75968891 0.028421909 6243111
0.054942369 0.75930631 0.028419882 6177064
0.054770157 0.75892365 0.028417856 6177064
0.055373356 0.75840068 0.029092193 6045478
0.055201814 0.75801951 0.029090166 6177064
0.055030271 0.75763839 0.02908814 6045478
0.054858714 0.75725722 0.029086128 6177064
0.054687172 0.75687611 0.029084101 6045478
0.05451563 0.756495 0.02908209 6177064
0.055123538 0.7559824 0.029756472 6177318
0.054952666 0.75560272 0.02975446 6045732
0.054781795 0.7552231 0.029752448 6177318
0.054610908 0.75484347 0.029750437 6177318
0.054440036 0.75446379 0.029748425 6177064
0.054269165 0.75408417 0.029746413 6045478
0.054881752 0.753582 0.030420884 6177064
0.05471155 0.75320387 0.030418888 6045478
0.054541349 0.75282568 0.030416876 5980198
0.055156633 0.75232947 0.031091362 6111784
0.054987088 0.75195283 0.031089365 6177064
0.054817557 0.75157613 0.031087369 6177064
0.054648027 0.75119948 0.031085372 6177064
0.054478481 0.75082278 0.031083375 6045478
0.054308951 0.75044614 0.031081378 6045478
0.054928929 0.74996036 0.031755924 6045478
0.054760069 0.74958515 0.031753927 6045478
0.054591209 0.74921 0.031751931 6045478
0.055213839 0.74873018 0.032426506 6177064
0.055045649 0.74835646 0.032424524 6045478
0.054877445 0.7479828 0.032422543 5979685
0.054709256 0.74760908 0.032420561 6045478
0.054541066 0.74723542 0.032418579 6177318
0.054372862 0.7468617 0.032416612 6045732
0.054204673 0.74648803 0.032414615 5979939
0.054036468 0.74611431 0.032412648 5979939
0.053868279 0.74574065 0.032410666 5979939
0.053700089 0.74536693 0.032408684 5979939
0.053531885 0.74499327 0.032406703 5979685
0.053363696 0.74461955 0.032404721 5913892
0.053195506 0.74424589 0.032402739 5913892
0.053027302 0.74387217 0.032400757 5913892
0.052859113 0.7434985 0.03239879 5716513
0.052690923 0.74312478 0.032396793 5716513
0.052522719 0.74275112 0.032394826 5782306
0.05235453 0.7423774 0.032392845 5716513
0.057170659 0.79461187 0.018158913 5914146
0.056987718 0.79420543 0.018156767 5914146
0.056804776 0.79379898 0.018154621 5979939
0.057344422 0.79313272 0.018826783 5914146
0.057162151 0.79272777 0.018824637 5979939
0.05697988 0.79232281 0.018822491 5914146
0.057522178 0.79166251 0.019494683 5979939
0.057340592 0.79125905 0.019492537 5914146
0.057158992 0.79085559 0.019490406 5914146
0.056977391 0.79045212 0.019488275 5914146
0.056795806 0.79004866 0.019486129 5914146
0.056614205 0.7896452 0.019483998 5979939
0.057161227 0.78899527 0.020156264 5914146
0.056980297 0.78859329 0.020154133 5914146
0.056799367 0.78819132 0.020152003 6045732
0.056618437 0.78778934 0.020149872 6045732
0.056437522 0.78738737 0.020147741 5979939
0.056256592 0.7869854 0.02014561 5979939
0.056808263 0.78634596 0.020817906 5979939
0.056628019 0.78594548 0.020815775 5979939
0.056447759 0.78554499 0.020813659 5979939
0.0562675 0.78514451 0.020811528 6045732
0.056087241 0.78474402 0.020809412 5979939
0.055906981 0.78434354 0.020807296 6045732
0.056463391 0.78371447 0.021479666 5979939
0.056283802 0.78331548 0.02147755 6045478
0.056104213 0.78291649 0.021475449 6045478
0.055924624 0.78251743 0.021473333 6045478
0.055745035 0.78211844 0.021471217 5979685
0.055565447 0.78171945 0.021469101 6045478
0.056867197 0.78088123 0.022816062 6045478
0.056688949 0.78048521 0.022813976 6045478
0.056510702 0.78008914 0.022811875 6045478
0.057075128 0.77947801 0.023484319 5979685
0.056897551 0.77908349 0.023482233 5979685
0.056719989 0.77868891 0.023480147 5979685
0.056542411 0.77829438 0.023478061 6045478
0.056364834 0.77789986 0.02347596 6045478
0.056187257 0.77750534 0.023473874 6045478
0.056756392 0.77690458 0.024146408 5979685
0.056579486 0.77651155 0.024144322 5979685
0.056402579 0.77611846 0.024142236 5979685
0.056974366 0.77552366 0.024814755 5979685
0.05679813 0.77513212 0.024812683 6177064
0.056621894 0.77474058 0.024810612 6045478
0.056445658 0.77434903 0.024808541 6176548
0.056269422 0.77395749 0.02480647 6176548
0.056093186 0.77356589 0.024804384 5979939
0.056669652 0.77298152 0.025476992 5979939
0.056494087 0.77259147 0.025474921 6045732
0.056318521 0.77220142 0.02547285 6177318
0.056142956 0.77181131 0.025470793 6177318
0.055967391 0.77142125 0.025468722 6045732
0.055791825 0.7710312 0.025466651 6176548
0.05637303 0.77045721 0.026139319 6176548
0.05619812 0.77006865 0.026137263 6110501
0.056023225 0.76968008 0.026135206 6176294
0.056607082 0.76911205 0.026807889 6176294
0.056432858 0.76872498 0.026805848 6307880
0.056258634 0.76833791 0.026803792 6307880
0.056084409 0.76795083 0.026801735 6307880
0.055910185 0.7675637 0.026799694 6438952
0.05649808 0.76700467 0.027472436 6307366
0.056324527 0.76661903 0.027470395 6307880
0.056150973 0.76623344 0.027468354 6307880
0.056741521 0.76568031 0.028141096 6307880
0.056568637 0.76529622 0.02813907 6307880
0.056395754 0.76491213 0.028137028 6307880
0.056222856 0.76452798 0.028135002 6307880
0.056049973 0.76414388 0.02813296 6176294
0.05587709 0.76375979 0.028130919 6307880
0.056472361 0.76321709 0.028803766 6308134
0.056300148 0.76283443 0.028801739 6308134
0.056127936 0.76245183 0.028799713 6308134
0.055955708 0.76206923 0.028797686 6308134
0.055783495 0.76168656 0.02879566 6373927
0.055611283 0.76130396 0.028793618 6373927
0.056211203 0.76077169 0.029466495 6308134
0.056039661 0.76039058 0.029464483 6308134
0.055868119 0.76000941 0.029462457 6177064
0.055696577 0.7596283 0.02946043 6177064
0.055525035 0.75924718 0.029458418 6177064
0.055353478 0.75886601 0.029456407 6177064
0.055181935 0.7584849 0.02945438 6045478
0.055010393 0.75810373 0.029452354 6045478
0.054838851 0.75772262 0.029450342 6045478
0.055445492 0.75720525 0.030123293 6177064
0.055274621 0.75682557 0.030121282 6177064
0.055103749 0.75644594 0.03011927 6177064
0.054932863 0.75606632 0.030117258 6373673
0.054761991 0.75568664 0.030115247 6176294
0.054591119 0.75530702 0.030113235 6307880
0.055202454 0.75480002 0.030786261 6307880
0.055032253 0.75442189 0.030784264 6177064
0.054862037 0.75404376 0.030782253 6045478
0.055476055 0.75354272 0.031455293 6177064
0.055306524 0.75316608 0.031453297 6045478
0.055136979 0.75278938 0.0314513 6177064
0.055753693 0.75229436 0.03212437 6177064
0.055584833 0.75191915 0.032122388 6177064
0.055415973 0.751544 0.032120407 6045478
0.055247098 0.75116879 0.03211841 6177064
0.055078238 0.75079364 0.032116428 6045478
0.054909378 0.75041842 0.032114431 6045478
0.055530742 0.74993384 0.032787561 6045478
0.055362552 0.74956012 0.03278558 6045478
0.055194348 0.74918646 0.032783598 6045478
0.055026159 0.74881274 0.032781616 6177064
0.054857969 0.74843907 0.032779634 6045478
0.054689765 0.74806535 0.032777667 6045478
0.055315867 0.74759114 0.033450872 6045478
0.055148333 0.74721897 0.03344889 6177064
0.054980814 0.74684674 0.033446923 6045478
0.054813296 0.74647456 0.033444941 6045478
0.054645762 0.74610233 0.033442974 5979685
0.054478243 0.74573016 0.033441007 6045478
0.054310709 0.74535793 0.033439025 6045478
0.05414319 0.74498576 0.033437058 5979685
0.053975672 0.74461353 0.033435091 5913892
0.053808138 0.74424136 0.03343311 5979685
0.053640619 0.74386913 0.033431143 5913892
0.053473085 0.74349695 0.033429176 5782306
0.053305566 0.74312472 0.033427194 5716513
0.053138047 0.74275255 0.033425227 5716513
0.052970514 0.74238032 0.033423245 5716513
0.056796029 0.79619014 0.017878756 5979939
0.056612417 0.79578221 0.017876595 5979939
0.056428805 0.79537427 0.017874435 5979169
0.056966528 0.7947017 0.018545181 6044962
0.056783587 0.79429531 0.01854302 5914146
0.05660066 0.79388881 0.018540859 5979939
0.057141036 0.79322225 0.01921162 5914146
0.056958765 0.79281729 0.019209474 5979939
0.056776494 0.79241234 0.019207329 5914146
0.057319552 0.79175168 0.019878104 6045732
0.057137951 0.79134822 0.019875959 5914146
0.056956351 0.79094476 0.019873828 5914146
0.056774765 0.79054129 0.019871682 5914146
0.056593165 0.79013783 0.019869551 5914146
0.056411564 0.78973436 0.01986742 5979939
0.056959331 0.78908414 0.02053827 5914146
0.056778401 0.78868216 0.02053614 5914146
0.056597471 0.78828019 0.020534009 5979939
0.056416556 0.78787822 0.020531878 6045732
0.056235626 0.78747624 0.020529747 5979939
0.056054696 0.78707427 0.020527616 5979939
0.056607127 0.78643447 0.021198496 5979939
0.056426868 0.78603399 0.021196365 6045732
0.056246623 0.7856335 0.021194249 5979939
0.056066364 0.78523302 0.021192133 6045732
0.055886105 0.78483254 0.021190003 6045732
0.055705845 0.78443205 0.021187887 6045732
0.056263 0.78380263 0.021858841 6045732
0.056083411 0.78340364 0.021856725 6045732
0.055903822 0.78300464 0.021854624 6045732
0.055724233 0.78260565 0.021852508 5979939
0.055544645 0.78220665 0.021850392 5979939
0.055365056 0.78180766 0.021848276 6045732
0.056668296 0.78096873 0.023192406 6045732
0.056490049 0.78057271 0.02319032 6045732
0.056311801 0.7801767 0.023188218 5979939
0.056876987 0.77956522 0.023859262 5979939
0.05669941 0.77917069 0.023857161 5979939
0.056521833 0.77877611 0.023855075 6045732
0.056344256 0.77838159 0.023852989 6045732
0.056166679 0.77798706 0.023850888 6177318
0.055989102 0.77759254 0.023848802 6045732
0.056558982 0.77699143 0.02451992 5980452
0.056382075 0.77659839 0.024517834 5914659
0.056205168 0.77620536 0.024515748 5914659
0.056777701 0.77561021 0.025186867 5914659
0.056601465 0.77521867 0.02518478 6112038
0.056425229 0.77482712 0.025182709 5980452
0.056248993 0.77443558 0.025180638 6176548
0.056072757 0.77404404 0.025178567 6176548
0.055896521 0.77365243 0.025176495 6110755
0.056473747 0.77306771 0.025847673 6176548
0.056298181 0.77267766 0.025845602 6045732
0.056122616 0.77228761 0.025843531 6045732
0.05594705 0.77189755 0.025841475 6177318
0.055771485 0.7715075 0.025839403 6045732
0.055595919 0.77111739 0.025837332 6308134
0.056177869 0.7705431 0.0265086 6176548
0.05600296 0.77015454 0.026506543 6176548
0.055828065 0.76976597 0.026504472 6176548
0.056412682 0.76919764 0.027175754 6176548
0.056238458 0.76881051 0.027173698 6308134
0.056064233 0.76842344 0.027171642 6307880
0.055889994 0.76803637 0.0271696 6176294
0.05571577 0.76764929 0.027167544 6307366
0.056304425 0.76708984 0.027838886 6307366
0.056130871 0.76670426 0.027836829 6307880
0.055957302 0.76631868 0.027834788 6307880
0.05654861 0.76576525 0.02850613 6307880
0.056375727 0.7653811 0.028504089 6307880
0.056202829 0.76499701 0.028502062 6307880
0.056029946 0.76461291 0.028500021 6307880
0.055857062 0.76422876 0.028497994 6176548
0.055684179 0.76384467 0.028495952 6308134
0.056280196 0.76330161 0.029167369 6308134
0.056107983 0.76291901 0.029165342 6308134
0.055935755 0.76253641 0.029163316 6308134
0.055763543 0.76215374 0.029161289 6308134
0.05559133 0.76177114 0.029159263 6308134
0.055419117 0.76138854 0.029157236 6373927
0.056019798 0.76085591 0.029828697 6308134
0.055848241 0.7604748 0.029826671 6373927
0.055676699 0.76009369 0.029824659 6307880
0.055505157 0.75971252 0.029822633 6307880
0.055333614 0.75933141 0.029820621 6177064
0.055162072 0.75895023 0.029818594 6177064
0.054990515 0.75856912 0.029816583 6045478
0.054818973 0.75818801 0.029814556 6177064
0.054647431 0.75780684 0.029812545 6177064
0.055254817 0.75728917 0.03048408 6177064
0.055083945 0.75690949 0.030482054 6177064
0.054913074 0.75652987 0.030480057 6177064
0.054742187 0.75615019 0.03047803 6439466
0.054571316 0.75577056 0.030476034 6373673
0.054400444 0.75539094 0.030474007 6307880
0.055012524 0.75488365 0.031145632 6373673
0.054842323 0.75450546 0.031143636 6177064
0.054672122 0.75412732 0.031141624 6045478
0.055286884 0.75362599 0.031813249 6177064
0.055117339 0.75324929 0.031811252 6045478
0.054947808 0.75287265 0.031809255 6177064
0.055565268 0.75237727 0.032480925 6177064
0.055396408 0.75200206 0.032478929 6177064
0.055227548 0.75162691 0.032476932 6177064
0.055058673 0.7512517 0.03247495 6177064
0.054889813 0.75087655 0.032472968 6045478
0.054720938 0.75050139 0.032470971 6045478
0.055343062 0.75001639 0.033142686 6045478
0.055174872 0.74964273 0.033140704 6045478
0.055006668 0.74926901 0.033138722 6045478
0.054838479 0.74889535 0.03313674 6177064
0.054670289 0.74852163 0.033134758 6177064
0.054502085 0.74814796 0.033132792 6045478
0.055128932 0.74767339 0.033804566 6045478
0.054961413 0.74730122 0.033802599 6177064
0.054793879 0.74692905 0.033800632 6045478
0.054626361 0.74655682 0.033798665 6045478
0.054458827 0.74618459 0.033796683 6045478
0.054291308 0.74581242 0.033794716 6177064
0.054123789 0.74544024 0.033792734 6045478
0.053956255 0.74506801 0.033790767 5979685
0.053788736 0.74469578 0.0337888 5913892
0.053621203 0.74432361 0.033786818 5979685
0.053453684 0.74395144 0.033784851 5913892
0.053286165 0.74357921 0.03378287 5848099
0.053118631 0.74320698 0.033780903 5782306
0.052951112 0.74283481 0.033778936 5716513
0.052783579 0.74246258 0.033776969 5716513
0.056423947 0.79777795 0.017601505 5848866
0.056239665 0.79736853 0.017599344 5914146
0.056055397 0.79695916 0.017597169 5979939
0.056591153 0.79628026 0.018266425 6110755
0.056407541 0.79587233 0.018264264 6110755
0.056223929 0.79546446 0.018262088 6044962
0.056762397 0.79479158 0.018931419 6044962
0.056579456 0.79438508 0.018929273 5979939
0.056396514 0.79397869 0.018927112 5979939
0.05693765 0.79331172 0.019596443 5914146
0.056755394 0.79290676 0.019594297 5979939
0.056573123 0.79250181 0.019592151 5979939
0.057116911 0.79184085 0.020261526 6045732
0.056935325 0.79143739 0.02025938 5979939
0.056753725 0.79103392 0.020257235 5914146
0.056572124 0.79063046 0.020255104 5914146
0.056390524 0.790227 0.020252973 5914146
0.056208938 0.78982353 0.020250827 5979939
0.05675745 0.78917301 0.020920277 5979939
0.05657652 0.78877103 0.020918146 5914146
0.05639559 0.78836906 0.020916015 5979939
0.056214675 0.78796709 0.020913884 5979939
0.056033745 0.78756511 0.020911753 5979939
0.055852816 0.78716308 0.020909622 5979939
0.056405991 0.78652298 0.021579087 5979939
0.056225732 0.7861225 0.021576956 6045732
0.056045473 0.78572202 0.02157484 6045732
0.055865228 0.78532153 0.021572709 6045732
0.055684969 0.78492105 0.021570593 6045732
0.055504709 0.78452057 0.021568477 6045732
0.056062609 0.78389084 0.022238016 5979939
0.05588302 0.78349185 0.0222359 6045732
0.055703431 0.78309286 0.022233784 6045732
0.055523843 0.78269386 0.022231668 5979939
0.055344254 0.78229481 0.022229567 5979939
0.055164665 0.78189582 0.022227451 6045732
0.056469411 0.78105628 0.023568749 6045732
0.056291163 0.78066027 0.023566663 6045732
0.056112915 0.7802642 0.023564562 5979939
0.056678832 0.77965242 0.024234176 5979939
0.056501269 0.77925789 0.02423209 5979939
0.056323677 0.77886331 0.024230003 6045732
0.056146115 0.77846879 0.024227917 6045732
0.055968538 0.77807426 0.024225831 6177064
0.055790961 0.77767974 0.02422373 6045478
0.056361586 0.77707833 0.024893433 5980198
0.056184679 0.77668524 0.024891347 5914405
0.056007773 0.7762922 0.024889261 5914405
0.05658105 0.77569675 0.025558963 5980198
0.056404814 0.77530521 0.025556892 6112038
0.056228578 0.77491367 0.025554806 5980452
0.056052342 0.77452207 0.025552735 5979939
0.055876106 0.77413052 0.025550663 6045732
0.05569987 0.77373898 0.025548592 6045732
0.056277841 0.77315396 0.026218355 6045732
0.056102276 0.77276391 0.026216298 6045732
0.05592671 0.7723738 0.026214227 6177318
0.055751145 0.77198374 0.026212156 6308134
0.055575579 0.77159369 0.026210099 6176548
0.055400014 0.77120364 0.026208028 6176548
0.055982709 0.77062899 0.026877865 6176548
0.055807814 0.77024043 0.026875809 6176548
0.055632919 0.76985186 0.026873738 6308134
0.056218266 0.76928318 0.027543604 6308134
0.056044042 0.7688961 0.027541548 6308134
0.055869818 0.76850903 0.027539492 6439206
0.055695593 0.7681219 0.02753745 6307620
0.055521369 0.76773483 0.027535394 6307620
0.056110755 0.76717508 0.02820532 6439206
0.055937201 0.7667895 0.028203279 6439206
0.055763647 0.76640391 0.028201222 6439206
0.056355685 0.76585013 0.028871149 6308134
0.056182802 0.76546603 0.028869122 6308134
0.056009918 0.76508188 0.028867081 6308134
0.055837035 0.76469779 0.028865039 6308134
0.055664152 0.7643137 0.028863013 6308134
0.055491269 0.76392955 0.028860971 6308134
0.05608803 0.76338619 0.029530987 6308134
0.055915818 0.76300359 0.029528946 6308134
0.05574359 0.76262099 0.029526919 6308134
0.055571377 0.76223832 0.029524893 6308134
0.055399165 0.76185572 0.029522866 6308134
0.055226952 0.76147312 0.029520839 6373927
0.055828378 0.76094019 0.030190885 6308134
0.055656835 0.76055902 0.030188859 6308134
0.055485278 0.76017791 0.030186847 6307880
0.055313736 0.75979674 0.030184835 6307880
0.055142194 0.75941563 0.030182809 6177064
0.054970652 0.75903451 0.030180782 6177064
0.05479911 0.75865334 0.03017877 6242857
0.054627553 0.75827223 0.030176744 6177064
0.05445601 0.75789112 0.030174732 6177064
0.055064157 0.75737303 0.030844852 6177064
0.05489327 0.75699341 0.030842841 6177064
0.054722399 0.75661373 0.030840829 6177064
0.054551527 0.75623411 0.030838817 6439466
0.054380655 0.75585449 0.030836806 6373673
0.054209769 0.75547481 0.030834794 6307880
0.054822609 0.75496721 0.031504989 6373673
0.054652393 0.75458902 0.031502992 6242857
0.054482192 0.75421089 0.031500995 6177064
0.055097699 0.7537092 0.03217119 6177064
0.054928169 0.75333256 0.032169193 6045478
0.054758638 0.75295591 0.032167196 6045478
0.055376843 0.75246018 0.032837451 6177064
0.055207983 0.75208497 0.032835454 6177064
0.055039108 0.75170982 0.032833472 6177064
0.054870248 0.75133467 0.03283149 6177064
0.054701388 0.75095946 0.032829493 6045478
0.054532513 0.7505843 0.032827511 6045478
0.055155382 0.750099 0.03349781 6045478
0.054987192 0.74972528 0.033495829 6045478
0.054818988 0.74935162 0.033493847 6177064
0.054650798 0.7489779 0.033491865 6177064
0.054482609 0.74860424 0.033489883 6177064
0.054314405 0.74823058 0.033487901 6045478
0.054941997 0.74775565 0.034158275 6045478
0.054774478 0.74738348 0.034156308 6242859
0.054606944 0.7470113 0.034154326 6177066
0.054439425 0.74663907 0.034152359 6045478
0.054271907 0.7462669 0.034150392 6045478
0.054104373 0.74589467 0.034148425 6177064
0.053936854 0.7455225 0.034146443 6045478
0.05376932 0.74515027 0.034144476 5979685
0.053601801 0.7447781 0.034142494 5979685
0.053434283 0.74440587 0.034140527 5914405
0.053266749 0.74403369 0.03413856 5848612
0.05309923 0.74366146 0.034136578 5782819
0.052931696 0.74328929 0.034134611 5717026
0.052764177 0.74291706 0.03413263 5651233
0.052596658 0.74254489 0.034130663 5717026
0.056771159 0.7990967 0.017997086 5914146
0.056586877 0.79868728 0.01799491 5914146
0.056402594 0.79827785 0.01799275 5979939
0.056937099 0.79759425 0.01866056 5979939
0.056753486 0.79718632 0.0186584 5979939
0.056569874 0.79677838 0.018656239 5979939
0.057107076 0.79610074 0.019324124 5979939
0.056924149 0.79569429 0.019321978 5979939
0.056741208 0.79528785 0.019319817 6110755
0.057281077 0.7946161 0.019987717 6110755
0.057098806 0.79421115 0.019985572 5979939
0.056916535 0.7938062 0.019983426 6045732
0.056734279 0.79340124 0.01998128 5914146
0.056552008 0.79299629 0.019979134 5979939
0.056369737 0.79259133 0.019976988 5979939
0.056914285 0.79193008 0.020644933 6045732
0.056732684 0.79152656 0.020642802 5979939
0.056551084 0.79112309 0.020640656 5979939
0.057098344 0.79046774 0.021308661 5914146
0.056917414 0.79006577 0.02130653 5979939
0.056736484 0.78966379 0.021304399 5979939
0.057286397 0.78901446 0.021972403 5979939
0.057106137 0.78861392 0.021970272 5979939
0.056925878 0.78821343 0.021968156 5979939
0.056745619 0.78781295 0.02196604 5979939
0.056565374 0.78741246 0.021963909 5979939
0.056385115 0.78701198 0.021961793 5979939
0.056204855 0.7866115 0.021959662 5979939
0.056024596 0.78621101 0.021957546 5979939
0.055844337 0.78581053 0.021955431 6045732
0.05640097 0.78517604 0.022623539 6045732
0.056221381 0.78477705 0.022621423 6045732
0.056041807 0.78437799 0.022619307 6045732
0.055862218 0.783979 0.022617191 5979939
0.055682629 0.78358001 0.022615075 5979939
0.055503041 0.78318101 0.022612959 6177318
