# .PCD v0.7 - Point Cloud Data file format
VERSION 0.7
FIELDS x y z rgb
SIZE 4 4 4 4
TYPE F F F U
COUNT 1 1 1 1
WIDTH 1082
HEIGHT 1
VIEWPOINT 0 0 0 1 0 0 0
POINTS 1082
DATA ascii
0.0007712245 0.83061713 0.039542139 15719892
0.0012117922 0.83047259 0.039539739 15785685
0.0016523562 0.83032805 0.03953734 15785685
0.0022634603 0.83099502 0.040107742 15719892
0.0027024783 0.83085096 0.040105343 15654099
0.0031414926 0.83070695 0.040102959 15785685
0.0035805069 0.83056289 0.04010056 15785685
0.0040195249 0.83041883 0.040098175 15785685
0.0044585392 0.83027482 0.040095791 15785685
0.0050587878 0.83094537 0.040666237 15785685
0.0054962523 0.83080184 0.040663853 15785685
0.0059337169 0.83065832 0.040661469 15983064
0.0063711815 0.83051479 0.040659085 15917271
0.0068086423 0.83037126 0.040656701 15785685
0.0072461069 0.83022773 0.040654317 15785685
0.0078354962 0.8309018 0.041224822 15785685
0.0082714073 0.83075881 0.041222438 15785685
0.0087073185 0.83061576 0.041220069 15785685
0.0091432296 0.83047271 0.0412177 15785685
0.0095791444 0.83032972 0.041215315 15785685
0.010015056 0.83018667 0.041212946 15719892
0.010593586 0.83086437 0.041783527 15719892
0.011027947 0.83072186 0.041781172 15654099
0.011462312 0.83057934 0.041778803 15719892
0.011896674 0.83043683 0.041776434 15719379
0.012331031 0.83029431 0.041774079 15653586
0.012900252 0.83097506 0.042344674 15653586
0.013333064 0.83083302 0.04234232 15785172
0.013765875 0.83069104 0.042339966 15588306
0.014198679 0.830549 0.042337611 15588306
0.014631491 0.83040702 0.042335242 15588306
0.015064303 0.83026505 0.042332888 15588306
0.015497111 0.83012301 0.042330533 15588306
0.015929919 0.82998097 0.042328179 15588306
0.01636273 0.82983899 0.042325824 15719638
0.016916435 0.8305248 0.042896509 15653845
0.017347697 0.8303833 0.04289417 15653845
0.017778955 0.8302418 0.042891815 15719638
0.018210217 0.8301003 0.042889461 15653845
0.018641472 0.8299588 0.042887121 15719638
0.019072734 0.8298173 0.042884767 15588822
0.019503988 0.82967579 0.042882428 15523029
0.01993525 0.82953429 0.042880073 15588822
0.020366505 0.82939285 0.042877719 15588822
0.020904705 0.83008373 0.043448523 15654615
0.021334413 0.82994276 0.043446183 15588822
0.021764118 0.8298018 0.043443844 15588822
0.02219383 0.82966077 0.043441504 15654615
0.022623535 0.82951981 0.043439165 15654615
0.02305324 0.82937884 0.043436825 15654615
0.023482949 0.82923782 0.043434486 15588822
0.023912661 0.82909685 0.043432146 15654615
0.024342366 0.82895589 0.043429807 15588822
0.024865046 0.82965183 0.04400067 15588822
0.025293201 0.82951134 0.043998331 15588822
0.025721356 0.82937086 0.043996006 15523029
0.026237834 0.83006895 0.044566914 15786201
0.02666444 0.82992899 0.04456459 15786201
0.027091045 0.82978898 0.044562265 15917271
0.027517647 0.82964903 0.044559941 15917271
0.027944252 0.82950902 0.044557616 15982551
0.028370857 0.82936907 0.044555292 15850965
0.028876469 0.83007067 0.045126259 15982551
0.029301524 0.8299312 0.04512395 15785172
0.029726576 0.82979172 0.045121625 15850965
0.030151632 0.82965231 0.045119315 15982551
0.030576684 0.82951283 0.045117006 15850965
0.031072997 0.83021748 0.045688018 15785172
0.031496499 0.83007854 0.045685709 15719379
0.031920001 0.8299396 0.045683399 15719379
0.032343503 0.82980061 0.045681104 15916244
0.032767005 0.82966167 0.045678794 15850451
0.033190504 0.82952273 0.045676485 15784658
0.033675957 0.83023095 0.046247557 15850451
0.03409791 0.83009249 0.046245247 15850451
0.034519859 0.82995403 0.046242952 15784658
0.034941811 0.82981563 0.046240658 15982037
0.03536376 0.82967716 0.046238363 15916244
0.035785712 0.8295387 0.046236053 15982037
0.036207665 0.8294003 0.046233758 15916244
0.036629613 0.82926184 0.046231464 15850197
0.037051566 0.82912338 0.046229169 15784404
0.037521504 0.82983667 0.046800315 15850197
0.037941903 0.82969874 0.046798021 15981783
0.038362302 0.82956082 0.046795741 15915990
0.038782701 0.82942289 0.046793446 15915990
0.039203104 0.82928497 0.046791151 15850451
0.039623503 0.82914698 0.046788871 15850451
0.040082585 0.82986391 0.047360107 15850451
0.040501427 0.82972646 0.047357813 15850451
0.040920276 0.82958907 0.047355533 15850451
0.041339125 0.82945162 0.047353253 15850451
0.041757975 0.82931423 0.047350973 15850451
0.042176824 0.82917678 0.047348693 15784658
0.042595666 0.82903934 0.047346413 15850451
0.043014515 0.82890195 0.047344133 15784658
0.043433364 0.8287645 0.047341853 15850197
0.043876935 0.82948643 0.047913149 15850197
0.044294234 0.82934952 0.047910869 15719125
0.044711526 0.82921261 0.047908589 15653332
0.045128826 0.82907569 0.047906324 15521746
0.045546118 0.82893878 0.047904059 15521746
0.045963425 0.82880187 0.047901779 15455953
0.046396125 0.82952738 0.04847315 15324367
0.046811868 0.829391 0.048470885 15455953
0.047227625 0.82925457 0.04846862 15521746
0.04764336 0.82911819 0.048466355 15456207
0.048059117 0.82898176 0.04846409 15456207
0.048474852 0.82884538 0.048461825 15456207
0.048890602 0.82870895 0.04845956 15456207
0.049306344 0.82857257 0.048457295 15390927
0.049722094 0.82843614 0.04845503 15193548
0.050137836 0.82829976 0.048452765 15127755
0.050553586 0.82816333 0.048450515 15061962
0.050969321 0.82802689 0.04844825 14931146
0.051385079 0.82789052 0.048445985 14865353
0.051800814 0.82775414 0.04844372 14799306
0.052216571 0.8276177 0.048441455 14601927
0.052632306 0.82748127 0.04843919 14470854
0.053048056 0.82734489 0.048436925 14339268
0.053463798 0.82720852 0.04843466 14141889
0.053879548 0.82707208 0.048432395 14010303
0.054295298 0.82693565 0.04843013 13747901
0.05471104 0.82679927 0.048427865 13550522
0.05512679 0.82666284 0.0484256 13287864
0.055542532 0.82652646 0.048423335 12958899
0.055958275 0.82639003 0.04842107 12827313
0.056395847 0.82537895 0.047844976 12629934
0.056813139 0.82524204 0.047842696 12498088
0.057230439 0.82510513 0.047840431 12103330
0.057647739 0.82496822 0.047838151 11773595
0.058065031 0.82483131 0.047835886 11510423
0.05848233 0.8246944 0.047833607 10983564
0.058899622 0.82455748 0.047831342 10588806
0.059316922 0.82442057 0.047829062 9865337
-0.023604508 0.83055544 0.03492555 16114648
-0.023149986 0.83040631 0.034923077 16048855
-0.022695456 0.83025718 0.034920603 15786455
-0.021992575 0.83089495 0.035489067 15852248
-0.021539602 0.83074629 0.035486594 15983834
-0.021086629 0.83059764 0.035484135 15918041
-0.020389948 0.83123744 0.036052644 15918041
-0.019938525 0.83108938 0.036050186 15852248
-0.019487094 0.8309412 0.036047727 15786455
-0.018796634 0.83158302 0.036616281 15786455
-0.01834676 0.83143544 0.036613822 15786455
-0.017896887 0.8312878 0.036611378 15654869
-0.017447013 0.83114022 0.036608934 15720921
-0.01699714 0.83099258 0.036606476 15589335
-0.016547266 0.830845 0.036604032 15786455
-0.015867654 0.8314904 0.03717263 15654869
-0.01541933 0.83134329 0.037170187 15523283
-0.014971007 0.83119619 0.037167743 15589076
-0.014522683 0.83104908 0.037165314 15589076
-0.014074359 0.83090198 0.03716287 15589076
-0.013626035 0.83075488 0.037160426 15654869
-0.013177719 0.83060777 0.037157983 15654869
-0.012729388 0.83046073 0.037155539 15654869
-0.012281071 0.83031362 0.03715311 15654869
-0.011616971 0.83096409 0.037721783 15654869
-0.011170201 0.83081746 0.037719339 15589076
-0.010723431 0.83067089 0.03771691 15654869
-0.01027666 0.83052433 0.037714481 15654869
-0.00982989 0.8303777 0.037712052 15523283
-0.0093831159 0.83023113 0.037709609 15589076
-0.0087298714 0.83088517 0.038278356 15786453
-0.0082846545 0.83073908 0.038275942 15654867
-0.0078394376 0.83059299 0.038273513 15523281
-0.0073942132 0.83044696 0.038271084 15589074
-0.0069489963 0.83030087 0.03826867 15589074
-0.006503772 0.83015478 0.038266242 15654867
-0.0060585551 0.83000869 0.038263813 15786453
-0.0056133308 0.82986259 0.038261399 15786453
-0.004974056 0.83052123 0.038830221 15786453
-0.0045303889 0.83037567 0.038827792 15654867
-0.0040867217 0.83023006 0.038825378 15785683
-0.0034536533 0.83089072 0.03939423 15785683
-0.0030115359 0.83074564 0.039391816 15589074
-0.0025694109 0.83060062 0.039389417 15523281
-0.0021272972 0.83045554 0.039387003 15523283
-0.0016851798 0.83031046 0.039384589 15523283
-0.0012430623 0.83016539 0.03938219 15654869
-0.00062084571 0.83082962 0.039951101 15589076
-0.00018027797 0.83068508 0.039948702 15588306
0.00026028603 0.83054054 0.039946303 15522513
0.00070085004 0.830396 0.039943904 15719892
0.0011414178 0.83025146 0.039941505 15785685
0.0015819855 0.83010685 0.039939106 15917271
0.0021933354 0.83077466 0.040508091 15719892
0.0026323535 0.8306306 0.040505692 15719892
0.0030713677 0.83048654 0.040503308 15785685
0.003510382 0.83034253 0.040500924 15785685
0.0039494 0.83019847 0.040498525 15785685
0.0043884143 0.8300544 0.040496141 15785685
0.0049889088 0.83072579 0.041065171 15785685
0.0054263771 0.83058226 0.041062787 15917271
0.0058638379 0.83043873 0.041060403 15983064
0.0063013025 0.83029521 0.041058019 15917271
0.0067387633 0.83015168 0.04105565 15719892
0.0071762279 0.83000809 0.041053265 15785685
0.0077658631 0.83068299 0.041622341 15785685
0.0082017779 0.83053994 0.041619971 15719892
0.0086376891 0.83039695 0.041617587 15785685
0.0090736002 0.8302539 0.041615218 15785685
0.009509515 0.83011091 0.041612849 15785685
0.0099454261 0.82996786 0.041610464 15654099
0.010524206 0.83064634 0.042179644 15654099
0.010958567 0.83050382 0.042177275 15785685
0.011392932 0.83036131 0.04217492 15719892
0.011827294 0.83021879 0.042172551 15654099
0.012261651 0.83007628 0.042170182 15588306
0.012831118 0.8307578 0.042739376 15522513
0.01326393 0.83061576 0.042737007 15654099
0.013696741 0.83047378 0.042734653 15588306
0.014129546 0.8303318 0.042732298 15588306
0.014562357 0.83018976 0.042729944 15588306
0.014995169 0.83004773 0.04272759 15588306
0.015427977 0.82990575 0.042725235 15588052
0.015860785 0.82976377 0.042722866 15588052
0.016293596 0.82962173 0.042720512 15719638
0.016847551 0.83030832 0.043289796 15653845
0.017278813 0.83016682 0.043287441 15653845
0.017710071 0.83002532 0.043285087 15653845
0.018141333 0.82988381 0.043282747 15653845
0.018572588 0.82974231 0.043280393 15719638
0.019003849 0.82960081 0.043278053 15523029
0.019435104 0.82945931 0.043275699 15523029
0.019866366 0.82931781 0.043273345 15588822
0.02029762 0.82917637 0.043271005 15588822
0.020836066 0.82986808 0.043840393 15523029
0.021265775 0.82972705 0.043838054 15588822
0.02169548 0.82958609 0.043835714 15588822
0.022125192 0.82944512 0.043833375 15654615
0.022554897 0.8293041 0.043831035 15654615
0.022984602 0.82916313 0.043828696 15654615
0.02341431 0.82902211 0.043826357 15785431
0.023844022 0.82888114 0.043824017 15785431
0.024273727 0.82874012 0.043821678 15719892
0.024796657 0.8294369 0.044391111 15719892
0.025224812 0.82929647 0.044388786 15589076
0.025652967 0.82915592 0.044386446 15589076
0.026169691 0.82985479 0.044955939 15654869
0.026596297 0.82971478 0.044953614 15786455
0.027022902 0.82957482 0.044951305 15917271
0.027449507 0.82943487 0.04494898 15917271
0.027876113 0.82929492 0.044946656 15917271
0.028302718 0.82915497 0.044944331 15917271
0.028808571 0.82985729 0.045513883 15917271
0.029233627 0.82971781 0.045511559 15785685
0.029658679 0.8295784 0.045509249 15785685
0.030083735 0.82943892 0.045506939 15785685
0.030508786 0.82929945 0.045504615 15982551
0.031005349 0.83000493 0.046074226 15785172
0.031428851 0.82986593 0.046071917 15719379
0.031852353 0.82972699 0.046069607 15785172
0.032275856 0.82958806 0.046067312 15719379
0.032699358 0.82944906 0.046065003 15653586
0.033122856 0.82931012 0.046062693 15719379
0.033608556 0.83001912 0.046632335 15785172
0.034030508 0.82988071 0.04663004 15850965
0.034452457 0.82974225 0.046627745 15719379
0.034874409 0.82960379 0.04662545 15915990
0.035296358 0.82946539 0.046623155 15850197
0.035718311 0.82932693 0.046620846 15915990
0.036140263 0.82918847 0.046618551 15915990
0.036562212 0.82905006 0.046616256 15719125
0.036984164 0.8289116 0.046613961 15719125
0.037454352 0.82962567 0.047183692 15719125
0.037874751 0.82948774 0.047181398 15850711
0.03829515 0.82934976 0.047179103 15784918
0.038715549 0.82921183 0.047176823 15850711
0.039135952 0.82907391 0.047174528 15850197
0.039556351 0.82893598 0.047172233 15850197
0.040015679 0.82965362 0.047742054 15784658
0.040434528 0.82951623 0.047739789 15850451
0.04085337 0.82937878 0.047737494 15850451
0.041272227 0.82924139 0.047735214 15850451
0.041691076 0.82910395 0.047732934 15784658
0.042109918 0.8289665 0.047730654 15784658
0.042528767 0.82882911 0.047728375 15718865
0.042947609 0.82869166 0.047726095 15653072
0.043366458 0.82855427 0.047723815 15719125
0.043810282 0.82927698 0.048293695 15784918
0.044227581 0.82914007 0.048291415 15653332
0.044644874 0.82900316 0.04828915 15653332
0.045062173 0.82886624 0.04828687 15390673
0.045479465 0.82872927 0.048284605 15456466
0.045896772 0.82859242 0.048282325 15390673
0.046329718 0.8293187 0.04885228 15390673
0.04674546 0.82918227 0.048850015 15390673
0.047161218 0.82904589 0.04884775 15390673
0.047576953 0.82890952 0.048845485 15456207
0.04799271 0.82877308 0.04884322 15522000
0.048408445 0.82863665 0.048840955 15456720
0.048824195 0.82850027 0.04883869 15390927
0.049239937 0.82836384 0.048836425 15390927
0.049655687 0.82822746 0.04883416 15193548
0.050071429 0.82809103 0.048831895 15127755
0.050487179 0.82795465 0.04882963 15061962
0.050902914 0.82781821 0.048827365 14931146
0.051318672 0.82768184 0.048825115 14931146
0.051734407 0.8275454 0.04882285 14799306
0.052150164 0.82740903 0.048820585 14667720
0.052565899 0.82727259 0.04881832 14601927
0.052981649 0.82713616 0.048816055 14470341
0.053397391 0.82699978 0.04881379 14273475
0.053813141 0.82686341 0.048811525 14141889
0.054228891 0.82672697 0.04880926 14010303
0.054644633 0.82659054 0.048806995 13878717
0.055060383 0.82645416 0.04880473 13287864
0.055476125 0.82631779 0.048802465 13090485
0.055891868 0.82618135 0.0488002 12827313
0.056329194 0.8251695 0.048225522 12629934
0.056746487 0.82503259 0.048223242 12498088
0.057163786 0.82489568 0.048220977 12169123
0.057581086 0.82475877 0.048218697 11905951
0.057998378 0.82462186 0.048216432 11511193
0.058415677 0.82448494 0.048214152 11180943
0.05883297 0.82434797 0.048211887 10588806
0.059250269 0.82421112 0.048209608 10128509
-0.023677114 0.83032727 0.035340056 15983832
-0.023222592 0.83017814 0.035337582 15983832
-0.022768062 0.83002901 0.035335109 15918041
-0.022064935 0.8306675 0.035902157 15918041
-0.021611955 0.8305189 0.035899684 15786455
-0.021158982 0.83037031 0.035897225 15918041
-0.020218115 0.83179998 0.037033886 15983834
-0.019768242 0.8316524 0.037031427 15852248
-0.019318368 0.83150482 0.037028983 15786455
-0.018868495 0.83135718 0.037026525 15852248
-0.018418621 0.8312096 0.037024081 15786455
-0.017968748 0.83106196 0.037021637 15786455
-0.017284233 0.83170664 0.037588805 15851994
-0.016835909 0.83155954 0.037586361 15786201
-0.016387586 0.83141243 0.037583917 15786455
-0.015709277 0.83205909 0.0381511 15654869
-0.015262511 0.83191252 0.038148656 15589076
-0.014815737 0.83176589 0.038146228 15589076
-0.014368962 0.83161932 0.038143799 15654869
-0.013922196 0.83147275 0.03814137 15654869
-0.013475422 0.83132613 0.038138941 15654869
-0.013028655 0.83117956 0.038136497 15654869
-0.012581881 0.83103299 0.038134068 15654869
-0.012135107 0.83088636 0.038131639 15589076
-0.011472311 0.83153814 0.038698927 15654869
-0.01102709 0.83139205 0.038696498 15589076
-0.01058187 0.83124602 0.038694069 15654869
-0.010136653 0.83109993 0.038691655 15654869
-0.0096914321 0.83095384 0.038689226 15523283
-0.0092462115 0.83080775 0.038686797 15589076
-0.0088009909 0.83066165 0.038684368 15786453
-0.0083557703 0.83051562 0.038681954 15852246
-0.0079105534 0.83036953 0.038679525 15654867
-0.0072632693 0.83102632 0.039246887 15654867
-0.0068196021 0.83088076 0.039244473 15523281
-0.0063759349 0.83073521 0.039242059 15654867
-0.0061296709 0.82978523 0.038669825 15852246
-0.0056844465 0.82963914 0.038667396 15786453
-0.005044926 0.83029848 0.039234817 15786453
-0.0046012588 0.83015293 0.039232388 15654867
-0.0041575879 0.83000737 0.039229974 15589074
-0.0035242699 0.83066881 0.03979741 15654867
-0.0030821525 0.83052373 0.039794996 15589074
-0.002640035 0.83037865 0.039792597 15523281
-0.0021979176 0.83023357 0.039790183 15523283
-0.0017558001 0.83008856 0.039787784 15589076
-0.0013136826 0.82994348 0.03978537 15589076
-0.00069121644 0.83060849 0.040352866 15589076
-0.00025065243 0.83046395 0.040350482 15654099
0.00018991157 0.8303194 0.040348068 15654099
0.00063047931 0.8301748 0.040345684 15785685
0.001071047 0.83003026 0.04034327 15917271
0.0015116148 0.82988572 0.040340886 15917271
0.0021232106 0.83055425 0.040908441 15785685
0.0025622286 0.83041024 0.040906057 15719892
0.0030012429 0.83026618 0.040903658 15785685
0.0034402572 0.83012211 0.040901273 15917271
0.0038792752 0.82997811 0.040898874 15785685
0.0043182895 0.82983404 0.04089649 15917271
0.0049190335 0.83050621 0.041464105 15785685
0.0053564981 0.83036268 0.041461721 15917271
0.0057939626 0.83021909 0.041459337 15917271
0.0062314235 0.83007556 0.041456968 15719892
0.006668888 0.82993203 0.041454583 15719892
0.0071063526 0.82978851 0.041452199 15719892
0.0076962337 0.83046418 0.042019859 15785685
0.0081321485 0.83032113 0.04201749 15719892
0.0085680597 0.83017814 0.04201512 15785685
0.0090039708 0.83003509 0.042012736 15785685
0.0094398856 0.82989204 0.042010367 15719892
0.0098757967 0.82974905 0.042007998 15654099
0.010454822 0.8304283 0.042575747 15654099
0.010889184 0.83028579 0.042573377 15719892
0.011323549 0.83014327 0.042571023 15654099
0.01175791 0.83000076 0.042568654 15654099
0.012192268 0.82985824 0.042566285 15654099
0.012761984 0.83054054 0.043134063 15522513
0.013194796 0.8303985 0.043131709 15588306
0.013627607 0.83025652 0.043129355 15456720
0.014060412 0.83011448 0.043126985 15588306
0.014493223 0.82997251 0.043124631 15588306
0.014926035 0.82983053 0.043122277 15588306
0.015358843 0.82968849 0.043119922 15457236
0.015791651 0.82954645 0.043117568 15457236
0.016224463 0.82940447 0.043115214 15588822
0.016778663 0.83009183 0.043683067 15588822
0.017209925 0.82995033 0.043680713 15588822
0.017641183 0.82980883 0.043678373 15523029
0.018072445 0.82966733 0.043676019 15523029
0.018503699 0.82952583 0.043673679 15588822
0.018934961 0.82938433 0.043671325 15523029
0.019366216 0.82924283 0.04366897 15588822
0.019797478 0.82910138 0.043666631 15588822
0.020228732 0.82895988 0.043664277 15588822
0.020767428 0.82965237 0.044232264 15523029
0.021197136 0.82951134 0.04422991 15523029
0.021626841 0.82937038 0.04422757 15719638
0.022056554 0.82922935 0.044225231 15917017
0.022486258 0.82908839 0.044222891 15719638
0.022915963 0.82894742 0.044220552 15785431
0.023345672 0.8288064 0.044218212 15785685
0.023775384 0.82866544 0.044215873 15785685
0.024205089 0.82852447 0.044213533 15719892
0.024728265 0.82922196 0.044781566 15719892
0.02515642 0.82908154 0.044779226 15719892
0.025584575 0.82894105 0.044776902 15719892
0.026101548 0.82964063 0.045344979 15786455
0.026528154 0.82950068 0.045342654 15852248
0.026954759 0.82936072 0.045340329 15983064
0.027381361 0.82922071 0.045338005 15917271
0.027807966 0.82908076 0.045335695 15982551
0.028234571 0.82894081 0.045333371 16114137
0.028740678 0.82964396 0.045901492 16048344
0.029165734 0.82950449 0.045899183 15850965
0.029590786 0.82936502 0.045896873 15850965
0.030015841 0.82922554 0.045894548 15850965
0.030440893 0.82908607 0.045892239 16048344
0.030937701 0.82979232 0.046460435 15785172
0.031361204 0.82965338 0.046458125 15785172
0.031784706 0.82951438 0.046455815 15719379
0.032208208 0.82937545 0.046453506 15719379
0.03263171 0.82923651 0.046451211 15653586
0.033055209 0.82909757 0.046448901 15785172
0.033541158 0.82980734 0.047017127 15785172
0.03396311 0.82966888 0.047014832 15785172
0.034385059 0.82953042 0.047012538 15850965
0.034807011 0.82939196 0.047010228 15784918
0.03522896 0.82925355 0.047007933 15784918
0.035650913 0.82911509 0.047005638 15784918
0.036072865 0.82897663 0.047003344 15719125
0.036494814 0.82883823 0.047001049 15719125
0.036916766 0.82869977 0.046998754 15653332
0.0373872 0.82941461 0.047567055 15653332
0.037807599 0.82927668 0.047564775 15850711
0.038227998 0.82913876 0.04756248 15784918
0.038648397 0.82900083 0.0475602 15850711
0.039068799 0.82886291 0.047557905 15719125
0.039489198 0.82872498 0.047555611 15784918
0.039948773 0.8294434 0.04812403 15785172
0.040367622 0.82930601 0.048121735 15719379
0.040786464 0.82916856 0.048119456 15850451
0.041205321 0.82903111 0.048117176 15784658
0.04162417 0.82889366 0.048114896 15784658
0.042043012 0.82875627 0.048112616 15850451
0.042461861 0.82861888 0.048110336 15587793
0.042880703 0.82848144 0.048108056 15522000
0.043299552 0.82834399 0.048105776 15653586
0.043743622 0.82906747 0.048674241 15653586
0.044160921 0.82893056 0.048671961 15456466
0.044578213 0.82879364 0.048669696 15456466
0.044995513 0.82865673 0.048667416 15128271
0.045412805 0.82851982 0.048665151 15325650
0.045830112 0.82838291 0.048662871 15259857
0.046263311 0.82911003 0.04923141 15325650
0.046679053 0.82897359 0.049229145 15390673
0.047094811 0.82883716 0.04922688 15390673
0.047510546 0.82870078 0.049224615 15390673
0.047926303 0.82856441 0.04922235 15456466
0.048342038 0.82842797 0.049220085 15522513
0.048757788 0.82829154 0.04921782 15456720
0.04917353 0.82815516 0.049215555 15390927
0.04958928 0.82801878 0.04921329 15456720
0.050005022 0.82788235 0.04921104 15390927
0.050420772 0.82774591 0.049208775 15193548
0.050836507 0.82760954 0.04920651 14996939
0.051252265 0.82747316 0.049204245 14996939
0.051667999 0.82733673 0.04920198 14667974
0.052083757 0.82720029 0.049199715 14667974
0.052499492 0.82706392 0.04919745 14601927
0.052915242 0.82692748 0.049195185 14470341
0.053330984 0.82679111 0.04919292 14339268
0.053746734 0.82665467 0.049190655 14141889
0.054162484 0.8265183 0.04918839 14010303
0.054578226 0.82638186 0.049186125 13878717
0.054993976 0.82624549 0.04918386 13484731
0.055409718 0.82610905 0.049181595 13287352
0.055825461 0.82597268 0.04917933 12893106
0.056262534 0.82495999 0.048606068 12695727
0.056679826 0.82482314 0.048603788 12367016
0.057097126 0.82468617 0.048601523 12169637
0.057514425 0.82454926 0.048599243 11774879
0.057931717 0.82441235 0.048596978 11445914
0.058349017 0.82427543 0.048594698 11181456
0.058766309 0.82413852 0.048592433 10655112
0.059183609 0.82400161 0.048590153 10260095
-0.020289976 0.8315742 0.03744413 15852248
-0.019840103 0.83142656 0.037441686 15852248
-0.019390229 0.83127898 0.037439242 15852248
-0.018940356 0.83113134 0.037436783 15918041
-0.018490482 0.83098376 0.03743434 15852248
-0.018040609 0.83083618 0.037431881 15786455
-0.017355841 0.83148158 0.037997648 16048857
-0.016907524 0.83133447 0.037995204 16048857
-0.016459201 0.83118737 0.037992761 15917271
-0.015780646 0.83183479 0.038558528 15785685
-0.015333872 0.83168823 0.038556084 15719890
-0.014887106 0.83154166 0.038553655 15785683
-0.014440332 0.83139503 0.038551226 15785683
-0.013993558 0.83124846 0.038548797 15785683
-0.013546791 0.83110189 0.038546368 15654867
-0.013100017 0.83095527 0.038543925 15786453
-0.012653243 0.8308087 0.038541496 15654867
-0.012206476 0.83066213 0.038539067 15654867
-0.011543427 0.83131468 0.039104924 15589076
-0.01109821 0.83116859 0.03910251 15589076
-0.010652985 0.8310225 0.039100081 15589076
-0.010207769 0.83087641 0.039097652 15654869
-0.0097625479 0.83073032 0.039095238 15523283
-0.0093173273 0.83058429 0.039092809 15589076
-0.0088721067 0.8304382 0.03909038 15786453
-0.0084268861 0.83029211 0.039087966 15852246
-0.0079816692 0.83014601 0.039085537 15786453
-0.0073341392 0.83080363 0.039651483 15589074
-0.006890472 0.83065808 0.039649069 15589074
-0.0064468049 0.83051252 0.039646655 15654867
-0.006003134 0.83036691 0.039644241 15786453
-0.0055594631 0.83022135 0.039641827 15786453
-0.0049212463 0.83088201 0.040207818 15786453
-0.0044791289 0.83073699 0.040205404 15654867
-0.0040370114 0.83059192 0.04020299 15654867
-0.003594894 0.83044684 0.040200591 15654867
-0.0031527765 0.83030176 0.040198177 15785683
-0.0027106553 0.83015674 0.040195778 15785683
-0.0022685416 0.83001167 0.040193364 15785685
-0.0018264242 0.82986665 0.040190965 15785685
-0.0013843067 0.82972157 0.040188551 15785685
-0.00058100373 0.8311981 0.04132314 15785685
-0.00014198944 0.83105409 0.041320741 15719892
0.00029702485 0.83091009 0.041318357 15654099
0.00073603913 0.83076602 0.041315958 15785685
0.0011750571 0.83062196 0.041313574 15917271
0.0016140752 0.83047795 0.04131119 15917271
0.0020530857 0.83033389 0.04130879 15785685
0.0024921037 0.83018982 0.041306406 15785685
0.0029311143 0.83004582 0.041304007 15785685
0.0035367645 0.83071721 0.041870192 15917271
0.0039742254 0.83057368 0.041867808 15719892
0.0044116937 0.83043009 0.041865423 15850965
0.0048491545 0.83028656 0.041863039 15850965
0.0052866228 0.83014303 0.04186067 15917271
0.0057240836 0.82999951 0.041858286 15917271
0.0063188672 0.83067441 0.042424515 15719892
0.0067547783 0.83053136 0.042422131 15719892
0.0071906932 0.83038837 0.042419761 15719892
0.0077792741 0.83106536 0.04298605 15785685
0.0082136355 0.83092284 0.042983681 15719892
0.0086479969 0.83078033 0.042981327 15917271
0.0090823583 0.83063781 0.042978957 15785685
0.0095167197 0.8304953 0.042976588 15719892
0.0099510811 0.83035278 0.042974219 15654099
0.010528799 0.83103329 0.043540537 15654099
0.010961611 0.83089125 0.043538183 15719892
0.011394423 0.83074927 0.043535829 15654099
0.01182723 0.8306073 0.043533474 15719892
0.012260042 0.83046526 0.04353112 15654099
0.01269285 0.83032328 0.043528751 15522513
0.013125662 0.83018124 0.043526396 15588306
0.013558473 0.83003926 0.043524042 15588306
0.014122229 0.83072436 0.044090435 15588306
0.014553484 0.83058286 0.044088095 15654099
0.014984746 0.83044136 0.044085741 15719892
0.015416 0.83029985 0.044083387 15523029
0.015847262 0.83015835 0.044081047 15588822
0.016278517 0.83001685 0.044078693 15588822
0.016709778 0.82987535 0.044076353 15588822
0.01714104 0.82973385 0.044073999 15523029
0.017572295 0.82959235 0.044071645 15523029
0.018120546 0.83028257 0.044638157 15588822
0.018550258 0.83014154 0.044635817 15523029
0.018979963 0.83000058 0.044633478 15588822
0.019409668 0.82985961 0.044631138 15588822
0.019839372 0.82971859 0.044628799 15588822
0.020269085 0.82957762 0.044626459 15523029
0.02069879 0.82943666 0.04462412 15653845
0.021128494 0.82929564 0.044621781 15653845
0.021558199 0.82915467 0.044619441 15719638
0.022090934 0.82984996 0.045185998 15719638
0.022519089 0.82970947 0.045183674 15719892
0.022947244 0.82956898 0.045181334 15917271
0.023375399 0.82942849 0.045179009 15785685
0.023803558 0.82928801 0.04517667 15785685
0.024231717 0.82914758 0.045174345 15785685
0.024753593 0.82984638 0.045740977 15785685
0.025180198 0.82970643 0.045738667 15785685
0.0256068 0.82956648 0.045736343 15983064
0.026122466 0.83026731 0.046303004 15983064
0.026547518 0.83012784 0.046300694 15983064
0.026972566 0.82998842 0.046298385 16048344
0.027397621 0.82984895 0.04629606 16048344
0.027822673 0.82970947 0.04629375 16114137
0.028247729 0.82957006 0.046291441 16114137
0.028752543 0.83027446 0.046858162 16048344
0.029176045 0.83013552 0.046855867 15850965
0.029599544 0.82999659 0.046853557 15982551
0.030023046 0.82985759 0.046851248 15850965
0.030446548 0.82971865 0.046848938 15982551
0.030870054 0.82957971 0.046846643 15850965
0.031293556 0.82944077 0.046844333 15850965
0.031717058 0.82930183 0.046842024 15850965
0.032207906 0.83001083 0.047408819 15785172
0.032629859 0.82987237 0.04740651 15785172
0.033051804 0.82973397 0.047404215 15785172
0.033473756 0.82959551 0.04740192 15785172
0.033895709 0.82945704 0.047399625 15784918
0.034317657 0.82931864 0.04739733 15850711
0.034797646 0.83003122 0.047964171 15784918
0.035218049 0.82989323 0.047961891 15784918
0.035638444 0.82975531 0.047959596 15784918
0.036058847 0.82961738 0.047957316 15653332
0.036479246 0.82947946 0.047955021 15588052
0.036899645 0.82934153 0.047952726 15456466
0.037368782 0.83005768 0.048519671 15588054
0.037787627 0.82992029 0.048517391 15785433
0.038206477 0.82978284 0.048515111 15784920
0.038625326 0.8296454 0.048512831 15719127
0.039044172 0.82950801 0.048510551 15719125
0.039463021 0.82937056 0.048508272 15784918
0.039881874 0.82923317 0.048505977 15785172
0.040300716 0.82909572 0.048503712 15719379
0.040719565 0.82895827 0.048501417 15785172
0.041173186 0.82967949 0.049068421 15653586
0.041590486 0.82954258 0.049066141 15653586
0.042007778 0.82940567 0.049063876 15653586
0.042425077 0.82926875 0.049061596 15653586
0.04284237 0.82913184 0.049059331 15522000
0.043259669 0.82899493 0.049057052 15587539
0.043676969 0.82885802 0.049054787 15521746
0.044094268 0.82872111 0.049052507 15456466
0.04451156 0.82858419 0.049050242 15456466
0.044949669 0.82931054 0.049617335 15325650
0.045365412 0.82917416 0.04961507 15391443
0.045781154 0.82903773 0.049612805 15391443
0.046196904 0.82890129 0.04961054 15391443
0.046612646 0.82876492 0.049608275 15325650
0.047028404 0.82862848 0.04960601 15259857
0.047455642 0.8293584 0.050173163 15390673
0.047869842 0.8292225 0.050170913 15522259
0.048284035 0.8290866 0.050168648 15522259
0.048698228 0.8289507 0.050166398 15456466
0.049112421 0.8288148 0.050164148 15456466
0.049526621 0.82867891 0.050161883 15456466
0.049940806 0.82854301 0.050159633 15390927
0.050355006 0.82840711 0.050157383 15193548
0.050769191 0.82827121 0.050155118 14996939
0.051183399 0.82813531 0.050152868 14931146
0.051597584 0.82799941 0.050150618 14799560
0.052011777 0.82786351 0.050148353 14667974
0.052425977 0.82772762 0.050146103 14601927
0.05284017 0.82759172 0.050143838 14536134
0.053254362 0.82745582 0.050141588 14339268
0.053668555 0.82731992 0.050139338 14273475
0.054082755 0.82718402 0.050137073 14010303
0.054496948 0.82704812 0.050134823 13878717
0.05491114 0.82691222 0.050132573 13353659
0.05532534 0.82677633 0.050130308 13156280
0.055739533 0.82664043 0.050128058 12958901
0.056174804 0.82562757 0.049556211 12695729
0.056590546 0.82549113 0.049553946 12366762
0.057006296 0.82535475 0.049551681 12169383
0.057422038 0.82521832 0.049549416 11906465
0.057837781 0.82508194 0.049547151 11511707
0.05825353 0.82494551 0.049544886 11313042
0.058669273 0.82480913 0.049542621 10786698
0.059085023 0.8246727 0.049540356 10522243
-0.020361837 0.83134836 0.037854388 15852248
-0.019911963 0.83120072 0.037851945 15852248
-0.01946209 0.83105314 0.037849486 15852248
-0.019012216 0.83090556 0.037847042 15918041
-0.018562343 0.83075792 0.037844598 15918041
-0.018112469 0.83061033 0.03784214 15786455
-0.017427456 0.83125651 0.038406476 15852248
-0.016979132 0.8311094 0.038404033 15852248
-0.016530808 0.8309623 0.038401589 15917269
-0.015852008 0.83161056 0.038965955 15917269
-0.015405241 0.83146393 0.038963512 15785683
-0.014958467 0.83131737 0.038961083 15719890
-0.014511693 0.8311708 0.038958654 15719890
-0.014064927 0.83102417 0.038956225 15719890
-0.013618153 0.8308776 0.038953781 15654867
-0.013171386 0.83073103 0.038951352 15786453
-0.012724612 0.83058441 0.038948923 15786453
-0.012277838 0.83043784 0.038946494 15589074
-0.011614546 0.83109117 0.039510936 15786455
-0.011169326 0.83094507 0.039508522 15654869
-0.010724105 0.83079898 0.039506093 15523283
-0.010278884 0.83065295 0.039503664 15654869
-0.0098336637 0.83050686 0.03950125 15786455
-0.0093884431 0.83036077 0.039498821 15654869
-0.0089432225 0.83021468 0.039496392 15786455
-0.0084980018 0.83006859 0.039493963 15786455
-0.0080527849 0.82992256 0.039491549 15918039
-0.0074050091 0.83058095 0.04005608 15654867
-0.0069613419 0.83043534 0.040053666 15654867
-0.006517671 0.83028978 0.040051252 15654867
-0.0060740001 0.83014423 0.040048838 15786453
-0.005630333 0.82999861 0.040046424 15654867
-0.0049918629 0.8306601 0.040610999 15654867
-0.0045497492 0.83051503 0.040608585 15654867
-0.0041076317 0.83036995 0.040606186 15654867
-0.0036655143 0.83022493 0.040603772 15654867
-0.0032233968 0.83007985 0.040601358 15589074
-0.0027812757 0.82993484 0.040598959 15654867
-0.0023391582 0.82978976 0.040596545 16048857
-0.0018970408 0.82964468 0.040594146 15983064
-0.0014549233 0.8294996 0.040591732 15983064
-0.00065112859 0.83097774 0.04172349 15917271
-0.0002121143 0.83083373 0.041721091 15917271
0.00022689998 0.83068967 0.041718706 15785685
0.00066591427 0.83054566 0.041716322 15785685
0.0011049323 0.8304016 0.041713923 15785685
0.0015439503 0.83025753 0.041711539 15917271
0.0019829609 0.83011353 0.04170914 15917271
0.0024219789 0.82996947 0.041706756 15785685
0.0028609894 0.8298254 0.041704372 15917271
0.0034668855 0.83049756 0.042269126 15917271
0.0039043501 0.83035403 0.042266741 15785685
0.0043418147 0.83021051 0.042264372 15982551
0.0047792755 0.83006698 0.042261988 15982551
0.0052167438 0.82992345 0.042259604 15917271
0.0056542046 0.82977992 0.04225722 15785685
0.0062492378 0.8304556 0.042822033 15654099
0.0066851489 0.83031261 0.042819664 15654099
0.0071210638 0.83016956 0.04281728 15719892
0.0077098906 0.83084732 0.043382153 15785685
0.0081442557 0.83070481 0.043379799 15785685
0.0085786171 0.83056229 0.043377429 15917271
0.0090129785 0.83041978 0.04337506 15785685
0.0094473399 0.83027726 0.043372691 15719892
0.0098816976 0.83013475 0.043370336 15654099
0.010459661 0.83081603 0.043935239 15654099
0.010892473 0.83067405 0.04393287 15719892
0.011325285 0.83053201 0.043930516 15785685
0.011758093 0.83038998 0.043928161 15719892
0.012190904 0.830248 0.043925807 15588306
0.012623712 0.83010602 0.043923452 15588306
0.013056524 0.82996398 0.043921098 15719892
0.013489336 0.829822 0.043918744 15522513
0.014053341 0.83050787 0.044483721 15654099
0.014484599 0.83036637 0.044481367 15719892
0.014915857 0.83022487 0.044479027 15654099
0.015347116 0.83008337 0.044476673 15654099
0.015778374 0.82994187 0.044474319 15719892
0.016209632 0.82980037 0.044471979 15785685
0.01664089 0.82965887 0.044469625 15719892
0.017072152 0.82951736 0.044467285 15719638
0.017503411 0.82937586 0.044464931 15653845
0.018051904 0.83006686 0.045030028 15653845
0.018481616 0.82992589 0.045027688 15653845
0.018911321 0.82978487 0.045025349 15588822
0.019341026 0.82964391 0.045023009 15588822
0.019770734 0.82950294 0.04502067 15588822
0.020200443 0.82936192 0.04501833 15523029
0.020630147 0.82922095 0.045015991 15653845
0.021059856 0.82907999 0.045013651 15653845
0.021489561 0.82893896 0.045011297 15785431
0.022022545 0.82963502 0.045576453 15719638
0.0224507 0.82949454 0.045574114 15719892
0.022878855 0.82935405 0.045571789 15917271
0.023307011 0.82921356 0.045569465 15785685
0.023735169 0.82907307 0.045567125 15785685
0.024163328 0.82893264 0.045564801 15785685
0.02468545 0.82963228 0.046130016 15785685
0.025112055 0.82949227 0.046127692 15786455
0.025538657 0.82935232 0.046125367 15918041
0.026054572 0.83005393 0.046690628 15983064
0.026479624 0.82991451 0.046688318 15983064
0.026904672 0.82977504 0.046685994 15982551
0.027329728 0.82963556 0.046683684 16048344
0.02775478 0.82949615 0.046681374 16114137
0.028179836 0.82935667 0.04667905 16179930
0.028684895 0.83006191 0.04724437 16179416
0.029108398 0.82992291 0.04724206 15982037
0.029531896 0.82978398 0.047239766 15982037
0.029955398 0.82964504 0.047237456 15916244
0.0303789 0.8295061 0.047235146 15850965
0.030802406 0.82936716 0.047232836 15850965
0.031225909 0.82922816 0.047230527 15785172
0.031649411 0.82908922 0.047228232 15785172
0.032140508 0.82979906 0.047793597 15850965
0.032562461 0.82966059 0.047791302 15785172
0.032984406 0.82952213 0.047789007 15785172
0.033406358 0.82938373 0.047786713 15785172
0.033828311 0.82924527 0.047784418 15850711
0.034250259 0.82910681 0.047782108 15850711
0.034730494 0.82982016 0.048347548 15784918
0.035150897 0.82968223 0.048345268 15982297
0.035571292 0.82954431 0.048342973 15719638
0.035991695 0.82940638 0.048340678 15588052
0.036412094 0.82926846 0.048338398 15653845
0.036832493 0.82913053 0.048336104 15653845
0.037301879 0.82984746 0.048901632 15653845
0.037720725 0.82971001 0.048899353 15785431
0.038139574 0.82957256 0.048897073 15784918
0.038558424 0.82943517 0.048894793 15653332
0.038977269 0.82929772 0.048892513 15653332
0.039396118 0.82916033 0.048890233 15719125
0.039814968 0.82902288 0.048887953 15719125
0.04023381 0.82888544 0.048885658 15719125
0.040652659 0.82874805 0.048883379 15785172
0.041106533 0.82947004 0.049448967 15719379
0.041523825 0.82933313 0.049446687 15719379
0.041941125 0.82919621 0.049444422 15653586
0.042358417 0.8290593 0.049442142 15653586
0.042775717 0.82892239 0.049439877 15587793
0.043193009 0.82878548 0.049437597 15587539
0.043610308 0.82864857 0.049435332 15587539
0.044027608 0.8285116 0.049433053 15456466
0.0444449 0.82837474 0.049430788 15522259
0.044883255 0.8291018 0.049996465 15588054
0.045298997 0.82896543 0.0499942 15588054
0.04571474 0.82882905 0.049991935 15391445
0.04613049 0.82869262 0.049989671 15391445
0.046546232 0.82855618 0.049987406 15391445
0.046961989 0.8284198 0.049985141 15259859
0.047389481 0.82915044 0.050550878 15456466
0.047803681 0.82901454 0.050548628 15522259
0.048217874 0.82887864 0.050546378 15522259
0.048632067 0.82874274 0.050544113 15522259
0.049046259 0.8286069 0.050541863 15456466
0.04946046 0.82847095 0.050539598 15390673
0.049874645 0.82833511 0.050537348 15128271
0.050288845 0.82819921 0.050535098 15062478
0.05070303 0.82806331 0.050532833 14996939
0.051117238 0.82792741 0.050530583 14996939
0.051531423 0.82779151 0.050528333 14931146
0.051945616 0.82765561 0.050526068 14799560
0.052359816 0.82751971 0.050523818 14601927
0.052774008 0.82738382 0.050521567 14536134
0.053188201 0.82724792 0.050519302 14405061
0.053602394 0.82711202 0.050517052 14273475
0.054016594 0.82697612 0.050514802 13945280
0.054430787 0.82684022 0.050512537 13747901
0.054844979 0.82670432 0.050510287 13550522
0.055259179 0.82656842 0.050508037 13418936
0.055673372 0.82643253 0.050505772 12958901
0.056108389 0.82541883 0.049935341 12761522
0.056524131 0.82528245 0.049933076 12366762
0.056939881 0.82514608 0.049930811 12235176
0.057355624 0.82500964 0.049928546 11906211
0.057771366 0.82487321 0.049926281 11511453
0.058187116 0.82473683 0.049924016 11313044
0.058602858 0.8246004 0.049921751 10918286
0.059018608 0.82446402 0.049919486 10457222
-0.020189006 0.83191407 0.038829967 15721175
-0.019740682 0.83176696 0.038827524 15721175
-0.019292358 0.83161986 0.03882508 15786968
-0.018844035 0.83147275 0.038822636 15918554
-0.018395718 0.83132565 0.038820207 15852761
-0.017947387 0.83117855 0.038817763 15721175
-0.017263692 0.83182603 0.03938067 15852248
-0.016816918 0.83167946 0.039378241 15852248
-0.016370144 0.83153284 0.039375812 15786453
-0.015923377 0.83138627 0.039373368 15852246
-0.015476603 0.8312397 0.039370939 15785683
-0.015029829 0.83109307 0.03936851 15719890
-0.014356982 0.83174413 0.039931491 15719890
-0.013911765 0.83159804 0.039929077 15719890
-0.013466541 0.83145201 0.039926648 15589074
-0.013021324 0.83130592 0.039924219 15786453
-0.012576099 0.83115983 0.039921805 15786455
-0.012130883 0.83101374 0.039919376 15589076
-0.011685662 0.83086765 0.039916947 15589076
-0.011240441 0.83072162 0.039914533 15589076
-0.010795221 0.83057553 0.039912105 15457490
-0.01013789 0.83123159 0.040475175 15786455
-0.0096942224 0.83108604 0.040472761 15852248
-0.0092505552 0.83094049 0.040470347 15786455
-0.0088068843 0.83079493 0.040467933 15786453
-0.0083632134 0.83064938 0.040465519 15654867
-0.0079195462 0.83050376 0.04046309 15852246
-0.007475879 0.83035821 0.040460676 15786453
-0.0070322081 0.83021265 0.040458262 15918039
-0.0063888393 0.83087337 0.041021392 15786453
-0.0059467219 0.83072829 0.041018993 15786453
-0.0055046044 0.83058321 0.041016579 15654867
-0.0048674345 0.83124596 0.041579768 15654867
-0.0044268705 0.83110142 0.041577369 15654867
-0.0039863028 0.83095688 0.04157497 15654867
-0.003545735 0.83081234 0.041572571 15786453
-0.003105171 0.83066779 0.041570172 15654869
-0.0026646033 0.83052325 0.041567773 15786455
-0.0022240393 0.83037865 0.041565374 15852248
-0.0017834716 0.83023411 0.041562974 15852248
-0.0013429038 0.83008957 0.041560575 15852248
-0.00054016337 0.83156979 0.042689502 15786455
-0.0001026988 0.83142626 0.042687118 15917271
0.00033476576 0.83128273 0.042684749 15983064
0.0007722266 0.83113921 0.042682365 15982551
0.0012096912 0.83099568 0.04267998 15982551
0.0016471557 0.83085209 0.042677596 15982551
0.0020846166 0.83070856 0.042675212 15982551
0.0025220849 0.83056504 0.042672828 15982551
0.0029595457 0.83042151 0.042670444 15982551
0.0033970103 0.83027798 0.042668059 15982551
0.0038344748 0.83013445 0.04266569 15850965
0.0042719357 0.82999092 0.042663306 15785685
0.0048718713 0.83066583 0.043226674 15785685
0.0053077824 0.83052284 0.043224305 15785685
0.0057436936 0.83037978 0.043221936 15785685
0.0063374266 0.83105683 0.043785363 15654099
0.006771788 0.83091426 0.043782994 15654099
0.0072061494 0.8307718 0.043780625 15719892
0.0076405108 0.83062923 0.04377827 15719892
0.0080748722 0.83048677 0.043775901 15785685
0.0085092336 0.8303442 0.043773532 15917271
0.0090921 0.83102477 0.04433699 15785685
0.0095249116 0.83088279 0.044334635 15719892
0.0099577196 0.83074081 0.044332281 15719892
0.010390528 0.83059877 0.044329926 15654099
0.010823339 0.83045673 0.044327572 15654099
0.011256151 0.83031476 0.044325218 15719892
0.011828162 0.83099884 0.044888735 15719892
0.01225942 0.83085734 0.044886395 15654099
0.012690678 0.83071589 0.044884041 15785685
0.013121936 0.83057439 0.044881687 15719892
0.013553195 0.83043289 0.044879347 15588306
0.013984453 0.83029139 0.044876993 15719892
0.014415711 0.83014989 0.044874653 15719892
0.014846969 0.83000839 0.044872299 15654099
0.015405022 0.83069706 0.04543592 15654099
0.015834726 0.83055609 0.045433581 15588306
0.016264435 0.83041513 0.045431241 15785431
0.016694143 0.83027411 0.045428902 15719638
0.017123856 0.83013314 0.045426562 15719638
0.01755356 0.82999218 0.045424223 15719638
0.017983265 0.82985115 0.045421883 15653845
0.018412977 0.82971019 0.045419544 15653845
0.018842682 0.82956922 0.045417204 15719638
0.019385215 0.83026296 0.045980886 15719638
0.01981337 0.83012247 0.045978561 15719638
0.020241529 0.82998198 0.045976222 15719638
0.020669684 0.82984149 0.045973897 15719638
0.021097839 0.82970107 0.045971557 15719638
0.021525994 0.82956058 0.045969233 15785685
0.022057679 0.83025789 0.046532989 15785685
0.02248428 0.83011794 0.046530664 15719892
0.022910886 0.82997799 0.046528354 15917271
0.023337491 0.82983804 0.04652603 15917271
0.0237641 0.82969803 0.046523705 15983064
0.024190702 0.82955807 0.046521381 15917271
0.024711512 0.83025897 0.047085196 15719892
0.025136568 0.83011949 0.047082871 15786455
0.02556162 0.82998002 0.047080562 15852248
0.025986675 0.8298406 0.047078252 15852248
0.026411727 0.82970113 0.047075927 15852248
0.026836775 0.82956165 0.047073618 15917271
0.027346741 0.83026612 0.047637492 15983064
0.02777024 0.83012724 0.047635183 16114137
0.028193742 0.82998824 0.047632888 16114137
0.028617248 0.8298493 0.047630578 16245209
0.02904075 0.82971036 0.047628269 16179416
0.029464249 0.82957137 0.047625959 16113623
0.029963348 0.83027947 0.048189878 15982037
0.030385301 0.83014101 0.048187584 15982037
0.030807253 0.83000255 0.048185289 15916244
0.031229205 0.82986408 0.048182994 15916244
0.031651158 0.82972568 0.048180699 15916244
0.032073107 0.82958722 0.04817839 15982037
0.032561347 0.83029878 0.048742369 15982037
0.03298175 0.83016086 0.048740089 15982037
0.033402145 0.83002293 0.048737794 15982037
0.033822548 0.82988501 0.048735499 15850965
0.034242947 0.82974708 0.04873322 15785172
0.034721881 0.83046174 0.049297273 15653586
0.035140727 0.83032429 0.049294993 15653586
0.035559576 0.8301869 0.049292713 15784918
0.035978425 0.83004946 0.049290434 15719125
0.036397271 0.82991207 0.049288154 15653845
0.03681612 0.82977462 0.049285874 15653845
0.037234973 0.82963717 0.049283594 15719638
0.037653819 0.82949978 0.049281314 15719638
0.038072668 0.82936233 0.049279034 15784918
0.03853609 0.83008206 0.049843147 15653332
0.038953386 0.82994515 0.049840868 15719125
0.039370682 0.82980824 0.049838603 15719125
0.039787982 0.82967132 0.049836323 15719125
0.040205281 0.82953441 0.049834058 15784918
0.040622573 0.8293975 0.049831778 15982037
0.041039873 0.82926059 0.049829513 15784658
0.041457172 0.82912362 0.049827233 15653586
0.041874465 0.82898676 0.049824968 15653586
0.042322379 0.82971156 0.050389186 15653586
0.042738114 0.82957518 0.050386921 15653586
0.043153856 0.82943881 0.050384656 15653332
0.043569606 0.82930237 0.050382391 15587539
0.043985356 0.82916594 0.050380126 15588054
0.044401098 0.82902956 0.050377861 15653847
0.044838157 0.82975793 0.050942138 15653847
0.045252349 0.82962203 0.050939873 15588054
0.045666542 0.82948613 0.050937623 15391445
0.046080735 0.82935023 0.050935373 15391445
0.046494935 0.82921433 0.050933108 15325652
0.046909127 0.82907844 0.050930858 15259859
0.04732332 0.82894254 0.050928593 15522261
0.04773752 0.82880664 0.050926343 15522261
0.048151713 0.82867074 0.050924093 15522261
0.048573244 0.82940423 0.051488444 15522261
0.048985887 0.82926887 0.051486194 15588052
0.04939853 0.82913345 0.051483959 15390673
0.049811166 0.82899809 0.051481709 15128271
0.050223816 0.82886267 0.051479459 15062478
0.050636452 0.8287273 0.051477209 14996685
0.051049102 0.82859194 0.051474959 15062478
0.051461745 0.82845652 0.051472723 14996685
0.051874388 0.8283211 0.051470473 14865099
0.052287024 0.82818574 0.051468223 14667720
0.052699674 0.82805037 0.051465973 14536134
0.053112309 0.82791495 0.051463738 14339268
0.053524952 0.82777959 0.051461488 14141889
0.05393761 0.82764417 0.051459238 13879487
0.054350246 0.82750881 0.051456988 13747901
0.054762889 0.82737339 0.051454738 13550522
0.055175532 0.82723802 0.051452503 13418936
0.055588175 0.82710266 0.051450253 12958899
0.056000818 0.82696724 0.051448002 12827313
0.056413468 0.82683188 0.051445752 12432555
0.056826103 0.82669646 0.051443502 12300969
0.057263989 0.82568103 0.050874472 11972004
0.057678174 0.82554513 0.050872207 11577246
0.058092382 0.82540923 0.050869957 11248021
0.058506567 0.82527333 0.050867707 10919056
0.058920767 0.82513744 0.050865442 10457222
-0.020260613 0.831689 0.039238811 15721175
-0.019812297 0.8315419 0.039236367 15589589
-0.019363973 0.83139479 0.039233923 15786968
-0.01891565 0.83124769 0.039231479 15852761
-0.018467326 0.83110058 0.03922905 15852761
-0.018019002 0.83095354 0.039226606 15786968
-0.017335054 0.83160174 0.039788097 15721175
-0.016888279 0.83145517 0.039785668 15786968
-0.016441513 0.8313086 0.039783239 15786453
-0.015994739 0.83116198 0.03978081 15852246
-0.015547972 0.83101541 0.039778367 15786453
-0.015101198 0.83086884 0.039775938 15654867
-0.014428098 0.83152068 0.040337518 15589074
-0.013982881 0.83137459 0.040335089 15654867
-0.013537657 0.83122849 0.04033266 15654867
-0.01309244 0.8310824 0.040330246 15786453
-0.012647223 0.83093631 0.040327817 15786455
-0.012201998 0.83079028 0.040325388 15589076
-0.011756781 0.83064419 0.040322959 15589076
-0.011311557 0.8304981 0.040320545 15589076
-0.01086634 0.83035201 0.040318117 15654869
-0.010208759 0.83100891 0.040879771 15852248
-0.0097650923 0.83086336 0.040877357 15983064
-0.0093214214 0.8307178 0.040874943 15983064
-0.0088777542 0.83057219 0.040872529 15917269
-0.0084340833 0.83042663 0.040870115 15983062
-0.0079904161 0.83028108 0.040867701 15983062
-0.007546749 0.83013546 0.040865272 15917269
-0.0071030781 0.82998991 0.040862858 15918039
-0.0064594634 0.8306514 0.041424587 15786453
-0.0060173459 0.83050632 0.041422173 15786453
-0.0055752248 0.83036131 0.041419759 15786453
-0.004937809 0.83102483 0.041981533 15786453
-0.0044972412 0.83088028 0.041979134 15654867
-0.0040566772 0.83073568 0.041976735 15654869
-0.0036161132 0.8305912 0.041974336 15786455
-0.0031755455 0.8304466 0.041971937 15786455
-0.0027349778 0.83030206 0.041969538 15786455
-0.00229441 0.83015752 0.041967139 15852248
-0.0018538423 0.83001298 0.04196474 15852248
