# .PCD v0.7 - Point Cloud Data file format
VERSION 0.7
FIELDS x y z rgb
SIZE 4 4 4 4
TYPE F F F U
COUNT 1 1 1 1
WIDTH 1096
HEIGHT 1
VIEWPOINT 0 0 0 1 0 0 0
POINTS 1096
DATA ascii
0.055815667 0.82703161 0.056398809 12826020
0.055736467 0.82599694 0.055815712 12628641
0.056041434 0.82572079 0.055813313 12365469
0.056346402 0.82544458 0.055810913 12233881
0.056651369 0.82516843 0.055808514 12036502
0.056956343 0.82489228 0.055806115 11838353
0.057261318 0.82461607 0.055803716 11575181
0.057566285 0.82433993 0.055801317 11377289
0.057871252 0.82406378 0.055798918 11311496
0.058176219 0.82378763 0.055796519 11179650
0.058481194 0.82351148 0.05579412 10982271
0.058786161 0.82323527 0.055791721 10915706
0.058721483 0.82218742 0.055208489 10784120
0.059027664 0.82191014 0.055206075 10586741
0.059333846 0.82163286 0.055203676 10389362
0.048585847 0.82887155 0.054480389 16572623
0.04889445 0.82859206 0.05447796 16243658
0.049203046 0.82831264 0.054475531 16243658
0.049511641 0.82803321 0.054473102 16243145
0.051635161 0.82943296 0.05620338 15848387
0.051940128 0.82915682 0.056200981 15651267
0.052245103 0.82888067 0.056198582 15453888
0.052550077 0.82860452 0.056196183 15257794
0.052855045 0.82832837 0.056193784 14928829
0.053160012 0.82805216 0.0561914 14666427
0.053464979 0.82777601 0.056188986 14469048
0.053769954 0.82749987 0.056186602 14075317
0.054074928 0.82722366 0.056184202 13746352
0.054768249 0.82770342 0.056761056 13483950
0.05507201 0.82742834 0.056758672 13154985
0.05537577 0.82715327 0.056756273 13023912
0.05567953 0.82687819 0.056753889 12760740
0.055599779 0.82584286 0.056172207 12563361
0.055904746 0.82556671 0.056169808 12300189
0.056209713 0.82529056 0.056167409 12037017
0.056514688 0.82501441 0.05616501 11971224
0.056819662 0.82473826 0.056162611 11642511
0.05712463 0.82446206 0.056160212 11379339
0.057429597 0.82418591 0.056157812 11312263
0.057734564 0.82390976 0.056155413 11246470
0.058039539 0.82363355 0.056153014 11179648
0.058344513 0.8233574 0.056150615 10982269
0.05864948 0.82308125 0.056148216 10915706
0.058584258 0.82203275 0.0555664 10784120
0.058890432 0.82175547 0.055563986 10586741
0.059196621 0.82147825 0.055561587 10389362
0.048447534 0.82871568 0.054841131 16506830
0.048756137 0.82843626 0.054838702 16309451
0.049064733 0.82815677 0.054836273 16309451
0.050583571 0.83010745 0.056567073 16243145
0.050888538 0.82983124 0.056564674 16111559
0.051193506 0.82955509 0.056562275 15979973
0.051898263 0.83002555 0.057137638 15782594
0.052202016 0.82975054 0.057135254 15651267
0.052505776 0.82947546 0.057132855 15453888
0.052809544 0.82920039 0.057130471 15060415
0.053113297 0.82892531 0.057128087 14863036
0.053417057 0.82865024 0.057125703 14666427
0.053720817 0.82837522 0.057123303 14337462
0.054024577 0.82810009 0.057120919 13747122
0.054328337 0.82782507 0.05711852 13615536
0.055020995 0.8283065 0.057694003 13221291
0.055323541 0.82803255 0.057691619 12958119
0.055626094 0.82775855 0.057689235 12760740
0.055928648 0.82748461 0.057686865 12563361
0.056231193 0.82721066 0.057684481 12497568
0.056533739 0.82693666 0.057682112 12168603
0.056836292 0.82666266 0.057679728 11773845
0.056758419 0.82562453 0.057099417 11839638
0.057062179 0.82534945 0.057097033 11445648
0.057365939 0.82507437 0.057094634 11182476
0.057669699 0.8247993 0.057092249 11050120
0.057973459 0.82452428 0.057089865 10786948
0.057902858 0.82347953 0.05650951 10786689
0.058207825 0.82320338 0.056507111 10589310
0.058512792 0.82292724 0.056504712 10588025
0.058817759 0.82265103 0.056502312 10456439
0.059122741 0.82237488 0.056499913 10455925
0.059427708 0.82209873 0.056497514 10126960
0.059732676 0.82182258 0.056495115 10126960
0.060037643 0.82154644 0.056492716 9995374
0.060342617 0.82127023 0.056490317 9797995
0.050446883 0.82995343 0.056923568 16177865
0.05075185 0.82967722 0.056921169 16046279
0.051056825 0.82940108 0.05691877 15914439
0.051762119 0.82987213 0.057492718 15782853
0.052065879 0.82959712 0.057490334 15454660
0.052369639 0.82932204 0.057487935 15323074
0.052673399 0.82904696 0.057485551 14732734
0.05297716 0.82877189 0.057483166 14535355
0.05328092 0.82849681 0.057480767 14076602
0.05358468 0.8282218 0.057478383 13879223
0.05388844 0.82794666 0.057475999 13287856
0.0541922 0.82767165 0.0574736 13024684
0.054885395 0.82815373 0.058047667 12630186
0.055187941 0.82787973 0.058045283 11906463
0.055490494 0.82760572 0.058042899 11774877
0.055793047 0.82733178 0.058040529 11445912
0.056095593 0.82705784 0.058038145 11051408
0.056398138 0.82678384 0.058035761 10854029
0.056700692 0.82650989 0.058033392 10327685
0.056622282 0.8254711 0.057454497 9932927
0.056926042 0.82519603 0.057452098 9998718
0.057229802 0.82492095 0.057449713 9998718
0.057533562 0.82464588 0.057447329 9867132
0.057837322 0.82437086 0.057444945 9867132
0.057766169 0.82332551 0.056866005 10063997
0.058071136 0.82304931 0.056863606 9998204
0.058376104 0.82277316 0.056861207 10129018
0.058681078 0.82249701 0.056858808 9865846
0.058986053 0.82222086 0.056856409 10061942
0.05929102 0.82194471 0.05685401 9930356
0.059595987 0.82166851 0.056851611 9995890
0.059900954 0.82139236 0.056849211 9864304
0.060205936 0.82111621 0.056846812 9732718
0.050310194 0.82979935 0.057280064 16111818
0.050615169 0.82952321 0.057277665 15980232
0.050920144 0.82924706 0.057275265 15586246
0.051625982 0.82971871 0.057847798 15454660
0.051929742 0.82944369 0.057845414 15192771
0.052233502 0.82916862 0.057843015 15126978
0.052537262 0.82889354 0.05784063 14142141
0.052841023 0.82861847 0.057838246 13418418
0.053144783 0.82834339 0.057835847 12630701
0.053448543 0.82806832 0.057833463 11709599
0.053752303 0.82779324 0.057831079 10855060
0.054056063 0.82751822 0.05782868 10591888
0.054749794 0.8280009 0.058401331 10264206
0.05505234 0.8277269 0.058398947 10593171
0.055354893 0.82745296 0.058396563 10132623
0.055657446 0.82717896 0.058394194 9869451
0.055959992 0.82690501 0.058391809 9080705
0.056262538 0.82663101 0.058389425 9080705
0.056565091 0.82635707 0.058387056 9080707
0.056486145 0.82531768 0.057809576 9212293
0.056789905 0.82504261 0.057807177 9145728
0.057093665 0.82476753 0.057804793 8685177
0.057397425 0.82449245 0.057802409 8290673
0.057701185 0.82421744 0.05780001 8224880
0.057629481 0.8231715 0.0572225 8619381
0.057934456 0.82289529 0.057220101 8619381
0.058239423 0.82261914 0.057217702 8814707
0.058544397 0.82234299 0.057215303 8814707
0.058849365 0.82206678 0.057212904 9142897
0.059154332 0.82179064 0.057210505 9208690
0.059459306 0.82151449 0.057208106 9339504
0.059764273 0.82123834 0.057205707 9405297
0.060069248 0.82096219 0.057203308 9470575
0.049258605 0.83047378 0.057643756 16243404
0.049563572 0.83019763 0.057641357 16177611
0.049868546 0.82992148 0.057638958 16177611
0.050578557 0.83039051 0.058210045 15915209
0.050882317 0.83011544 0.058207661 15849416
0.05118607 0.82984036 0.058205262 15127240
0.051489837 0.82956529 0.058202878 14666689
0.05179359 0.82929027 0.058200493 13813176
0.05209735 0.82901514 0.058198094 12563109
0.052401118 0.82874012 0.05819571 11315357
0.052704871 0.82846504 0.058193326 10920599
0.053008631 0.82818997 0.058190927 11646636
0.053706542 0.82866997 0.058762133 12107187
0.054009095 0.82839602 0.058759749 12502715
0.054311641 0.82812202 0.05875738 12568508
0.054614194 0.82784808 0.058754995 12634301
0.054916739 0.82757413 0.058752611 12897473
0.055219293 0.82730013 0.058750227 12897471
0.055521846 0.82702613 0.058747858 12436920
0.055824392 0.82675219 0.058745474 11976369
0.056126937 0.82647824 0.058743089 11515818
0.05642949 0.82620424 0.05874072 10792095
0.056732044 0.82593024 0.058738336 10528923
0.057034589 0.82565629 0.058735952 10857886
0.057337135 0.82538235 0.058733568 11186851
0.057639688 0.82510835 0.058731198 11450023
0.057942241 0.82483441 0.058728814 11121058
0.058244787 0.8245604 0.058726445 10332055
0.058172554 0.82351387 0.058150321 9476746
0.058476314 0.82323879 0.058147922 9080707
0.058780074 0.82296371 0.058145538 8620156
0.059083834 0.82268864 0.058143154 8619381
0.059387594 0.82241356 0.058140755 8158830
0.059322625 0.82136047 0.057564601 8223338
0.059627593 0.82108426 0.057562202 8354924
0.05993256 0.82080811 0.057559803 8617067
0.060237527 0.82053196 0.057557404 8748653
0.060542502 0.82025582 0.057555005 8879723
0.060847476 0.81997967 0.057552606 8879723
0.049121916 0.83031976 0.058000237 16177611
0.049426891 0.83004361 0.057997838 15849931
0.049731866 0.82976747 0.057995453 15718345
0.050442412 0.83023709 0.058565125 15258826
0.050746173 0.82996202 0.058562741 14535103
0.051049933 0.82968694 0.058560342 12892594
0.051353693 0.82941186 0.058557957 11708320
0.051657453 0.82913679 0.058555558 11315872
0.051961213 0.82886171 0.058553174 12500146
0.052264974 0.8285867 0.05855079 13094082
0.052568734 0.82831162 0.058548406 13291461
0.052872494 0.82803655 0.058546007 13028289
0.053570941 0.8285172 0.059115797 12172980
0.053873494 0.8282432 0.059113413 11317671
0.054176047 0.82796919 0.059111044 11120292
0.054478601 0.82769525 0.05910866 11316899
0.054781146 0.82742131 0.059106275 10658969
0.055083692 0.82714731 0.059103891 10658969
0.055386245 0.8268733 0.059101522 10593176
0.055688798 0.82659936 0.059099138 10395797
0.055991344 0.82632542 0.059096754 9606281
0.05629389 0.82605141 0.059094384 9802885
0.056596443 0.82577747 0.059092 10197643
0.056898996 0.82550347 0.059089616 10263436
0.057201542 0.82522953 0.059087232 10263436
0.057504088 0.82495558 0.059084862 10132620
0.057806641 0.82468158 0.059082478 10001034
0.058109194 0.82440758 0.059080109 10001291
0.058036417 0.82336044 0.058505401 9540740
0.058340177 0.82308531 0.058503002 9080705
0.058643937 0.82281029 0.058500618 9080705
0.058947697 0.82253522 0.058498219 9278084
0.059251457 0.82226014 0.058495834 9080705
0.059185937 0.82120645 0.057921082 8752510
0.059490904 0.82093024 0.057918683 8160373
0.059795879 0.82065409 0.057916299 7303521
0.060100846 0.82037795 0.057913885 7895658
0.060405821 0.82010174 0.0579115 8551272
0.060710795 0.81982559 0.057909101 8617065
0.048985235 0.83016574 0.058356732 15849931
0.04929021 0.82988954 0.058354333 14536388
0.049595177 0.82961339 0.058351949 13944251
0.050306275 0.83008367 0.058920205 12629420
0.050610036 0.82980859 0.058917806 12366248
0.050913796 0.82953352 0.058915421 12632759
0.051217556 0.82925844 0.058913037 13882826
0.051521316 0.82898337 0.058910638 14477018
0.051825076 0.82870829 0.058908254 13819088
0.052128837 0.82843328 0.05890587 12303796
0.052432597 0.8281582 0.058903471 10856350
0.052736357 0.82788312 0.058901086 10526356
0.053435341 0.82836437 0.059469461 10986907
0.053737894 0.82809037 0.059467077 11973802
0.054040447 0.82781643 0.059464708 12500146
0.054343 0.82754242 0.059462324 12698293
0.054645546 0.82726848 0.05945994 13027258
0.054948092 0.82699448 0.059457555 13027258
0.055250645 0.82672054 0.059455186 12829879
0.055553198 0.82644653 0.059452802 12698293
0.055855744 0.82617259 0.059450418 12369328
0.056158289 0.82589865 0.059448048 12631471
0.056460842 0.82562464 0.059445664 11841955
0.056763396 0.82535064 0.05944328 11973541
0.057065941 0.8250767 0.059440896 11578783
0.057368487 0.82480276 0.059438527 10985874
0.05767104 0.82452875 0.059436142 10196358
0.057973593 0.82425475 0.059433773 9538682
0.05790028 0.82320702 0.058860466 9078131
0.05820404 0.82293189 0.058858082 8880498
0.058507793 0.82265687 0.058855698 9077877
0.05881156 0.82238179 0.058853298 8947322
0.059115313 0.82210672 0.058850914 9276287
0.059049249 0.82105237 0.058277577 9081988
0.059354216 0.82077622 0.058275178 10068883
0.059659198 0.82050002 0.058272794 9476748
0.059964165 0.82022387 0.05827038 7766130
0.060269132 0.81994772 0.058267996 8093037
0.060574114 0.81967157 0.058265597 8027244
0.039394215 0.83076596 0.054780439 16573139
0.039707661 0.83048213 0.05477798 16573139
0.040021107 0.83019829 0.054775506 16507346
0.040766627 0.83063847 0.055342093 16507346
0.041078858 0.83035576 0.055339634 16572369
0.04139109 0.830073 0.055337176 16572369
0.041703328 0.82979023 0.055334732 16572369
0.048238605 0.83056402 0.058718026 16112588
0.048543572 0.83028787 0.058715627 14931144
0.048848554 0.83001173 0.058713228 14339007
0.049153522 0.82973552 0.058710828 12695981
0.049458489 0.82945937 0.058708429 13880255
0.050170131 0.82993019 0.059275284 15658208
0.050473891 0.82965517 0.059272885 16710896
0.050777644 0.8293801 0.059270501 16252916
0.051081412 0.82910502 0.059268117 14542298
0.051385164 0.82882994 0.059265718 12501943
0.051688924 0.82855487 0.059263334 10857118
0.052392095 0.82903343 0.059830263 10065803
0.052694649 0.82875949 0.059827879 10986905
0.052997194 0.82848549 0.059825495 12893619
0.05329974 0.82821155 0.059823126 14077893
0.053602293 0.82793754 0.059820741 13946307
0.053904846 0.8276636 0.059818372 13748928
0.054599524 0.8281498 0.060385346 13552573
0.05490087 0.82787693 0.060382977 13420987
0.055202201 0.82760406 0.060380608 13355194
0.055503547 0.82733119 0.060378239 13355194
0.055804886 0.82705832 0.060375854 13157815
0.056106225 0.82678545 0.0603735 13092022
0.056407563 0.82651258 0.060371116 12894643
0.056708902 0.82623971 0.060368747 12631471
0.057010241 0.82596684 0.060366377 12434090
0.05731158 0.82569396 0.060364008 12236711
0.057612926 0.82542104 0.060361639 12170402
0.057914257 0.82514817 0.060359269 11841437
0.058215603 0.8248753 0.0603569 11315091
0.058140539 0.82382798 0.059785053 11380884
0.058443084 0.82355404 0.059782669 10787722
0.058371648 0.82250345 0.059210777 9998206
0.058675408 0.82222837 0.059208378 9537401
0.058979169 0.8219533 0.059205994 9076850
0.059282929 0.82167822 0.05920361 8618609
0.059586689 0.82140315 0.059201211 9408125
0.059890449 0.82112807 0.059198827 9278854
0.059827477 0.82006985 0.058626875 9147268
0.060132444 0.8197937 0.058624476 8687232
0.060437426 0.81951749 0.058622077 7766130
0.039253742 0.83060765 0.055146843 16507346
0.03956718 0.83032382 0.05514437 16507346
0.039880618 0.83003998 0.055141911 16507346
0.04062669 0.83048081 0.055707067 16507346
0.040938921 0.83019805 0.055704609 16441553
0.041251153 0.82991529 0.055702165 16441553
0.041563384 0.82963258 0.055699706 16638162
0.048101924 0.83041 0.059074521 13942452
0.048406892 0.8301338 0.059072122 13221811
0.048711866 0.82985765 0.059069723 14866636
0.049016841 0.8295815 0.059067324 16777199
0.049321808 0.82930529 0.059064925 16777199
0.050033987 0.82977676 0.059630349 16579564
0.050337747 0.82950175 0.059627965 14276809
0.050641507 0.82922667 0.059625581 12171179
0.050945267 0.8289516 0.059623197 11052698
0.051249027 0.82867652 0.059620798 11184025
0.051552787 0.82840145 0.059618413 12105127
0.052256495 0.82888061 0.060183927 13551288
0.052559048 0.82860667 0.060181543 14340804
0.052861594 0.82833266 0.060179159 14275013
0.053164147 0.82805872 0.06017679 14275013
0.053466693 0.82778478 0.060174406 14274499
0.053769246 0.82751077 0.060172036 14142913
0.054464474 0.82799757 0.060737595 14011327
0.054765806 0.8277247 0.060735226 13879741
0.055067152 0.82745183 0.060732856 13682876
0.055368491 0.82717896 0.060730487 13551290
0.055669829 0.82690609 0.060728118 13419704
0.055971168 0.82663321 0.060725734 13288118
0.056272507 0.82636034 0.060723364 13090739
0.056573845 0.82608747 0.060720995 12827567
0.056875184 0.8258146 0.060718626 12695979
0.05717653 0.82554173 0.060716256 12432807
0.057477862 0.82526886 0.060713887 12235682
0.057779208 0.82499599 0.060711518 12038303
0.058080539 0.82472312 0.060709149 11511959
0.058004938 0.82367516 0.060138717 11314580
0.058307491 0.82340121 0.060136333 11182480
0.058235511 0.82235003 0.059565857 10787722
0.058539271 0.82207489 0.059563458 10721159
0.058843032 0.82179987 0.059561074 10523780
0.059146792 0.8215248 0.05955869 9077104
0.059450552 0.82124972 0.059556291 9011311
0.059754312 0.82097465 0.059553906 8618609
0.059690796 0.81991577 0.058983371 9079160
0.059995763 0.81963968 0.058980972 8949373
0.060300745 0.81936347 0.058978572 9080959
0.03817293 0.83130085 0.055520624 16507348
0.038486376 0.83101702 0.055518165 16441555
0.038799815 0.83073318 0.055515692 16507348
0.039550051 0.83117127 0.056079417 16573139
0.03986229 0.83088851 0.056076959 16573139
0.040174514 0.8306058 0.056074515 16573139
0.040486753 0.8303231 0.056072056 16573139
0.040798977 0.83004034 0.056069598 16507346
0.041111216 0.82975757 0.056067139 16507346
0.042282507 0.8309319 0.057197183 16573139
0.042592317 0.8306514 0.057194754 16507346
0.042902127 0.83037084 0.057192311 16441553
0.043637827 0.83082211 0.057756156 16441553
0.04394643 0.83054262 0.057753727 16506576
0.044255033 0.8302632 0.057751298 16440783
0.044985913 0.83071887 0.058315188 16441553
0.045293301 0.83044052 0.058312774 16178381
0.045600697 0.83016217 0.058310345 15981004
0.046326719 0.8306222 0.058874264 15915211
0.046632901 0.83034492 0.05887185 15126208
0.046939075 0.83006763 0.058869451 14205106
0.047660276 0.83053207 0.059433416 13945280
0.047965243 0.83025593 0.059431016 16248035
0.048270211 0.82997978 0.059428617 16776946
0.048575185 0.82970363 0.059426218 16777203
0.04888016 0.82942748 0.059423819 16710635
0.049185127 0.82915127 0.05942142 14736845
0.04989785 0.82962334 0.059985444 12432807
0.05020161 0.82934833 0.059983045 11840670
0.05050537 0.82907325 0.059980661 12301221
0.05121325 0.82954973 0.060544729 13288116
0.051515795 0.82927573 0.060542345 14471360
0.051818341 0.82900178 0.060539976 15326669
0.052120894 0.82872784 0.060537592 15458255
0.052423447 0.82845384 0.060535207 15063497
0.052726001 0.82817984 0.060532823 14669509
0.053425387 0.828664 0.061096951 14472130
0.053726733 0.82839113 0.061094582 14537153
0.054028071 0.82811826 0.061092213 14405567
0.05432941 0.82784539 0.061089844 14273981
0.054630756 0.82757252 0.061087474 14076602
0.054932088 0.82729965 0.061085105 14010555
0.055623032 0.82779145 0.061649293 13878969
0.055923164 0.82751966 0.061646938 13550774
0.056223288 0.82724786 0.061644569 13419188
0.056523412 0.82697612 0.061642215 13090737
0.056823552 0.82670432 0.06163986 12827565
0.057123676 0.82643259 0.061637491 12695979
0.0574238 0.82616079 0.061635137 12432807
0.057342812 0.82511663 0.061066136 12235428
0.057644144 0.82484376 0.061063766 11906463
0.05794549 0.82457089 0.061061397 11840410
0.058246821 0.82429802 0.061059028 11511445
0.058548167 0.82402515 0.061056659 11510675
0.058849506 0.82375228 0.061054289 11050124
0.05877699 0.82270044 0.060485244 10786950
0.059079543 0.8224265 0.06048286 10589571
0.059010655 0.82137138 0.059913769 9733747
0.059314407 0.8210963 0.05991137 9667954
0.059618168 0.82082123 0.059908986 8550756
0.059921935 0.82054615 0.059906602 8550756
0.060225695 0.82027113 0.059904203 8159082
0.060529456 0.819996 0.059901819 9080184
0.03803245 0.83114254 0.055887029 16507346
0.038345888 0.83085871 0.055884555 16441553
0.038659334 0.83057487 0.055882096 16507346
0.039410114 0.83101356 0.056444407 16573139
0.039722346 0.83073086 0.056441948 16507346
0.040034577 0.83044809 0.056439489 16441553
0.040346809 0.83016539 0.05643703 16573139
0.04065904 0.82988262 0.056434587 16507346
0.040971279 0.82959986 0.056432128 16507346
0.04214365 0.83077544 0.057559341 16441553
0.04245346 0.83049488 0.057556912 16507346
0.04276327 0.83021438 0.057554469 16507346
0.043499514 0.83066618 0.058116883 16441553
0.043808118 0.83038676 0.058114454 16309967
0.044116721 0.83010733 0.05811204 16112588
0.044848144 0.8305636 0.058674514 16047310
0.04515554 0.83028525 0.058672085 15784138
0.045462929 0.8300069 0.058669671 14469048
0.046189487 0.83046752 0.059232175 14074290
0.046495676 0.8301903 0.059229761 14799812
0.04680185 0.82991302 0.059227362 16774373
0.047523588 0.83037806 0.059789911 16777201
0.047828555 0.83010191 0.059787512 16777201
0.048133522 0.82982576 0.059785113 16250599
0.048438497 0.82954955 0.059782714 13947844
0.048743472 0.8292734 0.059780315 12235682
0.049048439 0.82899725 0.059777915 12038303
0.049761705 0.82946992 0.060340509 13155500
0.050065465 0.8291949 0.060338125 14866118
0.050369218 0.82891977 0.06033574 16114902
0.051077649 0.8293969 0.060898393 16641246
0.051380195 0.8291229 0.060896009 16114387
0.05168274 0.82884896 0.06089364 15785422
0.051985294 0.82857502 0.060891256 15654349
0.052287847 0.82830101 0.060888872 15259591
0.0525904 0.82802707 0.060886487 14799812
0.053290337 0.82851183 0.0614492 14668226
0.053591676 0.82823896 0.061446831 14602433
0.053893015 0.82796609 0.061444461 14470847
0.054194361 0.82769316 0.061442092 14142395
0.054495692 0.82742029 0.061439723 14076602
0.054797038 0.82714742 0.061437353 14010555
0.055488512 0.82763988 0.062000141 13813176
0.055788644 0.82736808 0.061997771 13484981
0.056088775 0.82709628 0.061995417 13353395
0.0563889 0.82682455 0.061993048 13090737
0.056689031 0.82655275 0.061990693 12761772
0.056989163 0.82628095 0.061988324 12630186
0.057289287 0.82600915 0.06198597 12432807
0.057207748 0.8249644 0.061418399 12300707
0.057509094 0.82469153 0.061416015 11971742
0.057810426 0.82441866 0.061413646 11840410
0.058111772 0.82414579 0.061411276 11577238
0.058413111 0.82387292 0.061408907 11510675
0.058714449 0.82360005 0.061406538 11115917
0.058641389 0.82254767 0.060838908 10918023
0.058943942 0.82227367 0.060836524 10786437
0.058874503 0.82121795 0.060268834 10391677
0.059178263 0.82094288 0.06026645 10128505
0.059482023 0.8206678 0.060264066 9800053
0.059785783 0.82039273 0.060261682 9010537
0.060089543 0.82011765 0.060259283 8354404
0.060393311 0.81984258 0.060256898 7959646
0.037891969 0.83098423 0.056253418 16507600
0.038205415 0.8307004 0.05625096 16441553
0.038518853 0.83041656 0.056248486 16441553
0.039270177 0.83085585 0.056809381 16507346
0.039582409 0.83057314 0.056806922 16573139
0.03989464 0.83029038 0.056804463 16507346
0.040206872 0.83000767 0.056802019 16573139
0.040519103 0.82972491 0.056799561 16507346
0.040831342 0.82944214 0.056797102 16507346
0.042004794 0.83061898 0.057921499 16441553
0.042314604 0.83033842 0.057919055 16573139
0.042624414 0.83005786 0.057916626 16507346
0.043361202 0.83051038 0.058477625 16375760
0.043669805 0.83023089 0.058475196 16047310
0.043978408 0.82995141 0.058472767 15257794
0.044710375 0.83040833 0.059033826 14140347
0.045017764 0.83012998 0.059031412 14403519
0.04532516 0.82985163 0.059028998 16511459
0.046052262 0.83031285 0.059590086 16776173
0.046358444 0.83003563 0.059587672 16776943
0.046664625 0.82975841 0.059585258 16776943
0.0473869 0.83022404 0.060146406 16183010
0.047691874 0.82994783 0.060144007 14077634
0.047996841 0.82967168 0.060141608 12301221
0.048301816 0.82939553 0.060139209 11972256
0.048606783 0.82911938 0.06013681 13616049
0.048911758 0.82884324 0.060134411 15326667
0.049625561 0.8293165 0.060695589 16115670
0.049929321 0.82904142 0.060693204 16313049
0.050233081 0.82876635 0.06069082 16509145
0.050942048 0.82924408 0.061252058 16180180
0.051244594 0.82897013 0.061249673 16179666
0.05154714 0.82869613 0.061247304 15982287
0.051849693 0.82842219 0.06124492 15588556
0.052152246 0.82814819 0.061242536 15193798
0.052454799 0.82787424 0.061240152 14865605
0.053155273 0.8283596 0.061801448 14799812
0.053456619 0.82808673 0.061799079 14602179
0.053757958 0.82781386 0.06179671 14404800
0.054059297 0.82754099 0.061794341 14142141
0.054360643 0.82726812 0.061791971 14076348
0.054661974 0.82699525 0.061789602 13944762
0.055353999 0.8274883 0.062350973 13813176
0.055654131 0.82721651 0.062348604 13484981
0.055954263 0.82694471 0.06234625 13287602
0.056254387 0.82667291 0.062343881 13221809
0.056554519 0.82640111 0.062341526 12892844
0.05685465 0.82612938 0.062339172 12630186
0.057154775 0.82585758 0.062336802 12432807
0.057072699 0.82481223 0.061770633 12169121
0.05737403 0.82453936 0.061768264 11971742
0.057675377 0.82426649 0.061765894 11840156
0.057976708 0.82399362 0.061763525 11576984
0.058278054 0.82372069 0.061761156 11576468
0.058579393 0.82344782 0.061758786 11181710
0.058505788 0.82239485 0.061192572 10983816
0.058808342 0.82212085 0.061190188 10786437
0.058738366 0.82106447 0.060623929 10457470
0.059042126 0.82078946 0.06062153 10128505
0.059345886 0.82051438 0.060619146 9735030
0.059649646 0.82023931 0.060616747 9669237
0.059953406 0.81996423 0.060614362 9406579
0.060257167 0.81968915 0.060611978 8090719
0.0055637658 0.83083248 0.042172611 16509143
0.005908668 0.83052015 0.042169899 16509143
0.0062535703 0.83020782 0.042167187 16443350
0.0076205581 0.83121157 0.043287233 16574936
0.0079630315 0.83090138 0.043284535 16443350
0.0083055198 0.83059126 0.043281838 16443350
0.0086480081 0.83028114 0.043279141 16509143
0.037751488 0.83082587 0.056619823 16507600
0.038064927 0.83054203 0.056617349 16573393
0.038378373 0.83025825 0.056614891 16507600
0.039130241 0.83069813 0.05717437 16507346
0.039442465 0.83041543 0.057171911 16507346
0.039754704 0.83013272 0.057169452 16573139
0.040501721 0.83057702 0.057728991 16638932
0.040812746 0.83029538 0.057726532 16573139
0.041123763 0.83001375 0.057724088 16507346
0.041865945 0.83046246 0.058283642 16441553
0.042175755 0.83018196 0.058281213 16507346
0.042485565 0.8299014 0.058278769 16112588
0.043222889 0.83035445 0.058838367 15191486
0.043531492 0.83007503 0.058835939 14205624
0.043840095 0.8297956 0.05883351 15455691
0.044572607 0.83025306 0.059393153 16182758
0.045302674 0.83071274 0.05995281 16776180
0.045608863 0.83043551 0.059950396 16776944
0.045915037 0.83015823 0.059947982 16776687
0.046221219 0.82988095 0.059945583 15525078
0.046527401 0.82960373 0.059943169 13419702
0.047250219 0.83007002 0.060502887 12432293
0.047555193 0.82979381 0.060500488 12827051
0.04786016 0.82951766 0.060498089 14339259
0.048165128 0.82924151 0.06049569 15918291
0.048881903 0.82971323 0.061055452 16773085
0.049185663 0.82943815 0.061053067 16443863
0.049489424 0.82916307 0.061050668 16707035
0.050201349 0.8296392 0.061610475 16443863
0.050503895 0.82936525 0.061608106 16311764
0.050806448 0.82909131 0.061605722 16245971
0.051108994 0.82881731 0.061603338 16114385
0.051411547 0.82854331 0.061600968 15719627
0.0521162 0.82902604 0.062160805 15456970
0.052417539 0.82875311 0.062158436 15193798
0.052718885 0.82848024 0.062156066 14865351
0.053418711 0.82896733 0.062715963 14602179
0.053718835 0.82869554 0.062713608 14470593
0.054018967 0.8284238 0.062711239 14339007
0.054319099 0.828152 0.062708884 14142141
0.05461923 0.82788026 0.062706515 14010555
0.054919355 0.82760847 0.062704161 13944762
0.055219486 0.82733667 0.062701806 13813176
0.055519618 0.82706487 0.062699437 13484981
0.05581975 0.82679313 0.062697083 13287602
0.056119874 0.82652134 0.062694713 12959151
0.056420006 0.82624954 0.062692359 12761772
0.05672013 0.8259778 0.062690005 12630186
0.057020262 0.82570601 0.062687635 12367014
0.057320394 0.82543421 0.062685281 12103328
0.057620518 0.82516241 0.062682912 11971742
0.05792065 0.82489067 0.062680557 11840156
0.057841651 0.82384139 0.062115774 11576984
0.058142997 0.82356852 0.062113404 11576468
0.058444336 0.82329565 0.062111035 11181710
0.058745675 0.82302278 0.062108666 10983816
0.059047014 0.82274991 0.062106296 10852230
0.058975294 0.82169408 0.061541468 10457472
0.05927784 0.82142007 0.061539099 10194300
0.059580393 0.82114613 0.061536714 9800823
0.059513509 0.82008588 0.060971826 9735030
0.059817269 0.81981081 0.060969442 9603444
0.06012103 0.81953573 0.060967058 9340272
0.0054091811 0.83065826 0.042575777 16378324
0.0057540834 0.83034593 0.042573065 16443604
0.0060989857 0.8300336 0.042570353 16443604
0.0074670613 0.83103859 0.043687567 16640983
0.0078095496 0.83072841 0.043684885 16443604
0.008152023 0.83041829 0.043682188 16509143
0.0084945112 0.83010817 0.043679491 16509143
0.037611008 0.83066756 0.056986213 16508113
0.037924446 0.83038372 0.056983754 16573139
0.038237892 0.83009988 0.05698128 16573139
0.038990304 0.83054048 0.057539344 16507346
0.039302528 0.83025771 0.057536885 16507346
0.039614767 0.82997501 0.057534441 16507346
0.040362328 0.83041996 0.058092549 16573139
0.040673345 0.83013833 0.058090106 16573139
0.04098437 0.82985663 0.058087662 16375760
0.041727088 0.83030599 0.0586458 15849931
0.042036898 0.83002543 0.058643356 14994622
0.042346708 0.82974494 0.058640927 14403257
0.043084577 0.83019859 0.059199095 16113875
0.04339318 0.82991916 0.059196666 16709352
0.043701783 0.82963967 0.059194252 16776687
0.044010386 0.82936025 0.059191823 16777201
0.045165449 0.83055806 0.060310706 16710637
0.045471631 0.83028084 0.060308307 14998736
0.045777813 0.83000362 0.060305893 13222325
0.046083987 0.82972634 0.060303494 12827051
0.046390168 0.82944906 0.06030108 12958637
0.047113538 0.82991594 0.060859382 15062982
0.047418505 0.82963979 0.060856983 16510428
0.047723472 0.82936358 0.060854584 16774109
0.048028447 0.82908744 0.060852185 16708059
0.048745759 0.8295598 0.061410531 16510680
0.049049519 0.82928473 0.061408147 16379094
0.049353279 0.82900965 0.061405748 16443863
0.050065748 0.82948637 0.061964139 16378070
0.050368294 0.82921243 0.06196177 16245971
0.050670847 0.82893848 0.061959386 16245971
0.0509734 0.82866448 0.061957002 15983566
0.051275946 0.82839048 0.061954632 15588808
0.051981144 0.82887381 0.062513053 15260363
0.052282482 0.82860094 0.062510684 15062984
0.052583829 0.82832807 0.062508315 14865351
0.053284198 0.82881576 0.063066795 14602179
0.053584322 0.82854396 0.063064441 14470593
0.053884454 0.82827222 0.063062072 14339007
0.054184586 0.82800043 0.063059717 14076348
0.05448471 0.82772863 0.063057363 14010555
0.054784842 0.82745683 0.063054994 13878969
0.055084974 0.82718509 0.063052639 13813176
0.055385098 0.8269133 0.06305027 13484981
0.055685237 0.82664156 0.063047916 13353395
0.055985361 0.82636976 0.063045546 12959151
0.056285486 0.82609797 0.063043192 12695979
0.056585617 0.82582617 0.063040838 12498600
0.056885749 0.82555437 0.063038468 12367014
0.057185873 0.82528263 0.063036114 12103328
0.057486005 0.82501084 0.063033745 11971742
0.057786137 0.8247391 0.06303139 11970972
0.057706594 0.82368922 0.062468022 11707800
0.058007941 0.82341635 0.062465653 11576214
0.058309272 0.82314348 0.062463284 11181456
0.058610618 0.82287055 0.062460914 10983818
0.058911949 0.82259768 0.062458545 10852232
0.058839694 0.82154125 0.061895132 10654851
0.059142247 0.82126725 0.061892763 10194300
0.0594448 0.8209933 0.061890379 10063479
0.059377357 0.81993246 0.061326906 9866100
0.059681118 0.81965739 0.061324522 9669491
0.059984885 0.81938231 0.061322138 9472112
0.0052545965 0.83048403 0.042978957 16444117
0.0055994987 0.8301717 0.042976245 16443604
0.005944401 0.82985938 0.042973533 16443604
0.0073135495 0.83086556 0.044087917 16575190
0.0076560378 0.83055544 0.044085234 16509397
0.0079985261 0.83024532 0.044082537 16509397
0.0083410144 0.82993519 0.04407984 16509397
0.037470527 0.83050925 0.057352602 16508113
0.037783965 0.83022541 0.057350144 16573139
0.038097411 0.82994157 0.057347685 16573139
0.03885036 0.83038276 0.057904333 16507346
0.039162591 0.8301 0.057901874 16441553
0.039474823 0.8298173 0.057899415 16112588
0.040222928 0.83026284 0.058456123 16112588
0.040533952 0.82998121 0.058453664 15783625
0.040844977 0.82969958 0.05845122 14862523
0.041588232 0.83014953 0.059007943 14667204
0.041898042 0.82986897 0.059005514 16509408
0.042207852 0.82958841 0.05900307 16776432
0.042946272 0.83004272 0.059559837 16776432
0.043254867 0.82976329 0.059557408 16776940
0.04356347 0.82948381 0.059554979 16775912
0.043872073 0.82920438 0.05955255 14538437
0.045028225 0.83040345 0.060668617 12893612
0.045334406 0.83012617 0.060666218 12958891
0.045640588 0.82984895 0.060663804 13485235
0.045946762 0.82957166 0.06066139 15589328
0.046252944 0.82929444 0.060658991 16774373
0.046976849 0.82976192 0.061215878 16774369
0.047281817 0.82948577 0.061213478 16707805
0.047586784 0.82920957 0.061211079 16576473
0.047891766 0.82893342 0.06120868 16773852
0.048609614 0.82940638 0.061765611 16575703
0.048913375 0.82913131 0.061763212 16509910
0.049217135 0.82885623 0.061760828 16444117
0.049930148 0.8293336 0.062317804 16246738
0.050232694 0.8290596 0.062315434 16312018
0.050535247 0.82878566 0.06231305 16312018
0.0508378 0.82851166 0.062310666 15917773
0.051140346 0.82823771 0.062308297 15588808
0.051846087 0.82872164 0.062865302 15260363
0.052147426 0.82844877 0.062862933 15062984
0.052448764 0.82817584 0.062860563 14931398
0.053149678 0.82866418 0.063417628 14602433
0.05344981 0.82839239 0.063415274 14470593
0.053749934 0.82812059 0.06341292 14339007
0.054050066 0.82784879 0.06341055 14142141
0.054350197 0.82757705 0.063408196 14010555
0.054650322 0.82730526 0.063405827 13878969
0.054950461 0.82703352 0.063403472 13813176
0.055250585 0.82676172 0.063401118 13550774
0.055550717 0.82648993 0.063398749 13353395
0.055850841 0.82621813 0.063396394 13090737
0.056150973 0.82594633 0.063394025 12695979
0.056451097 0.82567459 0.063391671 12629926
0.056751229 0.8254028 0.063389301 12498340
0.057051361 0.82513106 0.063386947 12300961
0.057351485 0.82485926 0.063384593 12037789
0.057651624 0.82458746 0.063382223 12037019
0.057571538 0.82353699 0.062820271 11708054
0.057872877 0.82326412 0.062817901 11576468
0.058174223 0.82299125 0.062815532 11313296
0.058475561 0.82271838 0.062813163 10918538
0.0587769 0.82244551 0.062810794 10786952
0.058704093 0.82138842 0.062248796 10720646
0.059006646 0.82111448 0.062246427 10260095
0.059309199 0.82084048 0.062244043 10128759
0.05924122 0.81977904 0.061681986 9931380
0.059544981 0.81950396 0.061679602 9931380
0.059848741 0.81922889 0.061677217 9734001
0.0051000118 0.83030981 0.043382138 16641496
0.0054449141 0.82999748 0.043379426 16444117
0.0057898164 0.82968515 0.043376714 16444117
0.0071600527 0.83069259 0.044488266 16509397
0.0075025409 0.83038247 0.044485584 16509397
0.0078450292 0.83007228 0.044482887 16509397
0.0081875175 0.82976216 0.04448019 16509397
0.036389723 0.83120239 0.057726398 16573906
0.036703162 0.83091861 0.057723939 16573906
0.0370166 0.83063477 0.057721466 16573393
0.037773728 0.83107328 0.058276668 16507600
0.03808596 0.83079052 0.058274224 16507346
0.038398191 0.83050776 0.058271766 16507346
0.038710423 0.83022505 0.058269307 16441553
0.039461493 0.83066905 0.058824584 16375760
0.039772511 0.83038741 0.058822125 15915211
0.040083528 0.83010578 0.058819681 15652039
0.04039456 0.82982409 0.058817238 15127753
0.040705577 0.82954246 0.058814794 16774891
0.041449383 0.82999301 0.0593701 16776688
0.04219076 0.83044577 0.059925437 16776688
0.042499363 0.83016628 0.059923008 16776430
0.042807959 0.82988685 0.059920579 16446180
0.043544516 0.83034396 0.06047596 14931396
0.043851912 0.83006561 0.060473546 13154985
0.044159293 0.82978725 0.060471117 13156782
0.044891 0.83024883 0.061026528 14275263
0.045197174 0.82997155 0.061024114 16577502
0.045503356 0.82969427 0.061021715 16774881
0.046230227 0.8301602 0.061577171 16379353
0.046535194 0.82988405 0.061574772 16708318
0.046840161 0.82960784 0.061572373 16642525
0.047562197 0.83007812 0.062127858 16445146
0.04786595 0.82980305 0.062125459 16510680
0.048169717 0.82952797 0.062123075 16313301
0.048473477 0.82925296 0.062120691 16444117
0.048777238 0.82897788 0.062118292 16444117
0.049080998 0.82870281 0.062115908 16509397
0.049794547 0.82918078 0.062671468 16312018
0.050097093 0.82890677 0.062669098 16312018
0.050399646 0.82863283 0.062666714 16180432
0.051108353 0.82911515 0.063222304 15589324
0.051409692 0.82884228 0.063219935 15391945
0.05171103 0.82856941 0.063217565 15128775
0.052414909 0.82905614 0.063773185 15062982
0.052715033 0.82878435 0.063770831 14931398
0.053015165 0.82851255 0.063768476 14602433
0.053315297 0.82824075 0.063766107 14536386
0.053615421 0.82796901 0.063763753 14470593
0.053915553 0.82769722 0.063761383 14339520
0.054610953 0.82819164 0.064317092 14076348
0.05490987 0.82792091 0.064314738 13878969
0.055208787 0.82765025 0.064312384 13681590
0.055507712 0.82737958 0.064310029 13484981
0.055806637 0.82710886 0.064307675 13353395
0.056105554 0.8268382 0.064305335 12959151
0.056404471 0.82656753 0.064302981 12695979
0.056703389 0.82629681 0.064300627 12629672
0.057002306 0.82602614 0.064298272 12498086
0.057301223 0.82575548 0.064295933 12300707
0.057600141 0.82548475 0.064293578 11971742
0.057899065 0.82521409 0.064291224 11970972
0.057817236 0.82416409 0.063730702 11707800
0.05811736 0.82389235 0.063728347 11576468
0.058417492 0.82362056 0.063725978 11379089
0.058717623 0.82334876 0.063723624 10918538
0.059017748 0.82307696 0.063721254 10786952
0.059317887 0.82280523 0.0637189 10720644
0.059244521 0.82174754 0.063158303 10325886
0.05954586 0.82147467 0.063155934 10194552
0.059105076 0.81962562 0.062037066 9997173
0.059408836 0.81935054 0.062034681 9865587
0.059712604 0.81907547 0.062032297 9734001
0.036249235 0.83104408 0.058092803 16508113
0.036562681 0.83076024 0.058090329 16508113
0.03687612 0.83047646 0.05808787 16507600
0.037633792 0.83091557 0.058641657 16441807
0.037946023 0.83063281 0.058639199 16441553
0.038258255 0.83035004 0.05863674 16178381
0.038570479 0.83006734 0.058634296 15652037
0.039322093 0.83051193 0.059188142 15191486
0.039633118 0.8302303 0.059185699 16247006
0.039944135 0.82994866 0.059183255 16775663
0.040255159 0.82966703 0.059180811 16776686
0.040566176 0.8293854 0.059178352 16776686
0.040877208 0.82910371 0.059175909 16776173
0.042052448 0.83028984 0.060286164 15722457
0.042361051 0.83001041 0.060283735 14405054
0.042669646 0.82973099 0.060281307 13615538
0.043406747 0.83018875 0.060835287 14141110
0.043714136 0.8299104 0.060832858 15720142
0.044021532 0.82963204 0.060830444 16775909
0.044753775 0.83009416 0.061384439 16775909
0.045059949 0.82981688 0.061382025 16578270
0.045366131 0.82953966 0.061379626 16380891
0.046093538 0.83000612 0.061933666 16379607
0.046398506 0.82972997 0.061931267 16642779
0.04670348 0.82945383 0.061928868 16642779
0.047426052 0.8299247 0.062482938 16445400
0.047729805 0.82964963 0.062480539 16379094
0.048033573 0.82937455 0.062478155 16247508
0.048337333 0.82909954 0.062475771 16378070
0.048641093 0.8288244 0.062473372 16378070
0.048944853 0.82854939 0.062470987 16443350
0.049658947 0.82902795 0.063025132 16311764
0.049961492 0.82875395 0.063022763 16245971
0.050264046 0.82848001 0.063020378 16048592
0.050973296 0.82896292 0.063574553 15589324
0.051274627 0.82869005 0.063572183 15260359
0.051575974 0.82841718 0.063569814 15128773
0.052280389 0.82890451 0.064124033 15062980
0.052580521 0.82863277 0.064121664 14931396
0.052880645 0.82836097 0.064119309 14602431
0.053180777 0.82808918 0.06411694 14536386
0.053480908 0.82781744 0.064114586 14536386
0.053781033 0.82754564 0.064112216 14273727
0.054476976 0.8280406 0.06466651 14010555
0.054775901 0.82776994 0.064664155 13748153
0.055074818 0.82749927 0.064661801 13550774
0.055373743 0.82722855 0.064659446 13484981
0.05567266 0.82695788 0.064657107 13419188
0.055971578 0.82668722 0.064654753 12959151
0.056270495 0.82641655 0.064652398 12761772
0.056569412 0.82614589 0.064650044 12761258
0.056868337 0.82587516 0.064647704 12563879
0.057167254 0.8256045 0.06464535 12169121
0.057466172 0.82533383 0.064642996 11971742
0.057765096 0.82506311 0.064640641 11971226
0.057682723 0.82401252 0.064081535 11773847
0.057982847 0.82374072 0.06407918 11576468
0.058282971 0.82346892 0.064076811 11379089
0.058583111 0.82319719 0.064074457 11050122
0.058883235 0.82292539 0.064072087 10852743
0.059183367 0.82265365 0.064069733 10655364
0.059109464 0.82159531 0.063510552 10326399
0.05941081 0.82132244 0.063508183 10260345
0.036108762 0.83088577 0.058459193 16508113
0.036422201 0.83060193 0.058456734 16508113
0.036735639 0.83031809 0.05845426 16376273
0.037493855 0.83075786 0.059006631 16047308
0.037806079 0.83047509 0.059004188 15192771
0.038118318 0.83019239 0.059001729 15916494
0.038430542 0.82990962 0.05899927 16774115
0.0391827 0.83035487 0.059551716 16775914
0.039493725 0.83007324 0.059549257 16776688
0.039804742 0.82979155 0.059546813 16776688
0.040115759 0.82950991 0.05954437 16775916
0.040426783 0.82922828 0.059541926 15590357
0.040737808 0.82894665 0.059539482 13748407
0.041914135 0.83013403 0.060646906 13222063
0.042222738 0.82985455 0.060644478 14339774
0.042531334 0.82957512 0.060642049 16050392
0.043268979 0.83003348 0.061194599 16776169
0.043576375 0.82975513 0.061192185 16708320
0.043883756 0.82947677 0.061189771 16709088
0.044616543 0.82993948 0.06174235 16774881
0.044922724 0.8296622 0.061739936 16709342
0.045228899 0.82938498 0.061737522 16380377
0.04595685 0.8298521 0.062290162 16379607
0.046261825 0.82957596 0.062287763 16511193
0.046566799 0.82929981 0.062285364 16576473
0.047289908 0.82977128 0.062838003 16379094
0.047593668 0.8294962 0.062835619 16378324
0.047897428 0.82922113 0.062833235 16378324
0.048201188 0.82894611 0.06283085 16378070
0.048504949 0.82867098 0.062828451 16443863
0.048808709 0.82839596 0.062826067 16509143
0.049523354 0.82887512 0.063378796 16311764
0.049825899 0.82860118 0.063376427 16114385
0.050128445 0.82832718 0.063374043 15982799
0.050838239 0.82881075 0.063926801 15523531
0.051139578 0.82853788 0.063924432 15326152
0.051440917 0.82826501 0.063922063 15326152
0.052145876 0.82875293 0.064474866 15326152
0.052446008 0.8284812 0.064472497 14997187
0.052746132 0.8282094 0.064470142 14668222
0.053046264 0.8279376 0.064467773 14536386
0.053346395 0.82766581 0.064465418 14536386
0.05364652 0.82739401 0.064463064 14339522
0.054343008 0.82788968 0.065015927 14010557
0.054641932 0.82761896 0.065013573 13682362
0.05494085 0.82734829 0.065011218 13550776
0.055239767 0.82707763 0.065008879 13484983
0.055538692 0.8268069 0.065006524 13353397
0.055837609 0.82653624 0.06500417 12959151
0.056136526 0.82626557 0.065001816 12761772
0.056435443 0.82599485 0.064999461 12695979
0.056734368 0.82572418 0.064997122 12432807
0.057033285 0.82545352 0.064994767 12038049
0.057332203 0.8251828 0.064992413 11906463
0.05763112 0.82491213 0.064990059 11906203
0.05754821 0.82386088 0.064432368 11708824
0.057848334 0.82358915 0.064430013 11642261
0.058148459 0.82331735 0.064427644 11510675
0.058448598 0.82304561 0.06442529 11181710
0.058748722 0.82277381 0.06442292 10918538
0.059048854 0.82250202 0.064420566 10655364
0.058974408 0.82144314 0.063862801 10392192
0.059275746 0.82117021 0.063860431 10391677
0.035968274 0.83072746 0.058825582 16310480
0.03628172 0.83044362 0.058823124 16047308
0.036595158 0.83015978 0.05882065 14995654
0.037353911 0.83060014 0.05937162 16443100
0.037666142 0.83031738 0.059369162 16709354
0.037978373 0.83003467 0.059366703 16776432
0.038290605 0.82975191 0.059364244 16777196
0.039043307 0.83019775 0.059915274 16777196
0.039354324 0.82991612 0.059912831 16774119
0.039665341 0.82963449 0.059910387 15260109
0.040413186 0.83008468 0.060461432 13615538
0.040723003 0.82980412 0.060458988 13681331
0.041032821 0.82952356 0.060456559 15064779
0.041775823 0.82997811 0.061007634 16512225
0.042084426 0.82969868 0.06100522 16512738
0.042393029 0.82941926 0.061002791 16775910
0.04313121 0.82987821 0.061553925 16643811
0.043438599 0.82959986 0.061551511 16380639
0.043745995 0.8293215 0.061549097 16577502
0.044479318 0.82978487 0.062100247 16577502
0.0447855 0.82950759 0.062097847 16445400
0.045091674 0.82923031 0.062095433 16379607
0.045820169 0.82969809 0.062646642 16378840
0.046125144 0.82942194 0.062644258 16444633
0.046430111 0.82914579 0.062641859 16510680
0.047153771 0.82961786 0.063193083 16379094
0.047457531 0.82934278 0.063190699 16444117
0.047761291 0.82906771 0.063188314 16444117
0.048480101 0.82954425 0.063739598 16378070
0.048782647 0.82927024 0.063737229 16246484
0.0490852 0.8289963 0.063734844 16180691
0.049799159 0.82947719 0.064286157 16114898
0.050100498 0.82920432 0.064283788 16049105
0.050401837 0.82893145 0.064281419 15983312
0.051110968 0.82941669 0.064832777 15720140
0.0514111 0.8291449 0.064830408 15588554
0.051711231 0.82887316 0.064828053 15456968
0.052011356 0.82860136 0.064825699 15456968
0.052311487 0.82832956 0.064823329 14931396
0.052611619 0.82805777 0.064820975 14799810
0.053312287 0.8285507 0.065372393 14602433
0.053611204 0.82828003 0.065370053 14536640
0.053910121 0.82800937 0.065367699 14339520
0.054209039 0.82773864 0.065365344 14076348
0.054507956 0.82746798 0.06536299 13748153
0.054806873 0.82719731 0.06536065 13550774
0.055105798 0.82692659 0.065358296 13550776
0.055404723 0.82665592 0.065355942 13353397
0.056094483 0.82715875 0.065907449 12959153
0.056392193 0.82688916 0.065905109 12761774
0.056689903 0.82661957 0.06590277 12695979
0.056987613 0.82634997 0.06590043 12432807
0.056899309 0.82530254 0.065344185 12169635
0.057198226 0.82503188 0.06534183 11906463
0.057497151 0.82476115 0.065339491 11905949
0.057796068 0.82449049 0.065337136 11708570
0.058094993 0.82421982 0.065334782 11642261
0.058393911 0.8239491 0.065332428 11379089
0.058314085 0.82289398 0.064776123 11115917
0.058614209 0.82262218 0.064773768 10918538
0.058914334 0.82235044 0.064771399 10655366
0.059214465 0.82207865 0.064769045 10523780
0.059514597 0.82180685 0.064766675 10325886
0.059814721 0.82153511 0.064764321 10194300
0.059743367 0.8204723 0.064207941 9865587
0.060044713 0.82019943 0.064205572 9734001
0.035827801 0.83056915 0.059191987 15127494
0.036141232 0.83028531 0.059189513 16443354
0.036454678 0.83000147 0.059187055 16775920
0.037213974 0.83044243 0.059736595 16776434
0.037526205 0.83015966 0.059734151 16776944
0.037838437 0.82987696 0.059731692 16777201
0.038150668 0.82959425 0.059729233 16773857
0.038903907 0.83004069 0.060278848 15062982
0.039214924 0.829759 0.060276404 14206390
0.039525941 0.82947737 0.060273945 14535355
0.040274337 0.82992816 0.06082359 15655119
0.040584147 0.82964766 0.060821146 16774114
0.040893964 0.8293671 0.060818717 16776166
0.04163751 0.82982224 0.061368376 16775652
0.041946113 0.82954282 0.061365947 16512736
0.042254716 0.82926333 0.061363518 16512736
0.042993441 0.82972294 0.061913252 16446430
0.043300837 0.82944459 0.061910838 16380637
0.043608218 0.82916623 0.061908409 16380123
0.044342086 0.8296302 0.062458158 16314330
0.044648275 0.82935297 0.062455758 16379353
0.044954449 0.82907569 0.062453344 16247767
0.045683488 0.82954407 0.063003138 16378070
0.045988455 0.82926786 0.063000739 16443863
0.046293423 0.82899171 0.06299834 16443863
0.047017626 0.82946444 0.063548163 16509656
0.047321379 0.82918936 0.063545778 16509910
0.047625147 0.82891428 0.063543394 16444117
0.0483445 0.82939142 0.064093262 16443604
0.048647046 0.82911742 0.064090893 16312018
0.048949599 0.82884347 0.064088508 16443350
0.049664102 0.82932496 0.064638406 16245971
0.049965441 0.82905209 0.064636037 16180178
0.05026678 0.82877922 0.064633667 16180178
0.050976455 0.82926512 0.06518361 15785420
0.051276587 0.82899332 0.065181255 15653834
0.051576711 0.82872152 0.065178886 15522763
0.051876843 0.82844973 0.065176532 15391177
0.052176975 0.82817799 0.065174162 14997191
0.052477106 0.82790619 0.065171808 14865605
0.05317831 0.82839972 0.065721825 14668226
0.053477228 0.82812905 0.06571947 14536640
0.053776145 0.82785839 0.065717116 14273727
0.054075062 0.82758772 0.065714762 14076348
0.054373987 0.827317 0.065712422 13813946
0.054672904 0.82704633 0.065710068 13550774
0.054971822 0.82677567 0.065707713 13550774
0.055270746 0.82650495 0.065705359 13419188
0.055961058 0.82700837 0.066255465 12959151
0.056258768 0.82673877 0.066253111 12761772
0.056556478 0.82646918 0.066250771 12695979
0.056854181 0.82619959 0.066248432 12498600
0.05676534 0.82515156 0.065693602 12301221
0.057064258 0.82488084 0.065691262 12038049
0.057363175 0.82461017 0.065688908 11840670
0.057662092 0.82433951 0.065686554 11709084
0.057961017 0.82406878 0.065684199 11577238
0.058259934 0.82379812 0.065681845 11248273
0.058179565 0.8227424 0.065126956 11116687
0.058479689 0.82247061 0.065124601 10787722
0.058779821 0.82219887 0.065122232 10721159
0.059079953 0.82192707 0.065119877 10523780
0.059380084 0.82165527 0.065117523 10391679
0.059680209 0.82138348 0.065115154 10194300
0.05960831 0.82032013 0.06456019 9865587
0.059909657 0.8200472 0.064557821 9668208
0.035687312 0.83041084 0.059558377 16776686
0.036000758 0.830127 0.059555918 16776686
0.036314197 0.82984316 0.059553444 16776688
0.037074029 0.83028471 0.060101584 16776174
0.037386268 0.83000195 0.060099125 16050392
