# .PCD v0.7 - Point Cloud Data file format
VERSION 0.7
FIELDS x y z rgb
SIZE 4 4 4 4
TYPE F F F U
COUNT 1 1 1 1
WIDTH 1121
HEIGHT 1
VIEWPOINT 0 0 0 1 0 0 0
POINTS 1121
DATA ascii
0.046711698 0.74348068 0.071281195 8548694
0.046431735 0.7432304 0.071278915 8548694
0.046151772 0.74298012 0.071276635 8679764
0.045871809 0.7427299 0.071274355 8679764
0.045591846 0.74247962 0.071272075 8613971
0.045311883 0.74222934 0.07126981 8613971
0.04503192 0.74197912 0.07126753 8482387
0.044751957 0.74172884 0.07126525 8416594
0.043793887 0.74198139 0.070693985 8482387
0.043512717 0.74173009 0.070691705 8482387
0.042550981 0.74197936 0.070120394 8415822
0.042268589 0.74172693 0.070118099 7560513
0.041986197 0.74147451 0.070115805 6835509
0.041019604 0.74171942 0.069544464 6703923
0.04073599 0.74146593 0.069542155 5981231
0.040452376 0.74121237 0.069539845 5783852
0.055922791 0.75529659 0.069996357 5784876
0.055639178 0.75504303 0.069994047 6179634
0.055355564 0.75478953 0.069991738 6639161
0.055695817 0.75398362 0.070556566 7033919
0.055413425 0.75373125 0.070554271 7363654
0.055131033 0.75347877 0.070551977 7561033
0.054848626 0.75322634 0.070549682 7758412
0.054566234 0.75297391 0.070547387 8153170
0.054283842 0.75272149 0.070545092 8284756
0.054632634 0.7519232 0.07110998 8416342
0.054351464 0.75167185 0.0711077 8679514
0.054070279 0.7514205 0.071105406 8811100
0.053789094 0.7511692 0.071103126 8614235
0.053507924 0.75091779 0.071100831 8614235
0.053226739 0.7506665 0.071098551 8680028
0.052945554 0.75041515 0.071096271 8680028
0.052664384 0.75016379 0.071093976 8811354
0.052383199 0.74991244 0.071091697 8877147
0.052102029 0.74966109 0.071089402 8877147
0.051820844 0.74940979 0.071087122 8877147
0.05153966 0.74915838 0.071084827 8811354
0.051258489 0.74890709 0.071082547 8811354
0.050977305 0.74865574 0.071080253 8614489
0.050696135 0.74840438 0.071077973 8548696
0.051064387 0.7476235 0.071643025 8548696
0.050784424 0.74737328 0.071640745 8614489
0.050504461 0.747123 0.071638465 8614489
0.050224498 0.74687278 0.071636185 8614489
0.04994455 0.7466225 0.071633905 8680282
0.049664587 0.74637222 0.071631625 8614489
0.049384624 0.746122 0.07162936 8614489
0.049104661 0.74587172 0.07162708 8680282
0.048824698 0.74562144 0.071624801 8746073
0.045634896 0.74388021 0.071036801 8614487
0.045353726 0.74362886 0.071034521 8745557
0.045072541 0.74337751 0.071032226 8745557
0.044791371 0.74312615 0.071029946 8613971
0.042705581 0.7423718 0.070450917 8613973
0.042423189 0.74211931 0.070448622 8744789
0.042140797 0.74186689 0.070446327 8547410
0.04185839 0.74161446 0.070444033 7888969
0.04089126 0.74186003 0.069874108 7231039
0.040607646 0.74160647 0.069871798 6704441
0.040324032 0.74135298 0.069869488 6309683
0.056028143 0.75675726 0.069767267 5455911
0.055743307 0.75650263 0.069764942 5587497
0.055458471 0.756248 0.069762632 5850669
0.055794433 0.75543714 0.070326 6310198
0.055510819 0.75518364 0.070323691 6968128
0.055227205 0.75493014 0.070321396 7165505
0.055568025 0.75412363 0.070884794 7494470
0.055285633 0.7538712 0.070882499 7824205
0.055003226 0.75361878 0.070880204 8021584
0.054720834 0.75336635 0.07087791 8218963
0.054438442 0.75311393 0.070875615 8416342
0.054156035 0.7528615 0.07087332 8613721
0.054505393 0.75206256 0.071436793 8613721
0.054224208 0.75181127 0.071434513 8745307
0.053943038 0.75155991 0.071432233 8811100
0.053661853 0.75130856 0.071429938 8680028
0.053380668 0.75105721 0.071427658 8680028
0.053099498 0.75080585 0.071425363 8680028
0.052818313 0.7505545 0.071423084 8680028
0.052537143 0.75030315 0.071420789 8811354
0.052255958 0.75005186 0.071418509 8877147
0.051974773 0.7498005 0.071416214 8877147
0.051693603 0.74954915 0.071413934 8942940
0.051412418 0.7492978 0.071411639 8680282
0.051131248 0.74904644 0.07140936 8746075
0.050850064 0.74879509 0.071407065 8614489
0.050568879 0.74854374 0.071404785 8614489
0.050937697 0.74776232 0.071968421 8614489
0.050657734 0.74751204 0.071966141 8680282
0.050377771 0.74726176 0.071963862 8614489
0.050097808 0.74701154 0.071961582 8614489
0.049817845 0.74676126 0.071959302 8680282
0.049537882 0.74651098 0.071957037 8614489
0.049257919 0.74626076 0.071954757 8680282
0.048977956 0.74601048 0.071952477 8680282
0.048697993 0.74576026 0.071950197 8746075
0.044449896 0.74529636 0.070233732 8614487
0.045507655 0.74401957 0.071363628 8614487
0.045226485 0.74376822 0.071361333 8745557
0.0449453 0.74351686 0.071359053 8745557
0.044664115 0.74326551 0.071356758 8679764
0.043031827 0.74402875 0.070222199 8745557
0.042748213 0.74377525 0.070219904 8613971
0.042464599 0.74352169 0.070217595 8679764
0.042180985 0.74326819 0.070215285 8679766
0.042577788 0.74251175 0.070779145 8613973
0.042295396 0.74225932 0.07077685 8613973
0.04201299 0.7420069 0.070774555 8613973
0.041730598 0.74175447 0.07077226 8613203
0.040762916 0.74200058 0.070203751 7955273
0.040479302 0.74174708 0.070201442 7230785
0.040195689 0.74149358 0.070199147 6770234
0.03922312 0.74173534 0.069630593 6243890
0.038938284 0.74148071 0.069628268 6046511
0.038653463 0.74122614 0.069625959 5652266
0.038368627 0.74097151 0.069623634 5257508
0.038083792 0.74071693 0.069621325 4731934
0.037798971 0.7404623 0.069619 4666141
0.037514135 0.74020767 0.06961669 4535071
0.0372293 0.7399531 0.069614381 4469278
0.055899233 0.7568984 0.070098326 5850415
0.055614412 0.75664377 0.070096001 6376759
0.055329576 0.7563892 0.070093691 6639931
0.05504474 0.75613463 0.070091367 7231298
0.05475992 0.75588 0.070089057 7560263
0.054475084 0.75562537 0.070086747 7626056
0.054815248 0.75481719 0.07064873 7955021
0.054531634 0.75456369 0.07064642 8284756
0.05424802 0.75431013 0.07064411 8416342
0.053964406 0.75405663 0.070641816 8613721
0.053680792 0.75380313 0.070639506 8613721
0.053397179 0.75354958 0.070637196 8679768
0.053745851 0.75274903 0.071199253 8745561
0.053463459 0.7524966 0.071196958 8745561
0.053181052 0.75224417 0.071194664 8811354
0.05289866 0.75199175 0.071192354 8680282
0.052616268 0.75173926 0.071190059 8680282
0.052333862 0.7514869 0.071187764 8746075
0.05205147 0.75123441 0.07118547 8680282
0.051769078 0.75098199 0.071183175 8680282
0.051486671 0.75072956 0.07118088 8746075
0.051204279 0.75047714 0.071178585 8811868
0.050921887 0.75022471 0.071176291 8811868
0.05063948 0.74997228 0.071173981 8746075
0.050357088 0.74971986 0.071171686 8746075
0.050074697 0.74946737 0.071169391 8614489
0.049792305 0.74921495 0.071167096 8614489
0.044321537 0.74543697 0.070563376 8680280
0.044037923 0.74518341 0.070561081 8614487
0.043754309 0.74492991 0.070558771 8745557
0.043470696 0.74467635 0.070556462 8745557
0.043187082 0.74442285 0.070554152 8679764
0.042903483 0.74416935 0.070551857 8745557
0.042619854 0.7439158 0.070549548 8679764
0.04233624 0.7436623 0.070547238 8679764
0.042052627 0.7434088 0.070544928 8679764
0.041769013 0.74315524 0.070542619 8679764
0.041485399 0.74290174 0.070540324 8679766
0.041201785 0.74264824 0.070538014 8679766
0.040918171 0.74239469 0.070535704 8810582
0.040634558 0.74214119 0.070533395 8547410
0.040350944 0.74188769 0.070531085 8349518
0.04006733 0.74163413 0.07052879 7625795
0.03909421 0.74187654 0.069961652 6704693
0.038809389 0.74162191 0.069959328 6507314
0.038524553 0.74136734 0.069957018 6178351
0.038239717 0.74111271 0.069954693 5783593
0.037954897 0.74085808 0.069952384 5126692
0.037670061 0.74060351 0.069950074 4863520
0.037385225 0.74034888 0.069947749 4535069
0.03710039 0.74009424 0.06994544 4469276
0.055770338 0.75703961 0.070429385 6574138
0.055485517 0.75678498 0.07042706 7034689
0.055200681 0.7565304 0.07042475 7429447
0.054915845 0.75627577 0.070422426 7692103
0.054631025 0.75602114 0.070420116 8152654
0.054346189 0.75576657 0.070417792 8153424
0.054686904 0.7549578 0.070978373 8350803
0.05440329 0.75470424 0.070976064 8613721
0.054119676 0.75445074 0.070973754 8679514
0.053836063 0.75419724 0.070971459 8679514
0.053552449 0.75394368 0.070969149 8679514
0.053268835 0.75369018 0.07096684 8745561
0.053618044 0.75288904 0.071527481 8745561
0.053335652 0.75263655 0.071525186 8811354
0.05305326 0.75238413 0.071522892 8877147
0.052770853 0.7521317 0.071520597 8680282
0.052488461 0.75187927 0.071518302 8680282
0.052206069 0.75162685 0.071515992 8746075
0.051923677 0.75137442 0.071513698 8680282
0.051641271 0.751122 0.071511403 8746075
0.051358879 0.75086951 0.071509108 8811868
0.051076487 0.75061715 0.071506813 8811868
0.05079408 0.75036466 0.071504518 8811868
0.050511688 0.75011224 0.071502224 8746075
0.050229296 0.74985981 0.071499914 8746075
0.049946904 0.74960738 0.071497619 8614489
0.049664497 0.74935496 0.071495324 8680282
0.044193193 0.74557751 0.070893019 8811352
0.04390958 0.74532402 0.070890725 8811352
0.043625966 0.74507046 0.070888415 8745557
0.043342352 0.74481696 0.070886105 8745557
0.043058738 0.74456346 0.070883796 8745557
0.042775124 0.7443099 0.070881501 8745557
0.042491511 0.7440564 0.070879191 8745557
0.042207897 0.74380291 0.070876881 8745557
0.041924283 0.74354935 0.070874572 8679766
0.041640669 0.74329585 0.070872262 8679766
0.041357055 0.74304235 0.070869967 8679766
0.041073442 0.74278879 0.070867658 8679766
0.040789828 0.74253529 0.070865348 8745559
0.040506214 0.74228179 0.070863038 8679766
0.0402226 0.74202824 0.070860729 8744789
0.039938986 0.74177474 0.070858434 8350031
0.038965315 0.74201775 0.070292711 7625795
0.038680494 0.74176311 0.070290387 7165244
0.038395658 0.74150848 0.070288077 6703925
0.038110822 0.74125391 0.070285752 6374960
0.037826002 0.74099928 0.070283443 5850415
0.037541166 0.74074465 0.070281118 5324071
0.03725633 0.74049008 0.070278808 4732450
0.036971495 0.74023545 0.070276499 4535071
0.055880815 0.75850922 0.070206016 5982001
0.055594757 0.75825351 0.070203692 6574138
0.055308715 0.75799781 0.070201367 6903103
0.055641443 0.75718081 0.070760444 7297861
0.055356607 0.75692618 0.070758119 7626310
0.055071786 0.75667155 0.07075581 8021068
0.05478695 0.75641698 0.070753485 8152654
0.054502115 0.75616235 0.070751175 8744791
0.054217294 0.75590777 0.070748866 8482903
0.054558545 0.75509834 0.071308017 8482903
0.054274946 0.75484484 0.071305707 8614489
0.053991318 0.75459135 0.071303397 8614489
0.053707719 0.75433779 0.071301103 8614489
0.05342409 0.75408429 0.071298793 8614489
0.053140491 0.75383079 0.071296483 8745561
0.053490251 0.75302899 0.071855709 8811354
0.053207859 0.75277656 0.071853414 8811354
0.052925467 0.75252414 0.071851119 8877147
0.052643061 0.75227165 0.071848825 8811354
0.052360669 0.75201929 0.07184653 8811354
0.052078277 0.7517668 0.07184422 8877147
0.05179587 0.75151438 0.071841925 8811354
0.051513478 0.75126195 0.071839631 8877147
0.051231086 0.75100952 0.071837336 8877147
0.050948679 0.7507571 0.071835041 8877147
0.050666288 0.75050467 0.071832746 8877147
0.050383896 0.75025225 0.071830451 8680282
0.050101504 0.74999982 0.071828157 8680282
0.049819097 0.7497474 0.071825847 8680282
0.049536705 0.74949491 0.071823552 8680282
0.044632077 0.74622512 0.071227282 8877145
0.044348463 0.74597162 0.071224973 8877145
0.04406485 0.74571812 0.071222663 8811352
0.043781236 0.74546456 0.071220368 8745559
0.043497622 0.74521106 0.071218058 8745557
0.043214008 0.74495757 0.071215749 8745557
0.042930394 0.74470401 0.071213439 8679764
0.042646781 0.74445051 0.071211144 8745557
0.042363167 0.74419701 0.071208835 8745557
0.042079553 0.74394345 0.071206525 8745557
0.041795939 0.74368995 0.071204215 8679766
0.041512325 0.74343646 0.071201906 8679766
0.041228712 0.7431829 0.071199611 8679766
0.040945098 0.7429294 0.071197301 8679766
0.040661484 0.7426759 0.071194991 8745559
0.04037787 0.74242234 0.071192682 8745559
0.040094256 0.74216884 0.071190372 8745559
0.039810643 0.74191529 0.071188077 8482387
0.03883642 0.74215889 0.07062377 8086859
0.038551584 0.74190432 0.070621446 7889480
0.038266763 0.74164969 0.070619136 7427646
0.037981927 0.74139506 0.070616812 6901302
0.037697092 0.74114048 0.070614502 6310196
0.037412271 0.74088585 0.070612192 6047024
0.037127435 0.74063122 0.070609868 5521452
0.0368426 0.74037665 0.070607558 5060901
0.035857439 0.74061048 0.070043162 4600864
0.035571396 0.74035478 0.070040837 4535071
0.035285339 0.74009907 0.070038512 4535071
0.055751354 0.75865102 0.070538491 7033919
0.055465311 0.75839531 0.070536166 7231298
0.055179268 0.75813961 0.070533842 7560263
0.054893211 0.75788391 0.070531502 7889228
0.054607168 0.7576282 0.070529178 8152654
0.054321125 0.7573725 0.070526853 8481619
0.054658055 0.75655818 0.071084559 8613975
0.05437322 0.75630355 0.071082234 8745561
0.054088384 0.75604892 0.071079925 8680282
0.053803563 0.75579435 0.0710776 8680282
0.053518727 0.75553972 0.07107529 8680282
0.053233892 0.75528514 0.071072966 8614489
0.052949071 0.75503051 0.071070656 8614489
0.052664235 0.75477588 0.071068332 8614489
0.0523794 0.75452131 0.071066022 8680282
0.052094579 0.75426668 0.071063697 8680282
0.051809743 0.75401211 0.071061388 8680282
0.051524907 0.75375748 0.071059063 8680282
0.051240072 0.75350285 0.071056753 8680282
0.050955251 0.75324821 0.071054444 8746075
0.050670415 0.75299364 0.071052119 8746075
0.051026836 0.75219667 0.071609974 8680282
0.050743222 0.75194317 0.071607679 8680282
0.050459608 0.75168967 0.071605369 8746075
0.050175995 0.75143611 0.07160306 8746075
0.049892381 0.75118262 0.07160075 8680282
0.049608767 0.75092912 0.071598455 8680282
0.044503719 0.74636573 0.071556926 8877145
0.04422012 0.74611223 0.071554616 8877145
0.043936491 0.74585867 0.071552321 8811352
0.042979985 0.7461192 0.070989579 8811352
0.04269515 0.74586463 0.070987254 8745559
0.042410329 0.74561 0.070984945 8811352
0.042125493 0.74535537 0.07098262 8679766
0.041840658 0.7451008 0.07098031 8745559
0.041555822 0.74484617 0.070977986 8745559
0.041271001 0.74459159 0.070975676 8679766
0.040986165 0.74433696 0.070973352 8679766
0.04070133 0.74408233 0.070971042 8679766
0.040416509 0.74382776 0.070968732 8679766
0.040131673 0.74357313 0.070966408 8679766
0.039846838 0.7433185 0.070964098 8745559
0.039562017 0.74306393 0.070961773 8745559
0.039277181 0.7428093 0.070959464 8745559
0.038992345 0.74255466 0.070957139 8613973
0.038707525 0.74230009 0.070954829 8416594
0.038422689 0.74204546 0.070952505 8350801
0.038137853 0.74179089 0.070950195 8020553
0.037853032 0.74153626 0.070947871 7494209
0.037568197 0.74128163 0.070945561 6901304
0.036586136 0.74151933 0.070382625 6440753
0.036300093 0.74126363 0.070380285 6047024
0.036014035 0.74100792 0.070377961 5718059
0.035727993 0.74075222 0.070375636 5323301
0.035441935 0.74049658 0.070373312 5060129
0.035155892 0.74024087 0.070370987 4731936
0.055621907 0.75879276 0.070870966 7823435
0.055335864 0.75853711 0.070868641 7823435
0.055049822 0.75828141 0.070866302 8086607
0.054763764 0.75802571 0.070863977 8415572
0.054477721 0.75777 0.070861652 8547412
0.054191664 0.7575143 0.070859328 8613205
0.05452916 0.75669932 0.071415603 8745561
0.054244325 0.75644475 0.071413293 8745561
0.053959489 0.75619012 0.071410984 8746075
0.053674653 0.75593555 0.071408659 8746075
0.053389832 0.75568092 0.07140635 8680282
0.053104997 0.75542629 0.071404025 8680282
0.052820161 0.75517166 0.071401715 8680282
0.05253534 0.75491709 0.071399391 8680282
0.052250504 0.75466251 0.071397081 8680282
0.051965669 0.75440788 0.071394756 8680282
0.051680848 0.75415325 0.071392447 8680282
0.051396012 0.75389862 0.071390122 8680282
0.051111177 0.75364405 0.071387812 8680282
0.050826341 0.75338942 0.071385503 8680282
0.05054152 0.75313485 0.071383178 8746075
0.050898492 0.75233728 0.071939617 8680282
0.050614879 0.75208378 0.071937323 8680282
0.050331265 0.75183022 0.071935013 8746075
0.050047651 0.75157672 0.071932703 8746075
0.049764037 0.75132322 0.071930394 8680282
0.049480423 0.75106966 0.071928099 8680282
0.044375375 0.74650633 0.071886569 8811352
0.044091761 0.74625278 0.07188426 8811352
0.043808147 0.74599928 0.071881965 8811352
0.04285109 0.7462604 0.071320638 8745559
0.042566255 0.74600577 0.071318313 8745559
0.042281419 0.7457512 0.071316004 8811352
0.041996598 0.74549657 0.071313679 8679766
0.041711763 0.745242 0.07131137 8679766
0.041426927 0.74498737 0.071309045 8745559
0.041142106 0.74473274 0.071306735 8679766
0.04085727 0.74447817 0.071304411 8679766
0.040572435 0.74422354 0.071302101 8679766
0.040287614 0.7439689 0.071299791 8679766
0.040002778 0.74371433 0.071297467 8679766
0.039717942 0.7434597 0.071295157 8745559
0.039433107 0.74320507 0.071292832 8679766
0.039148286 0.7429505 0.071290523 8745559
0.03886345 0.74269587 0.071288198 8613973
0.038578615 0.7424413 0.071285889 8613973
0.038293794 0.74218667 0.071283564 8482387
0.038008958 0.74193203 0.071281254 8284238
0.037724122 0.74167746 0.07127893 8021066
0.037439302 0.74142283 0.07127662 8019785
0.036456689 0.74166113 0.070715085 7098683
0.036170632 0.74140543 0.07071276 6704695
0.035884589 0.74114972 0.070710436 6244144
0.035598546 0.74089402 0.070708111 5980972
0.035312489 0.74063838 0.070705786 5586214
0.035026446 0.74038267 0.070703462 4995106
0.055124342 0.76084095 0.070096195 6837312
0.054835856 0.7605831 0.07009384 7363656
0.054547369 0.76032519 0.070091501 7297863
0.055492461 0.75893462 0.07120344 8020816
0.055206418 0.75867891 0.071201116 8283988
0.05492036 0.75842321 0.071198791 8547158
0.054634318 0.75816751 0.071196452 8876123
0.05434826 0.7579118 0.071194127 8876377
0.054062217 0.7576561 0.071191803 8810584
0.05440025 0.75684053 0.071746677 8745561
0.054115415 0.75658596 0.071744353 8811354
0.053830594 0.75633132 0.071742043 8877147
0.053545758 0.75607669 0.071739718 8877147
0.053260922 0.75582206 0.071737409 8746075
0.052976102 0.75556749 0.071735084 8680282
0.052691266 0.75531286 0.071732774 8680282
0.05240643 0.75505829 0.07173045 8680282
0.052121609 0.75480366 0.07172814 8680282
0.051836774 0.75454903 0.071725816 8680282
0.051551938 0.75429446 0.071723506 8680282
0.051267117 0.75403982 0.071721181 8680282
0.050982282 0.75378525 0.071718872 8680282
0.050697446 0.75353062 0.071716562 8680282
0.050412625 0.75327599 0.071714237 8680282
0.050770149 0.75247788 0.072269276 8680282
0.050486535 0.75222433 0.072266966 8680282
0.050202921 0.75197083 0.072264656 8680282
0.049919307 0.75171733 0.072262347 8680282
0.049635693 0.75146377 0.072260037 8614489
0.04935208 0.75121027 0.072257742 8680282
0.044247031 0.74664688 0.072216213 8811354
0.043963417 0.74639338 0.072213918 8811354
0.043679804 0.74613988 0.072211608 8745559
0.04272218 0.74640161 0.071651697 8745559
0.04243736 0.74614698 0.071649373 8745559
0.042152524 0.74589241 0.071647063 8811352
0.041867688 0.74563777 0.071644738 8679766
0.041582868 0.74538314 0.071642429 8613973
0.041298032 0.74512851 0.071640104 8679766
0.041013196 0.74487394 0.071637794 8679766
0.04072836 0.74461931 0.07163547 8679766
0.04044354 0.74436474 0.07163316 8679766
0.040158704 0.74411011 0.07163085 8679766
0.039873868 0.74385548 0.071628526 8679766
0.039589047 0.7436009 0.071626216 8679766
0.039304212 0.74334627 0.071623892 8679766
0.039019391 0.7430917 0.071621582 8745559
0.038734555 0.74283707 0.071619257 8613973
0.03844972 0.74258244 0.071616948 8613973
0.038164899 0.74232787 0.071614623 8613973
0.037880063 0.74207324 0.071612313 8285008
0.037595227 0.74181867 0.071609989 8153422
0.037310392 0.74156404 0.071607679 8021066
0.036327243 0.74180293 0.071047559 7692101
0.036041185 0.74154723 0.071045235 7494211
0.035755143 0.74129152 0.07104291 6573109
0.035469085 0.74103582 0.071040586 6243890
0.035183042 0.74078012 0.071038261 6112304
0.034897 0.74052441 0.071035936 5455657
0.054993778 0.76098394 0.070431501 7495242
0.054705307 0.76072609 0.070429146 7758414
0.05441682 0.76046824 0.070426807 8021586
0.054745674 0.75964338 0.070980176 8284758
0.05445841 0.7593866 0.070977852 8482137
0.05417113 0.75912976 0.070975512 8679514
0.054504871 0.75830925 0.071528926 8811100
0.054218814 0.7580536 0.071526602 8811354
0.053932771 0.7577979 0.071524277 8745561
0.053646713 0.75754219 0.071521953 8811354
0.053360671 0.75728649 0.071519628 8811354
0.053074628 0.75703079 0.071517304 8877147
0.052788585 0.75677514 0.071514964 8877147
0.052502528 0.75651944 0.07151264 8680282
0.052216485 0.75626373 0.071510315 8680282
0.051930428 0.75600803 0.07150799 8680282
0.051644385 0.75575233 0.071505666 8614489
0.051358342 0.75549662 0.071503341 8680282
0.051072285 0.75524092 0.071501017 8680282
0.050786242 0.75498521 0.071498692 8680282
0.050500184 0.75472951 0.071496367 8680282
0.049574882 0.75502121 0.070938125 8614489
0.049287617 0.75476444 0.070935786 8680282
0.049000353 0.75450766 0.070933461 8680282
0.048713088 0.75425088 0.070931122 8680282
0.048425823 0.75399411 0.070928782 8680282
0.048138559 0.75373733 0.070926443 8680282
0.047851294 0.75348055 0.070924103 8680282
0.04756403 0.75322378 0.070921779 8614489
0.047276765 0.752967 0.070919439 8614489
0.040669665 0.74706089 0.070865706 8811354
0.0403824 0.74680412 0.070863366 8679766
0.040095136 0.74654734 0.070861027 8679766
0.039807871 0.74629056 0.070858687 8679766
0.039520606 0.74603379 0.070856363 8679766
0.039233342 0.74577701 0.070854023 8613973
0.039630353 0.74501306 0.071407959 8613973
0.039344311 0.74475735 0.071405634 8679766
0.039058268 0.74450171 0.07140331 8679766
0.03877221 0.74424601 0.07140097 8745559
0.038486168 0.7439903 0.071398646 8679766
0.038200125 0.7437346 0.071396321 8810582
0.037914068 0.74347889 0.071393996 8744789
0.037628025 0.74322319 0.071391672 8679766
0.037341982 0.74296749 0.071389347 8613973
0.036360681 0.74320912 0.070830658 8350801
0.036073416 0.74295235 0.070828319 8285008
0.035786152 0.74269557 0.070825979 8284238
0.035498887 0.74243879 0.070823655 8086859
0.035211623 0.74218202 0.070821315 8021066
0.034924358 0.74192524 0.070818976 7823687
0.034637094 0.74166846 0.070816636 6836281
0.034349829 0.74141169 0.070814297 6507316
0.034062564 0.74115491 0.070811972 6113071
0.054863229 0.761127 0.070766807 7955791
0.054574758 0.76086909 0.070764452 8219477
0.054286271 0.76061124 0.070762113 8482649
0.054615662 0.75978577 0.071314067 8417371
0.054328397 0.75952899 0.071311742 8483164
0.054041132 0.75927222 0.071309403 8614235
0.05437541 0.7584511 0.071861401 8680028
0.054089367 0.7581954 0.071859077 8680282
0.053803325 0.7579397 0.071856752 8680282
0.053517267 0.75768399 0.071854427 8680282
0.053231224 0.75742829 0.071852103 8680282
0.052945182 0.75717258 0.071849778 8746075
0.052659124 0.75691688 0.071847439 8746075
0.052373081 0.75666118 0.071845114 8680282
0.052087024 0.75640547 0.07184279 8680282
0.051800981 0.75614977 0.071840465 8680282
0.051514938 0.75589412 0.07183814 8614489
0.051228881 0.75563842 0.071835816 8680282
0.050942838 0.75538272 0.071833491 8680282
0.050656796 0.75512701 0.071831167 8680282
0.050370738 0.75487131 0.071828827 8614489
0.049444884 0.75516367 0.071272016 8614489
0.049157619 0.75490683 0.071269676 8680282
0.048870355 0.75465006 0.071267352 8680282
0.04858309 0.75439328 0.071265012 8680282
0.048295826 0.7541365 0.071262673 8680282
0.048008561 0.75387973 0.071260333 8680282
0.047721297 0.75362295 0.071257994 8680282
0.047434032 0.75336611 0.071255669 8614489
0.047146767 0.75310934 0.07125333 8614489
0.040539667 0.74720335 0.071199596 8745561
0.040252402 0.74694651 0.071197256 8679766
0.039965138 0.74668974 0.071194917 8679766
0.039677873 0.74643296 0.071192577 8613973
0.039390594 0.74617618 0.071190253 8679766
0.039103329 0.74591941 0.071187913 8613973
0.039500907 0.74515486 0.071740434 8679766
0.039214864 0.74489915 0.071738109 8679766
0.038928822 0.74464345 0.07173577 8679766
0.038642764 0.74438775 0.071733445 8679766
0.038356721 0.74413204 0.07173112 8679766
0.038070679 0.7438764 0.071728796 8810582
0.037784621 0.74362069 0.071726471 8744789
0.037498578 0.74336499 0.071724147 8744789
0.037212521 0.74310929 0.071721822 8744789
0.036230683 0.74335158 0.071164548 8547410
0.035943419 0.74309474 0.071162209 8481617
0.035656154 0.74283797 0.071159869 8415824
0.03536889 0.74258119 0.071157545 8284238
0.035081625 0.74232441 0.071155205 8152652
0.03479436 0.74206764 0.071152866 7955273
0.034507096 0.74181086 0.071150526 7823687
0.034219831 0.74155402 0.071148187 7034171
0.033932567 0.74129725 0.071145862 6573622
0.054986998 0.7626183 0.070556313 7428931
0.054697305 0.76235938 0.070553958 8021068
0.054407597 0.7621004 0.070551604 8153170
0.05473268 0.76126993 0.071102098 8416342
0.054444194 0.76101208 0.071099758 8482649
0.054155722 0.76075423 0.071097404 8548442
0.054485664 0.75992817 0.071647957 8548955
0.054198399 0.75967133 0.071645617 8548955
0.053911135 0.75941455 0.071643293 8614235
0.054245964 0.75859284 0.072193876 8745821
0.053959921 0.75833714 0.072191551 8680282
0.053673863 0.75808144 0.072189227 8680282
0.053387821 0.75782579 0.072186902 8680282
0.053101778 0.75757009 0.072184578 8680282
0.05281572 0.75731438 0.072182238 8746075
0.052529678 0.75705868 0.072179914 8680282
0.052243635 0.75680298 0.072177589 8680282
0.051957577 0.75654727 0.072175264 8680282
0.051671535 0.75629163 0.07217294 8680282
0.051385492 0.75603592 0.072170615 8614489
0.051099434 0.75578022 0.072168291 8680282
0.050813392 0.75552452 0.072165966 8614489
0.050527334 0.75526881 0.072163627 8614489
0.050241292 0.75501311 0.072161302 8548696
0.049314886 0.75530601 0.071605906 8614489
0.049027622 0.75504923 0.071603566 8680282
0.048740357 0.75479245 0.071601227 8680282
0.048453093 0.75453568 0.071598902 8680282
0.048165828 0.7542789 0.071596563 8680282
0.047878563 0.75402212 0.071594223 8614489
0.047591299 0.75376534 0.071591884 8614489
0.047304034 0.75350857 0.071589559 8548696
0.04701677 0.75325173 0.07158722 8548696
0.046078205 0.75353378 0.071031719 8548696
0.045789719 0.75327593 0.071029365 8548696
0.04405883 0.75172865 0.071015298 8548696
0.043770343 0.7514708 0.071012944 8548696
0.043481857 0.75121295 0.071010605 8548696
0.043193385 0.75095505 0.07100825 8548696
0.042904899 0.7506972 0.071005911 8613975
0.042616412 0.75043929 0.071003556 8679768
0.042327926 0.75018144 0.071001217 8679768
0.042039454 0.74992359 0.070998862 8679768
0.041750968 0.74966568 0.070996523 8613975
0.041462481 0.74940783 0.070994169 8679768
0.041173995 0.74914998 0.070991829 8679768
0.040885523 0.74889207 0.07098949 8613975
0.040597036 0.74863422 0.070987135 8679768
0.04030855 0.74837637 0.070984796 8745561
0.040020064 0.74811846 0.070982441 8745561
0.040409654 0.74734569 0.071533486 8745561
0.04012239 0.74708891 0.071531147 8679768
0.039835125 0.74683213 0.071528807 8679768
0.039547861 0.74657536 0.071526468 8679766
0.039260596 0.74631858 0.071524128 8679766
0.038973331 0.7460618 0.071521804 8613973
0.039371461 0.74529666 0.072072908 8613973
0.039085418 0.74504095 0.072070569 8679766
0.038799375 0.74478525 0.072068244 8679766
0.038513318 0.74452955 0.07206592 8810582
0.038227275 0.74427384 0.072063595 8810582
0.037941217 0.7440182 0.07206127 8810582
0.037655175 0.74376249 0.072058946 8744789
0.037369132 0.74350679 0.072056621 8744789
0.037083074 0.74325109 0.072054297 8744789
0.036100686 0.74349391 0.071498439 8613203
0.035813421 0.74323714 0.071496099 8547410
0.035526156 0.74298036 0.07149376 8481617
0.035238892 0.74272358 0.07149142 8415824
0.034951627 0.74246681 0.071489096 8284238
0.034664363 0.74221003 0.071486756 8086859
0.034377098 0.74195325 0.071484417 8021066
0.034089819 0.74169648 0.071482077 7560515
0.033802554 0.7414397 0.071479738 7231550
0.032100722 0.74216044 0.070370182 7034171
0.031811014 0.74190146 0.070367828 6573622
0.054855898 0.76276189 0.070893034 8021838
0.054566205 0.76250297 0.07089068 8482389
0.054276496 0.76224399 0.070888326 8482649
0.054602131 0.76141298 0.071437404 8614235
0.054313645 0.76115507 0.071435064 8614235
0.054025173 0.76089722 0.07143271 8548442
0.053736687 0.76063931 0.07143037 8614235
0.0534482 0.76038146 0.071428016 8680028
0.053159714 0.76012361 0.071425676 8680028
0.052871227 0.75986576 0.071423322 8745821
0.052582756 0.75960785 0.071420982 8680282
0.052294269 0.75935 0.071418643 8680282
0.052632079 0.75852984 0.071967825 8680282
0.052344814 0.75827307 0.071965501 8680282
0.052057534 0.75801629 0.071963161 8680282
0.05177027 0.75775945 0.071960822 8614489
0.051483005 0.75750268 0.071958482 8680282
0.051195741 0.7572459 0.071956158 8680282
0.050908476 0.75698912 0.071953818 8680282
0.050621212 0.75673234 0.071951479 8614489
0.050333947 0.75647557 0.071949139 8548696
0.049409449 0.75677127 0.071395174 8614489
0.049120963 0.75651336 0.071392834 8614489
0.048832476 0.75625551 0.07139048 8548696
0.04854399 0.75599766 0.07138814 8548696
0.048255518 0.75573975 0.071385786 8614489
0.047967032 0.7554819 0.071383446 8614489
0.047678545 0.75522399 0.071381092 8680282
0.047390074 0.75496614 0.071378753 8614489
0.047101587 0.75470829 0.071376398 8614489
0.046813101 0.75445044 0.071374059 8614489
0.046524614 0.75419253 0.071371704 8482903
0.046236128 0.75393462 0.071369365 8482903
0.045947656 0.75367677 0.071367025 8548696
0.04565917 0.75341892 0.071364671 8548696
0.04392828 0.75187171 0.071350589 8482903
0.043639794 0.7516138 0.07134825 8482903
0.043351308 0.75135595 0.07134591 8548696
0.043062836 0.75109804 0.071343556 8548696
0.042774349 0.75084019 0.071341217 8613975
0.042485863 0.75058234 0.071338862 8613975
0.042197376 0.75032443 0.071336523 8482389
0.04190889 0.75006658 0.071334168 8613975
0.041620418 0.74980867 0.071331829 8482389
0.041331932 0.74955082 0.071329474 8613975
0.041043445 0.74929297 0.071327135 8613975
0.040754974 0.74903506 0.071324795 8482389
0.040466487 0.74877721 0.071322441 8679768
0.040178001 0.7485193 0.071320102 8679768
0.039889514 0.74826145 0.071317747 8745561
0.039601043 0.7480036 0.071315408 8679768
0.039312556 0.74774569 0.071313053 8679768
0.03902407 0.74748784 0.071310714 8679768
0.038735583 0.74722999 0.07130836 8679766
0.038447112 0.74697208 0.07130602 8679766
0.038158625 0.74671423 0.071303666 8613973
0.037870139 0.74645638 0.071301326 8613973
0.037581652 0.74619848 0.071298987 8810582
0.037293181 0.74594063 0.071296632 8810582
0.037004694 0.74568272 0.071294293 8810582
0.036716208 0.74542487 0.071291938 8744789
0.037119746 0.74466348 0.071841672 8810582
0.036832482 0.7444067 0.071839333 8744789
0.036545217 0.74414992 0.071836993 8744789
0.036257952 0.74389315 0.071834654 8744789
0.03527379 0.7441355 0.071280211 8613203
0.034985319 0.74387765 0.071277857 8547410
0.034696832 0.74361974 0.071275517 8481617
0.034408346 0.74336189 0.071273178 8481617
0.034119874 0.74310398 0.071270823 8481617
0.033831388 0.74284613 0.071268484 8284238
0.033542901 0.74258828 0.07126613 8284238
0.033254415 0.74233037 0.07126379 8086859
0.032965928 0.74207252 0.071261436 7692101
0.031969607 0.74230403 0.070706904 7889480
0.031679913 0.74204504 0.07070455 7033660
0.054724798 0.76290548 0.071229756 8679514
0.054435104 0.76264656 0.071227401 8745307
0.054145396 0.76238757 0.071225047 8614237
0.054471582 0.76155597 0.071772709 8745823
0.054183096 0.76129806 0.07177037 8680028
0.053894609 0.76104021 0.071768016 8680028
0.053606138 0.76078236 0.071765676 8680282
0.053317651 0.76052445 0.071763322 8680282
0.053029165 0.7602666 0.071760982 8746075
0.052740678 0.76000869 0.071758628 8746075
0.052452207 0.75975084 0.071756288 8680282
0.05216372 0.75949299 0.071753934 8614489
0.052502066 0.75867224 0.072301716 8680282
0.052214801 0.75841546 0.072299391 8680282
0.051927537 0.75815868 0.072297052 8680282
0.051640272 0.75790191 0.072294712 8614489
0.051353008 0.75764513 0.072292373 8614489
0.051065743 0.75738829 0.072290033 8680282
0.050778478 0.75713152 0.072287709 8614489
0.050491214 0.75687474 0.072285369 8548696
0.050203949 0.75661796 0.07228303 8614489
0.049278885 0.75691426 0.07173048 8614489
0.048990414 0.75665641 0.071728125 8614489
0.048701927 0.7563985 0.071725786 8548696
0.048413441 0.75614065 0.071723431 8548696
0.048124969 0.75588274 0.071721092 8614489
0.047836483 0.75562489 0.071718752 8614489
0.047547996 0.75536704 0.071716398 8614489
0.04725951 0.75510913 0.071714059 8614489
0.046971038 0.75485128 0.071711704 8548696
0.046682552 0.75459337 0.071709365 8548696
0.046394065 0.75433552 0.07170701 8548696
0.046105579 0.75407767 0.071704671 8482903
0.045817107 0.75381976 0.071702316 8482903
0.04552862 0.75356191 0.071699977 8548696
0.043797731 0.7520147 0.071685895 8482389
0.043509245 0.75175679 0.071683556 8482389
0.043220758 0.75149894 0.071681201 8482389
0.042932272 0.75124109 0.071678862 8482389
0.042643785 0.75098318 0.071676508 8482389
0.042355314 0.75072533 0.071674168 8482389
0.042066827 0.75046742 0.071671829 8482389
0.041778341 0.75020957 0.071669474 8482389
0.041489869 0.74995172 0.071667135 8482389
0.041201383 0.74969381 0.07166478 8613975
0.040912896 0.74943596 0.071662441 8613975
0.04062441 0.74917805 0.071660087 8482389
0.040335923 0.7489202 0.071657747 8679768
0.040047452 0.74866235 0.071655393 8679768
0.039758965 0.74840444 0.071653053 8679768
0.039470494 0.74814659 0.071650714 8613975
0.039182007 0.74788868 0.071648359 8613975
0.038893521 0.74763083 0.07164602 8613975
0.038605034 0.74737298 0.071643665 8613973
0.038316548 0.74711508 0.071641326 8679766
0.038028076 0.74685723 0.071638972 8613973
0.03773959 0.74659938 0.071636632 8613973
0.037451103 0.74634147 0.071634278 8679766
0.037162632 0.74608362 0.071631938 8679766
0.036874145 0.74582571 0.071629584 8679766
0.036585659 0.74556786 0.071627244 8613973
0.036989748 0.74480587 0.072175562 8744789
0.036702484 0.7445491 0.072173223 8613203
0.036415204 0.74429232 0.072170883 8744789
0.03612794 0.74403548 0.072168544 8744789
0.035143241 0.74427849 0.071615517 8744789
0.03485477 0.74402064 0.071613163 8547410
0.034566283 0.74376273 0.071610823 8481617
0.034277797 0.74350488 0.071608469 8481617
0.03398931 0.74324703 0.071606129 8481617
0.033700824 0.74298912 0.071603775 8350031
0.033412352 0.74273127 0.071601436 8350031
0.033123866 0.74247336 0.071599096 8415824
0.032835379 0.74221551 0.071596742 8152652
0.031838506 0.74244761 0.071043625 8021066
0.031548813 0.74218869 0.071041271 7626308
0.056853905 0.77069104 0.068866819 5455657
0.056558117 0.77042663 0.06886442 5455657
0.056262329 0.77016222 0.068862006 5455657
0.056561083 0.76930499 0.069408044 5455657
0.056266516 0.76904166 0.069405645 5455657
0.055971935 0.76877832 0.069403261 5455657
0.056275547 0.76792544 0.069949329 5455657
0.055982187 0.76766324 0.069946945 5521450
0.055688843 0.76740098 0.069944561 5653036
0.055997327 0.76655239 0.070490673 5982001
0.05570519 0.76629126 0.070488289 6704954
0.055413067 0.76603013 0.07048592 7099712
0.05512093 0.765769 0.07048355 7363906
0.054828793 0.76550788 0.070481166 7561285
0.054536656 0.76524675 0.070478797 8086859
0.054853648 0.76440579 0.071024984 8481617
0.054562733 0.76414573 0.071022615 8482387
0.054271817 0.76388568 0.071020246 8679766
0.054593697 0.76304913 0.071566477 8680028
0.054304004 0.76279014 0.071564123 8745821
0.054014295 0.76253116 0.071561769 8745821
0.054341033 0.76169896 0.072108015 8811614
0.054052547 0.76144111 0.072105661 8811614
0.05376406 0.7611832 0.072103322 8745821
0.053475589 0.76092535 0.072100967 8746075
0.053187102 0.76066744 0.072098628 8811868
0.052898616 0.76040959 0.072096288 8746073
0.052610129 0.76015174 0.072093934 8680280
0.052321658 0.75989383 0.072091594 8680280
0.052033171 0.75963598 0.07208924 8614487
0.052372068 0.75881463 0.072635606 8680280
0.052084804 0.75855786 0.072633266 8680280
0.051797539 0.75830102 0.072630942 8614487
0.051510274 0.75804424 0.072628602 8614487
0.05122301 0.75778747 0.072626263 8614487
0.050935745 0.75753069 0.072623923 8680280
0.050648481 0.75727391 0.072621584 8614489
0.050361216 0.75701714 0.072619259 8548696
0.050073951 0.75676036 0.07261692 8614489
0.049148336 0.75705725 0.072065786 8614489
0.048859864 0.75679934 0.072063431 8548696
0.048571378 0.75654149 0.072061092 8548696
0.048282892 0.75628364 0.072058737 8548696
0.047994405 0.75602579 0.072056398 8548696
0.047705933 0.75576788 0.072054043 8548696
0.047417447 0.75551003 0.072051704 8548696
0.04712896 0.75525212 0.07204935 8548696
0.046840489 0.75499427 0.07204701 8548696
0.046552002 0.75473642 0.072044671 8548696
0.046263516 0.75447851 0.072042316 8548696
0.045975029 0.75422066 0.072039977 8482903
0.045686543 0.75396276 0.072037622 8482903
0.045398071 0.75370491 0.072035283 8482903
0.044454202 0.75398552 0.071484014 8482903
0.044164509 0.75372654 0.07148166 8351317
0.0438748 0.75346756 0.071479291 8482903
0.043585107 0.75320864 0.071476936 8613975
0.043295398 0.75294966 0.071474582 8613975
0.043667167 0.75215769 0.072021201 8482389
0.043378681 0.75189978 0.072018862 8482389
0.043090209 0.75164193 0.072016507 8416596
0.042801723 0.75138402 0.072014168 8416596
0.042513236 0.75112617 0.072011814 8416596
0.042224765 0.75086832 0.072009474 8416596
0.041936278 0.75061047 0.07200712 8482389
0.041647792 0.75035256 0.07200478 8482389
0.041359305 0.75009471 0.072002426 8416596
0.041070834 0.7498368 0.072000086 8613975
0.040782347 0.74957895 0.071997747 8482389
0.040493861 0.7493211 0.071995392 8482389
0.040205374 0.74906319 0.071993053 8613975
0.039916903 0.74880534 0.071990699 8613975
0.039628416 0.74854743 0.071988359 8613975
0.03933993 0.74828959 0.071986005 8613975
0.039051443 0.74803174 0.071983665 8613975
0.038762972 0.74777383 0.071981311 8613975
0.038474485 0.74751598 0.071978971 8613973
0.038185999 0.74725807 0.071976632 8613973
0.037897527 0.74700022 0.071974277 8613973
0.037609041 0.74674237 0.071971938 8613973
0.037320554 0.74648446 0.071969584 8613973
0.037032068 0.74622661 0.071967244 8679766
0.036743581 0.7459687 0.07196489 8613973
0.03645511 0.74571085 0.07196255 8613973
0.036859751 0.74494827 0.072509453 8613973
0.036572486 0.74469149 0.072507113 8482387
0.036285207 0.74443471 0.072504774 8613973
0.035997942 0.74417794 0.072502434 8613973
0.035012692 0.74442148 0.071950823 8482387
0.034724206 0.74416363 0.071948469 8350801
0.034435734 0.74390578 0.071946129 8481617
0.034147248 0.74364787 0.071943775 8481617
0.033858761 0.74339002 0.071941435 8481617
0.033570275 0.74313211 0.071939081 8415824
0.033281803 0.74287426 0.071936741 8481617
0.032993317 0.74261642 0.071934387 8415824
0.03270483 0.74235851 0.071932048 8415824
0.031707406 0.7425912 0.071380347 8350031
0.031417713 0.74233228 0.071377993 8086859
0.031128004 0.7420733 0.071375623 8086859
0.030838311 0.74181437 0.071373269 7231039
0.030548617 0.74155539 0.071370915 7099453
0.028828844 0.74226671 0.070269704 6375476
0.028536707 0.74200559 0.070267335 6112304
0.028244585 0.7417444 0.070264965 5521450
0.027952433 0.74148327 0.070262581 5192485
0.02766031 0.74122214 0.070260212 4798243
0.027368173 0.74096102 0.070257828 4600864
0.025631368 0.74165714 0.069156498 4535071
0.025336802 0.7413938 0.069154099 4535071
0.056720048 0.77083766 0.069210619 5324585
0.05642426 0.77057326 0.069208205 5324585
0.056128472 0.77030885 0.069205806 5324585
0.056427777 0.76945096 0.069750428 5324585
0.056133211 0.76918769 0.069748029 5324585
0.05583863 0.76892436 0.06974563 5390378
0.056142792 0.76807082 0.070290282 5521450
0.055849433 0.76780862 0.070287898 5916208
0.055556089 0.76754642 0.070285514 6507575
0.055865124 0.76669723 0.070830226 6902333
0.055572987 0.7664361 0.070827842 7297861
0.055280864 0.76617491 0.070825472 7429447
0.054988727 0.76591384 0.070823088 8021838
0.05469659 0.76565266 0.070820719 8153424
0.054404452 0.76539153 0.070818335 8679766
0.054721996 0.76454997 0.071363106 8745559
0.054431081 0.76428998 0.071360752 8745559
0.054140165 0.76402986 0.071358383 8811352
0.05384925 0.76376987 0.071356013 8811614
0.053558335 0.76350981 0.071353644 8943200
0.053267419 0.76324975 0.07135129 8811614
0.053593487 0.76241583 0.071896121 8943200
0.053303793 0.76215684 0.071893767 8877920
0.0530141 0.76189792 0.071891412 8746334
0.052724391 0.76163894 0.071889058 8943454
0.052434698 0.76137996 0.071886703 8943454
0.052145004 0.76112103 0.071884349 8811866
0.051855296 0.76086205 0.07188198 8680280
0.051565602 0.76060307 0.071879625 8680280
0.051275894 0.76034415 0.071877271 8680280
0.050986201 0.76008517 0.071874917 8680280
0.050696492 0.75982624 0.071872562 8680280
0.050406799 0.75956726 0.071870208 8614487
0.050117105 0.75930834 0.071867853 8614487
0.049827397 0.75904936 0.071865499 8680280
0.049537703 0.75879037 0.071863145 8680280
0.049247995 0.75853145 0.071860775 8614489
0.048958302 0.75827247 0.071858421 8614489
0.048668593 0.75801349 0.071856067 8614489
0.0483789 0.75775456 0.071853712 8614489
0.048089206 0.75749558 0.071851358 8548696
0.047799498 0.7572366 0.071849003 8548696
0.047509804 0.75697768 0.071846649 8548696
0.047220096 0.7567187 0.071844295 8548696
0.046930403 0.75645971 0.07184194 8482903
0.046640694 0.75620079 0.071839571 8548696
0.046351001 0.75594181 0.071837217 8482903
0.046061307 0.75568283 0.071834862 8482903
0.045771599 0.7554239 0.071832508 8548696
0.045481905 0.75516492 0.071830153 8548696
0.045192197 0.75490594 0.071827799 8351317
0.044902503 0.75464702 0.071825445 8351317
0.044612795 0.75438803 0.07182309 8351317
0.044323102 0.75412905 0.071820736 8351317
0.044033408 0.75387013 0.071818367 8351317
0.0437437 0.75361121 0.071816012 8351317
0.043454006 0.75335222 0.071813658 8351317
0.043164298 0.75309324 0.071811303 8285524
0.042874604 0.75283432 0.071808949 8350803
0.042584896 0.75257534 0.071806595 8416596
0.042295203 0.75231636 0.07180424 8416596
0.042005509 0.75205743 0.071801886 8416596
0.041715801 0.75179845 0.071799517 8416596
0.041426092 0.75153947 0.071797162 8416596
0.041136399 0.75128055 0.071794808 8482389
0.040846705 0.75102156 0.071792454 8416596
0.040556997 0.75076258 0.071790099 8416596
0.040267304 0.75050366 0.071787745 8482389
0.03997761 0.75024468 0.07178539 8416596
0.039687902 0.74998569 0.071783036 8482389
0.039398208 0.74972677 0.071780682 8482389
0.0391085 0.74946779 0.071778312 8482389
0.038818806 0.74920881 0.071775958 8613975
0.038529113 0.74894989 0.071773604 8613975
0.038239405 0.7486909 0.071771249 8482389
0.037949711 0.74843198 0.071768895 8482389
0.037660003 0.748173 0.07176654 8613973
0.037370309 0.74791402 0.071764186 8613973
0.037080601 0.74765509 0.071761832 8613973
0.036790907 0.74739611 0.071759462 8613973
0.036501199 0.74713713 0.071757108 8613973
0.036211506 0.74687821 0.071754754 8613973
0.035921812 0.74661922 0.071752399 8744789
0.035632104 0.7463603 0.071750045 8744789
0.03534241 0.74610132 0.07174769 8744789
0.035052702 0.74584234 0.071745336 8613203
0.034763008 0.74558342 0.071742982 8613203
0.0344733 0.74532443 0.071740627 8744789
0.034183607 0.74506545 0.071738258 8613203
0.033893913 0.74480653 0.071735904 8481617
0.033604205 0.74454755 0.071733549 8613203
0.033314511 0.74428856 0.071731195 8547410
0.033024818 0.74402964 0.07172884 8481617
0.032735109 0.74377066 0.071726486 8481617
0.032445401 0.74351168 0.071724132 8547410
0.032155707 0.74325275 0.071721777 8415824
0.031866014 0.74299377 0.071719408 8481617
0.031576306 0.74273479 0.071717054 8415824
0.031286612 0.74247587 0.071714699 8415824
0.030996904 0.74221689 0.071712345 8284238
0.03070721 0.74195796 0.071709991 8021068
0.030417517 0.74169898 0.071707636 7692103
0.028696641 0.74241149 0.070609257 6967867
0.028404504 0.74215037 0.070606887 6836281
0.028112382 0.74188924 0.070604503 6243890
0.02782023 0.74162811 0.070602134 5980718
0.027528107 0.74136698 0.07059975 5389866
0.02723597 0.74110579 0.07059738 5060901
0.025498062 0.74180311 0.069498867 4863522
0.025203496 0.74153984 0.069496483 4731936
0.056586191 0.77098423 0.069554403 5324585
0.056290403 0.77071989 0.069552004 5324585
0.055994615 0.77045548 0.06954959 5324585
0.056294471 0.76959699 0.070092797 5390378
0.055999905 0.76933366 0.070090413 5456171
0.055705324 0.76907039 0.070088014 5653550
0.056010038 0.76821625 0.070631251 6178610
0.055716679 0.76795399 0.070628867 6770747
0.055423334 0.76769179 0.070626482 7231552
0.055732921 0.76684201 0.071169764 7560517
0.055440784 0.76658088 0.071167395 8153424
0.055148646 0.76631975 0.07116501 8021838
0.054856524 0.76605862 0.071162641 8613975
0.054564387 0.7657975 0.071160257 8811354
0.054272249 0.76553631 0.071157888 8942938
0.054590344 0.76469421 0.071701244 8942938
0.054299429 0.76443416 0.071698874 8942938
0.054008514 0.7641741 0.07169652 8942938
0.053717598 0.76391405 0.071694151 8943454
0.053426683 0.76365399 0.071691781 8943454
0.053135768 0.76339394 0.071689412 8943454
0.053462386 0.76255941 0.072232842 8943454
0.053172693 0.76230049 0.072230488 8943454
0.052882999 0.76204151 0.072228134 8943454
0.052593291 0.76178253 0.072225779 8943454
0.052303597 0.7615236 0.072223425 8943454
0.052013889 0.76126462 0.072221056 8811866
0.051724195 0.76100564 0.072218701 8680280
0.051434487 0.76074672 0.072216347 8680280
0.051144794 0.76048774 0.072213992 8680280
0.0508551 0.76022875 0.072211638 8680280
0.050565392 0.75996983 0.072209284 8680280
0.050275698 0.75971085 0.072206929 8614487
0.04998599 0.75945187 0.072204575 8614487
0.049696296 0.75919294 0.072202206 8680280
0.049406588 0.75893396 0.072199851 8680280
0.049116895 0.75867504 0.072197497 8614487
0.048827201 0.75841606 0.072195143 8614487
0.048537493 0.75815713 0.072192788 8614489
0.048247799 0.75789815 0.072190434 8680282
0.047958091 0.75763917 0.072188079 8614489
0.047668397 0.75738025 0.072185725 8548696
0.047378689 0.75712126 0.072183371 8548696
0.047088996 0.75686228 0.072181001 8482903
0.046799302 0.75660336 0.072178647 8482903
0.046509594 0.75634438 0.072176293 8482903
0.0462199 0.7560854 0.072173938 8482903
0.045930192 0.75582647 0.072171584 8351317
0.045640498 0.75556749 0.072169229 8482903
0.04535079 0.75530851 0.072166875 8482903
0.045061097 0.75504959 0.072164521 8351317
0.044771403 0.7547906 0.072162151 8351317
0.044481695 0.75453162 0.072159797 8351317
0.044192001 0.7542727 0.072157443 8285524
0.043902293 0.75401372 0.072155088 8351317
0.043612599 0.75375473 0.072152734 8285524
0.043322906 0.75349581 0.072150379 8219731
0.043033198 0.75323683 0.072148025 8285524
0.042743504 0.75297791 0.072145671 8350803
0.042453796 0.75271893 0.072143316 8350803
0.042164102 0.75246 0.072140947 8416596
0.041874409 0.75220102 0.072138593 8350803
0.0415847 0.75194204 0.072136238 8416596
0.041294992 0.75168312 0.072133884 8416596
0.041005298 0.75142413 0.072131529 8416596
0.040715605 0.75116515 0.072129175 8416596
0.040425897 0.75090623 0.072126821 8416596
0.040136203 0.75064725 0.072124466 8350803
0.03984651 0.75038826 0.072122097 8416596
0.039556801 0.75012934 0.072119743 8482389
0.039267108 0.74987036 0.072117388 8416596
0.038977399 0.74961138 0.072115034 8482389
0.038687706 0.74935246 0.072112679 8482389
0.038397998 0.74909347 0.072110325 8482389
0.038108304 0.74883449 0.072107971 8482389
0.037818611 0.74857557 0.072105616 8482389
0.037528902 0.74831659 0.072103262 8482389
0.037239194 0.7480576 0.072100893 8613975
0.0369495 0.74779868 0.072098538 8679766
0.036659807 0.7475397 0.072096184 8613973
0.036370099 0.74728078 0.07209383 8613973
0.036080405 0.74702179 0.072091475 8613973
0.035790712 0.74676281 0.072089121 8744789
0.035501003 0.74650389 0.072086766 8744789
0.03521131 0.74624491 0.072084412 8744789
0.034921601 0.74598598 0.072082043 8613203
0.034631908 0.745727 0.072079688 8613203
0.0343422 0.74546802 0.072077334 8744789
0.034052506 0.7452091 0.07207498 8613203
0.033762813 0.74495012 0.072072625 8481617
0.033473104 0.74469113 0.072070271 8613203
0.033183411 0.74443221 0.072067916 8613203
0.032893702 0.74417323 0.072065562 8547410
0.032604009 0.74391425 0.072063208 8547410
0.032314301 0.74365532 0.072060838 8613203
0.032024607 0.74339634 0.072058484 8547410
0.031734914 0.74313736 0.07205613 8481617
0.031445205 0.74287844 0.072053775 8481617
0.031155497 0.74261945 0.072051421 8481617
0.030865803 0.74236047 0.072049066 8481617
0.03057611 0.74210155 0.072046712 8415824
0.030286402 0.74184257 0.072044358 8284238
0.028564423 0.74255633 0.070948809 8151887
0.028272301 0.74229515 0.070946425 7428164
0.027980179 0.74203402 0.070944056 6769464
0.027688026 0.74177289 0.070941687 6637878
0.027395904 0.74151176 0.070939302 6178097
0.027103767 0.74125063 0.070936933 5783339
0.025364757 0.74194914 0.069841251 5257508
0.02507019 0.74168581 0.069838852 5060129
0.056750819 0.77252531 0.069361269 5324585
0.056453809 0.77225977 0.069358855 5324585
0.056156814 0.77199429 0.069356441 5324585
