# .PCD v0.7 - Point Cloud Data file format
VERSION 0.7
FIELDS x y z rgb
SIZE 4 4 4 4
TYPE F F F U
COUNT 1 1 1 1
WIDTH 1070
HEIGHT 1
VIEWPOINT 0 0 0 1 0 0 0
POINTS 1070
DATA ascii
-0.026768789 0.83037031 0.03370437 13945280
-0.026501 0.83073676 0.033701688 14208452
-0.026233196 0.83110321 0.033699006 14274245
-0.025965407 0.83146966 0.033696324 14405831
-0.025697604 0.8318361 0.033693656 14669003
-0.025429815 0.83220255 0.033690974 14734796
-0.025162011 0.83256906 0.033688292 14932175
-0.024894223 0.83293551 0.03368561 15129554
-0.023879647 0.83295912 0.033076793 15391956
-0.02361089 0.83332688 0.033074096 15391956
-0.023342133 0.8336947 0.033071414 15457749
-0.02157402 0.83338463 0.031856373 15523542
-0.021303326 0.83375508 0.031853661 15523029
-0.021032646 0.83412546 0.031850964 15391443
-0.020761967 0.8344959 0.031848252 15325650
-0.020491272 0.83486629 0.03184554 15128271
-0.030736282 0.79313481 0.020402551 10654851
-0.030446336 0.7935316 0.020399645 10720644
-0.030156374 0.79392838 0.020396739 10720644
-0.030538738 0.79477131 0.020997822 10851458
-0.03024976 0.79516673 0.020994931 10785665
-0.029960766 0.79556221 0.020992041 10851458
-0.030346975 0.79639983 0.021593139 10851458
-0.03005895 0.79679394 0.021590248 10851458
-0.029770911 0.7971881 0.021587372 10917251
-0.029482901 0.79758227 0.021584496 10917251
-0.029194862 0.79797637 0.021581605 10917251
-0.029586881 0.79880613 0.022182778 10851458
-0.029299825 0.79919893 0.022179917 10917251
-0.029012755 0.79959178 0.022177041 10917251
-0.029408589 0.80041617 0.022778228 10851458
-0.029122502 0.80080771 0.022775367 10917251
-0.028836399 0.8011992 0.022772506 10983044
-0.029921889 0.80244607 0.023977861 10983044
-0.029637724 0.80283493 0.023975015 10917251
-0.029353544 0.80322379 0.023972169 10917251
-0.029758066 0.80403638 0.024573475 10983044
-0.029474854 0.80442393 0.024570644 10983044
-0.029191643 0.80481148 0.024567798 10983044
-0.029600024 0.80561876 0.025169134 10917251
-0.029317781 0.806005 0.025166303 10983044
-0.029035538 0.80639124 0.025163472 10983044
-0.029447749 0.80719328 0.025764838 10983044
-0.02916646 0.80757821 0.025762022 10983044
-0.028885186 0.80796307 0.025759205 10983044
-0.029301256 0.80875987 0.026360631 10983044
-0.02902095 0.80914348 0.026357815 10917251
-0.02874063 0.80952704 0.026355013 10983046
-0.028460309 0.80991066 0.026352212 10983046
-0.028179988 0.81029427 0.02634941 10983046
-0.027899668 0.81067783 0.026346594 11048839
-0.027619347 0.81106144 0.026343793 11048839
-0.029601201 0.82064462 0.031738818 11312781
-0.029329553 0.82101637 0.031736106 11378574
-0.029057905 0.82138807 0.031733379 11509388
-0.028786257 0.82175982 0.031730667 11443595
-0.028514609 0.82213151 0.03172794 11706767
-0.028966308 0.82287955 0.032329693 11706767
-0.028695628 0.82324994 0.032326981 11641746
-0.028424948 0.82362032 0.032324269 11707539
-0.028880537 0.82436311 0.032926083 11707539
-0.028610811 0.82473218 0.032923386 11773332
-0.028341085 0.82510126 0.032920688 12036506
-0.028071374 0.82547033 0.032917976 12102299
-0.027801648 0.82583946 0.032915279 12233885
-0.027531922 0.82620853 0.032912582 12233885
-0.02799423 0.82694203 0.03351444 12497570
-0.027725473 0.82730979 0.033511758 12629156
-0.027456701 0.82767761 0.033509061 12827305
-0.027187943 0.82804537 0.033506379 12958891
-0.026919186 0.82841313 0.033503681 13221811
-0.026650429 0.82878089 0.033500984 13353397
-0.027119473 0.82950515 0.034102932 13550776
-0.026851684 0.82987159 0.034100249 13813948
-0.02658388 0.83023804 0.034097567 13945280
-0.026316091 0.83060449 0.034094885 14142659
-0.026048288 0.830971 0.034092203 14274245
-0.025780499 0.83133745 0.034089521 14340038
-0.025512695 0.8317039 0.034086838 14603210
-0.025244907 0.83207035 0.034084156 14734796
-0.024977103 0.8324368 0.034081474 14932175
-0.024709314 0.83280325 0.034078792 15129554
-0.023694083 0.83282638 0.033471391 15129554
-0.023425326 0.83319414 0.033468708 15261140
-0.023156568 0.83356196 0.033466011 15457749
-0.021116421 0.83362138 0.032251105 15457749
-0.020845741 0.83399183 0.032248393 15457749
-0.020575061 0.83436221 0.032245681 15260370
-0.020304367 0.83473265 0.032242969 15260370
-0.03053607 0.79299164 0.020828262 10654851
-0.030246124 0.79338843 0.020825356 10654851
-0.029956177 0.79378521 0.020822451 10720644
-0.030339196 0.79462856 0.021422133 10851460
-0.030050218 0.79502404 0.021419242 10851460
-0.029761225 0.79541945 0.021416336 10851460
-0.030148089 0.79625762 0.022016034 10851460
-0.029860064 0.79665172 0.022013143 10851460
-0.02957204 0.79704589 0.022010267 10917253
-0.029284015 0.79743999 0.022007376 10917253
-0.028995991 0.79783416 0.0220045 10917253
-0.029388666 0.79866433 0.022604257 10851458
-0.02910161 0.79905719 0.022601381 10917251
-0.028814554 0.79944998 0.022598505 10917251
-0.029211044 0.80027491 0.023198292 10917251
-0.028924957 0.80066639 0.023195431 10917251
-0.028638855 0.80105793 0.02319257 10983044
-0.029725671 0.8023057 0.024395093 10917251
-0.029441506 0.80269456 0.024392247 10983044
-0.029157326 0.80308342 0.024389401 10917251
-0.029562518 0.80389655 0.024989292 10983044
-0.029279307 0.8042841 0.024986461 10983044
-0.028996095 0.80467165 0.02498363 10917251
-0.029405147 0.80547941 0.025583535 10917251
-0.029122889 0.80586565 0.025580704 10983044
-0.028840646 0.80625182 0.025577888 11048837
-0.029253528 0.80705434 0.026177824 11048837
-0.028972238 0.80743927 0.026175007 11048837
-0.028690964 0.80782419 0.026172191 10983044
-0.029107705 0.80862141 0.026772201 10983044
-0.028827384 0.80900502 0.026769385 10917251
-0.028547078 0.80938864 0.026766583 10917251
-0.028266758 0.80977219 0.026763782 10983044
-0.027986437 0.81015581 0.02676098 10983046
-0.027706116 0.81053936 0.026758164 11048839
-0.027425796 0.81092298 0.026755363 11048839
-0.02941364 0.82051045 0.032137662 11312781
-0.029141977 0.8208822 0.03213495 11378574
-0.028870329 0.8212539 0.032132223 11378574
-0.028598681 0.82162565 0.032129511 11378574
-0.028327033 0.8219974 0.032126784 11444367
-0.028779402 0.82274586 0.032727122 11575953
-0.028508723 0.82311624 0.03272441 11641746
-0.028238043 0.82348669 0.032721698 11707539
-0.028694302 0.8242299 0.033322096 11707541
-0.028424576 0.82459897 0.033319399 11839127
-0.02815485 0.82496804 0.033316702 12036506
-0.027885124 0.82533717 0.033314005 12102299
-0.027615398 0.82570624 0.033311293 12168092
-0.027345687 0.82607532 0.033308595 12299678
-0.027808651 0.82680929 0.033909053 12497057
-0.027539894 0.82717705 0.033906356 12694436
-0.027271137 0.82754487 0.033903673 12761512
-0.027002379 0.82791263 0.033900976 12893098
-0.026733607 0.82828039 0.033898279 13221809
-0.02646485 0.82864815 0.033895597 13353395
-0.026934564 0.82937288 0.034496114 13550776
-0.026666775 0.82973933 0.034493431 13813948
-0.026398972 0.83010578 0.034490749 13945534
-0.026131183 0.83047229 0.034488067 14011327
-0.025863379 0.83083874 0.034485385 14274245
-0.02559559 0.83120519 0.034482703 14340038
-0.025327787 0.83157164 0.03448002 14603210
-0.025059998 0.83193809 0.034477338 14734796
-0.024792194 0.83230454 0.034474671 14997198
-0.024524406 0.83267099 0.034471989 15326163
-0.023508504 0.8326937 0.033866003 15195349
-0.023239747 0.83306146 0.033863306 15326935
-0.022970989 0.83342922 0.033860609 15392726
-0.020929515 0.83348775 0.032648534 15457749
-0.020658836 0.83385813 0.032645822 15457749
-0.020388156 0.83422852 0.03264311 15326163
-0.020117462 0.83459896 0.032640398 15260370
-0.030161887 0.79034877 0.020063475 10719874
-0.030537874 0.79120314 0.020661607 10654851
-0.030246958 0.79160124 0.020658702 10720644
-0.029956043 0.79199934 0.020655781 10654851
-0.031006619 0.7932995 0.021855101 10654851
-0.030717641 0.79369497 0.02185221 10654851
-0.030428648 0.79409039 0.021849319 10720644
-0.030139655 0.79448587 0.021846429 10851460
-0.029850677 0.79488134 0.021843538 10851460
-0.029561684 0.79527676 0.021840647 10851460
-0.029949218 0.79611534 0.022438914 10851460
-0.029661193 0.7965095 0.022436038 10917253
-0.030051649 0.79734415 0.023034349 10917253
-0.029764578 0.79773694 0.023031488 10917253
-0.029477522 0.7981298 0.023028612 10917253
-0.029871792 0.79895914 0.023626953 10917251
-0.029585704 0.79935062 0.023624077 10917251
-0.029299602 0.7997421 0.023621216 10983044
-0.029697746 0.8005662 0.024219617 10917251
-0.029412612 0.80095637 0.024216756 10917251
-0.029127479 0.80134654 0.02421391 10917251
-0.029529467 0.80216539 0.024812326 10917251
-0.029933378 0.80298156 0.025410786 10983044
-0.029650182 0.8033691 0.02540794 10983044
-0.02936697 0.80375665 0.025405109 10983044
-0.02977474 0.80456758 0.026003584 10983046
-0.029492497 0.80495381 0.026000753 10917253
-0.029210255 0.80533999 0.025997937 10786437
-0.029621869 0.80614567 0.026596442 10852230
-0.029340595 0.80653054 0.026593626 10918023
-0.029059306 0.80691546 0.026590809 10918023
-0.028778031 0.80730033 0.026587993 10918023
-0.028496742 0.80768526 0.026585177 10852230
-0.028914154 0.808483 0.027183771 10852230
-0.028633833 0.80886662 0.02718097 10852230
-0.028353512 0.80925018 0.027178168 10983044
-0.028774768 0.81004262 0.027776778 10983044
-0.028495416 0.81042492 0.027773976 10917253
-0.028216049 0.81080717 0.027771175 11048839
-0.027936697 0.81118947 0.027768388 11048839
-0.030041009 0.81926113 0.032544672 11313294
-0.029769361 0.81963289 0.032541946 11378574
-0.029497713 0.82000458 0.032539234 11246988
-0.02994594 0.82076013 0.033138096 11312781
-0.029675245 0.82113051 0.033135384 11378574
-0.029404566 0.82150096 0.033132687 11378574
-0.029133886 0.82187134 0.033129975 11378574
-0.028863192 0.82224178 0.033127263 11444367
-0.02931723 0.8229894 0.033726215 11575953
-0.029047504 0.82335848 0.033723518 11641746
-0.028777778 0.82372761 0.033720821 11641746
-0.028508052 0.82409668 0.033718124 11707541
-0.028238326 0.82446575 0.033715412 11773334
-0.027968615 0.82483488 0.033712715 12036506
-0.028429359 0.82557327 0.034311727 12036506
-0.028160602 0.82594103 0.03430903 12168092
-0.027891845 0.82630879 0.034306332 12299678
-0.028356433 0.82704192 0.034905389 12497057
-0.028088644 0.82740837 0.034902707 12694436
-0.02782084 0.82777482 0.034900025 12892328
-0.027553052 0.82814127 0.034897342 13023914
-0.027285248 0.82850772 0.03489466 12959151
-0.027017459 0.82887423 0.034891978 13222323
-0.026749656 0.82924068 0.034889296 13353911
-0.026481867 0.82960713 0.034886613 13682876
-0.026214063 0.82997358 0.034883931 13945534
-0.025946274 0.83034003 0.034881249 14142913
-0.025678471 0.83070648 0.034878567 14274245
-0.025410682 0.83107293 0.0348759 14340038
-0.025142878 0.83143938 0.034873217 14734026
-0.02487509 0.83180583 0.034870535 14865612
-0.024607301 0.83217227 0.034867853 15062993
-0.024339497 0.83253872 0.034865171 15194579
-0.024071693 0.83290517 0.034862489 15261142
-0.023803905 0.83327162 0.034859806 15392728
-0.023536116 0.83363807 0.034857124 15392726
-0.023268312 0.83400458 0.034854442 15392726
-0.023000509 0.83437103 0.03485176 15457749
-0.02273272 0.83473748 0.034849092 15457749
-0.020955831 0.83443123 0.033642516 15326163
-0.020686105 0.8348003 0.033639804 15260370
-0.019659877 0.83483565 0.033035129 15062991
-0.019389197 0.83520609 0.033032417 14865612
-0.019118503 0.83557647 0.033029705 14602440
-0.030336991 0.79105949 0.021088749 10785669
-0.030046076 0.79145759 0.021085829 10851462
-0.029755175 0.79185569 0.021082923 10720644
-0.030807078 0.79315674 0.022279412 10654851
-0.0305181 0.79355222 0.022276521 10720644
-0.030229107 0.7939477 0.02227363 10720644
-0.029940113 0.79434311 0.022270724 10851460
-0.029651135 0.79473859 0.022267833 10851460
-0.029362142 0.79513407 0.022264943 10851460
-0.029750347 0.79597312 0.022861809 10851460
-0.029462308 0.79636729 0.022858933 10851460
-0.029853433 0.79720235 0.023455828 10917253
-0.029566377 0.7975952 0.023452953 10917253
-0.029279307 0.797988 0.023450077 10917253
-0.029674247 0.79881781 0.024047002 10917253
-0.02938816 0.79920936 0.024044141 10917253
-0.029102057 0.79960084 0.02404128 10983046
-0.029500872 0.80042541 0.024638265 10917253
-0.029215723 0.80081558 0.024635404 10917253
-0.02893059 0.80120575 0.024632558 10917253
-0.028645456 0.80159593 0.024629697 10983046
-0.02973783 0.80284172 0.025826603 11048839
-0.029454619 0.80322927 0.025823757 10983046
-0.029171407 0.80361682 0.025820926 10983046
-0.029579863 0.80442816 0.026417986 10983046
-0.02929762 0.8048144 0.026415169 10983046
-0.029015362 0.80520064 0.026412338 10852230
-0.029427648 0.80600673 0.027009442 10852230
-0.029146373 0.80639166 0.027006626 10852230
-0.028865084 0.80677652 0.02700381 10918023
-0.02858381 0.80716145 0.027000993 10918023
-0.028302521 0.80754638 0.026998177 10852230
-0.028720602 0.8083446 0.027595356 10852230
-0.028440282 0.80872816 0.02759254 10852230
-0.028159961 0.80911177 0.027589738 11048839
-0.028581873 0.80990469 0.028186932 10983046
-0.028302521 0.81028694 0.028184146 10983046
-0.028023168 0.81066924 0.028181344 11048839
-0.027743801 0.81105149 0.028178543 11048839
-0.029853448 0.81912696 0.032943517 11378572
-0.0295818 0.81949872 0.032940805 11444365
-0.029310152 0.81987041 0.032938078 11246986
-0.029759035 0.82062644 0.033535525 11312781
-0.02948834 0.82099688 0.033532813 11378574
-0.02921766 0.82136726 0.033530116 11378574
-0.028946981 0.82173765 0.033527404 11378574
-0.028676286 0.82210809 0.033524692 11444367
-0.02913098 0.82285619 0.034122244 11444367
-0.028861254 0.82322532 0.034119532 11641746
-0.028591543 0.82359439 0.034116834 11707539
-0.028321818 0.82396346 0.034114137 11707541
-0.028052092 0.82433259 0.03411144 11773334
-0.027782366 0.82470167 0.034108743 11904920
-0.02824378 0.82544053 0.034706324 12036506
-0.027975023 0.82580829 0.034703642 12168092
-0.027706265 0.82617611 0.034700945 12233885
-0.028171524 0.82690966 0.035298571 12497057
-0.027903736 0.82727611 0.035295889 12694436
-0.027635932 0.82764256 0.035293207 12892328
-0.027368143 0.82800901 0.035290524 13023914
-0.02710034 0.82837552 0.035287842 13221811
-0.026832551 0.82874197 0.035285175 13419190
-0.026564747 0.82910842 0.035282493 13419704
-0.026296958 0.82947487 0.03527981 13617083
-0.026029155 0.82984132 0.035277128 13880255
-0.025761366 0.83020777 0.035274446 14077634
-0.025493562 0.83057421 0.035271764 14274245
-0.025225773 0.83094066 0.035269082 14405831
-0.02495797 0.83130711 0.035266399 14799819
-0.024690181 0.83167356 0.035263717 14931405
-0.024422377 0.83204007 0.035261035 15062993
-0.024154589 0.83240652 0.035258368 15326165
-0.023886785 0.83277297 0.035255685 15261142
-0.023618996 0.83313942 0.035253003 15195349
-0.023351207 0.83350587 0.035250321 15392726
-0.023083404 0.83387232 0.035247639 15392726
-0.0228156 0.83423877 0.035244957 15326933
-0.022547811 0.83460522 0.035242274 15326933
-0.020769596 0.83429801 0.034038529 15195349
-0.02049987 0.83466709 0.034035832 15195349
-0.019472972 0.83470201 0.033432558 14932175
-0.019202292 0.8350724 0.033429846 14734796
-0.018931597 0.83544284 0.033427134 14602440
-0.030342579 0.78926164 0.020926401 10851462
-0.030050695 0.78966105 0.02092348 10785669
-0.029758826 0.79006046 0.02092056 10588290
-0.030805305 0.79137176 0.022114128 10785669
-0.030515358 0.79176855 0.022111222 10851462
-0.030225411 0.79216528 0.022108316 10720646
-0.030607536 0.79301405 0.022703722 10654853
-0.030318558 0.79340953 0.022700831 10720644
-0.030029565 0.793805 0.022697926 10654851
-0.030415535 0.79464847 0.023293346 10654851
-0.03012751 0.79504263 0.02329047 10654851
-0.029839486 0.79543674 0.023287579 10851460
-0.030229345 0.79627496 0.023883045 10851460
-0.029942289 0.79666781 0.023880169 10851460
-0.029655218 0.79706061 0.023877308 10917253
-0.029368162 0.7974534 0.023874432 10983046
-0.029081106 0.79784626 0.023871556 10983046
-0.029476702 0.79867655 0.024467066 10917253
-0.0291906 0.79906803 0.024464205 10917253
-0.028904513 0.79945952 0.024461344 10983046
-0.029303983 0.80028456 0.025056913 10917253
-0.029018849 0.8006748 0.025054052 10917253
-0.028733715 0.80106497 0.025051206 10983046
-0.028448582 0.80145514 0.025048345 10852230
-0.030231714 0.80313009 0.026840866 10918023
-0.029949456 0.80351633 0.026838049 10852230
-0.029667214 0.80390257 0.026835218 10852230
-0.030077279 0.80471307 0.027430877 10852230
-0.029795989 0.805098 0.027428061 10852230
-0.029514715 0.80548292 0.027425244 10852230
-0.02992864 0.80628818 0.028020963 10852230
-0.029648319 0.80667174 0.028018147 10852230
-0.029367998 0.80705535 0.028015345 10852230
-0.029087678 0.80743897 0.028012544 10852230
-0.028807357 0.80782253 0.028009728 10852230
-0.029227048 0.80861992 0.028605491 10852230
-0.028947696 0.80900216 0.02860269 10918023
-0.028668344 0.80938447 0.028599888 10918023
-0.028388977 0.80976671 0.028597102 10852230
-0.028109625 0.81014901 0.0285943 10852230
-0.027830273 0.81053126 0.028591499 10918023
-0.027550921 0.81091356 0.028588712 11048839
-0.030384183 0.81938154 0.03394109 11378572
-0.030113503 0.81975198 0.033938378 11378572
-0.029842809 0.82012236 0.033935681 11246986
-0.029572129 0.82049274 0.033932969 11443595
-0.029301435 0.82086319 0.033930257 11509388
-0.029030755 0.82123357 0.033927545 11509388
-0.029484197 0.82198483 0.034523651 11575181
-0.029214472 0.8223539 0.034520954 11706769
-0.028944746 0.82272303 0.034518257 11706769
-0.029402003 0.82346892 0.035114378 11772562
-0.029133245 0.82383674 0.035111696 11772562
-0.028864488 0.8242045 0.035108998 11773334
-0.028595731 0.82457227 0.035106316 11839127
-0.028326973 0.82494003 0.035103619 11904920
-0.028789997 0.82567805 0.0356998 12036506
-0.028522208 0.8260445 0.035697117 12102299
-0.02825442 0.82641095 0.03569445 12233885
-0.027986616 0.82677746 0.035691768 12365471
-0.027718827 0.82714391 0.035689086 12694436
-0.027451023 0.82751036 0.035686404 12892074
-0.027183235 0.82787681 0.035683721 13023660
-0.026915431 0.82824326 0.035681039 13090225
-0.026647642 0.8286097 0.035678357 13419190
-0.027120322 0.82933456 0.036274657 13419704
-0.026853487 0.8296997 0.036271989 13617083
-0.026586652 0.83006483 0.036269322 13814462
-0.026319832 0.83042997 0.03626664 14077634
-0.026052997 0.83079511 0.036263973 14274245
-0.025786161 0.83116025 0.036261305 14405831
-0.025519326 0.83152539 0.036258638 14799819
-0.025252491 0.83189052 0.036255956 14931405
-0.024985671 0.83225566 0.036253288 15062993
-0.024718836 0.8326208 0.036250621 15391958
-0.024452001 0.83298594 0.036247954 15261142
-0.024185166 0.83335108 0.036245272 15261142
-0.023918331 0.83371621 0.036242604 15392728
-0.022898495 0.83374006 0.035640821 15392728
-0.022630692 0.8341065 0.035638139 15326935
-0.022362903 0.83447295 0.035635456 15326935
-0.022095114 0.83483946 0.035632774 15195349
-0.02182731 0.83520591 0.035630107 15195349
-0.019286066 0.83456832 0.033829987 14866384
-0.019015387 0.83493876 0.033827275 14734798
-0.018744692 0.83530915 0.033824563 14471624
-0.029688507 0.78699064 0.020170152 10983048
-0.029394701 0.78739268 0.020167202 10983048
-0.029100895 0.78779471 0.020164266 10983048
-0.030141041 0.78911752 0.021354958 10851462
-0.029849157 0.78951693 0.021352038 10851460
-0.029557288 0.78991634 0.021349117 10719874
-0.030605108 0.79122853 0.022539839 10785667
-0.030315146 0.79162532 0.022536948 10851460
-0.030025199 0.79202211 0.022534043 10654851
-0.030407995 0.79287136 0.023128018 10654851
-0.030119017 0.79326677 0.023125127 10654851
-0.029830024 0.79366225 0.023122236 10654851
-0.030216664 0.79450619 0.023716241 10720644
-0.02992864 0.79490036 0.02371335 10654851
-0.029640615 0.79529452 0.023710474 10654851
-0.03003113 0.79613322 0.024304524 10720644
-0.029744074 0.79652601 0.024301648 10720644
-0.029457003 0.79691887 0.024298772 10786437
-0.029169947 0.79731166 0.024295911 10852230
-0.028882891 0.79770446 0.024293035 10852230
-0.029279158 0.79853523 0.02488713 10852230
-0.028993055 0.79892671 0.024884269 10786437
-0.028706968 0.79931825 0.024881408 10852230
-0.028420866 0.79970974 0.024878547 10852230
-0.030036822 0.80299067 0.027255282 10852230
-0.029754579 0.80337691 0.027252451 10852230
-0.029472336 0.80376315 0.027249619 10852230
-0.029883057 0.80457419 0.027843863 10852230
-0.029601768 0.80495906 0.027841046 10852230
-0.029320493 0.80534399 0.02783823 10852230
-0.029735088 0.80614972 0.028432533 10852230
-0.029454768 0.80653334 0.028429732 10786437
-0.029174447 0.80691695 0.028426915 10852230
-0.028894126 0.80730051 0.028424114 10918023
-0.028613806 0.80768412 0.028421313 10852230
-0.029034168 0.80848193 0.029015645 10918023
-0.028754801 0.80886424 0.029012844 10918023
-0.028475448 0.80924648 0.029010057 10918023
-0.028196096 0.80962873 0.029007256 10852230
-0.030197278 0.81924784 0.034338519 11312779
-0.029926598 0.81961828 0.034335822 11378572
-0.029655904 0.81998867 0.03433311 11246986
-0.029385224 0.82035911 0.034330398 11312779
-0.029114544 0.82072949 0.034327686 11378572
-0.02884385 0.82109994 0.034324974 11509388
-0.029297948 0.82185161 0.034919664 11575181
-0.029028237 0.82222068 0.034916967 11772560
-0.028758511 0.82258981 0.03491427 11772560
-0.029216424 0.82333624 0.03550899 11706769
-0.028947666 0.823704 0.035506293 11772562
-0.028678909 0.82407176 0.035503611 11773332
-0.028410152 0.82443953 0.035500914 11773332
-0.028141394 0.82480729 0.035498217 11839127
-0.028605089 0.82554579 0.036092997 12036506
-0.0283373 0.82591224 0.036090314 12102299
-0.028069511 0.82627869 0.036087632 12233885
-0.027801707 0.8266452 0.03608495 12365471
-0.027533919 0.82701164 0.036082268 12694436
-0.027266115 0.82737809 0.036079586 12892074
-0.026998326 0.82774454 0.036076918 13023660
-0.026730523 0.82811099 0.036074236 13090223
-0.026462734 0.82847744 0.036071554 13419188
-0.026936084 0.82920277 0.036666438 13353911
-0.026669249 0.82956791 0.036663756 13551290
-0.026402414 0.82993305 0.036661088 13748669
-0.026135579 0.83029819 0.036658421 14011841
-0.025868744 0.83066332 0.036655754 14274245
-0.025601923 0.83102846 0.036653072 14405831
-0.025335088 0.8313936 0.036650404 14603210
-0.025068253 0.83175874 0.036647737 14800589
-0.024801418 0.83212388 0.03664507 14997200
-0.024534583 0.83248901 0.036642388 15260372
-0.024267763 0.83285415 0.03663972 15261142
-0.024000928 0.83321929 0.036637053 15261142
-0.023734093 0.83358443 0.036634371 15326935
-0.022713587 0.83360779 0.036034018 15326935
-0.022445798 0.83397424 0.036031336 15392728
-0.022177994 0.83434069 0.036028653 15326935
-0.021910191 0.8347072 0.036025971 15195349
-0.021642402 0.83507365 0.036023289 15129556
-0.029705197 0.78517061 0.020014986 10983048
-0.029410437 0.78557396 0.020012036 10917255
-0.029115662 0.78597736 0.020009086 10917255
-0.029485643 0.78684551 0.020601526 10983048
-0.029191837 0.78724754 0.020598575 11048841
-0.028898031 0.78764963 0.02059564 10983046
-0.029939502 0.78897333 0.021783501 10785667
-0.029647619 0.7893728 0.02178058 10851460
-0.029355749 0.78977215 0.02177766 10785667
-0.030404896 0.79108536 0.022965565 10785667
-0.030114949 0.79148215 0.02296266 10785667
-0.029824987 0.79187894 0.022959754 10785667
-0.030208454 0.79272866 0.023552328 10785667
-0.029919475 0.79312408 0.023549438 10654851
-0.029630482 0.79351956 0.023546532 10720644
-0.030017793 0.79436398 0.024139121 10654851
-0.029729769 0.79475814 0.024136245 10654851
-0.029441729 0.79515225 0.024133354 10654851
-0.029832929 0.79599142 0.024726003 10720644
-0.029545859 0.79638427 0.024723127 10720644
-0.029258803 0.79677707 0.024720252 10786437
-0.028971732 0.79716992 0.024717376 10852230
-0.028684676 0.79756272 0.024714515 10852230
-0.029081613 0.79839396 0.025307193 10852230
-0.028795511 0.79878545 0.025304332 10852230
-0.028509423 0.79917693 0.025301471 10786437
-0.028223321 0.79956847 0.025298595 10786437
-0.02984193 0.80285132 0.027669683 10852230
-0.029559687 0.80323756 0.027666852 10918023
-0.029277444 0.8036238 0.027664021 10918023
-0.029688835 0.80443525 0.028256848 10852230
-0.029407561 0.80482018 0.028254032 10852230
-0.029126272 0.80520511 0.028251216 10852230
-0.029541522 0.80601132 0.028844103 10852230
-0.029261202 0.80639493 0.028841302 10786437
-0.028980881 0.80677849 0.0288385 10918023
-0.028700575 0.80716211 0.028835684 10852230
-0.028420255 0.80754566 0.028832883 10852230
-0.028841272 0.80834401 0.029425815 10918023
-0.02856192 0.80872625 0.029423013 10918023
-0.028282553 0.8091085 0.029420212 10852230
-0.028003201 0.8094908 0.02941741 10852230
-0.030010372 0.81911421 0.034735963 11312779
-0.029739693 0.81948459 0.034733251 11312779
-0.029469013 0.81985497 0.034730539 11312779
-0.029198319 0.82022542 0.034727827 11378572
-0.028927639 0.82059586 0.034725115 11378572
-0.028656945 0.82096624 0.034722403 11378572
-0.029111713 0.82171839 0.035315692 11444365
-0.028841987 0.82208753 0.035312995 11641744
-0.028572261 0.8224566 0.035310283 11641744
-0.029030859 0.8232035 0.035903588 11575953
-0.028762102 0.82357126 0.035900891 11641746
-0.028493345 0.82393903 0.035898209 11773334
-0.028224573 0.82430685 0.035895512 11773334
-0.027955815 0.82467461 0.035892829 11904920
-0.02842018 0.82541358 0.036486179 12036506
-0.028152391 0.82578003 0.036483496 12168092
-0.027884603 0.82614648 0.036480829 12233885
-0.027616799 0.82651293 0.036478147 12497057
-0.02734901 0.82687938 0.036475465 12628643
-0.027081206 0.82724583 0.036472782 12760488
-0.026813418 0.82761228 0.0364701 13023660
-0.026545614 0.82797873 0.036467418 13090223
-0.026277825 0.82834518 0.036464736 13419188
-0.026751831 0.82907104 0.037058204 13484983
-0.026484996 0.82943618 0.037055537 13682362
-0.026218176 0.82980132 0.03705287 13682622
-0.025951341 0.8301664 0.037050188 14011587
-0.025684506 0.83053154 0.03704752 14077380
-0.025417671 0.83089668 0.037044853 14274759
-0.025150836 0.83126181 0.037042186 14669003
-0.024884015 0.83162695 0.037039503 14800589
-0.02461718 0.83199209 0.037036836 14931405
-0.024350345 0.83235723 0.037034169 15194577
-0.02408351 0.83272237 0.037031487 15261142
-0.023816675 0.8330875 0.037028819 15261142
-0.023549855 0.83345264 0.037026152 15130070
-0.022528678 0.83347559 0.0364272 15195863
-0.022260875 0.83384204 0.036424518 15392728
-0.021993086 0.83420849 0.036421835 15326935
-0.021725297 0.83457494 0.036419153 15261142
-0.021457493 0.83494139 0.036416486 15129556
-0.030613542 0.78212774 0.019871622 10851460
-0.030317813 0.78253239 0.019868657 10917255
-0.030022085 0.78293705 0.019865707 10917255
-0.030385971 0.78381497 0.020456627 10917255
-0.030091196 0.78421831 0.020453677 10983048
-0.029796436 0.78462172 0.020450726 10983048
-0.030164182 0.78549433 0.021041721 10983048
-0.029870391 0.7858963 0.021038771 10917255
-0.029576585 0.78629839 0.021035835 10983048
-0.030613601 0.78763098 0.022220805 10983048
-0.030321717 0.78803039 0.022217885 10983048
-0.030029848 0.7884298 0.022214964 10917255
-0.030406252 0.78929055 0.022806004 10785669
-0.030115336 0.78968865 0.022803098 10785667
-0.029824421 0.79008675 0.022800192 10785667
-0.030204684 0.79094219 0.023391291 10785667
-0.029914737 0.79133892 0.023388386 10785667
-0.02962479 0.79173571 0.02338548 10785667
-0.030008912 0.79258591 0.023976624 10785667
-0.029719934 0.79298139 0.023973733 10654851
-0.029430941 0.7933768 0.023970842 10720644
-0.029818907 0.79422176 0.024562016 10720644
-0.029530883 0.79461586 0.024559125 10720644
-0.029242858 0.79501003 0.024556249 10720642
-0.029634714 0.79584968 0.025147483 10720642
-0.029347658 0.79624248 0.025144607 10720642
-0.029060587 0.79663533 0.025141731 10786435
-0.029456258 0.79746968 0.025732979 10852228
-0.02917017 0.79786116 0.025730118 10852228
-0.028884068 0.7982527 0.025727257 10852230
-0.028597966 0.79864419 0.025724396 10852230
-0.028311878 0.79903567 0.02572152 10786437
-0.028025776 0.79942715 0.025718659 10786437
-0.029805258 0.80111963 0.027498379 10852230
-0.029522046 0.80150717 0.027495548 10852230
-0.029238835 0.80189472 0.027492702 10852232
-0.029647052 0.80271196 0.028084084 10852232
-0.029364809 0.8030982 0.028081253 10918023
-0.029082566 0.80348438 0.028078422 10918023
-0.030188933 0.80472213 0.029264107 10852230
-0.029908612 0.80510569 0.029261291 10918023
-0.029628292 0.8054893 0.02925849 10852230
-0.029347971 0.80587286 0.029255673 10852230
-0.02906765 0.80625647 0.029252872 10786437
-0.02878733 0.80664003 0.02925007 10918023
-0.029207096 0.80744147 0.029841557 10852230
-0.028927729 0.80782378 0.029838771 10918023
-0.028648376 0.80820602 0.029835969 10918023
-0.029072016 0.80900216 0.030427516 10918023
-0.028793633 0.80938315 0.030424729 10983046
-0.028515235 0.80976409 0.030421942 10983046
-0.029823482 0.81898052 0.035133392 11312779
-0.029552788 0.81935096 0.03513068 11312779
-0.029282108 0.81972134 0.035127968 11312779
-0.029734641 0.82047796 0.035719797 11312779
-0.029464915 0.82084703 0.0357171 11378572
-0.029195204 0.82121611 0.035714403 11444365
-0.029651567 0.82196748 0.036306262 11444365
-0.029382795 0.82233524 0.036303565 11575951
-0.029114038 0.822703 0.036300883 11575951
-0.02884528 0.82307076 0.036298186 11575953
-0.028576523 0.82343853 0.036295503 11641746
-0.028307766 0.82380629 0.036292806 11773334
-0.028770864 0.82454842 0.03688474 11773334
-0.028503075 0.82491487 0.036882058 11904920
-0.028235286 0.82528132 0.036879376 12036506
-0.027967483 0.82564777 0.036876693 12102299
-0.027699694 0.82601422 0.036874011 12233885
-0.028168589 0.82674843 0.037466004 12365471
-0.027901754 0.82711357 0.037463337 12562850
-0.027634934 0.82747871 0.03746067 12629674
-0.027368098 0.82784384 0.037457988 12827053
-0.027101263 0.82820898 0.03745532 13024432
-0.026834428 0.82857412 0.037452653 13353397
-0.026567593 0.82893926 0.037449986 13353657
-0.026300758 0.8293044 0.037447318 13551036
-0.026033923 0.82966954 0.037444636 13814208
-0.025767103 0.83003461 0.037441969 14011587
-0.025500268 0.83039975 0.037439302 14077380
-0.025233433 0.83076489 0.037436619 14274759
-0.024966598 0.83113003 0.037433952 14669003
-0.024699762 0.83149517 0.037431285 14800589
-0.024432942 0.8318603 0.037428603 14866382
-0.024166107 0.83222544 0.037425935 14932175
-0.023899272 0.83259058 0.037423268 15129554
-0.023632437 0.83295572 0.037420601 15195347
-0.023365602 0.83332086 0.037417933 15195347
-0.023098767 0.83368599 0.037415251 15261140
-0.022831947 0.83405113 0.037412584 15326933
-0.022565112 0.83441627 0.037409917 15326933
-0.021540388 0.83444268 0.03681235 15326933
-0.021272585 0.83480912 0.036809668 15195347
-0.030409351 0.78198171 0.020305827 10917253
-0.030113608 0.78238636 0.020302877 10917253
-0.029817879 0.78279102 0.020299911 10917253
-0.030182436 0.78366935 0.020889416 10983048
-0.029887676 0.78407276 0.020886466 10983048
-0.029592901 0.7844761 0.020883515 10983048
-0.029961318 0.78534919 0.021473095 10983048
-0.029667512 0.78575122 0.021470159 10983048
-0.029373705 0.78615332 0.021467209 10983048
-0.030412063 0.78748685 0.022649363 10917255
-0.030120179 0.78788626 0.022646442 10917255
-0.02982831 0.78828567 0.022643521 10851460
-0.030205384 0.7891469 0.023233145 10785667
-0.029914469 0.78954494 0.02323024 10785667
-0.029623553 0.78994304 0.023227319 10785667
-0.030004486 0.79079896 0.023817003 10785667
-0.029714525 0.79119575 0.023814097 10851460
-0.029424578 0.79159254 0.023811191 10785667
-0.029809371 0.79244322 0.024400935 10851460
-0.029520392 0.79283869 0.024398044 10654851
-0.029231399 0.79323411 0.024395153 10720644
-0.029620036 0.79407954 0.024984911 10720644
-0.029332012 0.79447365 0.02498202 10720644
-0.029043987 0.79486775 0.024979144 10720642
-0.029436499 0.79570794 0.025568947 10720642
-0.029149443 0.79610074 0.025566086 10720642
-0.028862372 0.79649353 0.02556321 10786435
-0.029258713 0.79732835 0.026153043 10852228
-0.028972626 0.7977199 0.026150182 10852228
-0.028686523 0.79811138 0.026147321 10852228
-0.02960971 0.80097973 0.027914196 10852230
-0.029326499 0.80136728 0.027911365 10852230
-0.029043287 0.80175483 0.027908519 10852230
-0.02945216 0.80257255 0.028498486 10918023
-0.029169917 0.80295879 0.028495654 10918023
-0.028887674 0.80334502 0.028492838 10918023
-0.029995367 0.80458367 0.029675677 10852230
-0.029715046 0.80496728 0.029672876 10918023
-0.029434741 0.80535084 0.02967006 10918023
-0.02915442 0.80573446 0.029667258 10852230
-0.028874099 0.80611801 0.029664457 10983046
-0.028593779 0.80650163 0.029661641 10983046
-0.0290142 0.80730355 0.030251727 10983046
-0.028734848 0.80768579 0.030248925 11048839
-0.028455496 0.80806804 0.030246124 10983046
-0.028879791 0.80886471 0.030836269 10983046
-0.028601408 0.80924565 0.030833468 11048839
-0.02832301 0.80962658 0.030830681 11048839
-0.029636577 0.81884682 0.03553082 11246986
-0.029365882 0.81921726 0.035528108 11246986
-0.029095203 0.81958765 0.035525396 11246986
-0.029548407 0.82034475 0.036115825 11378572
-0.029278681 0.82071382 0.036113128 11444365
-0.029008955 0.82108295 0.036110416 11444365
-0.029465988 0.82183474 0.03670086 11444365
-0.029197231 0.8222025 0.036698177 11444365
-0.028928474 0.82257026 0.03669548 11575951
-0.028659716 0.82293802 0.036692798 11575953
-0.028390944 0.82330585 0.036690101 11641746
-0.028122187 0.82367361 0.036687419 11707541
-0.028585956 0.82441616 0.037277922 11773334
-0.028318167 0.82478261 0.03727524 11904920
-0.028050363 0.82514906 0.037272558 11904920
-0.027782574 0.82551551 0.037269875 12102299
-0.027514786 0.82588196 0.037267193 12168092
-0.027984351 0.82661664 0.037857786 12300191
-0.027717516 0.82698178 0.037855119 12497570
-0.027450681 0.82734692 0.037852436 12563879
-0.027183846 0.82771206 0.037849769 12761258
-0.026917011 0.8280772 0.037847102 13024178
-0.02665019 0.82844234 0.037844434 13287350
-0.026383355 0.82880747 0.037841752 13288377
-0.02611652 0.82917261 0.037839085 13485756
-0.025849685 0.82953775 0.037836418 13814721
-0.02558285 0.82990289 0.037833735 13946307
-0.025316015 0.83026803 0.037831068 14077380
-0.02504918 0.83063316 0.037828401 14340552
-0.02478236 0.8309983 0.037825733 14537931
-0.024515525 0.83136344 0.037823066 14669517
-0.024248689 0.83172858 0.037820384 14800589
-0.023981854 0.83209372 0.037817717 15063761
-0.023715019 0.83245885 0.037815049 15261140
-0.023448199 0.83282399 0.037812367 15129554
-0.023181364 0.83318913 0.0378097 15326933
-0.022914529 0.83355427 0.037807032 15261140
-0.022647694 0.83391941 0.037804365 15326933
-0.022380859 0.83428454 0.037801683 15326933
-0.02135548 0.83431041 0.037205532 15261140
-0.021087676 0.83467686 0.03720285 15195347
-0.030205145 0.78183562 0.020740032 10917253
-0.029909417 0.78224027 0.020737067 10917253
-0.029613689 0.78264499 0.020734116 10917253
-0.029978901 0.7835238 0.021322206 10983048
-0.029684141 0.7839272 0.021319255 10983048
-0.029389367 0.78433055 0.021316305 10983048
-0.029758453 0.78520411 0.021904469 10983048
-0.029464647 0.78560615 0.021901533 10983048
-0.029170841 0.78600818 0.021898583 10983048
-0.030210525 0.78734267 0.023077905 10917255
-0.029918641 0.78774214 0.023074985 10917255
-0.029626772 0.78814149 0.023072064 10851460
-0.030004516 0.78900319 0.023660272 10785667
-0.029713601 0.78940129 0.023657367 10785667
-0.029422686 0.78979939 0.023654446 10785667
-0.029804274 0.79065579 0.024242714 10785667
-0.029514328 0.79105258 0.024239823 10851460
-0.029224366 0.79144931 0.024236917 10851460
-0.029609829 0.79230046 0.02482523 10917253
-0.029320851 0.79269594 0.024822339 10654851
-0.029031858 0.79309142 0.024819449 10786437
-0.029421151 0.79393727 0.025407791 10786435
-0.029133126 0.79433143 0.025404915 10720642
-0.028845102 0.79472554 0.025402024 10720642
-0.029238284 0.79556614 0.025990427 10720642
-0.028951228 0.795959 0.025987551 10786435
-0.028664172 0.79635179 0.02598469 10786435
-0.029061168 0.79718709 0.026573107 10852228
-0.028775066 0.79757857 0.026570246 10852228
-0.028488979 0.79797006 0.02656737 10918021
-0.029414147 0.8008399 0.028330013 10852230
-0.029130951 0.80122745 0.028327182 10852230
-0.028847739 0.801615 0.028324336 10918023
-0.029257283 0.80243313 0.028912887 10918023
-0.02897504 0.80281937 0.028910056 10918023
-0.028692797 0.80320561 0.028907239 10918023
-0.029801816 0.80444527 0.030087247 10918023
-0.029521495 0.80482882 0.030084446 10918023
-0.029241174 0.80521244 0.030081645 10918023
-0.028960854 0.80559599 0.030078828 10852230
-0.028680548 0.80597961 0.030076027 11048839
-0.028400227 0.80636322 0.030073225 11048839
-0.028821304 0.80716556 0.030661881 11048839
-0.028541952 0.80754781 0.030659094 11048839
-0.0282626 0.80793011 0.030656293 10983046
-0.028687567 0.8087272 0.031245008 10983046
-0.028409183 0.80910814 0.031242222 11114632
-0.028130785 0.80948913 0.031239435 11114632
-0.029449672 0.81871319 0.035928249 11246986
-0.029178977 0.81908357 0.035925537 11246986
-0.028908297 0.81945395 0.035922825 11246986
-0.029362172 0.82021153 0.036511838 11378572
-0.029092446 0.8205806 0.036509141 11444365
-0.02882272 0.82094973 0.036506429 11444365
-0.029280409 0.821702 0.037095472 11378572
-0.029011652 0.82206976 0.037092775 11379085
-0.028742895 0.82243752 0.037090078 11379085
-0.028474137 0.82280529 0.037087396 11444367
-0.02820538 0.82317311 0.037084699 11641746
-0.027936623 0.82354087 0.037082016 11707539
-0.028401047 0.8242839 0.037671104 11773332
-0.028133258 0.82465035 0.037668422 11839127
-0.027865469 0.8250168 0.037665755 11904920
-0.027597666 0.82538325 0.037663072 12102299
-0.027329877 0.82574975 0.03766039 12168092
-0.027800098 0.82648486 0.038249567 12234398
-0.027533278 0.82685 0.038246885 12497570
-0.027266443 0.82721514 0.038244218 12498086
-0.026999608 0.82758027 0.03824155 12629672
-0.026732773 0.82794541 0.038238868 12827313
-0.026465937 0.82831055 0.038236201 13090485
-0.026199102 0.82867569 0.038233534 13288379
-0.025932267 0.82904083 0.038230866 13485758
-0.025665447 0.82940596 0.038228184 13748930
-0.025398612 0.8297711 0.038225517 13946309
-0.025131777 0.83013624 0.038222849 14143686
-0.024864942 0.83050138 0.038220182 14275272
-0.024598107 0.83086652 0.0382175 14472138
-0.024331287 0.83123165 0.038214833 14603724
-0.024064451 0.83159679 0.038212165 14735310
-0.023797616 0.83196193 0.038209483 14998482
-0.023530781 0.83232707 0.038206816 15195861
-0.023263946 0.83269221 0.038204148 14998482
-0.022997111 0.83305734 0.038201481 15130068
-0.022730291 0.83342248 0.038198799 15130068
-0.022463456 0.83378762 0.038196132 15195861
-0.022196621 0.83415276 0.038193464 15195861
-0.021170571 0.83417821 0.037598729 15457749
-0.020902768 0.83454466 0.037596047 15326163
-0.030888155 0.7804755 0.021183118 10917253
-0.030592412 0.78088021 0.021180153 10917253
-0.030296683 0.78128493 0.021177188 10917253
-0.030659676 0.78216815 0.021763861 10917253
-0.030364916 0.78257149 0.021760911 10917253
-0.030070141 0.78297484 0.02175796 10983046
-0.030437008 0.78385288 0.022344664 10983046
-0.030143201 0.78425491 0.022341728 10917253
-0.029849395 0.78465694 0.022338793 10917253
-0.030884624 0.78600031 0.023515224 10983046
-0.03059274 0.78639972 0.023512304 10917253
-0.030300871 0.78679913 0.023509368 10983046
-0.03067638 0.78766525 0.024096146 10917253
-0.030385464 0.78806335 0.02409324 10917253
-0.030094549 0.78846145 0.02409032 10851460
-0.030473918 0.78932226 0.024677143 10785667
-0.030183971 0.78971905 0.024674237 10785667
-0.029894024 0.79011583 0.024671346 10851460
-0.030277252 0.7909714 0.025258228 10851460
-0.029988274 0.79136688 0.025255322 10917253
-0.029699281 0.79176235 0.025252432 10786437
-0.030086353 0.79261261 0.025839344 10786437
-0.029798329 0.79300678 0.025836453 10786435
-0.029510304 0.79340088 0.025833562 10786435
-0.02922228 0.79379499 0.025830686 10786435
-0.028934255 0.79418916 0.02582781 10786435
-0.028646231 0.79458332 0.025824919 10720642
-0.029721916 0.79587132 0.027001753 10720642
-0.029435828 0.7962628 0.026998892 10720642
-0.029149726 0.79665428 0.026996031 10852228
-0.029548377 0.79748881 0.027583063 10852228
-0.029263243 0.79787898 0.027580202 10852228
-0.028978109 0.79826915 0.027577356 10852228
-0.030068234 0.79953742 0.028754339 10852228
-0.029785022 0.79992497 0.028751507 10786435
-0.029501811 0.80031252 0.028748661 10786435
-0.029909134 0.80113506 0.029335767 10852230
-0.029626891 0.8015213 0.029332951 10852230
-0.029344648 0.80190754 0.029330119 10918023
-0.029755801 0.8027249 0.029917255 10918023
-0.029474512 0.80310982 0.029914439 10918023
-0.029193237 0.80349469 0.029911622 10918023
-0.030304551 0.80473399 0.031088814 10918023
-0.030025199 0.80511624 0.031086028 10852230
-0.029745847 0.80549848 0.031083226 11048839
-0.02946648 0.80588078 0.03108044 11048839
-0.029187128 0.80626309 0.031077638 11048839
-0.028907776 0.80664533 0.031074837 11114632
-0.029330522 0.80744684 0.031662121 11048839
-0.029052138 0.80782783 0.03165932 11048839
-0.02877374 0.80820876 0.031656533 10983046
-0.029200315 0.80900502 0.032243833 10983046
-0.028922886 0.80938464 0.032241061 11114632
-0.028645456 0.80976427 0.03223829 11114632
-0.028368026 0.81014395 0.032235503 11048839
-0.030794263 0.81786382 0.036924049 11246988
-0.030524537 0.81823289 0.036921352 11312781
-0.030254811 0.81860197 0.036918655 11312779
-0.0299851 0.81897104 0.036915958 11312779
-0.029715374 0.81934017 0.036913261 11246986
-0.029445648 0.81970924 0.036910549 11312779
-0.029901117 0.82046598 0.037498146 11378572
-0.02963236 0.82083374 0.037495449 11378572
-0.029363602 0.8212015 0.037492767 11379085
-0.029094845 0.82156926 0.03749007 11313292
-0.028826088 0.82193702 0.037487373 11379085
-0.028557315 0.82230484 0.037484691 11379085
-0.029019535 0.82305229 0.038072333 11510673
-0.028751731 0.82341874 0.038069665 11576466
-0.028483942 0.82378519 0.038066983 11707539
-0.028216153 0.82415164 0.038064301 11773332
-0.02794835 0.82451808 0.038061619 11839127
-0.027680546 0.82488453 0.038058937 11904920
-0.02814953 0.8256228 0.038646683 11971226
-0.027882695 0.82598794 0.038644001 12102812
-0.02761586 0.82635307 0.038641334 12168605
-0.027349025 0.82671821 0.038638666 12431777
-0.02708219 0.82708335 0.038635984 12498086
-0.027556926 0.82781374 0.039223775 12629672
-0.027291059 0.82817757 0.039221108 12827567
-0.027025193 0.82854134 0.039218441 13090739
-0.026759326 0.82890517 0.039215788 13222586
-0.026493445 0.82926899 0.039213121 13485758
-0.026227579 0.82963282 0.039210454 13748930
-0.025961712 0.82999665 0.039207801 13946309
-0.025695845 0.83036041 0.039205134 14077893
-0.025429979 0.83072424 0.039202467 14209479
-0.025164112 0.83108807 0.039199814 14406858
-0.024898231 0.83145189 0.039197147 14538444
-0.024632365 0.83181572 0.039194494 14735310
-0.024366498 0.83217955 0.039191827 14932689
-0.024100631 0.83254337 0.03918916 15064275
-0.023834765 0.8329072 0.039186507 14998482
-0.023568898 0.83327097 0.03918384 15130068
-0.023303017 0.83363479 0.039181188 15195861
-0.023037151 0.83399862 0.03917852 15195861
-0.022771284 0.83436245 0.039175853 15261654
-0.021745548 0.83438611 0.038582563 15458003
-0.021478713 0.83475125 0.038579896 15260624
-0.021211877 0.83511639 0.038577214 15325902
-0.020945042 0.83548152 0.038574547 15128523
-0.020678222 0.83584666 0.038571879 15193546
-0.03068395 0.78032947 0.021617323 10917253
-0.030388221 0.78073418 0.021614358 10917253
-0.030092493 0.78113884 0.021611407 10917253
-0.030456141 0.7820226 0.022196651 10917253
-0.030161381 0.78242594 0.0221937 10917253
-0.029866606 0.78282928 0.02219075 10983046
-0.030234128 0.7837078 0.022776052 10983046
-0.029940337 0.78410983 0.022773102 10917253
-0.029646531 0.78451186 0.022770166 10917253
-0.030683085 0.78585619 0.023943767 10983046
-0.030391216 0.7862556 0.023940846 10917253
-0.030099332 0.78665501 0.023937926 10917253
-0.030475512 0.7875216 0.024523273 10917253
-0.030184597 0.7879197 0.024520367 10917253
-0.029893681 0.7883178 0.024517462 10917253
-0.030273721 0.78917909 0.025102869 10785667
-0.029983759 0.78957587 0.025099963 10785667
-0.029693812 0.78997266 0.025097057 10917253
-0.030077711 0.7908287 0.025682524 10851460
-0.029788733 0.79122412 0.025679633 10917253
-0.029499739 0.7916196 0.025676742 10720644
-0.029887483 0.7924704 0.026262224 10720644
-0.029599458 0.7928645 0.026259348 10786435
-0.029311433 0.79325867 0.026256457 10786435
-0.029023409 0.79365277 0.026253581 10786435
-0.028735384 0.79404694 0.02625069 10786435
-0.02844736 0.79444104 0.026247814 10720642
-0.029524371 0.79572999 0.027421817 10720642
-0.029238284 0.79612148 0.027418956 10720642
-0.028952181 0.79651302 0.027416095 10852228
-0.029351488 0.79734802 0.028001711 10852228
-0.029066354 0.79773819 0.02799885 10852228
-0.02878122 0.79812837 0.027996004 10852228
-0.029872686 0.79939753 0.029170156 10852228
-0.029589474 0.79978508 0.029167324 10852228
-0.029306263 0.80017263 0.029164478 10852228
-0.029714242 0.80099571 0.029750168 11048837
-0.029431999 0.80138195 0.029747352 10983044
-0.029149756 0.80176818 0.029744521 10918023
-0.029561579 0.80258596 0.030330256 10918023
-0.02928029 0.80297089 0.030327439 10918023
-0.028999016 0.80335581 0.030324623 10918023
-0.03011167 0.80459601 0.031498984 10918023
-0.029832304 0.80497825 0.031496182 10852230
-0.029552951 0.80536056 0.031493396 10983046
-0.029273599 0.80574286 0.031490594 11048839
-0.028994247 0.8061251 0.031487793 11048839
-0.02871488 0.80650735 0.031485006 11114632
-0.029138297 0.80730939 0.03207086 11048839
-0.028859913 0.80769032 0.032068074 11048839
-0.028581515 0.80807126 0.032065287 10983046
-0.029008746 0.80886799 0.032651171 11048839
-0.028731316 0.80924761 0.032648399 11114632
-0.028453887 0.80962729 0.032645613 11246218
-0.028176457 0.81000692 0.032642841 11048839
-0.030608028 0.81773061 0.037320077 11312779
-0.030338302 0.81809968 0.03731738 11312779
-0.030068576 0.81846875 0.037314668 11312779
-0.02979885 0.81883788 0.037311971 11312779
-0.029529124 0.81920695 0.037309274 11312779
-0.029259413 0.81957603 0.037306577 11312779
-0.029715538 0.82033324 0.037892744 11378572
-0.029446781 0.820701 0.037890047 11378572
-0.029178023 0.82106876 0.037887365 11379085
-0.028909266 0.82143652 0.037884668 11313292
-0.028640509 0.82180434 0.037881985 11510673
-0.028371751 0.82217211 0.037879288 11510673
-0.028834626 0.82292002 0.03846553 11576466
-0.028566822 0.82328647 0.038462847 11576466
-0.028299034 0.82365292 0.038460165 11708052
-0.02803123 0.82401943 0.038457483 11642259
-0.027763441 0.82438588 0.038454801 11708052
-0.027495638 0.82475233 0.038452134 11971224
-0.027965277 0.82549107 0.03903845 11971224
-0.027698442 0.82585621 0.039035782 12037017
-0.027431622 0.82622135 0.0390331 12168605
-0.027164787 0.82658648 0.039030433 12431777
-0.026897952 0.82695162 0.039027765 12498086
-0.027373359 0.82768244 0.039614126 12629672
-0.027107477 0.82804626 0.039611474 12827313
-0.026841611 0.82841003 0.039608806 13090485
-0.026575744 0.82877386 0.039606139 13222584
-0.026309878 0.82913768 0.039603487 13485756
-0.026044011 0.82950151 0.039600819 13683137
-0.02577813 0.82986534 0.039598152 13814723
-0.025512263 0.83022916 0.0395955 14012100
-0.025246397 0.83059299 0.039592832 14209479
-0.02498053 0.83095682 0.03959018 14472138
-0.024714664 0.83132058 0.039587513 14603724
-0.024448797 0.83168441 0.039584845 14932175
-0.024182916 0.83204824 0.039582193 14932175
-0.023917049 0.83241206 0.039579526 15129554
-0.023651183 0.83277589 0.039576873 15129554
-0.023385316 0.83313966 0.039574206 15326933
-0.02311945 0.83350348 0.039571539 15392726
-0.022853568 0.83386731 0.039568886 15326933
-0.022587702 0.83423114 0.039566219 15458519
-0.021561295 0.83425432 0.03897433 15327187
-0.021294475 0.83461946 0.038971663 15195601
-0.02102764 0.8349846 0.038968995 15194829
-0.020760804 0.83534974 0.038966328 14997450
-0.020493969 0.83571488 0.038963661 15062730
-0.030479759 0.78018343 0.022051528 10917253
-0.030184016 0.78058815 0.022048563 10917253
-0.029888287 0.78099281 0.022045597 10917253
-0.030252606 0.78187704 0.02262944 10917253
-0.029957846 0.78228039 0.022626489 10983046
-0.029663071 0.78268373 0.022623539 10983046
-0.030031264 0.78356266 0.023207426 10983046
-0.029737458 0.78396475 0.023204476 10917253
-0.029443651 0.78436679 0.02320154 10983046
-0.030481547 0.78571206 0.024372309 10983046
-0.030189678 0.78611147 0.024369389 10983046
-0.029897794 0.78651088 0.024366468 10917253
-0.030274644 0.78737795 0.024950415 10917253
-0.029983729 0.78777599 0.024947494 10917253
-0.029692814 0.78817409 0.024944589 10917253
-0.030073509 0.78903592 0.02552858 10785667
-0.029783562 0.78943264 0.025525674 10785667
-0.0294936 0.78982943 0.025522783 10917253
