# .PCD v0.7 - Point Cloud Data file format
VERSION 0.7
FIELDS x y z rgb
SIZE 4 4 4 4
TYPE F F F U
COUNT 1 1 1 1
WIDTH 1072
HEIGHT 1
VIEWPOINT 0 0 0 1 0 0 0
POINTS 1072
DATA ascii
-0.028917089 0.74895895 0.048664898 6704693
-0.028915852 0.74941605 0.04866235 6967865
-0.028914616 0.74987322 0.048659816 7428416
-0.029751137 0.75039196 0.049205735 7757381
-0.029749915 0.75084746 0.049203202 8282955
-0.029748678 0.75130296 0.049200669 8677713
-0.029747456 0.75175846 0.049198136 9203542
-0.02974622 0.75221401 0.049195617 9466714
-0.029744983 0.75266951 0.049193084 9664093
-0.029743761 0.75312501 0.049190551 9927265
-0.029742524 0.75358051 0.049188033 9993058
-0.029741302 0.75403601 0.0491855 10190437
-0.030577853 0.75453842 0.049731493 10256230
-0.030576617 0.75499231 0.049728975 10387816
-0.030575395 0.7554462 0.049726456 10453609
-0.030574173 0.75590008 0.049723938 10585195
-0.030572951 0.75635391 0.04972142 10716781
-0.030571714 0.7568078 0.049718902 10848367
-0.030570492 0.75726169 0.049716383 10716781
-0.03056927 0.75771558 0.049713865 10716781
-0.030568048 0.75816941 0.049711347 10848367
-0.030566812 0.7586233 0.049708828 10914160
-0.03056559 0.75907719 0.04970631 10914673
-0.030564368 0.75953108 0.049703777 10848880
-0.030563146 0.75998491 0.049701259 10980466
-0.030561909 0.7604388 0.04969874 10980466
-0.030560687 0.76089269 0.049696222 11046259
-0.030559465 0.76134658 0.049693704 11112052
-0.030558228 0.76180047 0.049691185 11112052
-0.030557007 0.7622543 0.049688667 11046259
-0.030555785 0.76270819 0.049686149 11046259
-0.030554563 0.76316208 0.04968363 11046259
-0.030553341 0.76361597 0.049681112 11046259
-0.030552104 0.7640698 0.049678594 11112052
-0.030550882 0.76452368 0.049676061 11177332
-0.03054966 0.76497757 0.049673542 11374711
-0.030548424 0.76543146 0.049671024 11308918
-0.030547202 0.76588529 0.049668506 11374711
-0.03054598 0.76633918 0.049665987 11374713
-0.030544758 0.76679307 0.049663469 11374713
-0.030543521 0.76724696 0.049660951 11440506
-0.030542299 0.76770085 0.049658433 11440506
-0.030541077 0.76815468 0.049655914 11440506
-0.030539855 0.76860857 0.049653396 11440506
-0.030538619 0.76906246 0.049650878 11440506
-0.030537397 0.76951635 0.049648345 11440506
-0.030536175 0.76997018 0.049645826 11440506
-0.030534953 0.77042407 0.049643308 11440506
-0.030533716 0.77087796 0.04964079 11440506
-0.030532494 0.77133185 0.049638271 11440506
-0.030531272 0.77178568 0.049635753 11440506
-0.029692098 0.77225637 0.04908435 11440506
-0.029690862 0.77271187 0.049081817 11440506
-0.02968964 0.77316737 0.049079284 11440506
-0.029688403 0.77362287 0.049076766 11441019
-0.029687166 0.77407837 0.049074233 11375226
-0.029685944 0.77453387 0.049071699 11375226
-0.029684708 0.77498937 0.049069181 11375226
-0.029683486 0.77544492 0.049066648 11375226
-0.029682249 0.77590042 0.049064115 11375226
-0.029681027 0.77635592 0.049061596 11375226
-0.02967979 0.77681142 0.049059063 11441019
-0.029678568 0.77726692 0.04905653 11375226
-0.029677331 0.77772242 0.049053997 11375226
-0.02967611 0.77817798 0.049051479 11440506
-0.029674873 0.77863348 0.049048945 11440506
-0.029673636 0.77908897 0.049046412 11440506
-0.029672414 0.77954447 0.049043894 11440506
-0.029671177 0.77999997 0.049041361 11440506
-0.029669955 0.78045547 0.049038827 11440506
-0.029668719 0.78091103 0.049036294 11506297
-0.029667497 0.78136653 0.049033776 11440504
-0.02966626 0.78182203 0.049031243 11440504
-0.029665038 0.78227752 0.04902871 11440504
-0.029663801 0.78273302 0.049026191 11440504
-0.029662579 0.78318852 0.049023658 11440504
-0.029661343 0.78364402 0.049021125 11506299
-0.029660106 0.78409958 0.049018607 11506299
-0.029658884 0.78455508 0.049016073 11506299
-0.029657647 0.78501058 0.04901354 11506299
-0.029656425 0.78546607 0.049011022 11506299
-0.029655188 0.78592157 0.049008489 11506299
-0.029653966 0.78637707 0.049005955 11506299
-0.02965273 0.78683263 0.049003422 11440506
-0.029651493 0.78728813 0.049000904 11506299
-0.029650271 0.78774363 0.048998371 11440506
-0.029649034 0.78819913 0.048995838 11440506
-0.029647812 0.78865463 0.048993319 11440506
-0.029646575 0.78911012 0.048990786 11506299
-0.029645354 0.78956568 0.048988253 11506299
-0.029644117 0.79002118 0.04898572 11506297
-0.029642895 0.79047668 0.048983201 11440504
-0.029641658 0.79093218 0.048980668 11440504
-0.029640436 0.79138768 0.048978135 11440504
-0.029639199 0.79184318 0.048975617 11506297
-0.029637963 0.79229867 0.048973083 11440504
-0.029636741 0.79275423 0.04897055 11637115
-0.029635504 0.79320973 0.048968032 11637115
-0.029634282 0.79366523 0.048965499 11637115
-0.029633045 0.79412073 0.048962966 11571322
-0.029631823 0.79457623 0.048960447 11702908
-0.029630587 0.79503173 0.048957914 11637115
-0.029629365 0.79548728 0.048955381 11571322
-0.029628128 0.79594278 0.048952848 11571322
-0.029626891 0.79639828 0.048950329 11637115
-0.029625669 0.79685378 0.048947796 11637115
-0.029624432 0.79730928 0.048945263 11571322
-0.02962321 0.79776478 0.048942745 11571322
-0.029621974 0.79822034 0.048940212 11637115
-0.029620752 0.79867584 0.048937678 11571322
-0.029619515 0.79913133 0.048935145 11440506
-0.029618293 0.79958683 0.048932627 11440506
-0.029617056 0.80004233 0.048930094 11440506
-0.029615819 0.80049783 0.04892756 11440506
-0.029614598 0.80095339 0.048925042 11506297
-0.029613361 0.80140889 0.048922509 11506297
-0.029612139 0.80186439 0.048919976 11506297
-0.029610902 0.80231988 0.048917457 11506297
-0.02960968 0.80277538 0.048914924 11440506
-0.029608443 0.80323088 0.048912391 11506299
-0.029607221 0.80368638 0.048909858 11440506
-0.029605985 0.80414194 0.04890734 11440506
-0.028766483 0.80473012 0.048355281 11506299
-0.028765246 0.80518723 0.048352748 11440506
-0.028764009 0.80564439 0.0483502 11572092
-0.028762773 0.80610156 0.048347667 11637885
-0.028761536 0.80655867 0.048345134 11572092
-0.028760299 0.80701584 0.048342586 11440506
-0.028759077 0.80747294 0.048340052 11506299
-0.02875784 0.80793011 0.048337519 11440506
-0.028756604 0.80838722 0.048334971 11506299
-0.028755367 0.80884439 0.048332438 11506299
-0.02875413 0.8093015 0.048329905 11506299
-0.028752893 0.80975866 0.048327357 11506299
-0.028751656 0.81021577 0.048324823 11506299
-0.028750435 0.81067294 0.04832229 11506299
-0.028749198 0.81113011 0.048319757 11506299
-0.028747961 0.81158721 0.048317209 11572092
-0.028746724 0.81204438 0.048314676 11572092
-0.028745487 0.81250149 0.048312142 11637885
-0.028744251 0.81295866 0.048309594 11702908
-0.028743029 0.81341577 0.048307061 11637115
-0.028741792 0.81387293 0.048304528 11768701
-0.028740555 0.8143301 0.04830198 11834494
-0.028739318 0.81478721 0.048299447 11768701
-0.028738081 0.81524438 0.048296914 11768701
-0.028736845 0.81570148 0.048294365 11768699
-0.028735608 0.81615865 0.048291832 11834492
-0.027895957 0.81679094 0.047739536 11768699
-0.02789472 0.81724972 0.047736987 11768699
-0.027893484 0.81770843 0.047734439 11637883
-0.027892247 0.81816721 0.047731891 11637883
-0.02789101 0.81862599 0.047729343 11703676
-0.027889758 0.81908476 0.047726795 11835262
-0.027888522 0.81954354 0.047724247 11703676
-0.027887285 0.82000232 0.047721699 11703676
-0.027886048 0.82046109 0.047719151 11901055
-0.027884811 0.82091987 0.047716618 11901055
-0.027883574 0.82137865 0.047714069 11901055
-0.027882338 0.82183743 0.047711521 11835262
-0.027881086 0.8222962 0.047708973 11901055
-0.027879849 0.82275498 0.047706425 11901055
-0.027878612 0.82321376 0.047703877 11966848
-0.027877375 0.82367253 0.047701329 11966848
-0.027876139 0.82413131 0.047698781 11966850
-0.027874902 0.82459009 0.047696233 11901057
-0.027873665 0.8250488 0.047693685 11966852
-0.027872413 0.82550758 0.047691137 12032645
-0.027871177 0.82596636 0.047688589 12098438
-0.02786994 0.82642514 0.04768604 12164231
-0.027868703 0.82688391 0.047683507 12164231
-0.027028978 0.82755536 0.047130987 12164231
-0.027027741 0.8280158 0.047128424 12361610
-0.027026504 0.82847619 0.047125876 12427403
-0.027025253 0.82893658 0.047123313 12493196
-0.027024016 0.82939702 0.047120765 12756368
-0.027022764 0.82985741 0.047118202 12887954
-0.026182979 0.8305403 0.046565607 13085333
-0.026181728 0.83100235 0.046563044 13349018
-0.025341958 0.83169013 0.046010435 13677983
-0.025340706 0.8321538 0.046007857 14072487
-0.02533944 0.83261746 0.046005279 14269866
-0.027853847 0.7475177 0.048521876 6178349
-0.02785261 0.74797648 0.048519328 6375730
-0.027851358 0.74843526 0.04851678 6507316
-0.028688714 0.74896049 0.049061239 6704695
-0.02952604 0.74948251 0.049605727 7033660
-0.029524803 0.74993801 0.049603194 7494209
-0.029523581 0.75039351 0.049600661 7757381
-0.029522344 0.75084907 0.049598143 8348748
-0.029521108 0.75130457 0.049595609 8677713
-0.030358449 0.75181675 0.050140142 9138264
-0.030357227 0.75227064 0.050137624 9401436
-0.030356005 0.75272453 0.050135106 9598300
-0.030354768 0.75317836 0.050132573 9795679
-0.030353546 0.75363225 0.050130054 9993058
-0.030352324 0.75408614 0.050127536 10190437
-0.030351102 0.75454003 0.050125018 10256230
-0.030349866 0.75499386 0.050122499 10387816
-0.030348644 0.75544775 0.050119981 10453609
-0.030347422 0.75590163 0.050117463 10585195
-0.0303462 0.75635552 0.050114945 10716781
-0.030344963 0.75680935 0.050112426 10848367
-0.031182408 0.75730038 0.050657094 10783087
-0.031181186 0.7577526 0.050654575 10783087
-0.031179965 0.75820482 0.050652072 10848880
-0.031178743 0.7586571 0.050649554 10914673
-0.031177521 0.75910932 0.05064705 10914673
-0.031176299 0.7595616 0.050644532 10980466
-0.031175077 0.76001382 0.050642028 10980466
-0.031173855 0.76046604 0.05063951 11046259
-0.031172633 0.76091832 0.050637007 11046259
-0.031171411 0.76137054 0.050634488 11112052
-0.031170189 0.76182276 0.050631985 11046259
-0.031168967 0.76227504 0.050629467 11112052
-0.031167746 0.76272726 0.050626963 11243638
-0.031166524 0.76317954 0.050624445 11112052
-0.031165302 0.76363176 0.050621942 11112052
-0.03116408 0.76408398 0.050619423 11112052
-0.031162858 0.76453626 0.05061692 11112052
-0.031161636 0.76498848 0.050614402 11309431
-0.031160429 0.7654407 0.050611898 11309431
-0.031159207 0.76589298 0.05060938 11309431
-0.031157985 0.7663452 0.050606877 11309433
-0.031156763 0.76679748 0.050604358 11309433
-0.031155542 0.7672497 0.050601855 11309433
-0.03115432 0.76770192 0.050599337 11375226
-0.031153098 0.7681542 0.050596833 11440506
-0.031151876 0.76860642 0.05059433 11440506
-0.031150654 0.76905864 0.050591812 11374713
-0.030310646 0.7695179 0.050041869 11440506
-0.030309424 0.76997179 0.050039351 11506299
-0.030308202 0.77042562 0.050036833 11440506
-0.030306965 0.77087951 0.050034314 11440506
-0.030305743 0.7713334 0.050031796 11440506
-0.030304521 0.77178729 0.050029278 11440506
-0.030303299 0.77224118 0.05002676 11440506
-0.030302063 0.772695 0.050024241 11440506
-0.030300841 0.77314889 0.050021708 11506299
-0.030299619 0.77360278 0.05001919 11441019
-0.030298397 0.77405667 0.050016671 11441019
-0.03029716 0.7745105 0.050014153 11375226
-0.030295938 0.77496439 0.050011635 11375226
-0.030294716 0.77541828 0.050009117 11441019
-0.030293494 0.77587217 0.050006598 11441019
-0.030292258 0.776326 0.05000408 11375226
-0.030291036 0.77677989 0.050001562 11441019
-0.030289814 0.77723378 0.049999043 11375226
-0.030288592 0.77768767 0.04999651 11441019
-0.030287355 0.77814156 0.049993992 11506299
-0.030286133 0.77859539 0.049991474 11440506
-0.030284911 0.77904928 0.049988955 11440506
-0.030283689 0.77950317 0.049986437 11440506
-0.030282453 0.77995706 0.049983919 11440506
-0.030281231 0.78041089 0.0499814 11440506
-0.030280009 0.78086478 0.049978882 11506297
-0.030278772 0.78131866 0.049976364 11440504
-0.03027755 0.78177255 0.049973845 11440504
-0.030276328 0.78222638 0.049971312 11440504
-0.030275106 0.78268027 0.049968794 11440504
-0.03027387 0.78313416 0.049966276 11506297
-0.030272648 0.78358805 0.049963757 11506297
-0.030271426 0.78404194 0.049961239 11506297
-0.030270204 0.78449577 0.049958721 11506299
-0.030268967 0.78494966 0.049956203 11506299
-0.030267745 0.78540355 0.049953684 11440506
-0.030266523 0.78585744 0.049951166 11440506
-0.030265301 0.78631127 0.049948648 11506299
-0.030264065 0.78676516 0.049946129 11440506
-0.030262843 0.78721905 0.049943596 11440506
-0.030261621 0.78767294 0.049941078 11440506
-0.030260399 0.78812677 0.04993856 11440506
-0.030259162 0.78858066 0.049936041 11374713
-0.03025794 0.78903455 0.049933523 11374713
-0.030256718 0.78948843 0.049931005 11440506
-0.030255497 0.78994226 0.049928486 11440504
-0.03025426 0.79039615 0.049925968 11440504
-0.030253038 0.79085004 0.04992345 11440504
-0.030251816 0.79130393 0.049920931 11440504
-0.030250594 0.79175782 0.049918413 11506297
-0.030249357 0.79221165 0.04991588 11440504
-0.030248135 0.79266554 0.049913362 11637115
-0.029407948 0.79321128 0.049362957 11637115
-0.029406711 0.79366678 0.049360439 11637115
-0.029405475 0.79412234 0.049357906 11571322
-0.029404253 0.79457784 0.049355373 11702908
-0.029403016 0.79503334 0.049352854 11637115
-0.029401794 0.79548883 0.049350321 11637115
-0.029400557 0.79594433 0.049347788 11571322
-0.029399335 0.79639983 0.049345255 11637115
-0.029398099 0.79685539 0.049342737 11702908
-0.029396877 0.79731089 0.049340203 11571322
-0.02939564 0.79776639 0.04933767 11571322
-0.029394418 0.79822189 0.049335152 11637115
-0.029393181 0.79867738 0.049332619 11637115
-0.029391944 0.79913288 0.049330086 11506299
-0.029390723 0.79958844 0.049327567 11506299
-0.029389486 0.80004394 0.049325034 11440506
-0.029388264 0.80049944 0.049322501 11440506
-0.029387027 0.80095494 0.049319968 11506297
-0.029385805 0.80141044 0.049317449 11506297
-0.029384568 0.80186594 0.049314916 11506297
-0.029383346 0.80232143 0.049312383 11440504
-0.02938211 0.80277699 0.049309865 11440504
-0.029380873 0.80323249 0.049307331 11506297
-0.029379651 0.80368799 0.049304798 11440506
-0.029378414 0.80414349 0.04930228 11506299
-0.029377192 0.80459899 0.049299747 11506299
-0.029375955 0.80505449 0.049297214 11440506
-0.029374734 0.80551004 0.04929468 11506299
-0.029373497 0.80596554 0.049292162 11572092
-0.029372275 0.80642104 0.049289629 11637883
-0.029371038 0.80687654 0.049287096 11440504
-0.029369801 0.80733204 0.049284577 11506297
-0.029368579 0.80778754 0.049282044 11506297
-0.029367343 0.8082431 0.049279511 11572090
-0.029366121 0.80869859 0.049276978 11572090
-0.029364884 0.80915409 0.049274459 11506299
-0.029363662 0.80960959 0.049271926 11506299
-0.029362425 0.81006509 0.049269393 11506299
-0.029361203 0.81052059 0.049266875 11506299
-0.029359967 0.81097615 0.049264342 11506299
-0.029358745 0.81143165 0.049261808 11572092
-0.029357508 0.81188715 0.04925929 11572092
-0.029356271 0.81234264 0.049256757 11572092
-0.029355049 0.81279814 0.049254224 11702908
-0.029353812 0.81325364 0.049251705 11702908
-0.02935259 0.81370914 0.049249172 11768701
-0.029351354 0.8141647 0.049246639 11834494
-0.029350132 0.8146202 0.049244106 11768701
-0.028509706 0.81524593 0.048693269 11768701
-0.028508469 0.81570309 0.048690721 11768699
-0.028507233 0.8161602 0.048688188 11834492
-0.028505996 0.81661737 0.048685655 11834492
-0.028504759 0.81707448 0.048683107 11834492
-0.028503522 0.81753165 0.048680574 11768699
-0.0285023 0.81798875 0.048678041 11768699
-0.028501064 0.81844592 0.048675492 11834492
-0.028499827 0.81890303 0.048672959 11966078
-0.02849859 0.8193602 0.048670426 11834492
-0.028497353 0.81981736 0.048667878 11834492
-0.028496116 0.82027447 0.048665345 12031871
-0.028494895 0.82073164 0.048662812 11966078
-0.028493658 0.82118875 0.048660278 11966078
-0.028492421 0.82164592 0.04865773 11966078
-0.028491184 0.82210302 0.048655197 11901055
-0.028489947 0.82256019 0.048652664 11901055
-0.028488711 0.8230173 0.048650116 11901055
-0.028487474 0.82347447 0.048647583 11966848
-0.028486252 0.82393163 0.048645049 11966848
-0.028485015 0.82438874 0.048642501 11901055
-0.028483778 0.82484591 0.048639968 11966850
-0.028482541 0.82530302 0.048637435 12032643
-0.028481305 0.82576019 0.048634887 12098436
-0.028480068 0.82621729 0.048632354 12164229
-0.028478831 0.82667446 0.04862982 12164229
-0.027638271 0.8273443 0.048078716 12098436
-0.02763702 0.82780308 0.048076183 12361608
-0.027635783 0.82826185 0.048073635 12427401
-0.027634546 0.82872063 0.048071086 12493194
-0.027633309 0.82917941 0.048068538 12756366
-0.027632073 0.82963818 0.04806599 12953745
-0.026791513 0.8303194 0.047514826 13085331
-0.026790261 0.83077979 0.047512278 13283225
-0.026789024 0.83124024 0.047509715 13677983
-0.025948405 0.83192801 0.046958506 13940901
-0.025947154 0.83239007 0.046955943 14269866
-0.029298469 0.74948412 0.050000668 7099453
-0.029297233 0.74993962 0.049998134 7494209
-0.029296011 0.75039512 0.049995601 7888967
-0.029294774 0.75085062 0.049993068 8348748
-0.029293552 0.75130612 0.04999055 8743506
-0.030131698 0.7518183 0.050533667 9138264
-0.030130476 0.75227219 0.050531149 9401436
-0.030129254 0.75272608 0.050528616 9598300
-0.030128017 0.75317997 0.050526097 9795679
-0.030126795 0.7536338 0.050523579 10058851
-0.030125573 0.75408769 0.050521061 10256230
-0.030124351 0.75454158 0.050518543 10387816
-0.030123115 0.75499547 0.050516024 10453609
-0.030121893 0.75544935 0.050513506 10519402
-0.030120671 0.75590318 0.050510988 10585195
-0.030119449 0.75635707 0.050508469 10716781
-0.030118212 0.75681096 0.050505951 10848367
-0.030956477 0.75730193 0.051049188 10783087
-0.030955255 0.75775415 0.051046684 10783087
-0.030954033 0.75820643 0.051044166 10848880
-0.030952811 0.75865865 0.051041663 10914673
-0.030951589 0.75911087 0.051039159 10914673
-0.030950367 0.75956315 0.051036641 10980466
-0.030949146 0.76001537 0.051034138 10980466
-0.030947924 0.76046765 0.051031619 11046259
-0.030946702 0.76091987 0.051029116 11046259
-0.03094548 0.76137209 0.051026598 11112052
-0.030944258 0.76182437 0.051024094 11046259
-0.030943036 0.76227659 0.051021576 11243638
-0.030941814 0.76272881 0.051019073 11243638
-0.030940592 0.76318109 0.051016554 11112052
-0.03093937 0.76363331 0.051014051 11112052
-0.030938148 0.76408559 0.051011533 11112052
-0.030936927 0.76453781 0.051009029 11112054
-0.030935705 0.76499003 0.051006511 11309433
-0.030934483 0.76544231 0.051004007 11309433
-0.030933261 0.76589453 0.051001489 11309433
-0.030932039 0.76634675 0.050998986 11243640
-0.030930817 0.76679903 0.050996467 11309433
-0.030929595 0.76725125 0.050993964 11309433
-0.030928373 0.76770353 0.050991446 11309433
-0.030927166 0.76815575 0.050988942 11375226
-0.030925944 0.76860797 0.050986424 11375226
-0.030924723 0.76906025 0.050983921 11440506
-0.030083895 0.76951945 0.050435394 11506299
-0.030082673 0.76997334 0.050432876 11506299
-0.030081451 0.77042723 0.050430357 11440506
-0.030080214 0.77088112 0.050427839 11440506
-0.030078992 0.77133495 0.050425321 11440506
-0.03007777 0.77178884 0.050422803 11440506
-0.030076548 0.77224272 0.050420269 11440506
-0.030075312 0.77269661 0.050417751 11440506
-0.03007409 0.77315044 0.050415233 11440506
-0.030072868 0.77360433 0.050412714 11441019
-0.030071646 0.77405822 0.050410196 11441019
-0.030070409 0.77451211 0.050407678 11375226
-0.030069187 0.774966 0.05040516 11375226
-0.030067965 0.77541983 0.050402641 11441019
-0.030066743 0.77587372 0.050400123 11441019
-0.030065507 0.77632761 0.050397605 11441019
-0.030064285 0.7767815 0.050395072 11441019
-0.030063063 0.77723533 0.050392553 11441019
-0.030061841 0.77768922 0.050390035 11441019
-0.030060604 0.77814311 0.050387517 11506299
-0.030059382 0.778597 0.050384998 11506299
-0.03005816 0.77905083 0.05038248 11506299
-0.030056924 0.77950472 0.050379962 11440506
-0.030055702 0.77995861 0.050377443 11374713
-0.03005448 0.7804125 0.050374925 11440506
-0.030053258 0.78086638 0.050372407 11440504
-0.030052021 0.78132021 0.050369889 11440504
-0.030050799 0.7817741 0.050367355 11506297
-0.030049577 0.78222799 0.050364837 11440504
-0.030048355 0.78268188 0.050362319 11440504
-0.030047119 0.78313571 0.0503598 11506297
-0.030045897 0.7835896 0.050357282 11506297
-0.030044675 0.78404349 0.050354764 11506297
-0.030043453 0.78449738 0.050352246 11506297
-0.030042216 0.78495121 0.050349727 11506297
-0.030040994 0.7854051 0.050347209 11440504
-0.030039772 0.78585899 0.050344691 11440504
-0.03003855 0.78631288 0.050342172 11506297
-0.030037314 0.78676677 0.050339639 11440504
-0.030036092 0.7872206 0.050337121 11440504
-0.03003487 0.78767449 0.050334603 11440504
-0.030033648 0.78812838 0.050332084 11440504
-0.030032411 0.78858227 0.050329566 11440504
-0.030031189 0.7890361 0.050327048 11374711
-0.030029967 0.78948998 0.050324529 11440504
-0.030028746 0.78994387 0.050322011 11374711
-0.030027509 0.79039776 0.050319493 11440504
-0.030026287 0.79085159 0.050316975 11440504
-0.030025065 0.79130548 0.050314456 11440504
-0.030023843 0.79175937 0.050311923 11506297
-0.030022606 0.79221326 0.050309405 11440504
-0.030021384 0.79266709 0.050306886 11571320
-0.029180378 0.79321289 0.049757898 11571320
-0.029179141 0.79366839 0.049755365 11571320
-0.029177919 0.79412389 0.049752846 11571320
-0.029176682 0.79457939 0.049750313 11637113
-0.02917546 0.79503489 0.04974778 11637113
-0.029174224 0.79549044 0.049745262 11637113
-0.029173002 0.79594594 0.049742728 11571320
-0.029171765 0.79640144 0.049740195 11637115
-0.029170528 0.79685694 0.049737677 11637115
-0.029169306 0.79731244 0.049735144 11571322
-0.029168069 0.79776794 0.049732611 11571322
-0.029166847 0.7982235 0.049730092 11637115
-0.029165611 0.79867899 0.049727559 11637115
-0.029164389 0.79913449 0.049725026 11637115
-0.029163152 0.79958999 0.049722493 11637115
-0.02916193 0.80004549 0.049719974 11571322
-0.029160693 0.80050099 0.049717441 11571322
-0.029159456 0.80095649 0.049714908 11637115
-0.029158235 0.80141205 0.04971239 11637115
-0.029156998 0.80186754 0.049709857 11637113
-0.029155776 0.80232304 0.049707323 11637113
-0.029154539 0.80277854 0.04970479 11571320
-0.029153317 0.80323404 0.049702272 11637113
-0.02915208 0.80368954 0.049699739 11506299
-0.029150859 0.8041451 0.049697205 11572092
-0.029149622 0.8046006 0.049694687 11506299
-0.0291484 0.8050561 0.049692154 11440506
-0.029147163 0.80551159 0.049689621 11506297
-0.029145926 0.80596709 0.049687102 11572090
-0.029144704 0.80642259 0.049684569 11572090
-0.029143468 0.80687809 0.049682036 11440504
-0.029142246 0.80733365 0.049679503 11506297
-0.029141009 0.80778915 0.049676985 11506297
-0.029139787 0.80824465 0.049674451 11572090
-0.02913855 0.80870014 0.049671918 11506297
-0.029137328 0.80915564 0.0496694 11506299
-0.029136091 0.8096112 0.049666867 11506299
-0.029134855 0.8100667 0.049664333 11506299
-0.029133633 0.8105222 0.049661815 11506299
-0.029132396 0.8109777 0.049659282 11572092
-0.029131174 0.8114332 0.049656749 11572092
-0.029129937 0.81188869 0.049654216 11572092
-0.029128715 0.81234419 0.049651697 11572092
-0.029127479 0.81279969 0.049649164 11702908
-0.029126257 0.81325525 0.049646631 11702908
-0.02912502 0.81371075 0.049644113 11768701
-0.029123783 0.81416625 0.049641579 11834494
-0.029122561 0.81462175 0.049639046 11768701
-0.028281316 0.81524754 0.049089611 11768701
-0.028280079 0.81570464 0.049087077 11768699
-0.028278857 0.81616181 0.049084544 11768699
-0.028277621 0.81661892 0.049082011 11834492
-0.028276384 0.81707609 0.049079463 11834492
-0.028275147 0.8175332 0.04907693 11768699
-0.02827391 0.81799036 0.049074396 11834492
-0.028272673 0.81844747 0.049071848 11834492
-0.028271437 0.81890464 0.049069315 11966078
-0.028270215 0.81936181 0.049066782 11966078
-0.028268978 0.81981891 0.049064234 11834492
-0.028267741 0.82027608 0.049061701 12031871
-0.028266504 0.82073319 0.049059168 11966078
-0.028265268 0.82119036 0.049056619 11834492
-0.028264031 0.82164747 0.049054086 11966078
-0.028262794 0.82210463 0.049051553 11901055
-0.028261572 0.82256174 0.049049005 11835262
-0.028260335 0.82301891 0.049046472 11901055
-0.028259099 0.82347608 0.049043939 11901055
-0.028257862 0.82393318 0.04904139 11966848
-0.028256625 0.82439035 0.049038857 11901055
-0.028255388 0.82484746 0.049036324 11966850
-0.028254166 0.82530463 0.049033791 12032643
-0.028252929 0.82576174 0.049031243 12098436
-0.028251693 0.8262189 0.04902871 12164229
-0.028250456 0.82667601 0.049026176 12164229
-0.027409062 0.82734585 0.048476487 12164229
-0.027407825 0.82780463 0.048473939 12427401
-0.027406588 0.8282634 0.048471391 12427401
-0.027405351 0.82872218 0.048468858 12493194
-0.027404115 0.82918096 0.04846631 12756366
-0.027402878 0.82963973 0.048463762 12953745
-0.026561499 0.83032101 0.047914013 13085331
-0.026560247 0.8307814 0.047911465 13282971
-0.02655901 0.83124185 0.047908902 13677729
-0.025717571 0.83192962 0.047359109 13810087
-0.02571632 0.83239168 0.047356546 14139052
-0.029070899 0.74948567 0.050395593 7099453
-0.029069677 0.74994117 0.050393075 7625025
-0.02906844 0.75039667 0.050390542 8019783
-0.029067203 0.75085223 0.050388008 8348748
-0.029065982 0.75130773 0.05038549 8743506
-0.029904947 0.75181991 0.050927192 9203544
-0.029903725 0.7522738 0.050924659 9466716
-0.029902503 0.75272763 0.05092214 9598302
-0.029901266 0.75318152 0.050919622 9795681
-0.029900044 0.75363541 0.050917104 10124644
-0.029898822 0.7540893 0.050914586 10256230
-0.0298976 0.75454313 0.050912067 10387816
-0.029896364 0.75499701 0.050909549 10453609
-0.029895142 0.7554509 0.050907031 10519402
-0.02989392 0.75590479 0.050904512 10519402
-0.029892698 0.75635862 0.050901994 10585708
-0.029891461 0.75681251 0.050899476 10651501
-0.030730531 0.75730348 0.051441297 10651501
-0.030729309 0.75775576 0.051438794 10848880
-0.030728087 0.75820798 0.051436275 10914673
-0.030726865 0.7586602 0.051433772 10914673
-0.030725643 0.75911248 0.051431254 10914673
-0.030724436 0.7595647 0.05142875 10980466
-0.030723214 0.76001698 0.051426232 11046259
-0.030721992 0.7604692 0.051423728 11046259
-0.03072077 0.76092142 0.05142121 11046259
-0.030719548 0.7613737 0.051418707 11112052
-0.030718327 0.76182592 0.051416188 11112052
-0.030717105 0.76227814 0.051413685 11243638
-0.030715883 0.76273042 0.051411182 11243638
-0.030714661 0.76318264 0.051408663 11112052
-0.030713439 0.76363492 0.05140616 11112054
-0.030712217 0.76408714 0.051403642 11243640
-0.030710995 0.76453936 0.051401138 11112054
-0.030709773 0.76499164 0.05139862 11309433
-0.030708551 0.76544386 0.051396117 11309433
-0.03070733 0.76589608 0.051393598 11309433
-0.030706108 0.76634836 0.051391095 11309433
-0.030704886 0.76680058 0.051388577 11309433
-0.030703664 0.76725286 0.051386073 11309433
-0.030702442 0.76770508 0.051383555 11309433
-0.03070122 0.7681573 0.051381052 11375226
-0.030699998 0.76860958 0.051378533 11441019
-0.030698776 0.7690618 0.05137603 11440506
-0.029857144 0.76952106 0.050828919 11440506
-0.029855922 0.76997489 0.050826401 11506299
-0.0298547 0.77042878 0.050823882 11440506
-0.029853463 0.77088267 0.050821364 11440506
-0.029852241 0.77133656 0.050818831 11440506
-0.029851019 0.77179044 0.050816312 11506299
-0.029849797 0.77224427 0.050813794 11506299
-0.029848561 0.77269816 0.050811276 11440506
-0.029847339 0.77315205 0.050808758 11440506
-0.029846117 0.77360594 0.050806239 11506299
-0.029844895 0.77405977 0.050803721 11506299
-0.029843658 0.77451366 0.050801203 11506299
-0.029842436 0.77496755 0.050798684 11506299
-0.029841214 0.77542144 0.050796166 11441019
-0.029839993 0.77587527 0.050793648 11441019
-0.029838756 0.77632916 0.050791115 11441019
-0.029837534 0.77678305 0.050788596 11441019
-0.029836312 0.77723694 0.050786078 11441019
-0.029835075 0.77769083 0.05078356 11441019
-0.029833853 0.77814466 0.050781041 11440506
-0.029832631 0.77859855 0.050778523 11506299
-0.029831409 0.77905244 0.050776005 11506299
-0.029830173 0.77950633 0.050773486 11440506
-0.029828951 0.77996016 0.050770968 11374711
-0.029827729 0.78041404 0.05076845 11440504
-0.029826507 0.78086793 0.050765932 11440504
-0.02982527 0.78132182 0.050763398 11440504
-0.029824048 0.78177565 0.05076088 11506297
-0.029822826 0.78222954 0.050758362 11440504
-0.029821604 0.78268343 0.050755844 11440504
-0.029820368 0.78313732 0.050753325 11506297
-0.029819146 0.78359115 0.050750807 11506297
-0.029817924 0.78404504 0.050748289 11506297
-0.029816702 0.78449893 0.05074577 11506297
-0.029815465 0.78495282 0.050743252 11506297
-0.029814243 0.78540671 0.050740734 11440504
-0.029813021 0.78586054 0.050738215 11440504
-0.0298118 0.78631443 0.050735682 11506297
-0.029810563 0.78676832 0.050733164 11440504
-0.029809341 0.78722221 0.050730646 11506297
-0.029808119 0.78767604 0.050728127 11506297
-0.029806897 0.78812993 0.050725609 11506297
-0.02980566 0.78858382 0.050723091 11440504
-0.029804438 0.7890377 0.050720572 11374711
-0.029803216 0.78949153 0.050718054 11440504
-0.029801995 0.78994542 0.050715536 11374711
-0.029800758 0.79039931 0.050713018 11374711
-0.029799536 0.7908532 0.050710499 11374711
-0.029798314 0.79130709 0.050707966 11440504
-0.029797092 0.79176092 0.050705448 11440504
-0.029795855 0.79221481 0.050702929 11440504
-0.029794633 0.7926687 0.050700411 11571320
-0.028952807 0.79321444 0.050152838 11571320
-0.028951585 0.79366994 0.050150305 11637113
-0.028950348 0.7941255 0.050147787 11571320
-0.028949112 0.794581 0.050145254 11637113
-0.02894789 0.79503649 0.05014272 11637113
-0.028946653 0.79549199 0.050140202 11637113
-0.028945431 0.79594749 0.050137669 11571320
-0.028944194 0.79640299 0.050135136 11637113
-0.028942972 0.79685855 0.050132602 11637113
-0.028941736 0.79731405 0.050130084 11571322
-0.028940514 0.79776955 0.050127551 11571322
-0.028939277 0.79822505 0.050125018 11637115
-0.02893804 0.79868054 0.050122499 11637115
-0.028936818 0.79913604 0.050119966 11637115
-0.028935581 0.79959154 0.050117433 11637115
-0.02893436 0.8000471 0.050114915 11571322
-0.028933123 0.8005026 0.050112382 11571322
-0.028931901 0.8009581 0.050109848 11637113
-0.028930664 0.8014136 0.050107315 11637113
-0.028929442 0.80186909 0.050104797 11702906
-0.028928205 0.80232459 0.050102264 11637113
-0.028926969 0.80278015 0.05009973 11571320
-0.028925747 0.80323565 0.050097212 11637113
-0.02892451 0.80369115 0.050094679 11506299
-0.028923288 0.80414665 0.050092146 11506299
-0.028922051 0.80460215 0.050089628 11506299
-0.028920829 0.80505764 0.050087094 11440506
-0.028919592 0.80551314 0.050084561 11506297
-0.028918371 0.8059687 0.050082028 11572090
-0.028917134 0.8064242 0.05007951 11572090
-0.028915912 0.8068797 0.050076976 11440504
-0.028914675 0.8073352 0.050074443 11440504
-0.028913438 0.8077907 0.050071925 11506297
-0.028912216 0.80824625 0.050069392 11572090
-0.02891098 0.80870175 0.050066859 11572090
-0.028909758 0.80915725 0.050064325 11506297
-0.028908521 0.80961275 0.050061807 11506297
-0.028907299 0.81006825 0.050059274 11506297
-0.028906062 0.81052375 0.050056741 11572090
-0.02890484 0.81097925 0.050054222 11572090
-0.028903604 0.81143481 0.050051689 11572090
-0.028902367 0.8118903 0.050049156 11572090
-0.028901145 0.8123458 0.050046638 11506297
-0.028899908 0.8128013 0.050044104 11702906
-0.028898686 0.8132568 0.050041571 11702906
-0.028897449 0.8137123 0.050039053 11768699
-0.028896227 0.81416786 0.05003652 11834492
-0.028894991 0.81462336 0.050033987 11768699
-0.028052941 0.81524909 0.049485967 11768699
-0.028051704 0.81570625 0.049483433 11834492
-0.028050467 0.81616336 0.0494809 11768699
-0.028049231 0.81662053 0.049478352 11834492
-0.028047994 0.81707764 0.049475819 11834492
-0.028046757 0.8175348 0.049473286 11768699
-0.028045535 0.81799197 0.049470738 11768699
-0.028044298 0.81844908 0.049468204 11768699
-0.028043061 0.81890625 0.049465671 11834492
-0.028041825 0.81936336 0.049463123 11834492
-0.028040588 0.81982052 0.04946059 11834492
-0.028039351 0.82027763 0.049458057 12031871
-0.028038129 0.8207348 0.049455523 11966078
-0.028036892 0.82119191 0.049452975 11966078
-0.028035656 0.82164907 0.049450442 11966078
-0.028034419 0.82210624 0.049447909 12031871
-0.028033182 0.82256335 0.049445361 12031871
-0.028031945 0.82302052 0.049442828 12031871
-0.028030708 0.82347763 0.049440295 12031871
-0.028029487 0.82393479 0.049437746 12097664
-0.02802825 0.8243919 0.049435213 12097664
-0.028027013 0.82484907 0.04943268 11966850
-0.028025776 0.82530618 0.049430132 12032643
-0.028024539 0.82576334 0.049427599 12032643
-0.028023303 0.82622045 0.049425066 12164229
-0.028022081 0.82667762 0.049422532 12164229
-0.027179867 0.82734746 0.048874259 12164229
-0.02717863 0.82780623 0.048871711 12361608
-0.027177393 0.82826501 0.048869163 12427401
-0.027176157 0.82872379 0.048866615 12493194
-0.02717492 0.82918257 0.048864067 12756366
-0.027173668 0.82964134 0.048861533 12887952
-0.026331484 0.83032262 0.0483132 13085331
-0.026330248 0.83078301 0.048310637 13282971
-0.026328996 0.8312434 0.048308089 13677729
-0.025486737 0.83193123 0.047759712 13810085
-0.025485501 0.83239329 0.047757149 14073257
-0.028847024 0.74812073 0.050798118 6310450
-0.028845802 0.74857622 0.0507956 6310450
-0.028844565 0.74903172 0.050793067 6770234
-0.02968432 0.74955207 0.051333308 7099199
-0.029683098 0.75000596 0.05133079 7560002
-0.029681876 0.75045985 0.051328272 7888967
-0.029680654 0.75091374 0.051325738 8348748
-0.029679418 0.75136757 0.05132322 8743506
-0.029678196 0.75182146 0.051320702 9203544
-0.029676974 0.75227535 0.051318184 9466716
-0.029675752 0.75272924 0.051315665 9729888
-0.029674515 0.75318307 0.051313147 9795681
-0.029673293 0.75363696 0.051310629 10124646
-0.029672071 0.75409085 0.05130811 10190439
-0.030511931 0.75459158 0.051848471 10387818
-0.030510709 0.75504386 0.051845968 10453611
-0.030509487 0.75549608 0.051843449 10519404
-0.030508265 0.75594831 0.051840946 10585197
-0.030507043 0.75640059 0.051838428 10519917
-0.030505821 0.75685281 0.051835924 10585710
-0.030504599 0.75730509 0.051833406 10651501
-0.030503377 0.75775731 0.051830903 10848880
-0.030502155 0.75820953 0.051828384 10980466
-0.03134203 0.75869399 0.052368805 10980466
-0.031340808 0.7591446 0.052366316 10980466
-0.031339601 0.75959522 0.052363813 10980466
-0.031338379 0.76004583 0.05236131 11046259
-0.031337157 0.76049644 0.052358806 11112052
-0.03133595 0.76094705 0.052356303 11046259
-0.031334728 0.76139766 0.052353799 11112052
-0.031333506 0.76184827 0.052351296 11112052
-0.031332299 0.76229888 0.052348793 11112052
-0.031331077 0.76274949 0.052346289 11112052
-0.031329855 0.76320004 0.052343801 11112052
-0.031328648 0.76365066 0.052341297 11112054
-0.031327426 0.76410127 0.052338794 11243640
-0.031326205 0.76455188 0.05233629 11112054
-0.031324998 0.76500249 0.052333787 11243640
-0.031323776 0.7654531 0.052331284 11309433
-0.031322554 0.76590371 0.05232878 11375226
-0.031321347 0.76635432 0.052326292 11309433
-0.030478954 0.76680213 0.051780686 11309433
-0.030477732 0.76725441 0.051778167 11375226
-0.030476511 0.76770663 0.051775664 11375226
-0.030475289 0.76815891 0.051773161 11441019
-0.030474067 0.76861113 0.051770642 11441019
-0.030472845 0.76906335 0.051768124 11506299
-0.030471623 0.76951563 0.051765621 11506299
-0.030470401 0.76996785 0.051763117 11506299
-0.030469179 0.77042007 0.051760599 11506299
-0.030467957 0.77087235 0.051758096 11440506
-0.030466735 0.77132457 0.051755577 11440506
-0.030465513 0.77177685 0.051753074 11506299
-0.030464292 0.77222908 0.051750556 11440506
-0.03046307 0.7726813 0.051748052 11440506
-0.030461848 0.77313358 0.051745534 11440506
-0.030460626 0.7735858 0.051743031 11506299
-0.030459419 0.77403802 0.051740512 11506299
-0.030458197 0.7744903 0.051738009 11506299
-0.030456975 0.77494252 0.051735491 11506299
-0.030455753 0.7753948 0.051732987 11441019
-0.030454531 0.77584702 0.051730469 11441019
-0.030453309 0.77629924 0.051727965 11441019
-0.030452088 0.77675152 0.051725447 11441019
-0.030450866 0.77720374 0.051722944 11441019
-0.030449644 0.77765596 0.051720425 11441019
-0.030448422 0.77810824 0.051717922 11440506
-0.0304472 0.77856046 0.051715404 11506299
-0.030445978 0.77901274 0.0517129 11506297
-0.030444756 0.77946496 0.051710382 11440504
-0.030443534 0.77991718 0.051707879 11374711
-0.030442312 0.78036946 0.05170536 11440504
-0.03044109 0.78082168 0.051702857 11440504
-0.030439869 0.7812739 0.051700339 11440504
-0.030438647 0.78172618 0.051697835 11506297
-0.030437425 0.7821784 0.051695317 11506297
-0.030436203 0.78263068 0.051692814 11506297
-0.030434981 0.7830829 0.05169031 11506297
-0.030433759 0.78353512 0.051687792 11506297
-0.030432537 0.7839874 0.051685274 11506297
-0.030431315 0.78443962 0.05168277 11440504
-0.030430093 0.78489184 0.051680267 11506297
-0.030428886 0.78534412 0.051677749 11440504
-0.030427665 0.78579634 0.051675245 11440504
-0.030426443 0.78624862 0.051672727 11506297
-0.030425221 0.78670084 0.051670223 11506297
-0.030423999 0.78715307 0.051667705 11506297
-0.030422777 0.78760535 0.051665202 11506297
-0.030421555 0.78805757 0.051662683 11506297
-0.030420333 0.78850979 0.05166018 11506297
-0.030419111 0.78896207 0.051657662 11440504
-0.030417889 0.78941429 0.051655158 11440504
-0.030416667 0.78986657 0.05165264 11374711
-0.030415446 0.79031879 0.051650137 11374711
-0.030414224 0.79077101 0.051647618 11374711
-0.030413002 0.79122329 0.051645115 11440504
-0.03041178 0.79167551 0.051642597 11440504
-0.030410558 0.79212773 0.051640093 11440504
-0.030409336 0.79258001 0.051637575 11637113
-0.029566661 0.79312414 0.051091418 11571320
-0.029565439 0.79357803 0.051088899 11637113
-0.029564202 0.79403186 0.051086381 11571320
-0.02956298 0.79448575 0.051083863 11637113
-0.029561758 0.79493964 0.05108133 11637113
-0.029560536 0.79539353 0.051078811 11637113
-0.029559299 0.79584742 0.051076293 11637113
-0.029558077 0.79630125 0.051073775 11637113
-0.029556856 0.79675514 0.051071256 11637113
-0.029555619 0.79720902 0.051068738 11637113
-0.029554397 0.79766291 0.05106622 11637113
-0.029553175 0.79811674 0.051063702 11637115
-0.029551953 0.79857063 0.051061183 11637115
-0.029550716 0.79902452 0.051058665 11571322
-0.029549494 0.79947841 0.051056147 11637115
-0.029548272 0.79993224 0.051053613 11571322
-0.029547051 0.80038613 0.051051095 11637115
-0.029545814 0.80084002 0.051048577 11637115
-0.029544592 0.80129391 0.051046059 11637115
-0.02954337 0.8017478 0.05104354 11637113
-0.029542148 0.80220163 0.051041022 11637113
-0.029540911 0.80265552 0.051038504 11571320
-0.029539689 0.80310941 0.051035985 11637113
-0.029538468 0.8035633 0.051033467 11506299
-0.029537246 0.80401713 0.051030949 11506299
-0.029536009 0.80447102 0.051028416 11506299
-0.029534787 0.80492491 0.051025897 11506299
-0.029533565 0.80537879 0.051023379 11506297
-0.029532343 0.80583262 0.051020861 11506297
-0.029531106 0.80628651 0.051018342 11572090
-0.029529884 0.8067404 0.051015824 11506297
-0.029528663 0.80719429 0.051013306 11440504
-0.029527441 0.80764818 0.051010787 11506297
-0.029526204 0.80810201 0.051008269 11572090
-0.029524982 0.8085559 0.051005751 11506297
-0.02952376 0.80900979 0.051003218 11506297
-0.029522538 0.80946368 0.051000699 11506297
-0.029521301 0.80991751 0.050998181 11506297
-0.029520079 0.8103714 0.050995663 11572090
-0.029518858 0.81082529 0.050993145 11572090
-0.029517636 0.81127918 0.050990626 11572090
-0.029516399 0.81173301 0.050988108 11637883
-0.029515177 0.8121869 0.05098559 11572090
-0.028672352 0.81280285 0.050439045 11572090
-0.028671116 0.81325841 0.050436512 11572090
-0.028669894 0.81371391 0.050433978 11702906
-0.028668657 0.81416941 0.05043146 11768699
-0.02866742 0.81462491 0.050428927 11768699
-0.028666198 0.8150804 0.050426394 11702906
-0.028664961 0.8155359 0.050423861 11834492
-0.02866374 0.81599146 0.050421342 11966078
-0.028662503 0.81644696 0.050418809 11834492
-0.028661281 0.81690246 0.050416276 11768699
-0.028660044 0.81735796 0.050413758 11834492
-0.028658822 0.81781346 0.050411224 11834492
-0.028657585 0.81826895 0.050408691 11768699
-0.028656363 0.81872451 0.050406158 11834492
-0.028655127 0.81918001 0.05040364 11834492
-0.02865389 0.81963551 0.050401106 11834492
-0.028652668 0.82009101 0.050398573 11966078
-0.028651431 0.82054651 0.050396055 11966078
-0.028650209 0.82100201 0.050393522 11966078
-0.028648973 0.82145751 0.050390989 11966078
-0.028647751 0.82191306 0.05038847 12031871
-0.028646514 0.82236856 0.050385937 12031871
-0.028645277 0.82282406 0.050383404 12031871
-0.028644055 0.82327956 0.050380886 12097664
-0.028642818 0.82373506 0.050378352 12097664
-0.028641596 0.82419056 0.050375819 12097664
-0.02864036 0.82464612 0.050373286 11966848
-0.028639138 0.82510161 0.050370768 12032641
-0.028637901 0.82555711 0.050368235 12032643
-0.028636679 0.82601261 0.050365701 12098436
-0.028635442 0.82646811 0.050363183 12164229
-0.027792454 0.82713634 0.04981634 12164229
-0.027791217 0.82759351 0.049813807 12361608
-0.027789995 0.82805061 0.049811259 12427401
-0.027788758 0.82850778 0.049808726 12493194
-0.027787521 0.82896489 0.049806193 12624780
-0.027786285 0.82942206 0.049803644 12822672
-0.026943237 0.83010167 0.049256742 12954258
-0.026942 0.83056045 0.049254194 13217948
-0.026940763 0.83101922 0.049251661 13546913
-0.026939526 0.831478 0.049249113 13810085
-0.026938289 0.83193678 0.049246565 14073257
-0.026937038 0.83239555 0.049244016 14204845
-0.028619453 0.74812233 0.051193058 6310450
-0.028618231 0.74857783 0.051190525 6442036
-0.028616995 0.74903333 0.051188007 6770234
-0.029457569 0.74955368 0.051726833 7164992
-0.029456347 0.75000751 0.051724315 7690818
-0.029455125 0.7504614 0.051721781 8085576
-0.029453903 0.75091529 0.051719263 8480334
-0.029452667 0.75136918 0.051716745 8809299
-0.029451445 0.75182307 0.051714227 9269337
-0.029450223 0.7522769 0.051711708 9466716
-0.029449001 0.75273079 0.05170919 9729888
-0.029447764 0.75318468 0.051706672 9927267
-0.029446542 0.75363857 0.051704153 10124646
-0.02944532 0.7540924 0.051701635 10190439
-0.030285999 0.75459319 0.05224058 10387818
-0.030284777 0.75504541 0.052238062 10519404
-0.030283555 0.75549763 0.052235559 10519404
-0.030282333 0.75594991 0.05223304 10585197
-0.030281112 0.75640213 0.052230537 10519917
-0.03027989 0.75685436 0.052228034 10585710
-0.030278668 0.75730664 0.052225515 10651503
-0.030277446 0.75775886 0.052223012 10848882
-0.030276224 0.75821114 0.052220494 10914673
-0.031116918 0.75869554 0.052759498 10980466
-0.031115696 0.75914615 0.052756995 10980466
-0.031114474 0.75959677 0.052754506 11046259
-0.031113267 0.76004738 0.052752003 11112052
-0.031112045 0.76049799 0.0527495 11046259
-0.031110823 0.7609486 0.052746996 11046259
-0.031109616 0.76139921 0.052744493 11112052
-0.031108394 0.76184982 0.052741989 11046259
-0.031107172 0.76230043 0.052739486 11112052
-0.031105965 0.76275104 0.052736983 11112052
-0.031104743 0.76320165 0.052734494 11112052
-0.031103522 0.76365227 0.052731991 11243640
-0.031102315 0.76410288 0.052729487 11243640
-0.031101093 0.76455349 0.052726984 11112054
-0.031099871 0.7650041 0.052724481 11243640
-0.031098664 0.76545471 0.052721977 11309433
-0.031097442 0.76590532 0.052719474 11375226
-0.03109622 0.76635593 0.05271697 11375226
-0.030253023 0.76680374 0.052172795 11309433
-0.030251801 0.76725596 0.052170277 11375226
-0.030250579 0.76770818 0.052167773 11375226
-0.030249357 0.76816046 0.052165255 11441019
-0.030248135 0.76861268 0.052162752 11441019
-0.030246913 0.76906496 0.052160233 11441019
-0.030245692 0.76951718 0.05215773 11441019
-0.03024447 0.7699694 0.052155212 11506299
-0.030243248 0.77042168 0.052152708 11506299
-0.030242026 0.7708739 0.05215019 11440506
-0.030240804 0.77132612 0.052147686 11506299
-0.030239582 0.7717784 0.052145183 11440506
-0.03023836 0.77223063 0.052142665 11440506
-0.030237138 0.77268291 0.052140146 11440506
-0.030235916 0.77313513 0.052137643 11506299
-0.030234694 0.77358735 0.05213514 11441019
-0.030233473 0.77403963 0.052132621 11441019
-0.030232251 0.77449185 0.052130118 11441019
-0.030231029 0.77494407 0.0521276 11441019
-0.030229807 0.77539635 0.052125096 11441019
-0.030228585 0.77584857 0.052122578 11506812
-0.030227363 0.77630085 0.052120075 11506812
-0.030226141 0.77675307 0.052117556 11441019
-0.030224919 0.77720529 0.052115053 11441019
-0.030223712 0.77765757 0.052112535 11441019
-0.03022249 0.77810979 0.052110031 11375224
-0.030221269 0.77856201 0.052107513 11375224
-0.030220047 0.77901429 0.05210501 11440504
-0.030218825 0.77946651 0.052102491 11440504
-0.030217603 0.77991879 0.052099988 11440504
-0.030216381 0.78037101 0.05209747 11572090
-0.030215159 0.78082323 0.052094966 11441017
-0.030213937 0.78127551 0.052092448 11375224
-0.030212715 0.78172773 0.052089944 11441017
-0.030211493 0.78218001 0.052087426 11506810
-0.030210271 0.78263223 0.052084923 11506810
-0.03020905 0.78308445 0.052082404 11441017
-0.030207828 0.78353673 0.052079901 11506297
-0.030206606 0.78398895 0.052077383 11440504
-0.030205384 0.78444117 0.052074879 11440504
-0.030204162 0.78489345 0.052072361 11506297
-0.03020294 0.78534567 0.052069858 11506297
-0.030201718 0.78579795 0.052067339 11440504
-0.030200496 0.78625017 0.052064836 11506297
-0.030199274 0.78670239 0.052062333 11506297
-0.030198053 0.78715467 0.052059814 11506297
-0.030196831 0.78760689 0.052057296 11506297
-0.030195609 0.78805912 0.052054793 11506297
-0.030194402 0.7885114 0.052052289 11506297
-0.03019318 0.78896362 0.052049771 11374711
-0.030191958 0.78941584 0.052047268 11506297
-0.030190736 0.78986812 0.052044749 11440504
-0.030189514 0.79032034 0.052042246 11374711
-0.030188292 0.79077262 0.052039728 11440504
-0.03018707 0.79122484 0.052037224 11440504
-0.030185848 0.79167706 0.052034706 11440504
-0.030184627 0.79212934 0.052032202 11440504
-0.030183405 0.79258156 0.052029684 11637113
-0.02933991 0.79312569 0.051484942 11637113
-0.029338688 0.79357958 0.051482424 11702906
-0.029337451 0.79403347 0.051479906 11571320
-0.029336229 0.79448736 0.051477373 11637113
-0.029335007 0.79494119 0.051474854 11637113
-0.02933377 0.79539508 0.051472336 11637113
-0.029332548 0.79584897 0.051469818 11637113
-0.029331326 0.79630286 0.051467299 11637113
-0.029330105 0.79675674 0.051464781 11637113
-0.029328868 0.79721057 0.051462263 11702906
-0.029327646 0.79766446 0.051459745 11702906
-0.029326424 0.79811835 0.051457226 11637115
-0.029325202 0.79857224 0.051454693 11637115
-0.029323965 0.79902607 0.051452175 11571322
-0.029322743 0.79947996 0.051449656 11571322
-0.029321522 0.79993385 0.051447138 11637115
-0.0293203 0.80038774 0.05144462 11637115
-0.029319063 0.80084157 0.051442102 11637115
-0.029317841 0.80129546 0.051439583 11637115
-0.029316619 0.80174935 0.051437065 11637115
-0.029315397 0.80220324 0.051434547 11637115
-0.02931416 0.80265713 0.051432028 11571322
-0.029312938 0.80311096 0.05142951 11637115
-0.029311717 0.80356485 0.051426977 11506299
-0.029310495 0.80401874 0.051424459 11506299
-0.029309258 0.80447263 0.05142194 11506299
-0.029308036 0.80492646 0.051419422 11506299
-0.029306814 0.80538034 0.051416904 11506299
-0.029305592 0.80583423 0.051414385 11506299
-0.029304355 0.80628812 0.051411867 11506299
-0.029303133 0.80674195 0.051409349 11506299
-0.029301912 0.80719584 0.051406831 11440504
-0.02930069 0.80764973 0.051404312 11506297
-0.029299453 0.80810362 0.051401794 11572090
-0.029298231 0.80855751 0.051399261 11572090
-0.029297009 0.80901134 0.051396742 11506297
-0.029295787 0.80946523 0.051394224 11506297
-0.02929455 0.80991912 0.051391706 11506297
-0.029293329 0.81037301 0.051389188 11572090
-0.029292107 0.81082684 0.051386669 11506297
-0.029290885 0.81128073 0.051384151 11572090
-0.029289648 0.81173462 0.051381633 11637883
-0.029288426 0.81218851 0.051379114 11637883
-0.028444782 0.81280446 0.05083397 11572090
-0.028443545 0.81325996 0.050831452 11572090
-0.028442323 0.81371546 0.050828919 11506297
-0.028441086 0.81417096 0.050826386 11572090
-0.028439865 0.81462651 0.050823867 11637883
-0.028438628 0.81508201 0.050821334 11637883
-0.028437406 0.81553751 0.050818801 11835262
-0.028436169 0.81599301 0.050816283 11835262
-0.028434932 0.81644851 0.050813749 11703676
-0.02843371 0.81690401 0.050811216 11637883
-0.028432474 0.81735957 0.050808698 11703676
-0.028431252 0.81781507 0.050806165 11703676
-0.028430015 0.81827056 0.050803632 11637883
-0.028428793 0.81872606 0.050801098 11703676
-0.028427556 0.81918156 0.05079858 11703676
-0.028426334 0.81963706 0.050796047 11637883
