# .PCD v0.7 - Point Cloud Data file format
VERSION 0.7
FIELDS x y z rgb
SIZE 4 4 4 4
TYPE F F F U
COUNT 1 1 1 1
WIDTH 1122
HEIGHT 1
VIEWPOINT 0 0 0 1 0 0 0
POINTS 1122
DATA ascii
0.057407036 0.79681689 0.036136836 7030828
0.058107123 0.79632431 0.036768585 7096623
0.058016628 0.79590791 0.036766112 7096623
0.057926118 0.79549152 0.036763638 7162416
0.057835624 0.79507512 0.036761165 6899244
0.057745129 0.79465872 0.036758691 6899244
0.057654634 0.79424232 0.036756217 6899244
0.057564124 0.79382592 0.036753744 6768171
0.05747363 0.79340953 0.03675127 6768171
0.057383135 0.79299313 0.036748797 6702378
0.05729264 0.79257673 0.036746323 6504999
0.057202131 0.79216033 0.03674385 6571558
0.057906359 0.79168695 0.037375689 6439972
0.057816207 0.79127216 0.03737323 6505765
0.057726055 0.79085732 0.037370771 6505765
0.057635903 0.79044253 0.037368312 6373927
0.057545751 0.79002774 0.037365854 6439720
0.057455599 0.78961289 0.03736338 6439720
0.057365447 0.7891981 0.037360922 6505513
0.057275295 0.78878331 0.037358463 6439720
0.057185143 0.78836852 0.037355989 6571306
0.057094991 0.78795367 0.037353531 6571306
0.057004839 0.78753889 0.037351072 6571306
0.056914702 0.7871241 0.037348613 6571304
0.05682455 0.78670931 0.037346154 6637097
0.056734398 0.78629446 0.037343681 7294000
0.056644246 0.78587967 0.037341222 6767656
0.057354048 0.7854318 0.037973225 6702378
0.057264239 0.78501862 0.037970781 6965550
0.057174429 0.78460538 0.037968323 6833964
0.05708462 0.7841922 0.037965879 6965550
0.056994826 0.78377897 0.03796342 7096623
0.056905016 0.78336579 0.037960976 7096623
0.056815207 0.78295255 0.037958518 7425070
0.056725413 0.78253937 0.037956059 7490863
0.056635603 0.78212613 0.037953615 7359023
0.057348847 0.78169423 0.038585693 7424816
0.057259381 0.7812826 0.038583249 7359793
0.057169929 0.78087097 0.038580805 7294000
0.057080477 0.7804594 0.038578361 7228207
0.056991011 0.78004777 0.038575917 7294000
0.056901559 0.77963614 0.038573474 7228720
0.056812093 0.77922451 0.03857103 7162927
0.056722641 0.77881294 0.038568586 7294000
0.056633174 0.77840132 0.038566142 7359793
0.056543723 0.77798969 0.038563699 7490609
0.056454271 0.77757806 0.038561255 7490609
0.056364805 0.77716649 0.038558811 7424816
0.056275353 0.77675486 0.038556367 7490609
0.056185886 0.77634323 0.038553923 7491379
0.056904361 0.77593529 0.03918618 7557172
0.056815252 0.77552527 0.039183736 7426353
0.056726128 0.77511525 0.039181307 7492146
0.056637019 0.77470523 0.039178878 7426353
0.05654791 0.77429521 0.039176434 7426353
0.056458801 0.77388519 0.039174005 7426353
0.056369692 0.77347517 0.039171576 7492146
0.056280583 0.77306515 0.039169133 7491633
0.056191474 0.77265513 0.039166704 7557426
0.05610235 0.77224511 0.039164275 7491633
0.056013241 0.77183509 0.039161831 7491633
0.055924132 0.77142507 0.039159402 7557174
0.056647077 0.77103782 0.039791763 7557174
0.056558311 0.77062941 0.039789349 7294515
0.05646956 0.77022099 0.03978692 7162929
0.056380793 0.76981252 0.039784491 7426101
0.056292027 0.76940411 0.039782077 7491894
0.056203261 0.7689957 0.039779648 7359541
0.056928635 0.76861966 0.040412068 7030576
0.056840226 0.7682128 0.040409654 7030576
0.056751803 0.76780599 0.04040724 7096369
0.056663379 0.76739913 0.040404826 6635818
0.05657497 0.76699233 0.040402398 7293748
0.056486547 0.76658547 0.040399984 7557685
0.056398124 0.76617867 0.04039757 7557685
0.056309715 0.76577187 0.040395156 7622965
0.056221291 0.765365 0.040392742 7688758
0.056132883 0.7649582 0.040390328 7688758
0.056044459 0.76455134 0.040387914 7688758
0.055956036 0.76414454 0.0403855 7622965
0.055867627 0.76373768 0.040383086 7622965
0.055779204 0.76333088 0.040380672 7688758
0.05569078 0.76292402 0.040378243 7622965
0.055602372 0.76251721 0.040375829 7754035
0.055513948 0.76211041 0.040373415 7819828
0.056245595 0.76176304 0.041006029 7689012
0.056157529 0.76135778 0.041003615 7689012
0.056069449 0.76095259 0.041001216 7689012
0.055981383 0.76054734 0.040998816 7623219
0.055893317 0.76014209 0.040996403 7623219
0.055805236 0.7597369 0.040994003 7689012
0.05571717 0.75933164 0.040991589 7492146
0.055629104 0.75892639 0.04098919 7492146
0.055541024 0.7585212 0.040986776 7557939
0.055452958 0.75811595 0.040984377 7492146
0.055364877 0.7577107 0.040981978 7557939
0.055276811 0.7573055 0.040979564 7557939
0.056012943 0.75697887 0.041612282 7557939
0.05592522 0.75657523 0.041609883 7557939
0.055837497 0.75617158 0.041607484 7491892
0.055749774 0.75576794 0.041605085 7491892
0.055662036 0.7553643 0.041602701 7491892
0.055574313 0.75496066 0.041600302 7623478
0.05548659 0.75455701 0.041597903 7426613
0.055398867 0.75415337 0.041595504 7426613
0.055311143 0.75374979 0.041593105 7426613
0.056050748 0.75343913 0.042225927 7426613
0.055963367 0.7530371 0.042223543 7426613
0.055875987 0.752635 0.042221159 7426613
0.055788621 0.75223297 0.042218775 7557685
0.055701241 0.75183094 0.04221639 7623478
0.05561386 0.7514289 0.042214006 7557685
0.05552648 0.75102687 0.042211622 7689271
0.0554391 0.75062484 0.042209223 7622965
0.055351734 0.7502228 0.042206839 7688758
0.055264354 0.74982071 0.042204455 7622965
0.055176973 0.74941868 0.04220207 7622965
0.055089593 0.74901664 0.042199686 7622965
0.055002213 0.74861461 0.042197287 7688758
0.054914832 0.74821258 0.042194903 7622965
0.054827467 0.74781054 0.042192519 7557172
0.054740086 0.74740851 0.042190135 7491381
0.054652706 0.74700648 0.04218775 7491381
0.054565325 0.74660438 0.042185366 7557174
0.054477945 0.74620235 0.042182982 7491381
0.054390579 0.74580032 0.042180583 7491894
0.054303199 0.74539828 0.042178199 7294515
0.054215819 0.74499625 0.042175815 7294515
0.054128438 0.74459422 0.04217343 7491894
0.054041058 0.74419212 0.042171046 7228722
0.053953677 0.74379009 0.042168647 7228722
0.053866297 0.74338806 0.042166263 7162929
0.053778931 0.74298602 0.042163879 7162929
0.053691551 0.74258399 0.042161494 7031341
0.053604171 0.74218196 0.04215911 7031341
0.05351679 0.74177992 0.042156726 7031341
0.05342941 0.74137783 0.042154342 7031341
0.053342044 0.7409758 0.042151943 6965548
0.058332101 0.82067031 0.033482462 7952182
0.05823952 0.82024431 0.033479929 7754803
0.058146939 0.81981832 0.033477396 7689010
0.058054358 0.81939238 0.033474863 7689010
0.057961777 0.81896639 0.033472344 7623219
0.057869196 0.81854039 0.033469811 7623219
0.057776615 0.81811446 0.033467278 7819828
0.057684034 0.81768847 0.03346476 7819828
0.057591468 0.81726253 0.033462226 7688242
0.058274329 0.81668687 0.034092069 7754035
0.058182091 0.81626248 0.034089535 7688242
0.058089867 0.8158381 0.034087032 7688242
0.057997629 0.81541371 0.034084499 7688242
0.057905406 0.81498933 0.034081981 7688242
0.057813168 0.81456494 0.034079462 7622449
0.057720929 0.81414056 0.034076944 7688242
0.057628706 0.81371617 0.034074426 7688242
0.057536468 0.81329185 0.034071907 7688242
0.058222771 0.8127321 0.034701824 7688242
0.05813089 0.81230932 0.034699321 7688242
0.05803901 0.81188655 0.034696802 7557426
0.057947114 0.81146377 0.034694299 7491633
0.057855234 0.811041 0.034691781 7491633
0.057763353 0.81061822 0.034689277 7557426
0.057671458 0.81019545 0.034686774 7557426
0.057579577 0.80977261 0.034684256 7557426
0.057487696 0.80934983 0.034681737 7491633
0.057395801 0.80892706 0.034679234 7491633
0.05730392 0.80850428 0.034676731 7491633
0.05799441 0.80796373 0.035306782 7491633
0.057902873 0.80754256 0.035304278 7491379
0.057811335 0.80712134 0.035301775 7491379
0.057719797 0.80670017 0.035299271 7687729
0.057628259 0.806279 0.035296768 7490350
0.057536721 0.80585778 0.035294265 7287574
0.057445183 0.80543661 0.035291776 7879711
0.057353646 0.80501544 0.035289273 8010784
0.057262108 0.80459422 0.035286769 8010784
0.05795604 0.80406964 0.035916895 7813664
0.057864845 0.80365002 0.035914406 8011043
0.05777365 0.80323046 0.035911918 8078121
0.057682455 0.80281085 0.035909414 7683363
0.057591274 0.80239129 0.035906941 7484701
0.057500079 0.80197167 0.035904437 8208424
0.057408884 0.80155206 0.035901949 6827543
0.057317689 0.8011325 0.03589946 8538161
0.057226509 0.80071288 0.035896972 7884084
0.057135314 0.80029333 0.035894483 7949877
0.057044119 0.79987371 0.03589198 7753781
0.056952924 0.79945415 0.035889491 7424816
0.057651371 0.79895025 0.036519736 7490609
0.057560518 0.79853225 0.036517262 7359023
0.057469666 0.7981143 0.036514774 7096621
0.057378829 0.79769629 0.0365123 7030828
0.057287991 0.79727829 0.036509812 7030828
0.057197139 0.79686028 0.036507338 7030828
0.057898015 0.79636759 0.037137657 6899244
0.05780752 0.79595119 0.037135184 7030830
0.057717025 0.79553479 0.03713271 7162416
0.057626531 0.79511839 0.037130252 6767658
0.057536021 0.79470199 0.037127778 6570025
0.057445526 0.7942856 0.037125304 6767404
0.057355031 0.7938692 0.037122831 6636331
0.057264537 0.7934528 0.037120357 6570538
0.057174027 0.7930364 0.037117884 6636585
0.057083532 0.79262 0.037115425 6570792
0.056993037 0.79220361 0.037112951 6571304
0.057698056 0.79173005 0.037743375 6439718
0.057607904 0.7913152 0.037740916 6571304
0.057517752 0.79090041 0.037738442 6505511
0.057427615 0.79048562 0.037735984 6702378
0.057337463 0.79007083 0.037733525 6702378
0.057247311 0.78965598 0.037731051 6833964
0.057157159 0.78924119 0.037728593 7031343
0.057067007 0.78882641 0.037726134 6833964
0.056976855 0.78841162 0.037723675 6965550
0.056886703 0.78799677 0.037721217 6966064
0.056796551 0.78758198 0.037718743 7097650
0.056706399 0.78716719 0.037716284 6900269
0.056616247 0.78675234 0.037713826 6966062
0.056526095 0.78633755 0.037711352 7294000
0.056435943 0.78592277 0.037708893 7096621
0.057146549 0.78547472 0.038339496 7162414
0.05705674 0.78506154 0.038337037 7228207
0.056966931 0.7846483 0.038334578 7228207
0.056877121 0.78423512 0.038332134 7228207
0.056787327 0.78382188 0.038329691 7228207
0.056697518 0.7834087 0.038327232 7359793
0.056607708 0.78299546 0.038324773 7491633
0.056517914 0.78258228 0.03832233 7491633
0.056428105 0.78216904 0.038319871 7490863
0.057142153 0.78173697 0.038950533 7622449
0.057052687 0.78132534 0.038948089 7622195
0.056963235 0.78091377 0.038945645 7490609
0.056873769 0.78050214 0.038943201 7359793
0.056784317 0.78009051 0.038940758 7557172
0.05669485 0.77967894 0.038938329 7426099
0.056605399 0.77926731 0.038935885 7294513
0.056515947 0.77885568 0.038933441 7359793
0.05642648 0.77844405 0.038930997 7359793
0.056337029 0.77803248 0.038928553 7491379
0.056247562 0.77762085 0.03892611 7491379
0.05615811 0.77720922 0.038923666 7359793
0.056068644 0.77679759 0.038921222 7491379
0.055979192 0.77638602 0.038918778 7491379
0.056698456 0.77597785 0.039549619 7557172
0.056609347 0.77556783 0.039547175 7426099
0.056520239 0.77515781 0.039544746 7491892
0.05643113 0.77474779 0.039542317 7492146
0.056342021 0.77433777 0.039539874 7492146
0.056252897 0.77392775 0.039537445 7623219
0.056163788 0.77351773 0.039535001 7623219
0.056074679 0.77310771 0.039532572 7557426
0.05598557 0.77269769 0.039530143 7557426
0.055896461 0.77228767 0.039527699 7491379
0.055807352 0.77187765 0.03952527 7030828
0.055718243 0.77146763 0.039522842 6965550
0.056441993 0.77108026 0.040153787 6965550
0.056353226 0.77067184 0.040151358 6045732
0.05626446 0.77026337 0.040148944 6177318
0.056175694 0.76985496 0.040146515 7294515
0.056086928 0.76944655 0.040144086 7623480
0.055998161 0.76903814 0.040141672 5583643
0.05672434 0.76866192 0.040772662 5517850
0.056635931 0.76825505 0.040770248 6241062
0.056547508 0.76784825 0.040767834 6372648
0.056459084 0.76744139 0.04076542 5320471
0.056370676 0.76703459 0.040763006 6833710
0.056282252 0.76662779 0.040760592 7557685
0.056193829 0.76622093 0.040758178 7557685
0.05610542 0.76581413 0.040755764 7622965
0.056016997 0.76540726 0.04075335 7688758
0.055928588 0.76500046 0.040750936 7622965
0.055840164 0.7645936 0.040748507 7688758
0.055751741 0.7641868 0.040746093 7753781
0.055663332 0.76377994 0.040743679 7753781
0.055574909 0.76337314 0.040741265 7819574
0.055486485 0.76296628 0.040738851 7819574
0.055398077 0.76255947 0.040736437 7754035
0.055309653 0.76215267 0.040734023 7819828
0.056042105 0.76180512 0.041365221 7689012
0.055954039 0.76139992 0.041362822 7689012
0.055865958 0.76099467 0.041360408 7689012
0.055777892 0.76058942 0.041358009 7623219
0.055689812 0.76018423 0.041355595 7689012
0.055601746 0.75977898 0.041353196 7754805
0.05551368 0.75937372 0.041350782 7557426
0.055425599 0.75896847 0.041348383 7623219
0.055337533 0.75856328 0.041345984 7623219
0.055249467 0.75815803 0.04134357 7557426
0.055161387 0.75775278 0.041341156 7557939
0.055073321 0.75734758 0.041338757 7557939
0.055810243 0.75702077 0.041970059 7557939
0.05572252 0.75661719 0.04196766 7557939
0.055634797 0.75621355 0.041965261 7492146
0.055547073 0.7558099 0.041962862 7557939
0.05545935 0.75540626 0.041960478 7557939
0.055371627 0.75500262 0.041958079 7623732
0.055283904 0.75459898 0.04195568 7426613
0.055196181 0.75419533 0.041953281 7426613
0.055108458 0.75379169 0.041950881 7426615
0.055848852 0.75348085 0.042582303 7426615
0.055761486 0.75307882 0.042579904 7426615
0.055674106 0.75267678 0.04257752 7426615
0.055586725 0.75227475 0.042575136 7557685
0.055499345 0.75187272 0.042572752 7689271
0.055411965 0.75147069 0.042570367 7623478
0.055324584 0.75106865 0.042567968 7689271
0.055237219 0.75066656 0.042565584 7623478
0.055149838 0.75026453 0.0425632 7623478
0.055062458 0.74986249 0.042560816 7622965
0.054975078 0.74946046 0.042558432 7688758
0.054887697 0.74905843 0.042556047 7622965
0.054800332 0.74865639 0.042553663 7688758
0.054712951 0.7482543 0.042551264 7622965
0.054625571 0.74785227 0.04254888 7557172
0.05453819 0.74745023 0.042546496 7426101
0.05445081 0.7470482 0.042544112 7491894
0.05436343 0.74664617 0.042541727 7491894
0.054276064 0.74624413 0.042539328 7426101
0.054188684 0.7458421 0.042536944 7426101
0.054101303 0.74544007 0.04253456 7426101
0.054013923 0.74503797 0.042532176 7295029
0.053926542 0.74463594 0.042529792 7360822
0.053839177 0.74423391 0.042527407 7163441
0.053751796 0.74383187 0.042525023 7097648
0.053664416 0.74342984 0.042522624 7097648
0.053577036 0.74302781 0.04252024 7031855
0.053489655 0.74262577 0.042517856 6966062
0.053402275 0.74222368 0.042515472 6900269
0.053314909 0.74182165 0.042513087 6834476
0.053227529 0.74141961 0.042510688 6834476
0.053140149 0.74101758 0.042508304 6834476
0.058395922 0.82199246 0.033867612 8148793
0.058303341 0.82156646 0.033865094 7952184
0.05821076 0.82114053 0.033862561 7820598
0.058118179 0.82071453 0.033860028 7952182
0.058025599 0.82028854 0.033857495 7754803
0.057933033 0.8198626 0.033854961 7689010
0.058614612 0.81927717 0.034483343 7689010
0.058522373 0.81885278 0.03448081 7623219
0.05843015 0.81842846 0.034478307 7623219
0.058337912 0.81800407 0.034475774 7689012
0.058245689 0.81757969 0.03447327 7689012
0.05815345 0.8171553 0.034470737 7623219
0.058061212 0.81673092 0.034468219 7689012
0.057968989 0.81630653 0.0344657 7557426
0.057876751 0.81588215 0.034463182 7557426
0.057784528 0.81545782 0.034460664 7557426
0.057692289 0.81503344 0.034458145 7689012
0.057600066 0.81460905 0.034455627 7623219
0.05828613 0.81404436 0.035084099 7557426
0.058194235 0.81362158 0.035081595 7623219
0.058102354 0.8131988 0.035079077 7557426
0.058010474 0.81277603 0.035076559 7557426
0.057918578 0.81235325 0.035074055 7623219
0.057826698 0.81193048 0.035071552 7623219
0.057734817 0.8115077 0.035069034 7557426
0.057642922 0.81108493 0.03506653 7491633
0.057551041 0.81066215 0.035064012 7557426
0.058240607 0.81011343 0.035692602 7557426
0.05814907 0.80969226 0.035690099 7557426
0.058057517 0.80927104 0.035687611 7491633
0.057965994 0.80884987 0.035685107 7557426
0.057874441 0.80842865 0.035682604 7491633
0.057782903 0.80800748 0.035680115 7491633
0.057691365 0.80758631 0.035677612 7491379
0.057599828 0.80716509 0.035675108 7491379
0.058292478 0.80663079 0.036303759 7687729
0.058201283 0.80621117 0.036301255 7424557
0.058110103 0.80579162 0.036298782 7089941
0.058018908 0.805372 0.036296278 7879457
0.057927713 0.80495238 0.03629379 8010784
0.057836518 0.80453283 0.036291301 8076577
0.057745337 0.80411321 0.036288813 7880227
0.057654142 0.80369365 0.036286324 7946020
0.057562947 0.80327404 0.036283821 8143399
0.05825907 0.80275565 0.036912575 7551262
0.058168218 0.80233765 0.036910087 7484188
0.05807738 0.80191964 0.036907613 8273704
0.057986528 0.80150169 0.03690514 6761748
0.05789569 0.80108368 0.036902651 8406573
0.057804838 0.80066568 0.036900163 7819061
0.057714 0.80024767 0.036897689 7819061
0.057623148 0.79982966 0.036895201 7687988
0.05753231 0.79941171 0.036892727 7293230
0.057441458 0.79899371 0.036890239 7030058
0.057350621 0.7985757 0.036887765 6898472
0.057259768 0.79815769 0.036885276 6833449
0.057960406 0.79766005 0.037514165 6833449
0.057869911 0.79724365 0.037511706 6833962
0.057779416 0.79682726 0.037509233 6768169
0.057688922 0.79641086 0.037506759 6702378
0.057598412 0.79599446 0.037504286 6768171
0.057507917 0.79557806 0.037501812 7162929
0.057417423 0.79516166 0.037499338 6636585
0.057326928 0.79474527 0.037496865 6635818
0.057236433 0.79432887 0.037494391 7030576
0.057940528 0.79384714 0.038123354 6767917
0.057850376 0.79343235 0.038120896 6767917
0.057760224 0.79301751 0.038118422 6965550
0.057670072 0.79260272 0.038115963 6833964
0.05757992 0.79218793 0.038113505 6966064
0.057489768 0.79177314 0.038111046 6966064
0.057399616 0.79135829 0.038108587 6966064
0.057309464 0.7909435 0.038106114 6834478
0.058016703 0.7904762 0.038735196 7031343
0.057926893 0.79006296 0.038732737 7097136
0.057837099 0.78964972 0.038730294 7359795
0.05774729 0.78923655 0.038727835 7294002
0.05765748 0.78882331 0.038725376 7294002
0.057567686 0.78841013 0.038722932 7491381
0.057477877 0.78799689 0.038720474 7097650
0.057388067 0.78758371 0.038718015 7163443
0.057298258 0.78717047 0.038715571 7097648
0.057208464 0.78675729 0.038713112 7097648
0.057118654 0.78634405 0.038710654 7557172
0.057028845 0.78593087 0.03870821 7228207
0.056939051 0.78551763 0.038705751 7294000
0.056849241 0.78510445 0.038703308 7359793
0.056759432 0.78469121 0.038700849 7359793
0.057472199 0.78424942 0.03933005 7491379
0.057382733 0.7838378 0.039327607 7491633
0.057293281 0.78342617 0.039325163 7491633
0.057203829 0.7830146 0.039322719 7557426
0.057114363 0.78260297 0.039320275 7557426
0.057024911 0.78219134 0.039317831 7360047
0.056935444 0.78177977 0.039315388 7491633
0.056845993 0.78136814 0.039312944 7557172
0.056756526 0.78095651 0.0393105 7359793
0.056667075 0.78054488 0.039308056 7491379
0.056577623 0.78013331 0.039305612 7557172
0.056488156 0.77972168 0.039303169 7491379
0.056398705 0.77931005 0.039300725 7491379
0.056309238 0.77889842 0.039298281 7359793
0.057027236 0.77848059 0.039927647 7359793
0.056938127 0.77807057 0.039925218 7491379
0.056849018 0.77766055 0.039922774 7491379
0.056759894 0.77725053 0.039920345 7228207
0.056670785 0.77684051 0.039917901 6767656
0.056581676 0.77643049 0.039915472 7294002
0.056492567 0.77602047 0.039913043 7491381
0.056403458 0.77561045 0.0399106 7295029
0.056314349 0.77520043 0.039908171 7097650
0.056225225 0.77479041 0.039905742 7162929
0.056136116 0.77438039 0.039903298 7426101
0.056047007 0.77397037 0.039900869 7623219
0.056769475 0.77357322 0.040530354 7623219
0.056680709 0.77316481 0.040527925 7623219
0.056591958 0.77275634 0.040525511 7623219
0.056503192 0.77234793 0.040523082 7491127
0.056414425 0.77193952 0.040520653 5188372
0.056325659 0.77153111 0.040518224 6045732
0.056236893 0.77112269 0.04051581 6177318
0.056148127 0.77071422 0.040513381 5782819
0.056059361 0.77030581 0.040510952 4466959
0.0567853 0.76992464 0.041140512 7031603
0.056696877 0.76951784 0.041138098 7426361
0.056608468 0.76911098 0.041135684 5057301
0.056520045 0.76870418 0.04113327 5517852
0.056431636 0.76829731 0.041130856 6241575
0.056343213 0.76789051 0.041128442 6438954
0.057071611 0.76752049 0.04175809 4859920
0.056983531 0.76711524 0.041755676 6175780
0.056895465 0.76671004 0.041753277 7557685
0.056807399 0.76630479 0.041750878 7557685
0.056719318 0.76589954 0.041748464 7623219
0.056631252 0.76549435 0.041746065 7689012
0.056543186 0.76508909 0.041743651 7622965
0.056455106 0.76468384 0.041741252 7688758
0.05636704 0.76427865 0.041738838 7819574
0.056278974 0.7638734 0.041736439 7819574
0.056190893 0.76346815 0.04173404 7819574
0.056102827 0.76306295 0.041731626 7819574
0.056014746 0.7626577 0.041729212 7754035
0.055926681 0.76225245 0.041726813 7754035
0.055838615 0.7618472 0.041724414 7689012
0.055750534 0.76144201 0.041722 7689012
0.055662468 0.76103675 0.041719601 7689012
0.05639708 0.76069546 0.042349398 7689012
0.056309342 0.76029181 0.042346999 7689012
0.056221634 0.75988817 0.0423446 7689012
0.056133896 0.75948453 0.042342216 7623219
0.056046173 0.75908089 0.042339817 7623219
0.05595845 0.7586773 0.042337418 7689012
0.055870727 0.75827366 0.042335019 7623219
0.055783004 0.75787002 0.042332619 7623219
0.05569528 0.75746638 0.042330235 7623219
0.056433365 0.75714099 0.042960137 7623219
0.056345999 0.75673896 0.042957753 7623219
0.056258619 0.75633693 0.042955369 7557426
0.056171238 0.75593489 0.042952985 7623219
0.056083858 0.75553286 0.042950585 7557939
0.055996478 0.75513083 0.042948201 7623732
0.055909097 0.75472879 0.042945817 7426613
0.055821717 0.7543267 0.042943433 7426613
0.055734351 0.75392467 0.042941034 7426615
0.055646971 0.75352263 0.04293865 7426615
0.05555959 0.7531206 0.042936265 7492408
0.05547221 0.75271857 0.042933881 7426615
0.05538483 0.75231653 0.042931497 7623478
0.055297464 0.75191444 0.042929113 7623478
0.055210084 0.75151241 0.042926729 7623478
0.055953696 0.7512126 0.04355678 7623478
0.055866674 0.75081217 0.043554395 7557939
0.055779636 0.75041175 0.043552011 7623732
0.055692613 0.75001127 0.043549642 7623219
0.055605575 0.74961084 0.043547258 7623219
0.055518538 0.74921036 0.043544888 7623219
0.055431515 0.74880993 0.043542504 7623219
0.055344477 0.74840951 0.043540135 7623219
0.055257455 0.74800903 0.043537751 7491633
0.055170417 0.7476086 0.043535382 7294513
0.055083394 0.74720812 0.043532997 7491892
0.054996356 0.74680769 0.043530628 7491894
0.054909334 0.74640727 0.043528244 7426101
0.054822296 0.74600679 0.043525875 7426101
0.054735273 0.74560636 0.04352349 7426101
0.054648235 0.74520588 0.043521106 7295027
0.054561198 0.74480546 0.043518737 7426613
0.054474175 0.74440503 0.043516368 7295027
0.054387137 0.74400461 0.043513983 7163441
0.054300115 0.74360412 0.043511599 7097648
0.054213077 0.7432037 0.04350923 7097648
0.054126054 0.74280322 0.043506846 6966062
0.054039016 0.74240279 0.043504477 6966062
0.053951979 0.74200237 0.043502092 6965548
0.053864956 0.74160188 0.043499723 6965548
0.053777918 0.74120146 0.043497339 6834476
0.053690895 0.74080098 0.04349497 6637097
0.058182016 0.82203668 0.034245193 8148793
0.058089435 0.82161075 0.03424266 8083000
0.057996854 0.82118475 0.034240127 8083000
0.057904273 0.82075876 0.034237593 7952182
0.057811692 0.82033283 0.034235075 7754803
0.057719111 0.81990683 0.034232542 7754803
0.05840151 0.81932127 0.034859493 7689010
0.058309272 0.81889689 0.034856975 7689010
0.058217034 0.8184725 0.034854457 7623217
0.05812481 0.81804812 0.034851938 7689012
0.058032572 0.81762373 0.03484942 7689012
0.057940349 0.81719941 0.034846902 7623219
0.057848111 0.81677502 0.034844384 7623219
0.057755888 0.81635064 0.034841865 7557426
0.057663649 0.81592625 0.034839347 7557426
0.057571411 0.81550187 0.034836829 7557426
0.057479188 0.81507748 0.034834296 7623219
0.05738695 0.8146531 0.034831792 7623219
0.058073819 0.81408828 0.035458848 7557426
0.057981938 0.81366551 0.03545633 7623219
0.057890043 0.81324273 0.035453826 7557426
0.057798162 0.81281996 0.035451323 7557426
0.057706282 0.81239718 0.035448804 7557426
0.057614386 0.81197441 0.035446301 7557426
0.057522506 0.81155163 0.035443783 7557426
0.057430625 0.8111288 0.035441279 7557426
0.05733873 0.81070602 0.035438776 7557426
0.0580291 0.81015718 0.036065936 7557426
0.057937562 0.80973601 0.036063433 7557426
0.05784601 0.80931479 0.036060929 7491633
0.057754487 0.80889362 0.036058441 7491633
0.057662934 0.80847239 0.036055937 7491633
0.057571396 0.80805123 0.036053434 7491633
0.057479858 0.80763006 0.036050931 7557172
0.057388321 0.80720884 0.036048442 7557172
0.058081776 0.80667436 0.036675677 7753522
0.057990581 0.80625474 0.036673188 7424557
0.057899401 0.80583519 0.036670685 7089428
0.057808205 0.80541557 0.036668196 7944737
0.05771701 0.80499601 0.036665708 8011297
0.057625815 0.8045764 0.036663219 8208676
0.057534635 0.80415678 0.036660731 8078119
0.05744344 0.80373722 0.036658242 8012326
0.057352245 0.80331761 0.036655754 7946020
0.058049172 0.80279905 0.037283078 7551262
0.05795832 0.8023811 0.037280589 7615004
0.057867467 0.80196309 0.037278116 8272934
0.05777663 0.80154508 0.037275642 7418908
0.057685792 0.80112708 0.037273154 8537389
0.05759494 0.80070907 0.037270665 7885108
0.057504088 0.80029112 0.037268192 7819315
0.05741325 0.79987311 0.037265703 7687988
0.057322413 0.79945511 0.037263229 7227437
0.05723156 0.7990371 0.037260741 7030058
0.057140708 0.79861909 0.037258267 6898472
0.05704987 0.79820114 0.037255779 7096621
0.057751313 0.79770333 0.037883252 7030828
0.057660818 0.79728693 0.037880778 7031341
0.057570308 0.79687047 0.037878305 7097134
0.057479814 0.79645407 0.037875846 7031341
0.057389319 0.79603767 0.037873372 6965548
0.057298824 0.79562128 0.037870899 7294513
0.057208329 0.79520488 0.037868425 7031341
0.05711782 0.79478848 0.037865952 7096623
0.057027325 0.79437208 0.037863478 7294002
0.057732224 0.79389024 0.03849104 7294515
0.057642072 0.79347545 0.038488567 7097136
0.05755192 0.7930606 0.038486108 7097136
0.057461768 0.79264581 0.038483649 7162929
0.057371616 0.79223102 0.038481176 7294515
0.057281464 0.79181623 0.038478717 7294515
0.057191312 0.79140139 0.038476259 7294515
0.05710116 0.7909866 0.0384738 7162929
0.057809204 0.79051912 0.039101452 7162929
0.057719395 0.79010588 0.039098993 7228722
0.0576296 0.7896927 0.039096549 7491381
0.057539791 0.78927946 0.03909409 7359795
0.057449982 0.78886628 0.039091647 7491381
0.057360172 0.78845304 0.039089188 7557174
0.057270378 0.78803986 0.039086729 7294515
0.057180569 0.78762662 0.039084285 7426101
0.057090759 0.78721344 0.039081827 7426099
0.057000965 0.78680021 0.039079368 7491892
0.056911156 0.78638703 0.039076924 7491892
0.056821346 0.78597379 0.039074466 7294513
0.056731552 0.78556061 0.039072007 7359793
0.056641743 0.78514737 0.039069563 7359793
0.056551933 0.78473413 0.039067104 7426099
0.057265505 0.78429216 0.03969489 7426099
0.057176039 0.78388059 0.039692447 7426099
0.057086587 0.78346896 0.039690003 7294513
0.05699712 0.78305733 0.039687559 7228720
0.056907669 0.7826457 0.039685115 7097134
0.056818202 0.78223413 0.039682671 7162927
0.05672875 0.7818225 0.039680228 7294513
0.056639299 0.78141087 0.039677784 7557174
0.056549832 0.78099924 0.03967534 6043935
0.056460381 0.78058767 0.039672896 7359793
0.056370914 0.78017604 0.039670452 7557172
0.056281462 0.77976441 0.039668024 7491379
0.056191996 0.77935278 0.03966558 7491379
0.056102544 0.77894121 0.039663136 6636070
0.056821346 0.77852315 0.040291071 6701863
0.056732222 0.77811313 0.040288642 7228209
0.056643113 0.77770311 0.040286213 7228209
0.056554005 0.77729309 0.040283769 7031089
0.056464896 0.77688307 0.04028134 5320471
0.056375787 0.77647305 0.040278912 7294263
0.056286663 0.77606302 0.040276468 7162677
0.056197554 0.775653 0.040274039 6571824
0.056108445 0.77524298 0.04027161 6177066
0.056019336 0.77483296 0.040269166 6439466
0.055930227 0.77442294 0.040266737 7163189
0.055841118 0.77401292 0.040264308 7622965
0.056564391 0.77361566 0.040892363 7622965
0.056475624 0.77320719 0.040889949 7623219
0.056386858 0.77279878 0.04088752 7557426
0.056298092 0.77239037 0.040885091 7162162
0.056209326 0.77198195 0.040882677 4069891
0.05612056 0.77157354 0.040880248 6307880
0.056031793 0.77116507 0.040877819 6373673
0.055943027 0.77075666 0.040875405 5848614
0.055854261 0.77034825 0.040872976 3874824
0.056581005 0.7699669 0.04150112 6769203
0.056492582 0.7695601 0.041498706 7295547
0.056404173 0.76915324 0.041496292 4663057
0.05631575 0.76874644 0.041493878 5189401
0.056227341 0.76833957 0.041491464 6241575
0.056138918 0.76793277 0.04148905 6307368
0.056868106 0.76756257 0.042117283 5123092
0.05678004 0.76715738 0.042114884 6175780
0.056691974 0.76675212 0.04211247 7491892
0.056603894 0.76634687 0.042110056 7557685
0.056515828 0.76594162 0.042107657 7623219
0.056427762 0.76553643 0.042105258 7689012
0.056339681 0.76513118 0.042102844 7689012
0.056251615 0.76472592 0.042100444 7754805
0.056163549 0.76432073 0.04209803 7753781
0.056075469 0.76391548 0.042095631 7753781
0.055987403 0.76351023 0.042093217 7819574
0.055899322 0.76310503 0.042090818 7819574
0.055811256 0.76269978 0.042088419 7753781
0.05572319 0.76229453 0.042086005 7753781
0.05563511 0.76188934 0.042083606 7688758
0.055547044 0.76148409 0.042081192 7688758
0.055458978 0.76107883 0.042078793 7688758
0.05619438 0.76073736 0.042707175 7622965
0.056106657 0.76033378 0.042704776 7688758
0.056018934 0.75993013 0.042702377 7688758
0.055931211 0.75952649 0.042699978 7622965
0.055843487 0.75912285 0.042697579 7688758
0.055755764 0.75871921 0.042695194 7754551
0.055668041 0.75831556 0.042692795 7622965
0.055580318 0.75791192 0.042690396 7688758
0.05549258 0.75750828 0.042687997 7688758
0.056231469 0.75718278 0.043316498 7622965
0.056144103 0.75678074 0.043314114 7688758
0.056056723 0.75637871 0.043311715 7622965
0.055969343 0.75597668 0.043309331 7622965
0.055881962 0.75557458 0.043306947 7557939
0.055794582 0.75517255 0.043304563 7623732
0.055707216 0.75477052 0.043302178 7492406
0.055619836 0.75436848 0.043299794 7492406
0.055532455 0.75396645 0.04329741 7426615
0.055445075 0.75356442 0.043295026 7426615
0.055357695 0.75316238 0.043292627 7492408
0.055270314 0.75276029 0.043290243 7426615
0.055182949 0.75235826 0.043287858 7622965
0.055095568 0.75195622 0.043285474 7688758
0.055008188 0.75155419 0.04328309 7622965
0.055752605 0.7512542 0.043911725 7688758
0.055665582 0.75085378 0.043909341 7623219
0.055578545 0.75045329 0.043906957 7689012
0.055491522 0.75005287 0.043904588 7623219
0.055404484 0.74965245 0.043902203 7623219
0.055317461 0.74925196 0.043899834 7557426
0.055230424 0.74885154 0.04389745 7623219
0.055143401 0.74845111 0.043895081 7492146
0.055056363 0.74805063 0.043892696 7426353
0.054969326 0.74765021 0.043890327 7426099
0.054882303 0.74724972 0.043887943 7491892
0.054795265 0.7468493 0.043885574 7426101
0.054708242 0.74644887 0.04388319 7426101
0.054621205 0.74604839 0.04388082 7426101
0.054534182 0.74564797 0.043878436 7426101
0.054447144 0.74524748 0.043876052 7295029
0.054360121 0.74484706 0.043873683 7360822
0.054273084 0.74444664 0.043871313 7360820
0.054186046 0.74404615 0.043868929 7163441
0.054099023 0.74364573 0.043866545 7163441
0.054011986 0.74324524 0.043864176 7097648
0.053924963 0.74284482 0.043861791 7031855
0.053837925 0.7424444 0.043859422 6966062
0.053750902 0.74204391 0.043857038 6834476
0.053663865 0.74164349 0.043854669 6834476
0.053576842 0.74124306 0.043852285 6834476
0.053489804 0.74084258 0.043849915 6702890
0.05796811 0.82208097 0.034622759 8148793
0.057875529 0.82165498 0.034620225 8083000
0.057782948 0.82122898 0.034617707 8083000
0.057690367 0.82080305 0.034615174 8083000
0.057597786 0.82037705 0.034612641 7885621
0.057505205 0.81995106 0.034610122 7885619
0.058188394 0.81936538 0.035235658 7885619
0.05809617 0.818941 0.03523314 7754033
0.058003932 0.81851661 0.035230622 7754033
0.057911694 0.81809223 0.035228103 7819828
0.057819471 0.81766784 0.035225585 7819828
0.057727233 0.81724346 0.035223067 7754035
0.057635009 0.81681907 0.035220534 7754035
0.057542771 0.81639469 0.03521803 7623219
0.057450533 0.81597036 0.035215497 7623219
0.05735831 0.81554598 0.035212979 7623219
0.057266071 0.81512159 0.03521046 7623219
0.057173848 0.81469721 0.035207942 7623219
0.057861507 0.81413221 0.035833582 7557426
0.057769626 0.81370944 0.035831079 7623219
0.057677746 0.81328666 0.035828561 7623219
0.05758585 0.81286389 0.035826057 7557426
0.05749397 0.81244111 0.035823554 7623219
0.057402089 0.81201828 0.035821036 7557426
0.057310194 0.8115955 0.035818532 7557426
0.057218313 0.81117272 0.035816014 7623219
0.057126433 0.81074995 0.03581351 7623219
0.057817593 0.81020093 0.03643927 7688242
0.057726055 0.80977976 0.036436766 7688242
0.057634518 0.80935854 0.036434263 7688242
0.05754298 0.80893737 0.03643176 7688242
0.057451442 0.80851614 0.036429271 7491633
0.057359904 0.80809498 0.036426768 7557426
0.057268366 0.80767381 0.036424264 7557426
0.057176828 0.80725265 0.036421761 7557426
0.057871073 0.80671793 0.037047595 7753522
0.057779878 0.80629838 0.037045091 7490350
0.057688698 0.80587876 0.037042603 6958355
0.057597503 0.80545914 0.037040114 7945250
0.057506308 0.80503958 0.037037626 8011043
0.057415113 0.80461997 0.037035137 8011043
0.057323933 0.80420041 0.037032634 8143399
0.057232738 0.80378079 0.03703016 8077606
0.057141542 0.80336124 0.037027657 7945252
0.05783926 0.8028425 0.03765358 7550494
0.057748422 0.80242449 0.037651092 7745820
0.05765757 0.80200648 0.037648618 8272164
0.057566732 0.80158848 0.037646145 7484188
0.05747588 0.80117053 0.037643656 8471083
0.057385042 0.80075252 0.037641168 8015924
0.05729419 0.80033451 0.037638694 8015924
0.057203352 0.79991651 0.037636206 7754035
0.0571125 0.7994985 0.037633732 7425070
0.057021663 0.79908055 0.037631243 7293230
0.05693081 0.79866254 0.03762877 7293230
0.056839973 0.79824454 0.037626281 7294000
0.057542205 0.79774654 0.038252354 7294000
0.05745171 0.79733014 0.03824988 7294767
0.057361215 0.79691374 0.038247406 7228974
0.057270721 0.79649734 0.038244933 7228974
0.057180211 0.79608095 0.038242459 7228974
0.057089716 0.79566455 0.038239986 7491379
0.056999221 0.79524815 0.038237512 7359793
0.056908727 0.79483175 0.038235039 7294000
0.056818217 0.79441535 0.038232565 7491379
0.057523921 0.79393333 0.038858712 7491892
0.057433769 0.79351854 0.038856238 7294513
0.057343617 0.79310369 0.038853779 7228720
0.057253465 0.79268891 0.038851321 7294513
0.057163313 0.79227412 0.038848847 7557685
0.057073161 0.79185927 0.038846388 7426099
0.056983009 0.79144448 0.03884393 7426099
0.056892857 0.79102969 0.038841471 7294513
0.057601705 0.79056203 0.039467707 7294513
0.057511896 0.79014879 0.039465249 7294513
0.057422101 0.78973562 0.039462805 7491892
0.057332292 0.78932238 0.039460361 7294513
0.057242483 0.7889092 0.039457902 7491894
0.057152674 0.78849596 0.039455444 7557687
0.057062879 0.78808278 0.039453 7491894
0.05697307 0.78766954 0.039450541 7426101
0.056883261 0.78725636 0.039448082 7491892
0.056793451 0.78684312 0.039445639 7557685
0.056703657 0.78642994 0.03944318 7557685
0.056613848 0.7860167 0.039440721 7294513
0.056524038 0.78560352 0.039438277 7426099
0.056434244 0.78519028 0.039435819 6833962
0.056344435 0.7847771 0.03943336 7097134
0.057058796 0.78433496 0.040059745 7491892
0.056969345 0.78392333 0.040057302 7228722
0.056879878 0.7835117 0.040054858 6504999
0.056790426 0.78310007 0.040052414 6505259
0.056700975 0.7826885 0.04004997 6110501
0.056611508 0.78227687 0.040047526 6175780
0.056522056 0.78186524 0.040045083 7228468
0.05643259 0.78145361 0.040042639 7556920
0.056343138 0.78104204 0.040040195 4398856
0.056253672 0.78063041 0.040037751 7491379
0.05616422 0.78021878 0.040035307 7557172
0.056074753 0.77980721 0.040032864 7557426
0.055985302 0.77939558 0.04003042 7031082
0.05589585 0.77898395 0.040027976 6043935
0.056615442 0.77856576 0.04065451 6043935
0.056526333 0.77815574 0.040652081 6043683
0.056437224 0.77774572 0.040649638 6701613
0.0563481 0.7773357 0.040647209 7097146
0.056258991 0.77692568 0.040644765 4597012
0.056169882 0.77651566 0.040642336 6965560
0.056080773 0.77610564 0.040639907 6439216
0.055991665 0.77569562 0.040637463 6045482
0.055902556 0.7752856 0.040635034 6177068
0.055813432 0.77487558 0.040632606 6505259
0.055724323 0.77446556 0.040630162 7097396
0.055635214 0.77405554 0.040627733 7163443
0.056359291 0.77365804 0.041254386 7295029
0.056270525 0.77324963 0.041251957 7360820
0.056181759 0.77284122 0.041249543 7295027
0.056092992 0.7724328 0.041247115 6833451
0.056004226 0.77202439 0.041244686 4399110
0.05591546 0.77161592 0.041242272 6110755
0.055826694 0.77120751 0.041239843 6308134
0.055737942 0.7707991 0.041237414 6177066
0.055649176 0.77039069 0.041235 5255964
0.056376711 0.77000916 0.041861728 6834996
0.056288287 0.76960236 0.041859314 7032375
0.056199878 0.7691955 0.0418569 5913894
0.056111455 0.7687887 0.041854471 5782308
0.056023046 0.76838183 0.041852057 6177064
0.055934623 0.76797503 0.041849643 6440236
0.056664616 0.76760465 0.042476475 6900271
0.05657655 0.76719946 0.042474061 6966064
0.056488484 0.7667942 0.042471662 7557174
0.056400403 0.76638895 0.042469248 7622967
0.056312338 0.76598376 0.042466849 7622965
0.056224257 0.76557851 0.042464435 7688758
0.056136191 0.76517326 0.042462036 7688758
0.056048125 0.76476806 0.042459637 7754551
0.055960044 0.76436281 0.042457223 7688758
0.055871978 0.76395756 0.042454824 7688758
0.055783913 0.76355237 0.04245241 7688758
0.055695832 0.76314712 0.042450011 7754551
0.055607766 0.76274186 0.042447597 7622965
0.0555197 0.76233667 0.042445198 7622965
0.055431619 0.76193142 0.042442799 7688758
0.055343553 0.76152617 0.042440385 7688758
0.055255473 0.76112098 0.042437971 7688758
0.055991694 0.76077932 0.043064952 7688758
0.055903971 0.76037568 0.043062553 7688758
0.055816248 0.75997204 0.043060154 7688758
0.055728525 0.75956839 0.043057755 7622965
0.055640787 0.75916475 0.043055356 7754551
0.055553064 0.75876111 0.043052971 7820344
0.055465341 0.75835747 0.043050572 7622965
0.055377617 0.75795388 0.043048173 7688758
0.055289894 0.75755024 0.043045774 7688758
0.056029588 0.75722456 0.04367286 7688758
0.055942208 0.75682253 0.043670475 7688758
0.055854827 0.75642043 0.043668091 7688758
0.055767447 0.7560184 0.043665707 7622965
0.055680081 0.75561637 0.043663308 7623219
0.055592701 0.75521433 0.043660924 7689012
0.05550532 0.7548123 0.04365854 7623478
0.05541794 0.75441027 0.043656155 7623478
0.05533056 0.75400823 0.043653756 7426615
0.055243179 0.75360614 0.043651372 7426615
0.055155814 0.75320411 0.043648988 7492408
0.055068433 0.75280207 0.043646604 7492408
0.054981053 0.75240004 0.04364422 7688758
0.054893672 0.75199801 0.043641835 7688758
0.054806292 0.75159597 0.043639451 7622965
0.055551529 0.7512958 0.044266671 7688758
0.055464491 0.75089538 0.044264287 7557685
0.055377454 0.7504949 0.044261903 7623478
0.055290431 0.75009447 0.044259533 7557939
0.055203393 0.74969399 0.044257149 7557939
0.05511637 0.74929357 0.04425478 7557939
0.055029333 0.74889314 0.044252396 7557939
0.05494231 0.74849266 0.044250026 7492146
0.054855272 0.74809223 0.044247642 7426353
0.054768234 0.74769175 0.044245273 7491892
0.054681212 0.74729133 0.044242889 7491892
0.054594174 0.7468909 0.044240519 7294515
0.054507151 0.74649048 0.044238135 7426101
0.054420114 0.74608999 0.044235766 7491894
0.054333091 0.74568957 0.044233382 7491894
0.054246053 0.74528909 0.044230998 7295027
0.05415903 0.74488866 0.044228628 7360820
0.054071993 0.74448824 0.044226259 7295027
0.05398497 0.74408776 0.044223875 7163441
0.053897932 0.74368733 0.044221491 7163441
0.053810894 0.74328685 0.044219121 7097648
0.053723872 0.74288642 0.044216737 7031855
0.053636834 0.742486 0.044214368 6900269
0.053549811 0.74208552 0.044211984 6834476
0.053462774 0.74168509 0.044209614 6834476
0.053375751 0.74128461 0.04420723 6834476
0.053288713 0.74088418 0.044204861 6702890
0.057754189 0.8221252 0.035000339 8148793
0.058436453 0.8215313 0.035624415 8148793
0.058344215 0.82110697 0.035621896 8083000
0.058251992 0.82068259 0.035619378 7951414
0.058159754 0.8202582 0.03561686 7885621
0.058067515 0.81983382 0.035614341 7885621
0.057975292 0.81940943 0.035611823 7885621
0.057883054 0.81898504 0.035609305 7819828
0.057790831 0.81856066 0.035606772 7754035
0.05847618 0.81798118 0.036230922 7819828
0.058384284 0.81755841 0.036228418 7819828
0.058292404 0.81713563 0.0362259 7754035
0.058200523 0.81671286 0.036223397 7754035
0.058108628 0.81629002 0.036220878 7688242
0.058016747 0.81586725 0.036218375 7754035
0.057924867 0.81544447 0.036215857 7623219
0.057832971 0.81502169 0.036213353 7623219
0.057741091 0.81459892 0.036210835 7689012
0.05764921 0.81417614 0.036208332 7689012
0.057557315 0.81375337 0.036205828 7623219
0.057465434 0.81333059 0.03620331 7557426
0.058155313 0.8127718 0.036827594 7557426
0.058063775 0.81235063 0.036825091 7623219
0.057972237 0.8119294 0.036822602 7557426
0.0578807 0.81150824 0.036820099 7557426
0.057789162 0.81108707 0.036817595 7623219
0.057697624 0.81066585 0.036815107 7623219
0.058389902 0.81011826 0.037439436 7688242
0.058298707 0.80969864 0.037436932 7688242
0.058207527 0.80927908 0.037434459 7688242
0.058116332 0.80885947 0.037431955 7688242
0.058025137 0.80843991 0.037429467 7557426
0.057933956 0.80802029 0.037426978 7557426
0.057842761 0.80760074 0.03742449 7557426
0.057751566 0.80718112 0.037422001 7557426
0.057660371 0.8067615 0.037419498 7753520
0.057569176 0.80634195 0.037417009 7556141
0.057477981 0.80592233 0.037414521 6432011
0.058174431 0.80539387 0.038038969 7945250
0.058083594 0.80497587 0.038036495 8011043
0.057992741 0.80455792 0.038034007 7879457
0.057901889 0.80413991 0.038031518 7880227
0.057811052 0.8037219 0.038029045 7880227
0.057720214 0.8033039 0.038026571 7682848
0.057629362 0.80288589 0.038024083 7419676
0.057538509 0.80246794 0.038021594 7747358
0.057447672 0.80204993 0.038019121 8010530
0.05735682 0.80163193 0.038016647 7288603
0.057265982 0.80121392 0.038014159 8209705
0.05717513 0.80079591 0.03801167 7950131
0.057876095 0.8002882 0.038636267 7950131
0.0577856 0.7998718 0.038633794 7753781
0.057695106 0.7994554 0.03863132 7490609
0.057604611 0.79903901 0.038628846 7294000
0.057514101 0.79862261 0.038626373 7557172
0.057423607 0.79820621 0.038623899 7557172
0.057333112 0.79778981 0.038621426 7557172
0.057242617 0.79737341 0.038618967 7492146
0.057152107 0.79695702 0.038616493 7426353
0.05785653 0.79646522 0.03924115 7294767
0.057766378 0.79605043 0.039238691 7294767
0.057676226 0.79563564 0.039236233 7557426
0.057586074 0.79522085 0.039233774 7557426
0.057495922 0.794806 0.0392313 7491633
0.05740577 0.79439121 0.039228842 7491633
0.057315618 0.79397643 0.039226383 7557939
0.057225466 0.79356158 0.039223909 7492146
0.057135314 0.79314679 0.039221451 7492146
0.057843223 0.79267097 0.039846241 7492146
0.057753429 0.79225779 0.039843783 7557685
0.05766362 0.79184455 0.039841324 7491892
0.05757381 0.79143137 0.03983888 7426099
0.057484016 0.79101813 0.039836422 7228720
0.057394207 0.79060495 0.039833963 7426099
0.057304397 0.79019171 0.039831519 7294513
0.057214588 0.78977853 0.03982906 7097134
0.057124794 0.78936529 0.039826617 6833962
0.057034984 0.78895211 0.039824158 7425847
0.056945175 0.78853887 0.039821714 7557433
0.057657227 0.78808224 0.040446579 7491894
0.057567775 0.78767061 0.040444136 7426101
0.057478309 0.78725898 0.040441692 7491894
0.057388857 0.78684735 0.040439248 7557687
0.05729939 0.78643578 0.040436804 7557685
0.057209939 0.78602415 0.040434361 7426099
0.057120472 0.78561252 0.040431917 7426353
0.057031021 0.78520095 0.040429473 6110493
0.056941569 0.78478932 0.040427029 5386518
0.056852102 0.78437769 0.040424585 7491894
0.056762651 0.78396606 0.040422142 7031603
0.056673184 0.78355449 0.040419698 4465676
0.057389766 0.78311855 0.041044712 6176296
0.057300657 0.78270853 0.041042283 5649952
0.057211548 0.78229851 0.041039854 5386778
0.057122439 0.78188848 0.04103741 7097396
0.05703333 0.78147846 0.041034982 7557433
0.056944206 0.78106844 0.041032553 4136197
0.056855097 0.78065842 0.041030109 7557172
0.056765988 0.7802484 0.04102768 7491379
0.05667688 0.77983838 0.041025251 7557426
0.056587771 0.77942836 0.041022807 7228461
0.056498647 0.77901834 0.041020378 6833449
0.056409538 0.77860832 0.04101795 6504484
0.056320429 0.7781983 0.041015506 6175782
0.05623132 0.77778828 0.041013077 6241575
0.056142211 0.77737826 0.041010648 6439988
0.056053102 0.77696824 0.041008204 4071440
0.055963978 0.77655822 0.041005775 5124128
0.056686774 0.77615106 0.041630954 5847851
0.056598023 0.77574259 0.041628525 6045482
0.056509256 0.77533418 0.041626096 6242861
0.05642049 0.77492577 0.041623682 6374443
0.056331724 0.77451736 0.041621253 6506029
0.056242958 0.77410889 0.041618824 6177318
0.056154191 0.77370048 0.04161641 6308904
0.056065425 0.77329206 0.041613981 7360822
0.055976659 0.77288365 0.041611552 7295029
0.056702927 0.77249241 0.04223682 7096621
0.056614503 0.77208555 0.042234406 7096621
0.056526095 0.77167875 0.042231992 6768171
0.056437671 0.77127188 0.042229578 6702378
0.056349248 0.77086508 0.042227164 6440490
0.056260839 0.77045822 0.04222475 6308904
0.056989551 0.77007818 0.042850092 6702640
0.056901485 0.76967293 0.042847693 6900019
0.056813404 0.76926768 0.042845279 6439468
0.056725338 0.76886249 0.04284288 5913124
0.056637272 0.76845723 0.042840466 6374443
0.056549191 0.76805198 0.042838067 6966580
0.056461126 0.76764679 0.042835653 7163443
0.05637306 0.76724154 0.042833254 7163443
0.056284979 0.76683629 0.042830855 7491894
0.057017148 0.76647216 0.043456271 7557687
0.05692941 0.76606852 0.043453872 7622967
0.056841686 0.76566488 0.043451473 7688760
0.056753963 0.76526123 0.043449074 7688758
0.05666624 0.76485759 0.04344669 7688758
0.056578517 0.76445401 0.043444291 7688758
0.056490794 0.76405036 0.043441892 7688758
0.056403071 0.76364672 0.043439493 7688758
0.056315348 0.76324308 0.043437093 7688758
0.056227624 0.76283944 0.043434709 7688758
0.056139901 0.76243579 0.04343231 7622965
0.056052178 0.76203215 0.043429911 7754551
0.05596444 0.76162851 0.043427512 7688758
0.055876717 0.76122487 0.043425113 7622965
0.056614086 0.7608847 0.044050708 7688758
0.056526721 0.76048267 0.044048309 7688758
0.05643934 0.76008058 0.044045925 7688758
0.05635196 0.75967854 0.044043541 7622965
0.056264579 0.75927651 0.044041157 7754551
0.056177199 0.75887448 0.044038773 7754551
0.056089818 0.75847244 0.044036388 7622965
0.056002453 0.75807041 0.044034004 7688758
0.055915073 0.75766838 0.044031605 7688758
0.055827692 0.75726628 0.044029221 7688758
0.055740312 0.75686425 0.044026837 7688758
0.055652931 0.75646222 0.044024453 7688758
0.056394801 0.75614274 0.044650137 7622965
0.056307778 0.75574231 0.044647753 7622965
0.05622074 0.75534189 0.044645384 7622965
0.056133717 0.7549414 0.044643 7557685
0.05604668 0.75454098 0.04464063 7623478
0.055959657 0.75414056 0.044638246 7557687
0.055872619 0.75374007 0.044635877 7557687
0.055785581 0.75333965 0.044633493 7492406
0.055698559 0.75293916 0.044631124 7492406
0.055611521 0.75253874 0.044628739 7688758
0.055524498 0.75213832 0.044626355 7688758
0.055437461 0.75173783 0.044623986 7622965
0.055350438 0.75133741 0.044621617 7622965
0.0552634 0.75093699 0.044619232 7623478
0.055176362 0.7505365 0.044616848 7623478
0.05508934 0.75013608 0.044614479 7557685
0.055002302 0.74973559 0.044612095 7557685
0.055750445 0.74944484 0.045237988 7557939
0.055663764 0.74904603 0.045235619 7557939
0.05557707 0.74864715 0.04523325 7492146
0.055490389 0.74824834 0.04523088 7426353
0.055403709 0.74784946 0.045228511 7491892
0.055317014 0.74745059 0.045226142 7491892
0.055230334 0.74705178 0.045223773 7294515
0.055143654 0.7466529 0.045221403 7426101
0.055056974 0.74625409 0.045219034 7491894
0.054970279 0.74585521 0.04521668 7491894
0.054883599 0.74545634 0.045214295 7426099
0.054796919 0.74505752 0.045211941 7491892
0.054710239 0.74465865 0.045209572 7295027
0.054623544 0.74425983 0.045207202 7163441
0.054536864 0.74386096 0.045204833 7163441
0.054450184 0.74346209 0.045202464 7097648
0.054363489 0.74306327 0.045200095 7031855
0.054276809 0.7426644 0.045197725 6900269
0.054190129 0.74226558 0.045195371 6834476
0.054103434 0.74186671 0.045192987 6900269
0.054016754 0.74146783 0.045190632 6900269
0.053930074 0.74106902 0.045188263 6834476
0.058223337 0.8215754 0.03600058 8148793
0.058131114 0.82115102 0.035998046 8083000
0.058038875 0.82072663 0.035995543 7951414
