# .PCD v0.7 - Point Cloud Data file format
VERSION 0.7
FIELDS x y z rgb
SIZE 4 4 4 4
TYPE F F F U
COUNT 1 1 1 1
WIDTH 1106
HEIGHT 1
VIEWPOINT 0 0 0 1 0 0 0
POINTS 1106
DATA ascii
9.4156712e-05 0.74398017 0.023760706 4403233
-0.00034282729 0.7439363 0.023758188 4403233
-0.00077981129 0.74389243 0.023755684 4337440
-0.0012167953 0.7438485 0.023753166 4403233
-0.0016537793 0.74380463 0.023750663 4403233
-0.002090767 0.74376076 0.023748159 4337442
-0.0027595386 0.74446946 0.023081958 4403235
-0.0031981468 0.74442542 0.023079455 4403235
-0.003636755 0.74438143 0.023076922 4403235
-0.0040753707 0.74433732 0.023074418 4337442
-0.004513979 0.74429333 0.0230719 4337442
-0.0049525872 0.74424928 0.023069382 4403235
-0.0053911954 0.74420524 0.023066863 4403235
-0.0058298036 0.74416119 0.023064345 4337440
-0.0062684193 0.74411714 0.023061827 4337440
-0.0067070276 0.74407309 0.023059309 4337440
-0.0071456358 0.74402905 0.02305679 4403233
-0.0075842515 0.743985 0.023054272 4337440
-0.0080228597 0.74394095 0.023051754 4403233
-0.0084614679 0.74389696 0.023049235 4403233
-0.0089000762 0.74385285 0.023046717 4271647
-0.0093386844 0.74380887 0.023044199 4337442
-0.0097772926 0.74376476 0.02304168 4337442
-0.010215908 0.74372077 0.023039162 4337442
-0.010654517 0.74367672 0.023036659 4337442
-0.011093125 0.74363267 0.023034126 4271649
-0.011531733 0.74358863 0.023031622 4271649
-0.011970341 0.74354458 0.023029089 4271649
-0.012408957 0.74350053 0.023026586 4337442
-0.012847565 0.74345648 0.023024067 4337442
-0.013286173 0.74341244 0.023021549 4337442
-0.013724789 0.74336839 0.023019031 4337442
-0.014163397 0.7433244 0.023016512 4403235
-0.014602005 0.74328029 0.023013994 4337442
-0.015040614 0.7432363 0.023011476 4403235
-0.015758134 0.74394011 0.022344977 4337440
-0.016198367 0.74389595 0.022342458 4403233
-0.016638599 0.74385172 0.02233994 4403233
-0.01736261 0.74455494 0.021673426 4403233
-0.017804466 0.74451053 0.021670893 4337442
-0.018246323 0.74446619 0.021668345 4337442
-0.018688187 0.74442184 0.021665812 4337442
-0.019130044 0.74437743 0.021663278 4337442
-0.019863799 0.74507964 0.02099672 4337955
-0.02030728 0.74503511 0.020994172 4337955
-0.020750761 0.74499059 0.020991623 4337955
-0.021194249 0.74494606 0.020989075 4337955
-0.02163773 0.74490154 0.020986527 4337955
-0.022081211 0.74485695 0.020983994 4337955
-0.0225247 0.74481249 0.020981446 4403748
-0.02296818 0.7447679 0.020978898 4403748
-0.023411661 0.74472338 0.02097635 4337955
-0.024161674 0.74542397 0.020309672 4337955
-0.024606772 0.74537933 0.020307124 4403748
-0.025051884 0.74533463 0.020304561 4403748
-0.025496989 0.74528992 0.020302013 4403748
-0.02594211 0.74524522 0.020299464 4337955
-0.026387215 0.74520051 0.020296901 4403748
-0.02683232 0.74515581 0.020294338 4403748
-0.027277432 0.74511111 0.02029179 4403748
-0.028042048 0.74581021 0.019625068 4403748
-0.02848877 0.74576533 0.019622505 4469028
-0.028935507 0.74572051 0.019619942 4469028
-0.030355409 0.74790561 0.017624691 4469028
-0.030807011 0.74786031 0.017622098 4403235
-0.031258628 0.74781489 0.017619506 4403235
0.053953186 0.74494898 0.028416201 3482131
0.053525947 0.74490607 0.028413743 4140061
0.053098712 0.74486315 0.028411299 4534817
0.052698672 0.74404627 0.029069945 4600610
0.052273057 0.74400353 0.029067501 4600864
0.051847443 0.7439608 0.029065058 4535071
0.051421829 0.74391806 0.029062614 4469024
0.050996214 0.74387532 0.02906017 4534817
0.0505706 0.74383259 0.029057726 4534817
0.050144985 0.74378985 0.029055282 4534817
0.049719371 0.74374712 0.029052839 4600612
0.049293756 0.74370438 0.029050395 4534819
0.048868142 0.74366164 0.029047951 4535332
0.048442531 0.74361891 0.029045507 4469539
0.048016917 0.74357617 0.029043064 4535332
0.047591303 0.74353343 0.02904062 4469539
0.047165688 0.7434907 0.029038191 4403746
0.046740077 0.74344796 0.029035747 4403746
0.046314463 0.74340522 0.029033303 4469539
0.045888849 0.74336249 0.029030859 4469539
0.045463234 0.74331975 0.029028416 4469539
0.04503762 0.74327701 0.029025972 4469539
0.044612005 0.74323428 0.029023528 4469539
0.044186391 0.74319154 0.029021084 4469539
0.043760777 0.7431488 0.029018641 4469539
0.043335162 0.74310601 0.029016197 4469539
0.042909548 0.74306333 0.029013753 4469539
0.042483933 0.74302053 0.029011309 4469539
0.042058319 0.74297786 0.029008865 4534819
0.041632704 0.74293506 0.029006422 4534819
0.04120709 0.74289238 0.029003978 4534819
0.040781479 0.74284959 0.029001534 4534819
0.040355865 0.74280691 0.02899909 4469024
0.03993025 0.74276412 0.028996646 4534817
0.039504636 0.74272144 0.028994203 4469537
0.039079022 0.74267864 0.028991759 4469537
0.038653411 0.74263597 0.028989315 4469537
0.038227797 0.74259317 0.028986871 4469537
0.037802182 0.74255049 0.028984442 4469537
0.037376568 0.7425077 0.028981999 4403744
0.036950953 0.74246496 0.028979555 4403746
0.036525339 0.74242222 0.028977111 4403746
0.036099724 0.74237949 0.028974667 4337953
0.03567411 0.74233675 0.028972223 4403746
0.035154693 0.7430613 0.028308302 4337953
0.034727454 0.74301839 0.028305858 4403746
0.034300219 0.74297553 0.0283034 4403746
0.033872981 0.74293262 0.028300941 4403746
0.033445742 0.7428897 0.028298497 4469539
0.033018503 0.74284685 0.028296039 4403746
0.032591265 0.74280393 0.028293595 4337953
0.032164026 0.74276102 0.028291136 4337953
0.031736787 0.7427181 0.028288692 4403746
0.031309549 0.74267519 0.028286234 4403746
0.03088231 0.74263233 0.028283775 4337953
0.030455071 0.74258941 0.028281331 4337953
0.030027833 0.7425465 0.028278872 4337953
0.029600594 0.74250364 0.028276429 4403746
0.029056814 0.74322569 0.027612373 4272930
0.028627951 0.74318266 0.027609915 4272930
0.028199092 0.74313956 0.027607441 4272930
0.027770225 0.74309653 0.027604982 4272930
0.027341362 0.74305344 0.027602524 4403746
0.026912499 0.7430104 0.027600065 4337953
0.02648364 0.74296731 0.027597606 4403746
0.026054773 0.74292427 0.027595133 4337953
0.025625911 0.74288118 0.027592674 4403746
0.025197048 0.74283814 0.027590215 4403746
0.024768185 0.74279511 0.027587757 4337953
0.024204906 0.74351525 0.026923567 4403746
0.023774419 0.74347198 0.026921093 4403744
0.023343932 0.74342877 0.02691862 4337951
0.022913445 0.74338555 0.026916146 4337951
0.022482958 0.74334234 0.026913673 4337951
0.022052471 0.74329913 0.026911199 4337951
0.02162198 0.74325585 0.026908726 4337951
0.021191493 0.74321264 0.026906267 4337951
0.020761006 0.74316943 0.026903793 4403744
0.020330518 0.74312621 0.02690132 4337951
0.019900031 0.743083 0.026898846 4403744
0.019469544 0.74303973 0.026896387 4337951
0.019039057 0.74299651 0.026893914 4337951
0.01860857 0.7429533 0.02689144 4337951
0.018178083 0.74291003 0.026888967 4337951
0.017588817 0.74362761 0.026224643 4337951
0.017156705 0.74358422 0.026222169 4337951
0.016724594 0.74354082 0.026219681 4337951
0.016292479 0.74349743 0.026217207 4337951
0.015860368 0.74345404 0.026214719 4272158
0.015428256 0.74341065 0.026212245 4272158
0.014996145 0.74336725 0.026209772 4403233
0.01456403 0.74332386 0.026207283 4469026
0.014131922 0.74328047 0.026204795 4403233
0.013699807 0.74323708 0.026202321 4403233
0.013267696 0.74319369 0.026199847 4403233
0.012658931 0.7439093 0.025535405 4403233
0.012225196 0.74386573 0.025532901 4403233
0.01179146 0.74382216 0.025530413 4403233
0.011357725 0.74377859 0.025527924 4337440
0.010923989 0.74373507 0.025525436 4469026
0.010490254 0.7436915 0.025522947 4403233
0.010056514 0.74364793 0.025520459 4403233
0.009622775 0.74360442 0.02551797 4337440
0.0091890395 0.74356085 0.025515482 4403233
0.0087553039 0.74351728 0.025512993 4337440
0.0083215684 0.74347377 0.025510505 4469026
0.0076933131 0.74418736 0.024845973 4337440
0.0072579533 0.74414366 0.024843469 4337440
0.0068225935 0.74409997 0.024840981 4337440
0.0063872337 0.74405622 0.024838477 4403233
0.0059518665 0.74401253 0.024835974 4403233
0.0055165067 0.74396878 0.024833471 4403233
0.005081147 0.74392509 0.024830982 4337953
0.0046457872 0.74388134 0.024828479 4337953
0.0042104274 0.74383765 0.024825975 4272160
0.0037750676 0.74379396 0.024823487 4272160
0.0033397079 0.74375021 0.024820983 4337953
0.0029043406 0.74370646 0.02481848 4272160
0.0024689808 0.74366277 0.024815977 4337953
0.0020336285 0.74361908 0.024813488 4337953
0.0015982613 0.74357533 0.024810985 4337953
0.00094401464 0.74428642 0.024146274 4403746
0.00050702319 0.74424249 0.02414377 4337953
7.0035458e-05 0.74419862 0.024141252 4337953
-0.00036694854 0.74415475 0.024138749 4272160
-0.00080393255 0.74411088 0.024136245 4272160
-0.0012409166 0.74406695 0.024133742 4403233
-0.0016779006 0.74402308 0.024131224 4403233
-0.0021148883 0.74397922 0.02412872 4403235
-0.0027837455 0.74468875 0.023463935 4403235
-0.0032223612 0.7446447 0.023461431 4403235
-0.0036609694 0.74460065 0.023458898 4403235
-0.0040995777 0.74455667 0.023456395 4403235
-0.0045381859 0.74451256 0.023453876 4403235
-0.0049767941 0.74446857 0.023451358 4469028
-0.0054154098 0.74442452 0.02344884 4403235
-0.005854018 0.74438047 0.023446321 4337440
-0.0062926263 0.74433643 0.023443803 4337440
-0.0067312419 0.74429238 0.023441285 4337953
-0.0071698502 0.74424833 0.023438767 4337953
-0.0076084584 0.74420428 0.023436248 4272160
-0.0080470666 0.74416023 0.02343373 4337953
-0.0084856749 0.74411619 0.023431212 4337953
-0.0089242905 0.7440722 0.023428693 4272160
-0.0093628988 0.74402809 0.023426175 4272162
-0.009801507 0.7439841 0.023423657 4272162
-0.010240115 0.74394006 0.023421139 4337955
-0.010678723 0.74389601 0.023418635 4337955
-0.011117332 0.74385196 0.023416102 4206369
-0.011555947 0.74380791 0.023413599 4206369
-0.011994556 0.74376386 0.023411065 4337442
-0.012433164 0.74371982 0.023408562 4337442
-0.012871772 0.74367577 0.023406044 4337442
-0.013310388 0.74363172 0.023403525 4337442
-0.013748996 0.74358767 0.023401007 4337442
-0.014187604 0.74354362 0.023398489 4469028
-0.014626212 0.74349964 0.02339597 4403235
-0.015064828 0.74345553 0.023393452 4403235
-0.015782431 0.74416023 0.022728369 4337440
-0.016222671 0.74411601 0.02272585 4403233
-0.016662896 0.74407184 0.022723317 4403233
-0.017387003 0.74477583 0.022058219 4403233
-0.017828852 0.74473143 0.022055686 4403235
-0.018270716 0.74468708 0.022053152 4337442
-0.01871258 0.74464273 0.022050619 4337955
-0.019154429 0.74459839 0.022048086 4272162
-0.019888282 0.74530137 0.021382928 4337955
-0.020331763 0.74525684 0.021380395 4403748
-0.020775244 0.74521232 0.021377847 4403748
-0.021218732 0.74516773 0.021375299 4337955
-0.021662213 0.74512327 0.02137275 4337955
-0.022105694 0.74507868 0.021370202 4337955
-0.022549182 0.74503416 0.021367669 4403748
-0.022992663 0.74498963 0.021365121 4403748
-0.023436144 0.74494511 0.021362573 4337955
-0.024186246 0.74564648 0.020697311 4337955
-0.024631344 0.74560183 0.020694762 4403748
-0.025076456 0.74555713 0.020692199 4403748
-0.025521562 0.74551243 0.020689636 4403748
-0.025966674 0.74546772 0.020687088 4337955
-0.026411779 0.74542302 0.02068454 4403748
-0.026856884 0.74537838 0.020681977 4403748
-0.027301997 0.74533367 0.020679429 4403748
-0.02806671 0.74603355 0.020014107 4403748
-0.028513432 0.74598873 0.020011544 4469028
-0.028960168 0.74594384 0.020008981 4469028
0.053929605 0.74516255 0.028788269 3482131
0.053502366 0.74511969 0.028785825 4271647
0.053075127 0.74507678 0.028783366 4535071
0.052675176 0.74425906 0.029440597 4732450
0.052249562 0.74421632 0.029438153 4600864
0.051823948 0.74417359 0.029435709 4535071
0.051398337 0.74413085 0.029433265 4469024
0.050972719 0.74408811 0.029430822 4534817
0.050547108 0.74404538 0.029428393 4534817
0.050121494 0.74400264 0.029425949 4534817
0.049695879 0.7439599 0.029423505 4600612
0.049270265 0.74391717 0.029421061 4600612
0.04884465 0.74387443 0.029418617 4535332
0.048419036 0.74383169 0.029416174 4469539
0.047993422 0.74378896 0.02941373 4535332
0.047567807 0.74374622 0.029411286 4469539
0.047142193 0.74370348 0.029408842 4469539
0.046716582 0.74366075 0.029406399 4403746
0.046290968 0.74361801 0.029403955 4469539
0.045865353 0.74357527 0.029401511 4469539
0.045439739 0.74353254 0.029399067 4469539
0.045014124 0.7434898 0.029396623 4469539
0.04458851 0.74344707 0.02939418 4469539
0.044162896 0.74340427 0.029391736 4469539
0.043737285 0.74336159 0.029389292 4469539
0.04331167 0.7433188 0.029386848 4469539
0.042886056 0.74327612 0.029384404 4469539
0.042460442 0.74323332 0.029381961 4469539
0.042034827 0.74319065 0.029379517 4600612
0.041609213 0.74314785 0.029377088 4534819
0.041183598 0.74310517 0.029374644 4534819
0.040757984 0.74306238 0.0293722 4469026
0.04033237 0.7430197 0.029369757 4469024
0.039906755 0.7429769 0.029367313 4600610
0.039481141 0.74293423 0.029364869 4534817
0.039055526 0.74289143 0.029362425 4534817
0.038629912 0.74284875 0.029359981 4469537
0.038204301 0.74280596 0.029357538 4469537
0.037778687 0.74276322 0.029355094 4469537
0.037353072 0.74272048 0.02935265 4403744
0.036927458 0.74267775 0.029350206 4403746
0.036501843 0.74263501 0.029347762 4403746
0.036076233 0.74259228 0.029345334 4403746
0.035650618 0.74254954 0.02934289 4403746
0.035131112 0.74327493 0.028680384 4337953
0.034703873 0.74323201 0.028677925 4403746
0.034276634 0.7431891 0.028675467 4403746
0.033849396 0.74314618 0.028673023 4403746
0.033422157 0.74310333 0.028670564 4403746
0.032994919 0.74306041 0.028668106 4469539
0.03256768 0.74301755 0.028665662 4403746
0.032140441 0.74297464 0.028663218 4337953
0.031713203 0.74293172 0.028660759 4403746
0.031285964 0.74288881 0.028658301 4403746
0.030858725 0.74284589 0.028655857 4337953
0.030431489 0.74280298 0.028653398 4337953
0.03000425 0.74276012 0.028650939 4337953
0.029577011 0.74271721 0.028648496 4403746
0.029033141 0.74344015 0.027985856 4403746
0.028604278 0.74339706 0.027983397 4403746
0.028175417 0.74335396 0.027980924 4403746
0.027746551 0.74331093 0.027978465 4403746
0.027317688 0.74326789 0.027976006 4403746
0.026888825 0.7432248 0.027973548 4337953
0.026459966 0.74318171 0.027971089 4403746
0.026031099 0.74313867 0.027968615 4337953
0.025602236 0.74309564 0.027966157 4403746
0.025173374 0.74305254 0.027963698 4403746
0.024744511 0.74300945 0.027961239 4403744
0.024181142 0.74373043 0.027298465 4403744
0.023750655 0.74368721 0.027295992 4403744
0.023320168 0.743644 0.027293518 4337951
0.022889681 0.74360079 0.027291045 4337951
0.022459194 0.74355757 0.027288586 4403744
0.022028707 0.7435143 0.027286112 4337951
0.02159822 0.74347109 0.027283639 4337951
0.021167733 0.74342787 0.027281165 4403744
0.020737246 0.74338466 0.027278692 4403744
0.020306759 0.74334145 0.027276218 4337951
0.019876268 0.74329817 0.027273744 4337951
0.019445781 0.74325496 0.027271286 4337951
0.019015297 0.74321175 0.027268812 4337951
0.01858481 0.74316847 0.027266338 4337951
0.018154323 0.74312526 0.027263865 4403744
0.017564964 0.74384362 0.026600972 4337951
0.017132852 0.74380022 0.026598483 4337951
0.016700737 0.74375683 0.02659601 4337951
0.016268626 0.74371344 0.026593521 4337951
0.015836515 0.74367005 0.026591048 4272158
0.015404403 0.74362665 0.026588559 4337951
0.014972292 0.74358326 0.026586086 4469026
0.014540181 0.74353987 0.026583612 4469026
0.014108069 0.74349648 0.026581123 4403233
0.013675958 0.74345315 0.026578635 4403233
0.013243843 0.74340975 0.026576161 4403233
0.012634993 0.74412614 0.025913119 4403233
0.01220125 0.74408257 0.025910646 4403233
0.011767514 0.74403906 0.025908142 4403233
0.011333779 0.74399549 0.025905654 4403233
0.010900043 0.74395192 0.025903165 4469026
0.010466307 0.74390835 0.025900677 4403233
0.010032572 0.74386477 0.025898188 4403233
0.0095988363 0.74382126 0.0258957 4337440
0.009165097 0.74377769 0.025893211 4403233
0.0087313615 0.74373412 0.025890723 4403233
0.0082976259 0.74369061 0.025888234 4469026
0.0076692849 0.74440503 0.025225118 4337440
0.0072339177 0.74436128 0.025222629 4271647
0.0067985579 0.74431759 0.025220126 4337440
0.0063631982 0.7442739 0.025217623 4403233
0.0059278384 0.74423015 0.025215119 4337440
0.0054924786 0.74418646 0.025212616 4403233
0.0050571114 0.74414277 0.025210127 4469026
0.0046217591 0.74409902 0.025207624 4403233
0.0041863993 0.74405527 0.025205135 4337953
0.0037510321 0.74401158 0.025202632 4337953
0.0033156723 0.74396789 0.025200129 4337953
0.0028803125 0.74392414 0.025197625 4337953
0.0024449527 0.74388045 0.025195137 4337953
0.002009593 0.74383676 0.025192633 4337953
0.0015742332 0.74379301 0.02519013 4337953
0.00091989338 0.74450487 0.024526834 4403746
0.00048290193 0.74446094 0.024524331 4337953
4.5914203e-05 0.74441707 0.024521828 4337953
-0.0003910698 0.7443732 0.024519309 4272160
-0.0008280538 0.74432933 0.024516806 4337953
-0.0012650378 0.74428546 0.024514288 4403233
-0.0017020218 0.7442416 0.024511784 4403233
-0.0021390095 0.74419773 0.024509281 4403235
-0.0028079599 0.74490803 0.023845911 4403235
-0.0032465681 0.74486399 0.023843408 4469028
-0.0036851764 0.74481994 0.023840874 4469028
-0.0041237921 0.74477589 0.023838371 4469028
-0.0045624003 0.7447319 0.023835853 4403235
-0.0050010085 0.7446878 0.023833334 4469028
-0.0054396167 0.74464381 0.023830816 4403235
-0.005878225 0.74459976 0.023828298 4337442
-0.0063168406 0.74455571 0.02382578 4403235
-0.0067554489 0.74451166 0.023823261 4337953
-0.0071940571 0.74446762 0.023820743 4403746
-0.0076326728 0.74442357 0.023818225 4337953
-0.008071281 0.74437952 0.023815706 4337953
-0.0085098892 0.74433547 0.023813188 4337953
-0.0089484975 0.74429142 0.02381067 4337953
-0.0093871057 0.74424744 0.023808151 4272162
-0.0098257139 0.74420333 0.023805633 4337955
-0.01026433 0.74415934 0.023803115 4403235
-0.010702938 0.74411529 0.023800611 4403235
-0.011141546 0.74407125 0.023798078 4337442
-0.011580154 0.7440272 0.023795575 4337442
-0.012018763 0.74398315 0.023793042 4337442
-0.012457378 0.7439391 0.023790538 4403235
-0.012895986 0.74389505 0.02378802 4403235
-0.013334595 0.74385101 0.023785502 4337442
-0.01377321 0.74380696 0.023782983 4403235
-0.014211819 0.74376291 0.023780465 4469028
-0.014650427 0.74371886 0.023777947 4403235
-0.015089035 0.74367487 0.023775429 4403235
-0.015806735 0.74438035 0.023111761 4337440
-0.016246974 0.74433613 0.023109242 4403233
-0.016687199 0.7442919 0.023106709 4403233
-0.017411388 0.74499673 0.022443026 4403233
-0.017853245 0.74495238 0.022440493 4403235
-0.018295109 0.74490798 0.02243796 4403235
-0.018736966 0.74486363 0.022435427 4403748
-0.019178823 0.74481928 0.022432894 4337955
-0.019912757 0.7455231 0.021769151 4337955
-0.020356238 0.74547851 0.021766603 4403748
-0.020799726 0.74543405 0.02176407 4403748
-0.021243215 0.74538946 0.021761522 4337955
-0.021686688 0.74534494 0.021758974 4403748
-0.022130176 0.74530041 0.021756425 4403748
-0.022573657 0.74525589 0.021753877 4337955
-0.023017138 0.74521136 0.021751344 4469541
-0.023460627 0.74516684 0.021748781 4403748
-0.024210818 0.74586904 0.021084949 4337955
-0.024655916 0.74582434 0.021082386 4403748
-0.025101028 0.74577963 0.021079838 4403748
-0.025546134 0.74573493 0.021077275 4403748
-0.025991246 0.74569023 0.021074727 4337955
-0.026436351 0.74564558 0.021072179 4403748
-0.026881456 0.74560088 0.021069616 4403748
-0.027326569 0.74555618 0.021067053 4403748
-0.028091356 0.74625689 0.020403162 4403748
-0.028538093 0.74621201 0.020400599 4403748
-0.02898483 0.74616718 0.020398036 4403748
0.055205368 0.74472827 0.029825911 4600610
0.054779753 0.74468553 0.029823467 4469537
0.054354139 0.74464279 0.029821023 3614228
0.053928524 0.74460006 0.02981858 3482131
0.05350291 0.74455732 0.029816136 4271647
0.053077295 0.74451458 0.029813692 4600864
0.052651681 0.74447185 0.029811263 4732450
0.052226067 0.74442911 0.029808819 4732450
0.051800456 0.74438637 0.029806376 4535071
0.051374841 0.74434364 0.029803932 4535071
0.050949227 0.7443009 0.029801488 4535071
0.050523613 0.74425817 0.029799044 4534817
0.050097998 0.74421543 0.0297966 4600610
0.049672384 0.74417269 0.029794157 4732196
0.049246769 0.74412996 0.029791713 4600610
0.048821155 0.74408722 0.029789269 4535330
0.048395544 0.74404448 0.029786825 4469537
0.048015177 0.7432279 0.030442774 4535330
0.047591187 0.74318534 0.030440331 4469537
0.047167197 0.74314272 0.030437902 4469537
0.046743207 0.74310017 0.030435473 4469537
0.046319216 0.74305761 0.030433029 4403744
0.045895226 0.74301505 0.0304306 4469537
0.04547124 0.74297243 0.030428171 4535330
0.04504725 0.74292988 0.030425727 4535330
0.044623259 0.74288732 0.030423298 4469537
0.044199269 0.7428447 0.03042087 4469537
0.043775283 0.74280214 0.030418426 4469537
0.043351293 0.74275959 0.030415997 4469537
0.042927302 0.74271703 0.030413568 4469537
0.042503312 0.74267447 0.030411124 4403744
0.042079322 0.74263185 0.030408695 4535330
0.041655332 0.74258929 0.030406266 4403744
0.041231342 0.74254668 0.030403823 4469537
0.040807355 0.74250412 0.030401394 4403744
0.040383365 0.74246156 0.030398965 4403744
0.039959375 0.742419 0.030396521 4535330
0.039535388 0.74237645 0.030394092 4469537
0.039111398 0.74233383 0.030391663 4535330
0.038687408 0.74229127 0.030389234 4469537
0.038263418 0.74224865 0.030386791 4535330
0.037755191 0.74297601 0.02972576 4469537
0.037329577 0.74293327 0.029723316 4403744
0.036903962 0.74289054 0.029720873 4469537
0.036478348 0.7428478 0.029718429 4469537
0.036052737 0.74280506 0.029715985 4403744
0.035627123 0.74276233 0.029713541 4403744
0.035201509 0.74271959 0.029711097 4337951
0.034775894 0.74267685 0.029708654 4403744
0.03435028 0.74263412 0.02970621 4403744
0.033924665 0.74259138 0.029703766 4403744
0.033499055 0.74254864 0.029701322 4403744
0.03307344 0.74250591 0.029698879 4469537
0.032544099 0.74323112 0.029037744 4403746
0.03211686 0.7431882 0.029035285 4403746
0.031689622 0.74314535 0.029032826 4469539
0.031262383 0.74310243 0.029030383 4403746
0.030835142 0.74305952 0.029027924 4337953
0.030407906 0.7430166 0.02902548 4337953
0.029980667 0.74297369 0.029023021 4337953
0.029553428 0.74293077 0.029020578 4403746
0.02912619 0.74288791 0.029018119 4403746
0.028698951 0.742845 0.02901566 4403746
0.028271712 0.74280208 0.029013216 4403746
0.027844474 0.74275923 0.029010758 4403746
0.027417235 0.74271631 0.029008314 4469026
0.026989996 0.7426734 0.029005855 4403233
0.026562758 0.74263048 0.029003412 4469026
0.026135519 0.74258757 0.029000953 4403233
0.025708281 0.74254471 0.028998494 4469537
0.025149703 0.74326694 0.028337181 4403744
0.02472084 0.74322391 0.028334722 4403744
0.024291974 0.74318081 0.028332263 4403744
0.023863114 0.74313778 0.028329805 4403744
0.023434252 0.74309468 0.028327346 4403744
0.023005385 0.74305165 0.028324872 4337951
0.022576526 0.74300855 0.028322414 4403744
0.022147659 0.74296552 0.028319955 4337951
0.0217188 0.74292243 0.028317496 4337951
0.021289937 0.74287939 0.028315037 4403744
0.020861074 0.7428363 0.028312564 4403744
0.020432211 0.74279326 0.028310105 4337951
0.020003349 0.74275017 0.028307647 4403744
0.019574486 0.74270713 0.028305188 4403231
0.01899153 0.74342692 0.02764371 4403231
0.018561043 0.74338371 0.027641237 4337951
0.018130556 0.74334049 0.027638763 4337951
0.017700069 0.74329728 0.027636304 4337951
0.017269582 0.74325407 0.027633831 4337951
0.016839094 0.74321079 0.027631357 4337951
0.016408607 0.74316758 0.027628884 4337951
0.01597812 0.74312437 0.027626425 4337951
0.015547633 0.74308115 0.027623951 4337951
0.015117146 0.74303794 0.027621478 4469024
0.014686659 0.74299467 0.027619004 4469024
0.014084216 0.74371254 0.026957437 4469024
0.013652101 0.74366915 0.026954964 4403231
0.01321999 0.74362576 0.026952475 4403231
0.012787879 0.74358237 0.026950002 4403231
0.012355767 0.74353898 0.026947528 4403233
0.011923656 0.74349558 0.02694504 4403233
0.011491545 0.74345219 0.026942566 4403233
0.011059433 0.7434088 0.026940078 4469026
0.010627322 0.74336541 0.026937604 4469026
0.010195211 0.74332201 0.026935115 4403233
0.0097630955 0.74327862 0.026932642 4403233
0.0093309805 0.74323523 0.026930153 4403233
0.008707419 0.74395096 0.026268452 4403233
0.0082736835 0.74390745 0.026265964 4469026
0.0078399479 0.74386388 0.026263475 4337440
0.0074062087 0.74382031 0.026260987 4337440
0.0069724768 0.7437768 0.026258498 4337440
0.0065387376 0.74373323 0.02625601 4403233
0.0061049983 0.74368966 0.026253521 4337440
0.0056712627 0.74364614 0.026251018 4403233
0.0052375272 0.74360257 0.026248544 4469026
0.0048037916 0.743559 0.026246041 4469026
0.0043700561 0.74351549 0.026243567 4403233
0.0039363131 0.74347192 0.026241064 4469026
0.003502585 0.74342835 0.026238576 4403233
0.003068842 0.74338478 0.026236087 4403233
0.0024209172 0.74409807 0.025574282 4337953
0.0019855648 0.74405438 0.025571778 4337953
0.0015501976 0.74401069 0.025569275 4337953
0.0011148378 0.74396694 0.025566787 4337953
0.0006794706 0.74392325 0.025564283 4403746
0.00024411082 0.7438795 0.02556178 4337953
-0.00019124895 0.74383581 0.025559276 4272160
-0.00062660873 0.74379206 0.025556788 4337953
-0.0010619685 0.74374837 0.025554284 4337953
-0.0014973283 0.74370468 0.025551796 4337953
-0.0019326881 0.74366093 0.025549293 4403235
-0.0026001148 0.74437225 0.024887338 4403235
-0.0030370951 0.74432838 0.02488482 4403235
-0.0034740865 0.74428451 0.024882317 4469028
-0.0039110705 0.74424064 0.024879813 4469028
-0.0043480545 0.74419677 0.02487731 4403235
-0.004785046 0.7441529 0.024874792 4403235
-0.0052220225 0.74410903 0.024872288 4403235
-0.005659014 0.74406511 0.02486977 4403235
-0.006095998 0.74402124 0.024867266 4403235
-0.006532982 0.74397737 0.024864763 4337953
-0.0069699734 0.7439335 0.02486226 4337953
-0.00740695 0.74388957 0.024859741 4337953
-0.0078439415 0.7438457 0.024857238 4337953
-0.0082809255 0.74380183 0.02485472 4337953
-0.0087179095 0.74375796 0.024852216 4272160
-0.0091549009 0.74371409 0.024849713 4272162
-0.0095918775 0.74367023 0.024847209 4337955
-0.010028869 0.74362636 0.024844691 4403235
-0.010465845 0.74358249 0.024842188 4403235
-0.010902837 0.74353856 0.024839684 4337442
-0.011339821 0.74349469 0.024837166 4337442
-0.011776805 0.74345082 0.024834663 4403235
-0.012213796 0.74340695 0.024832159 4469028
-0.012920201 0.74411434 0.024169996 4469028
-0.013358809 0.74407029 0.024167478 4337442
-0.013797425 0.74402624 0.02416496 4403235
-0.014236033 0.7439822 0.024162441 4469028
-0.014674641 0.74393821 0.024159923 4403235
-0.015113249 0.7438941 0.024157405 4403235
-0.015551858 0.74385011 0.024154887 4337442
-0.015990473 0.743806 0.024152368 4403235
-0.016429082 0.74376202 0.02414985 4403233
-0.017151743 0.74446779 0.023487583 4403233
-0.017591968 0.74442363 0.02348505 4403235
-0.018032208 0.7443794 0.023482531 4403235
-0.018472441 0.74433517 0.023479998 4469541
-0.018912673 0.74429095 0.023477465 4337955
-0.019645073 0.74499577 0.022815153 4403748
-0.020086929 0.74495143 0.02281262 4469541
-0.020528793 0.74490702 0.022810087 4403748
-0.02097065 0.74486268 0.022807553 4403748
-0.021412507 0.74481833 0.022805005 4403748
-0.021854371 0.74477398 0.022802472 4403748
-0.022296228 0.74472958 0.022799939 4337955
-0.022738092 0.74468517 0.022797406 4469541
-0.023179948 0.74464083 0.022794873 4403748
-0.023928583 0.74534404 0.022132471 4403748
-0.024372071 0.74529946 0.022129923 4403748
-0.024815559 0.74525493 0.022127375 4469541
-0.025259048 0.74521041 0.022124827 4469541
-0.025702521 0.74516588 0.022122294 4403748
-0.02614601 0.74512136 0.022119731 4403748
-0.026589498 0.74507684 0.022117198 4469541
-0.027032971 0.74503231 0.022114649 4469541
-0.028116018 0.74648023 0.020792216 4403748
-0.028562754 0.7464354 0.020789653 4469028
-0.029009491 0.74639052 0.02078709 4469028
0.055181872 0.74494106 0.030196577 4863268
0.054756261 0.74489832 0.030194134 4403744
0.054330643 0.74485558 0.03019169 3614228
0.053905033 0.74481285 0.030189246 3547924
0.053479418 0.74477011 0.030186802 4271647
0.053053804 0.74472737 0.030184358 4600610
0.052628189 0.74468464 0.030181915 4732196
0.052202575 0.7446419 0.030179471 4732450
0.05177696 0.74459916 0.030177027 4600864
0.051351346 0.74455643 0.030174583 4535071
0.050925732 0.74451369 0.030172139 4600864
0.050500117 0.74447095 0.030169696 4534817
0.050074503 0.74442822 0.030167252 4600610
0.049648888 0.74438548 0.030164808 4600610
0.049223274 0.74434274 0.030162364 4600610
0.04879766 0.74430001 0.030159935 4600610
0.048372049 0.74425727 0.030157492 4600610
0.047991771 0.74343991 0.03081201 4535330
0.047567781 0.7433973 0.030809581 4469537
0.047143795 0.74335474 0.030807152 4535330
0.046719804 0.74331212 0.030804724 4469537
0.046295814 0.74326956 0.03080228 4469537
0.045871824 0.74322701 0.030799851 4535330
0.045447834 0.74318445 0.030797422 4535330
0.045023844 0.74314189 0.030794978 4535330
0.044599853 0.74309927 0.030792549 4469537
0.044175863 0.74305671 0.03079012 4469537
0.043751877 0.7430141 0.030787677 4535330
0.043327887 0.74297154 0.030785248 4469537
0.042903896 0.74292898 0.030782819 4469537
0.04247991 0.74288642 0.030780375 4469537
0.04205592 0.74284387 0.030777946 4535330
0.04163193 0.74280125 0.030775517 4403744
0.041207939 0.74275869 0.030773073 4469537
0.040783949 0.74271607 0.030770645 4403744
0.040359959 0.74267352 0.030768216 4469537
0.039935969 0.74263096 0.030765772 4535330
0.039511979 0.7425884 0.030763343 4469537
0.039087992 0.74254584 0.030760914 4535330
0.038664002 0.74250323 0.03075847 4469537
0.038240016 0.74246067 0.030756041 4535330
0.0377317 0.7431888 0.030096412 4469537
0.037306085 0.74314606 0.030093968 4469537
0.036880471 0.74310333 0.030091524 4469537
0.036454856 0.74306059 0.03008908 4469537
0.036029242 0.74301785 0.030086637 4534817
0.035603628 0.74297512 0.030084193 4534817
0.035178013 0.74293238 0.030081749 4469024
0.034752399 0.74288964 0.030079305 4469024
0.034326784 0.74284691 0.030076876 4403744
0.03390117 0.74280417 0.030074432 4469537
0.033475559 0.74276143 0.030071989 4469537
0.033049945 0.7427187 0.030069545 4469537
0.032520514 0.74344468 0.029409811 4469537
0.032093275 0.74340183 0.029407352 4403744
0.031666037 0.74335891 0.029404908 4403746
0.031238798 0.74331599 0.02940245 4403746
0.030811559 0.74327314 0.029400006 4337953
0.030384321 0.74323022 0.029397547 4337953
0.029957082 0.74318731 0.029395103 4403746
0.029529843 0.74314439 0.029392645 4469539
0.029102605 0.74310148 0.029390186 4469539
0.028675366 0.74305862 0.029387742 4469539
0.028248131 0.74301571 0.029385284 4469026
0.027820889 0.74297279 0.02938284 4469026
0.027393654 0.74292994 0.029380381 4534819
0.026966415 0.74288702 0.029377937 4469026
0.026539177 0.7428441 0.029375479 4534819
0.026111938 0.74280119 0.02937302 4469026
0.025684699 0.74275827 0.029370576 4469537
0.025126029 0.7434814 0.028710678 4469537
0.024697166 0.7434383 0.02870822 4403744
0.024268299 0.74339521 0.028705761 4403744
0.02383944 0.74335217 0.028703302 4403744
0.023410577 0.74330914 0.028700829 4403744
0.022981711 0.74326605 0.02869837 4337951
0.022552852 0.74322295 0.028695911 4403744
0.022123985 0.74317992 0.028693452 4337951
0.021695126 0.74313688 0.028690994 4337951
0.021266263 0.74309379 0.02868852 4337951
0.0208374 0.74305069 0.028686062 4337951
0.020408537 0.74300766 0.028683603 4403744
0.019979671 0.74296463 0.028681144 4403744
0.019550808 0.74292153 0.028678685 4403231
0.01896777 0.74364221 0.028018624 4403231
0.018537283 0.74359894 0.02801615 4337951
0.018106796 0.74355572 0.028013676 4337951
0.017676309 0.74351251 0.028011203 4403744
0.017245822 0.74346924 0.028008744 4403744
0.016815335 0.74342602 0.028006271 4337951
0.016384844 0.74338281 0.028003797 4403744
0.015954357 0.7433396 0.028001323 4337951
0.01552387 0.74329638 0.027998865 4337951
0.015093382 0.74325311 0.027996391 4469024
0.014662895 0.7432099 0.027993917 4469024
0.014060363 0.74392855 0.027333766 4469024
0.013628252 0.74388516 0.027331278 4403231
0.013196137 0.74384177 0.027328804 4403231
0.012764025 0.74379838 0.027326316 4403231
0.012331914 0.74375498 0.027323842 4403233
0.011899803 0.74371159 0.027321368 4403233
0.011467688 0.7436682 0.02731888 4403233
0.011035576 0.74362481 0.027316406 4469026
0.010603465 0.74358141 0.027313918 4469026
0.010171354 0.74353802 0.027311444 4469026
0.0097392425 0.74349463 0.027308956 4403233
0.0093071312 0.74345124 0.027306482 4403233
0.0086834766 0.7441678 0.026646197 4403233
0.008249741 0.74412429 0.026643693 4469026
0.0078160055 0.74408072 0.02664122 4403233
0.0073822662 0.74403715 0.026638716 4337440
0.0069485344 0.74399364 0.026636228 4403233
0.0065147951 0.74395007 0.026633739 4403233
0.0060810521 0.7439065 0.026631251 4337440
0.005647324 0.74386299 0.026628762 4403233
0.005213581 0.74381942 0.026626274 4534819
0.0047798529 0.74377584 0.026623785 4469026
0.0043461099 0.74373233 0.026621297 4403233
0.0039123744 0.74368876 0.026618809 4469026
0.0034786388 0.74364519 0.02661632 4469026
0.0030449033 0.74360168 0.026613832 4469026
0.002396889 0.74431574 0.025953427 4403231
0.0019615293 0.74427205 0.025950938 4403231
0.0015261695 0.7442283 0.025948435 4403233
0.0010908097 0.74418461 0.025945932 4403233
0.00065544248 0.74414086 0.025943428 4469026
0.0002200827 0.74409717 0.02594094 4403233
-0.00021527708 0.74405348 0.025938436 4403233
-0.00065063685 0.74400973 0.025935933 4403233
-0.0010859966 0.74396604 0.025933444 4403233
-0.0015213639 0.74392229 0.025930941 4403233
-0.0019567236 0.7438786 0.025928438 4403235
-0.002624236 0.74459076 0.025267899 4403235
-0.00306122 0.74454689 0.025265396 4469028
-0.0034982041 0.74450302 0.025262892 4469028
-0.0039351881 0.74445909 0.025260374 4469028
-0.0043721795 0.74441522 0.025257871 4403235
-0.0048091635 0.74437135 0.025255352 4403235
-0.0052461475 0.74432749 0.025252849 4403235
-0.0056831315 0.74428362 0.025250345 4403235
-0.0061201155 0.74423969 0.025247842 4403235
-0.006557107 0.74419582 0.025245324 4337955
-0.006994091 0.74415195 0.02524282 4403748
-0.007431075 0.74410808 0.025240302 4337953
-0.0078680664 0.74406421 0.025237799 4337953
-0.008305043 0.74402034 0.025235295 4337953
-0.0087420344 0.74397647 0.025232792 4272160
-0.0091790184 0.74393255 0.025230274 4337955
-0.0096160024 0.74388868 0.02522777 4337955
-0.010052986 0.74384481 0.025225252 4403235
-0.01048997 0.74380094 0.025222749 4403235
-0.010926962 0.74375701 0.025220245 4337442
-0.011363938 0.74371314 0.025217742 4337442
-0.01180093 0.74366927 0.025215223 4469028
-0.012237914 0.7436254 0.02521272 4469028
-0.012944408 0.74433362 0.024551973 4469028
-0.013383023 0.74428958 0.024549454 4337442
-0.013821632 0.74424553 0.024546936 4469028
-0.01426024 0.74420148 0.024544418 4469028
-0.014698848 0.74415743 0.0245419 4469028
-0.015137464 0.74411345 0.024539381 4469028
-0.015576072 0.74406934 0.024536863 4337442
-0.01601468 0.74402535 0.024534345 4337442
-0.016453288 0.7439813 0.024531826 4403235
-0.01717604 0.74468791 0.023870975 4403235
-0.017616272 0.74464369 0.023868442 4337955
-0.018056512 0.74459946 0.023865908 4337955
-0.018496737 0.74455529 0.02386339 4469541
-0.018936977 0.74451107 0.023860857 4337955
-0.019669466 0.74521673 0.023199975 4337955
-0.020111322 0.74517232 0.023197442 4403748
-0.020553187 0.74512798 0.023194894 4403748
-0.020995043 0.74508357 0.023192361 4403748
-0.0214369 0.74503922 0.023189828 4469541
-0.021878764 0.74499488 0.02318728 4403748
-0.022320621 0.74495047 0.023184747 4403748
-0.022762485 0.74490613 0.023182213 4469541
-0.023204342 0.74486172 0.02317968 4469541
-0.023953065 0.74556571 0.022518694 4403748
-0.024396554 0.74552119 0.022516146 4403748
-0.024840035 0.74547666 0.022513598 4469541
-0.025283523 0.74543214 0.02251105 4469541
-0.025727004 0.74538761 0.022508502 4403748
-0.026170492 0.74534309 0.022505969 4469541
-0.026613981 0.7452985 0.022503421 4403748
-0.027057454 0.74525404 0.022500873 4469541
0.055158377 0.74515384 0.030567229 4863522
0.054732762 0.74511111 0.030564785 4469537
0.054307148 0.74506837 0.030562356 3614228
0.053881533 0.74502563 0.030559912 3482644
0.053455923 0.7449829 0.030557469 4206367
0.053030308 0.74494016 0.030555025 4535332
0.052604694 0.74489743 0.030552581 4666918
0.05217908 0.74485469 0.030550137 4666916
0.051753469 0.74481195 0.030547693 4535330
0.051327854 0.74476922 0.03054525 4535071
0.05090224 0.74472648 0.030542806 4535071
0.050476626 0.74468374 0.030540362 4534817
0.050051011 0.74464101 0.030537918 4600610
0.049625397 0.74459827 0.030535474 4600610
0.049199782 0.74455547 0.030533031 4600610
0.048774168 0.7445128 0.030530602 4600610
0.048348553 0.74447 0.030528158 4600610
0.047968365 0.74365187 0.031181261 4535330
0.047544379 0.74360931 0.031178832 4535330
0.047120389 0.74356669 0.031176388 4535330
0.046696398 0.74352413 0.031173959 4666916
0.046272408 0.74348152 0.03117153 4535330
0.045848422 0.74343896 0.031169087 4666916
0.045424432 0.7433964 0.031166658 4666916
0.045000441 0.74335384 0.031164229 4535330
0.044576451 0.74331129 0.031161785 4535330
0.044152461 0.74326867 0.031159356 4535330
0.043728471 0.74322611 0.031156927 4535330
0.043304481 0.74318349 0.031154484 4535330
0.042880494 0.74314094 0.031152055 4469537
0.042456504 0.74309838 0.031149626 4469537
0.042032514 0.74305582 0.031147182 4666916
0.041608527 0.74301326 0.031144753 4469537
0.041184537 0.74297065 0.031142324 4469537
0.040760547 0.74292809 0.03113988 4403744
0.040336557 0.74288547 0.031137452 4535330
0.039912567 0.74284291 0.031135023 4535330
0.039488576 0.74280035 0.031132579 4469537
0.039064586 0.7427578 0.03113015 4535330
0.038640596 0.74271524 0.031127721 4535330
0.03821661 0.74267262 0.031125277 4535330
0.037708204 0.74340159 0.030467078 4469537
0.03728259 0.74335885 0.030464634 4469537
0.036856975 0.74331611 0.030462191 4469024
0.036431365 0.74327338 0.030459747 4469024
0.03600575 0.74323064 0.030457303 4600610
0.035580136 0.7431879 0.030454859 4534817
0.035154521 0.74314517 0.030452415 4469024
0.034728907 0.74310243 0.030449972 4469024
0.034303293 0.74305969 0.030447543 4534817
0.033877678 0.74301696 0.030445099 4600610
0.033452064 0.74297422 0.030442655 4469537
0.033026449 0.74293149 0.030440211 4469537
0.032496929 0.7436583 0.029781893 4469537
0.032069691 0.74361539 0.029779434 4403744
0.031642452 0.74357247 0.02977699 4403746
0.031215215 0.74352962 0.029774532 4469539
0.030787975 0.7434867 0.029772073 4403746
0.030360738 0.74344379 0.029769629 4403746
0.029933499 0.74340093 0.029767171 4469539
0.029506261 0.74335802 0.029764727 4469539
0.029079022 0.7433151 0.029762268 4469539
0.028651783 0.74327219 0.029759824 4535332
0.028224546 0.74322927 0.029757366 4534819
0.027797304 0.74318641 0.029754907 4469026
0.027370069 0.7431435 0.029752463 4665891
0.026942831 0.74310058 0.029750019 4600098
0.026515592 0.74305773 0.029747561 4534819
0.026088353 0.74301481 0.029745102 4534819
0.025661115 0.7429719 0.029742658 4534819
0.025102355 0.74369574 0.029084176 4534819
0.024673492 0.7436527 0.029081702 4534817
0.024244629 0.74360967 0.029079244 4534817
0.023815766 0.74356657 0.029076785 4469024
0.023386903 0.74352348 0.029074326 4469024
0.02295804 0.74348044 0.029071867 4337951
0.022529177 0.74343741 0.029069394 4403744
0.022100314 0.74339432 0.029066935 4403744
0.021671452 0.74335128 0.029064476 4337951
0.021242589 0.74330819 0.029062018 4403744
0.020813726 0.74326515 0.029059559 4403744
0.020384863 0.74322206 0.029057086 4403744
0.019956 0.74317902 0.029054627 4403744
0.019527137 0.74313593 0.029052168 4337951
0.018944006 0.74385738 0.028393522 4403744
0.018513519 0.74381417 0.028391063 4337951
0.018083032 0.74377096 0.02838859 4337951
0.017652545 0.74372768 0.028386116 4403744
0.017222058 0.74368447 0.028383642 4337951
0.016791571 0.74364126 0.028381169 4337951
0.01636108 0.74359804 0.028378695 4403744
0.015930593 0.74355483 0.028376222 4337951
0.015500106 0.74351156 0.028373763 4337951
0.015069619 0.74346834 0.028371289 4534817
0.014639132 0.74342513 0.028368816 4534817
0.014036514 0.74414462 0.02771008 4534817
0.013604399 0.74410123 0.027707607 4403231
0.013172284 0.74405783 0.027705118 4403231
0.012740172 0.74401444 0.027702644 4403231
0.012308061 0.74397105 0.027700156 4403233
0.01187595 0.74392766 0.027697682 4403233
0.011443838 0.74388427 0.027695209 4403233
0.011011727 0.74384087 0.02769272 4469026
0.010579616 0.74379748 0.027690232 4534819
0.010147505 0.74375409 0.027687758 4534819
0.0097153932 0.7437107 0.027685285 4469026
0.0092832781 0.7436673 0.027682796 4403233
0.0086595342 0.74438465 0.027023911 4403233
0.0082257986 0.74434114 0.027021438 4469026
0.0077920631 0.74429756 0.027018934 4403233
0.0073583238 0.74425399 0.027016461 4403233
0.006924592 0.74421048 0.027013958 4403233
0.0064908527 0.74416691 0.027011469 4403233
0.0060571134 0.74412334 0.027008981 4337440
0.0056233779 0.74407983 0.027006492 4403233
0.0051896423 0.74403626 0.027004004 4469028
0.0047559068 0.74399269 0.027001515 4469028
0.0043221712 0.74394917 0.026999027 4403233
0.0038884282 0.7439056 0.026996538 4469026
0.0034547001 0.74386203 0.02699405 4469024
0.0030209571 0.74381852 0.026991561 4469024
0.0023728535 0.74453342 0.026332572 4469024
0.0019375011 0.74448967 0.026330084 4469024
0.0015021339 0.74444598 0.02632758 4469026
0.0010667741 0.74440229 0.026325077 4469026
0.0006314069 0.74435854 0.026322573 4469026
0.00019604713 0.74431485 0.026320085 4403233
-0.00023931265 0.7442711 0.026317582 4403233
-0.00067467242 0.74422741 0.026315078 4403233
-0.0011100322 0.74418366 0.02631259 4403233
-0.001545392 0.74413997 0.026310086 4403233
-0.0019807518 0.74409628 0.026307583 4403235
-0.002648361 0.74480921 0.02564846 4403235
-0.003085345 0.74476534 0.025645956 4469028
-0.003522329 0.74472147 0.025643438 4469028
-0.003959313 0.7446776 0.025640935 4469028
-0.0043963045 0.74463367 0.025638431 4403235
-0.0048332885 0.74458981 0.025635928 4469028
-0.0052702725 0.74454594 0.02563341 4403235
-0.0057072565 0.74450207 0.025630906 4403235
-0.0061442405 0.7444582 0.025628388 4403235
-0.006581232 0.74441433 0.025625885 4403748
-0.007018216 0.74437046 0.025623381 4403748
-0.0074552 0.74432653 0.025620878 4403746
-0.0078921914 0.74428266 0.025618359 4403746
-0.008329168 0.74423879 0.025615856 4337953
-0.0087661594 0.74419492 0.025613338 4337953
-0.0092031434 0.744151 0.025610834 4337955
-0.0096401274 0.74410713 0.025608331 4337955
-0.010077111 0.74406326 0.025605828 4403235
-0.010514095 0.74401939 0.025603309 4403235
-0.010951087 0.74397552 0.025600806 4337442
-0.011388063 0.74393165 0.025598288 4403235
-0.011825055 0.74388778 0.025595784 4469028
-0.012262039 0.74384385 0.025593281 4469028
-0.012968622 0.74455291 0.024933949 4469028
-0.01340723 0.74450886 0.024931431 4337442
-0.013845846 0.74446481 0.024928913 4469028
-0.014284454 0.74442077 0.024926394 4469028
-0.014723063 0.74437672 0.024923876 4469028
-0.015161671 0.74433267 0.024921358 4469028
-0.015600279 0.74428868 0.024918839 4403235
-0.016038895 0.74424458 0.024916321 4403235
-0.016477503 0.74420059 0.024913803 4403235
-0.017200336 0.74490798 0.024254367 4403235
-0.017640576 0.74486375 0.024251834 4337955
-0.018080808 0.74481958 0.024249315 4337955
-0.018521041 0.74477535 0.024246782 4469541
-0.018961273 0.74473119 0.024244249 4403748
-0.019693851 0.74543762 0.023584783 4337955
-0.020135716 0.74539328 0.02358225 4403748
-0.02057758 0.74534887 0.023579702 4403746
-0.021019429 0.74530447 0.023577169 4403746
-0.021461293 0.74526012 0.023574635 4469539
-0.02190315 0.74521577 0.023572087 4403746
-0.022345006 0.74517143 0.023569554 4403746
-0.022786871 0.74512702 0.023567021 4469539
-0.023228735 0.74508268 0.023564488 4469539
-0.023977548 0.74578744 0.022904918 4469539
-0.024421036 0.74574292 0.022902369 4469539
-0.02486451 0.74569839 0.022899821 4469539
-0.025307998 0.74565387 0.022897273 4469541
-0.025751472 0.74560928 0.02289474 4403748
-0.02619496 0.74556482 0.022892177 4469541
-0.026638448 0.74552023 0.022889644 4403748
-0.027081922 0.74547571 0.022887096 4469541
0.055134885 0.74536663 0.030937895 4929315
0.054709271 0.7453239 0.030935451 4403744
0.054283656 0.74528116 0.030933008 3614228
0.053858042 0.74523842 0.030930564 3482644
0.053432427 0.74519569 0.03092812 4337953
0.053006813 0.74515295 0.030925676 4666916
0.052608848 0.74433213 0.031577274 4666916
0.052184857 0.74428958 0.031574845 4666916
0.051760867 0.74424696 0.031572402 4535330
0.051336877 0.7442044 0.031569973 4469537
0.050912887 0.74416184 0.031567544 4469537
0.0504889 0.74411929 0.0315651 4534817
0.05006491 0.74407673 0.031562671 4600610
0.04964092 0.74403411 0.031560242 4534817
0.049257573 0.74321485 0.032211885 4600610
0.048835211 0.74317241 0.032209456 4600610
0.048412845 0.74312997 0.032207042 4600610
0.047990479 0.74308759 0.032204613 4535330
0.047568113 0.74304521 0.032202184 4666916
0.047145747 0.74300277 0.03219977 4535330
0.046723384 0.74296033 0.032197341 4535330
0.046301018 0.74291795 0.032194912 4535330
0.045878652 0.74287552 0.032192498 4666916
0.04545629 0.74283314 0.03219007 4666916
0.045033924 0.7427907 0.032187641 4535330
0.044611558 0.74274826 0.032185227 4535330
0.044189192 0.74270588 0.032182798 4535330
0.043766826 0.7426635 0.032180369 4535330
0.043344464 0.74262106 0.03217794 4535330
0.042922098 0.74257863 0.032175511 4469537
0.042499732 0.74253625 0.032173097 4469537
0.04207737 0.74249381 0.032170668 4666916
0.041655004 0.74245143 0.032168239 4469537
0.041232638 0.74240899 0.032165825 4469537
0.040810272 0.74236655 0.032163396 4403744
0.040387906 0.74232417 0.032160968 4535330
0.03996554 0.74228179 0.032158554 4535330
0.039543178 0.74223936 0.032156125 4469537
0.039041184 0.74296975 0.031499401 4535330
0.038617194 0.74292719 0.031496972 4535330
0.038193204 0.74288464 0.031494528 4535330
0.037769213 0.74284202 0.031492099 4535330
0.037345223 0.74279946 0.03148967 4403744
0.036921237 0.74275684 0.031487226 4403744
0.036497246 0.74271429 0.031484798 4469537
0.036073256 0.74267173 0.031482369 4600610
0.03564927 0.74262917 0.031479925 4534817
0.03522528 0.74258661 0.031477496 4469024
0.034801289 0.742544 0.031475067 4469024
0.034377299 0.74250144 0.031472623 4534817
0.033953309 0.74245882 0.031470194 4534817
0.033529319 0.74241626 0.031467766 4469537
0.033105329 0.7423737 0.031465322 4469537
0.032577343 0.74310154 0.030808419 4469537
0.032151729 0.7430588 0.030805975 4403744
0.031726114 0.74301606 0.030803531 4403746
0.0313005 0.74297333 0.030801088 4469539
0.030874886 0.74293059 0.030798644 4403746
0.030449271 0.74288785 0.0307962 4403746
0.030023657 0.74284512 0.030793756 4535332
0.029598044 0.74280238 0.030791312 4469539
0.029172428 0.74275959 0.030788869 4534819
0.028746815 0.74271691 0.030786425 4534819
0.028321203 0.74267411 0.030783981 4665891
0.027773723 0.74339998 0.030126989 4665891
0.027346484 0.74335706 0.03012453 4665891
0.026919246 0.74331421 0.030122086 4600098
0.026492007 0.74327129 0.030119628 4534819
0.026064768 0.74322838 0.030117184 4534819
0.02563753 0.74318552 0.030114725 4534819
0.025210291 0.7431426 0.030112267 4469026
0.024783053 0.74309969 0.030109823 4534817
0.024355814 0.74305677 0.030107364 4534817
0.023928575 0.74301386 0.03010492 4534817
0.023501337 0.742971 0.030102462 4469024
0.023074098 0.74292809 0.030100018 4469024
0.022646859 0.74288517 0.030097559 4534817
0.022219621 0.74284232 0.0300951 4469537
0.021792382 0.7427994 0.030092657 4403744
0.021365147 0.74275649 0.030090198 4469537
0.020937908 0.74271357 0.030087754 4403744
0.020361193 0.74343646 0.029430568 4403744
0.019932326 0.74339342 0.02942811 4403744
0.019503463 0.74335033 0.029425651 4403744
0.019074604 0.74330729 0.029423192 4403744
0.018645737 0.7432642 0.029420733 4403744
0.018216878 0.74322116 0.02941826 4337951
0.017788012 0.74317813 0.029415801 4403744
0.017359152 0.74313504 0.029413342 4403744
0.01693029 0.74309194 0.029410884 4403744
0.016501423 0.74304891 0.029408425 4403744
0.01607256 0.74300587 0.029405951 4337951
0.015476346 0.74372679 0.028748661 4403744
0.015045859 0.74368358 0.028746188 4534817
0.014615372 0.74364036 0.028743714 4534817
0.014184885 0.74359715 0.028741241 4534817
0.013754394 0.74355388 0.028738767 4469024
0.013323903 0.74351066 0.028736308 4403231
0.012893416 0.74346745 0.028733835 4403231
0.012462929 0.74342418 0.028731361 4403231
0.012032442 0.74338096 0.028728887 4469024
0.011601955 0.74333775 0.028726429 4469024
0.011171468 0.74329454 0.028723955 4469024
0.010740981 0.74325132 0.028721482 4534817
0.010123651 0.74397016 0.028064072 4600610
0.0096915364 0.74392676 0.028061599 4665889
0.0092594251 0.74388337 0.028059125 4534303
