# .PCD v0.7 - Point Cloud Data file format
VERSION 0.7
FIELDS x y z rgb
SIZE 4 4 4 4
TYPE F F F U
COUNT 1 1 1 1
WIDTH 1060
HEIGHT 1
VIEWPOINT 0 0 0 1 0 0 0
POINTS 1060
DATA ascii
0.013071895 0.7716018 0.073280111 10197911
0.013070732 0.77114308 0.073277593 12039082
0.01306954 0.7706843 0.073275089 13486528
0.013068348 0.77022552 0.073272571 14802888
0.013067156 0.76976675 0.073270068 16052955
0.013065964 0.76930797 0.073267549 16777191
0.013064772 0.76884919 0.073265046 15921882
0.01306358 0.76839042 0.073262528 12302756
0.013062418 0.76793164 0.073260009 11052689
0.013061225 0.76747286 0.073257506 11710367
0.013060033 0.76701409 0.073254988 12763055
0.013058841 0.76655531 0.073252484 13619901
0.013057649 0.76609653 0.073249966 14606796
0.013056457 0.76563776 0.073247463 15264974
0.013055265 0.76517898 0.073244944 15659732
0.012931466 0.80600828 0.073866069 16711650
0.012930274 0.8055495 0.073863551 13750965
0.012929082 0.80509073 0.073861033 11843488
0.01292789 0.80463195 0.073858529 15396310
0.012926698 0.80417317 0.073856011 16711658
0.012925506 0.80371439 0.073853508 16777195
0.012924343 0.80325562 0.073850989 16580580
0.012923151 0.80279684 0.073848486 15330769
0.012921959 0.80233806 0.073845968 13158317
0.012920767 0.80187929 0.073843449 12039836
0.012919575 0.80142051 0.073840946 12500135
0.012918383 0.80096173 0.073838428 15855578
0.012853056 0.77572918 0.073700279 14938865
0.012851864 0.7752704 0.073697776 14609900
0.012850672 0.77481169 0.073695257 14016997
0.01284948 0.77435291 0.073692739 14806513
0.012848288 0.77389413 0.073690236 14609132
0.012847096 0.77343535 0.073687717 16056319
0.012845933 0.77297658 0.073685214 16515064
0.012844741 0.7725178 0.073682696 14014930
0.012843549 0.77205902 0.073680192 8947074
0.012842357 0.77160025 0.073677674 9868176
0.012841165 0.77114147 0.073675156 11908009
0.012839973 0.77068269 0.073672652 13552834
0.012838781 0.77022392 0.073670134 14540229
0.012837619 0.76976514 0.073667631 15658710
0.012836426 0.76930636 0.073665112 15987929
0.012835234 0.76884758 0.073662609 14343104
0.012834042 0.76838881 0.073660091 11842207
0.01283285 0.76793003 0.073657572 11644828
0.012831658 0.76747125 0.073655069 11250070
0.012830466 0.76701248 0.073652551 11776414
0.012829304 0.76655376 0.073650047 13882301
0.012828112 0.76609492 0.073647529 16382435
0.01282692 0.76563621 0.073645025 16777185
0.012825727 0.76517743 0.073642507 16777186
0.0091394782 0.80842245 0.07245788 14272171
0.0091382861 0.80795717 0.072455332 15193273
0.0091370642 0.80749184 0.072452784 16381143
0.0091358721 0.80702657 0.072450235 16183764
0.0091346502 0.80656123 0.072447687 16185047
0.0091334581 0.80609596 0.072445139 16185047
0.012701899 0.80600667 0.074263632 12500646
0.012700707 0.80554789 0.074261114 13158576
0.012699544 0.80508912 0.074258596 16383464
0.012698352 0.8046304 0.074256092 16646124
0.01269716 0.80417162 0.074253574 16646121
0.012695968 0.80371284 0.074251071 16711658
0.012694776 0.80325407 0.074248552 16777192
0.012693584 0.80279529 0.074246049 15658710
0.012692392 0.80233651 0.074243531 14079932
0.0126912 0.80187774 0.074241027 13422002
0.012690037 0.80141896 0.074238509 14737095
0.012688845 0.80096018 0.074235991 15460818
0.012623489 0.77572763 0.074097842 12306631
0.012622297 0.77526885 0.074095339 11911873
0.012621135 0.77481008 0.07409282 12569549
0.012619942 0.7743513 0.074090317 12635342
0.01261875 0.77389252 0.074087799 14740970
0.012617558 0.77343374 0.07408528 16056318
0.012616366 0.77297497 0.074082777 16645880
0.012615174 0.77251619 0.074080259 10987682
0.012613982 0.77205741 0.074077755 10527128
0.01261282 0.77159864 0.074075237 15264224
0.012611628 0.77113986 0.074072734 14146502
0.012610435 0.77068114 0.074070215 13093814
0.012609243 0.77022231 0.074067697 16580578
0.012608051 0.76976359 0.074065194 16317662
0.012606859 0.76930481 0.074062675 16316892
0.012605667 0.76884604 0.074060172 15395790
0.012604505 0.76838726 0.074057654 15000782
0.012603313 0.76792848 0.07405515 14277059
0.012602121 0.7674697 0.074052632 12105638
0.012600929 0.76701093 0.074050128 12697775
0.012599736 0.76655215 0.07404761 13026994
0.012598544 0.76609337 0.074045092 13421752
0.012597352 0.7656346 0.074042588 16710885
0.01259616 0.76517582 0.07404007 15526611
0.0089066625 0.80842084 0.072861105 14470575
0.0089054704 0.80795556 0.072858557 15918021
0.0089042485 0.80749023 0.072856009 16184275
0.0089030564 0.80702496 0.072853461 16776669
0.0089018345 0.80655962 0.072850913 16776930
0.0089006424 0.80609435 0.072848365 12303006
0.0088994205 0.80562901 0.072845817 14212288
0.0088982284 0.80516374 0.072843269 16711654
0.0088970363 0.80469841 0.07284072 16646120
0.0088958144 0.80423313 0.072838172 16515046
0.0088946223 0.8037678 0.072835624 15395025
0.0088934004 0.80330253 0.072833076 14408130
0.0086738467 0.80841923 0.073264331 14471345
0.0086726546 0.80795395 0.073261783 15984584
0.0086714327 0.80748862 0.073259234 16579033
0.0086702406 0.80702335 0.073256686 16776926
0.0086690187 0.80655801 0.073254138 16448478
0.0086678267 0.80609274 0.07325159 15724755
0.0086666048 0.80562741 0.073249042 16777187
0.0086654127 0.80516213 0.073246494 16580064
0.0086642206 0.8046968 0.073243946 15264204
0.0086629987 0.80423152 0.073241398 13948344
0.0086618066 0.80376619 0.07323885 15329997
0.0086605847 0.80330092 0.073236302 16119513
0.008441031 0.80841762 0.073667556 11905672
0.0084398091 0.80795234 0.073665008 14800564
0.008438617 0.80748701 0.07366246 16711389
0.0084374249 0.80702174 0.073659912 16777183
0.008436203 0.8065564 0.073657364 16777183
0.0084350109 0.80609113 0.073654816 16580316
0.008433789 0.8056258 0.073652267 15001286
0.0084325969 0.80516052 0.073649719 14803907
0.008431375 0.80469519 0.073647171 16646111
0.0084301829 0.80422992 0.073644623 16711648
0.0084289908 0.80376458 0.073642075 16711646
0.0084277689 0.80329931 0.073639527 16711646
0.0075317025 0.80273014 0.073185921 16711648
0.0075304806 0.8022632 0.073183373 16580318
0.0075292587 0.80179632 0.07318081 16448219
0.0075280666 0.80132937 0.073178262 14869187
0.0075268447 0.80086243 0.073175699 13553075
0.0075256526 0.80039549 0.07317315 13618868
0.0075244308 0.79992855 0.073170587 13552821
0.0075232387 0.7994616 0.073168039 13487028
0.0075220168 0.79899466 0.073165476 9540231
0.0083651245 0.77910346 0.073507056 13096910
0.0083639026 0.77863818 0.073504508 13754073
0.0083627105 0.77817285 0.073501959 12635592
0.0083614886 0.77770758 0.073499411 11386813
0.0083602965 0.77724224 0.073496863 11255227
0.0083591044 0.77677697 0.073494315 15135728
0.0083578825 0.77631164 0.073491767 16121855
0.0083542764 0.77491575 0.073484123 12766665
0.0083530545 0.77445042 0.073481575 12437700
0.0083518624 0.77398515 0.073479027 12110015
0.0092458427 0.77372652 0.073928118 15268079
0.0092446208 0.77326286 0.07392557 16252917
0.0092434287 0.77279919 0.073923036 13358537
0.0092422366 0.77233547 0.073920503 9672076
0.0092410147 0.77187181 0.073917955 12764347
0.0092398226 0.77140814 0.073915422 11581091
0.0092386305 0.77094448 0.073912874 13554881
0.0092374384 0.77048081 0.073910341 15792347
0.0092362165 0.77001715 0.073907807 16318435
0.0083398223 0.76933205 0.07345356 16449505
0.0083386004 0.76886678 0.073451012 14870473
0.0083374083 0.7684015 0.073448464 10592390
0.0082082152 0.80841601 0.074070781 10589812
0.0082069933 0.80795074 0.074068233 13484704
0.0082058012 0.8074854 0.074065685 16777183
0.0082045794 0.80702013 0.074063137 16777183
0.0073077381 0.80646408 0.073611021 16777183
0.0073065162 0.80599713 0.073608458 16580316
0.0073052943 0.80553019 0.07360591 16646111
0.0073041022 0.80506325 0.073603347 16777185
0.0073028803 0.8045963 0.073600799 16777185
0.0073016882 0.80412936 0.073598236 16251353
0.0073004663 0.80366242 0.073595673 16185558
0.0072992742 0.80319548 0.073593125 16185558
0.0072980523 0.80272853 0.073590562 15461837
0.0072968304 0.80226159 0.073588014 15527630
0.0072956383 0.80179471 0.073585451 16185560
0.0072944164 0.80132776 0.073582903 16317146
0.0072932243 0.80086082 0.07358034 16711391
0.0072920024 0.80039388 0.073577791 16777184
0.0072908103 0.79992694 0.073575228 16777191
0.0072895885 0.79945999 0.073572665 14474177
0.0072883666 0.79899305 0.073570117 10527383
0.0081323087 0.77910185 0.073910281 14083805
0.0081310868 0.77863657 0.073907733 13097680
0.0081298947 0.77817124 0.073905185 14018782
0.0081286728 0.77770597 0.073902637 13031887
0.0081274807 0.77724063 0.073900089 14084575
0.0081262887 0.77677536 0.073897541 16121855
0.0081250668 0.77631003 0.073894992 15990781
0.0081214607 0.77491415 0.073887348 13031638
0.0081202388 0.77444881 0.0738848 12571087
0.0081190467 0.77398354 0.073882252 14675942
0.0090138316 0.77372491 0.074329928 15925241
0.0090126395 0.77326125 0.074327379 16121330
0.0090114176 0.77279758 0.074324846 9936788
0.0090102255 0.77233392 0.074322313 8818303
0.0090090334 0.7718702 0.074319765 12502711
0.0090078413 0.77140653 0.074317232 15792865
0.0090066195 0.77094287 0.074314684 16383978
0.0090054274 0.7704792 0.07431215 16449250
0.0090042353 0.77001554 0.074309617 13751737
0.0081070065 0.7693305 0.073856771 11185040
0.0081057847 0.76886517 0.073854238 10724489
0.0081045926 0.76839983 0.07385169 10657929
0.0079753995 0.80841446 0.074474007 11182978
0.0079741776 0.80794913 0.074471459 15393730
0.0079729855 0.80748379 0.074468911 16119765
0.0079717636 0.80701852 0.074466363 16777183
0.0070740879 0.80646247 0.074015662 16777183
0.0070728958 0.80599552 0.074013099 16777183
0.0070716739 0.80552858 0.074010551 16777185
0.007070452 0.80506164 0.074007988 16119767
0.0070692599 0.8045947 0.074005425 14474429
0.007068038 0.80412775 0.074002877 16053461
0.0070668459 0.80366081 0.074000314 16646111
0.007065624 0.80319387 0.073997766 16711648
0.0070644319 0.80272692 0.073995203 16777185
0.00706321 0.80225998 0.073992655 16711648
0.0070619881 0.8017931 0.073990092 16515041
0.007060796 0.80132616 0.073987544 16580578
0.0070595741 0.80085921 0.073984981 16580578
0.007058382 0.80039227 0.073982418 15791318
0.0070571601 0.79992533 0.073979869 15723220
0.007055968 0.79945838 0.073977306 11775640
0.0070547462 0.79899144 0.073974758 12304566
0.007899493 0.77910024 0.074313506 14214364
0.0078982711 0.77863497 0.074310958 13162187
0.007897079 0.77816963 0.07430841 13491152
0.0078958571 0.77770436 0.074305862 14214875
0.007894665 0.77723902 0.074303314 16056311
0.0078934431 0.77677375 0.074300766 16187389
0.007892251 0.77630842 0.074298218 14082525
0.0078886449 0.77491254 0.074290574 13360349
0.007887423 0.7744472 0.074288025 12899798
0.0078862309 0.77398193 0.074285477 15728377
0.0087818205 0.7737233 0.074731737 15925244
0.0087806284 0.77325964 0.074729189 13226697
0.0087794363 0.77279598 0.074726656 10463391
0.0087782145 0.77233231 0.074724123 14608339
0.0087770224 0.77186865 0.074721575 16187371
0.0087758303 0.77140498 0.074719042 15067604
0.0087746382 0.77094126 0.074716493 12830642
0.0087734163 0.77047759 0.07471396 10789519
0.0087722242 0.77001393 0.074711427 9210487
0.0078741908 0.76932889 0.074259996 10921103
0.0078729689 0.76886356 0.074257463 15855578
0.0078717768 0.76839828 0.074254915 16052955
0.0077425838 0.80841285 0.074877232 12433049
0.0077413619 0.80794752 0.074874684 15196355
0.0077401698 0.80748224 0.074872136 15921101
0.0077389479 0.80701691 0.074869588 16776924
0.0068404675 0.80646086 0.074420303 16777181
0.0068392456 0.80599391 0.07441774 16777181
0.0068380237 0.80552697 0.074415177 16777185
0.0068368316 0.80506003 0.074412629 13093289
0.0068356097 0.80459309 0.074410066 12172187
0.0068344176 0.80412614 0.074407518 13817012
0.0068331957 0.8036592 0.074404955 14343356
0.0068320036 0.80319226 0.074402407 14803907
0.0068307817 0.80272532 0.074399844 15461837
0.0068295598 0.80225837 0.074397296 16317146
0.0068283677 0.80179149 0.074394733 16317916
0.0068271458 0.80132455 0.07439217 16252123
0.0068259537 0.8008576 0.074389622 16515039
0.0068247318 0.80039066 0.074387059 16054744
0.0068235397 0.79992372 0.074384511 15855580
0.0068223178 0.79945678 0.074381948 10657933
0.0068210959 0.79898983 0.074379399 15002849
0.0076666474 0.77909863 0.074716732 12306114
0.0076654553 0.77863336 0.074714184 12832971
0.0076642632 0.77816802 0.074711636 11977662
0.0076630414 0.77770275 0.074709088 14016983
0.0076618493 0.77723742 0.07470654 16121847
0.0076606274 0.77677214 0.074703991 16056317
0.0076594353 0.77630681 0.074701443 13885148
0.0040678978 0.77504736 0.072909534 12569549
0.0040666759 0.77457553 0.072906956 12832721
0.0076558292 0.77491093 0.074693799 12635856
0.0076546073 0.77444559 0.074691251 13885923
0.0076534152 0.77398032 0.074688703 16056316
0.0085498393 0.77372169 0.075133547 15596277
0.0085486174 0.77325803 0.075130999 10462362
0.0085474253 0.77279437 0.075128466 14541528
0.0085462332 0.7723307 0.075125933 14014662
0.0085450113 0.77186704 0.075123385 12040872
0.0085438192 0.77140337 0.075120851 11646111
0.0085426271 0.77093965 0.075118303 12501420
0.008541435 0.77047598 0.07511577 14276548
0.0085402131 0.77001232 0.075113237 10789519
0.0076413453 0.76932728 0.074663222 9341303
0.0076401532 0.76886195 0.074660674 15525845
0.0076389611 0.76839668 0.074658126 16711656
0.004042238 0.76513886 0.072855294 11973791
0.0040410161 0.76466703 0.072852701 11842207
0.0040397942 0.7641952 0.072850123 12302758
0.0040385723 0.76372337 0.072847545 15263189
0.003911227 0.80571502 0.073486343 16579033
0.0039100051 0.80524319 0.073483765 16514012
0.0039087832 0.80477136 0.073481172 16514012
0.0039075613 0.80429953 0.073478594 16120540
0.0039063394 0.8038277 0.073476017 16120540
0.0039051175 0.80335587 0.073473424 16251869
0.0039038956 0.80288398 0.073470846 16580578
0.0038342476 0.77598941 0.073323593 15464693
0.0038330257 0.77551758 0.073321015 14609384
0.0038318038 0.77504575 0.073318422 14674927
0.0038305819 0.77457392 0.073315844 14674927
0.00382936 0.77410209 0.073313251 12768212
0.0038281381 0.77363026 0.073310673 15794175
0.0038269162 0.77315843 0.073308095 16187389
0.003806144 0.7651372 0.073264182 16776935
0.0038049221 0.76466537 0.073261589 16776930
0.0038037002 0.76419353 0.073259011 16777188
0.0038024783 0.7637217 0.073256418 16777198
0.003675133 0.80571342 0.073895231 12696735
0.0036739111 0.80524158 0.073892638 12631455
0.0036726892 0.80476969 0.07389006 15065796
0.0036714673 0.80429786 0.073887482 16711652
0.0036702454 0.80382603 0.073884889 16646115
0.0036690235 0.8033542 0.073882312 16054492
0.0036678016 0.80288237 0.073879719 13028014
0.0035981536 0.7759878 0.07373248 15069933
0.0035969317 0.77551597 0.073729888 13754073
0.0035957098 0.77504414 0.07372731 11780287
0.0035944879 0.77457231 0.073724717 12240838
0.003593266 0.77410042 0.073722139 15597563
0.0035920441 0.77362859 0.073719561 15728637
0.0035908222 0.77315676 0.073716968 15529971
0.00357005 0.76513559 0.073673055 16776681
0.0035688281 0.76466376 0.073670477 16776678
0.0035676062 0.76419193 0.073667884 16776935
0.0035663843 0.7637201 0.073665306 16711662
0.0025503337 0.80988055 0.073884919 15450529
0.0025491118 0.80940706 0.073882326 15318943
0.0025478899 0.80893362 0.073879734 14728861
0.0025466383 0.80846012 0.073877141 13084036
0.0025454164 0.80798668 0.073874548 12561035
0.0025441945 0.80751318 0.07387197 14140067
0.0025429726 0.80703974 0.073869377 11051396
0.0025417507 0.80656624 0.073866785 12893600
0.0025405288 0.8060928 0.073864192 16052176
0.003439039 0.80571175 0.074304104 16776670
0.0034378171 0.80523992 0.074301526 16777186
0.0034365952 0.80476809 0.074298948 16777185
0.0034353733 0.80429626 0.074296355 16777187
0.0034341514 0.80382442 0.074293777 16777187
0.0034329295 0.80335259 0.074291199 13751737
0.0034317076 0.80288076 0.074288607 15593941
0.0033620596 0.77598619 0.074141353 12899278
0.0033608377 0.7755143 0.074138775 12438727
0.0033596158 0.77504247 0.074136198 12899278
0.0033583939 0.77457064 0.074133605 13030864
0.003357172 0.77409881 0.074131027 15859706
0.0033559501 0.77362698 0.074128434 15794169
0.0033547282 0.77315515 0.074125856 12699842
0.00063729286 0.76586562 0.072759911 16513506
0.00063607097 0.76538891 0.072757304 12697512
0.00063481927 0.76491219 0.072754696 10787982
0.003333956 0.76513398 0.074081942 13617081
0.0033327341 0.76466215 0.074079365 14736847
0.0033315122 0.76419032 0.074076772 16776944
0.0033302903 0.76371849 0.074074194 16711664
0.00062865019 0.76252854 0.072741643 15132888
0.00062742829 0.76205176 0.072739035 16381154
0.0006261766 0.76157504 0.072736427 13157297
0.0006249547 0.76109833 0.072733819 14073511
0.00062373281 0.76062161 0.072731197 14007718
0.00062248111 0.76014483 0.072728589 14465950
0.0023134351 0.80987889 0.074295223 15647394
0.0023122132 0.80940545 0.07429263 15450015
0.0023109615 0.80893195 0.074290037 15123619
0.0023097396 0.80845851 0.074287444 13741966
0.0023085177 0.80798507 0.074284852 10389353
0.0023072958 0.80751157 0.074282259 13086866
0.0023060739 0.80703813 0.074279666 11248775
0.002304852 0.80656463 0.074277073 15393734
0.0023036301 0.80609119 0.07427448 15920590
0.0023023784 0.80561769 0.074271888 16512727
0.0023011565 0.80514425 0.074269295 16776669
0.0022999346 0.80467075 0.074266702 16776926
0.0022987127 0.80419731 0.074264124 16777188
0.00039875507 0.76586401 0.073173046 11315091
0.00039753318 0.76538724 0.073170438 12630951
0.00039628148 0.76491052 0.073167831 12104355
0.00039505959 0.7644338 0.073165223 10920081
0.00039383769 0.76395708 0.0731626 15394777
0.00039258599 0.76348031 0.073159993 16776944
0.0003913641 0.76300359 0.073157385 15855839
0.0003901124 0.76252687 0.073154777 13750463
0.0003888905 0.76205015 0.07315217 13812397
0.00038763881 0.76157337 0.073149562 13680811
0.00038641691 0.76109666 0.073146939 14335396
0.00038519502 0.76061994 0.073144332 14269603
0.00038394332 0.76014322 0.073141724 14465950
0.0020765364 0.80987728 0.074705526 15647394
0.0020752847 0.80940378 0.074702933 15581601
0.0020740628 0.80893034 0.074700341 15253922
0.0020728409 0.8084569 0.074697748 14990750
0.002071619 0.8079834 0.074695155 12099201
0.0020703971 0.80750996 0.074692562 12033408
0.0020691752 0.80703646 0.074689969 12630428
0.0020679533 0.80656302 0.074687377 14341046
0.0020667017 0.80608952 0.074684784 14736318
0.0020654798 0.80561608 0.074682191 15460041
0.0020642579 0.80514258 0.074679598 16710106
0.002063036 0.80466914 0.074677005 16776413
0.0020618141 0.80419564 0.074674413 16250840
0.00016021729 0.76586235 0.073586181 9801854
0.00015899539 0.76538563 0.073583558 12301988
0.00015774369 0.76490891 0.07358095 14077632
0.0001565218 0.76443213 0.073578343 10524810
0.0001552999 0.76395541 0.073575735 14143938
0.0001540482 0.7634787 0.073573127 16776686
0.00015282631 0.76300198 0.07357052 15392458
0.00015157461 0.7625252 0.073567897 13550254
0.00015035272 0.76204848 0.073565289 14205608
0.00014913082 0.76157176 0.073562682 14008229
0.00014787912 0.76109505 0.073560074 14335650
0.00014665723 0.76061827 0.073557466 14269857
0.00014540553 0.76014155 0.073554859 14465950
2.7865171e-05 0.80685973 0.074223772 13155748
2.6613474e-05 0.80638301 0.074221164 14142643
2.5391579e-05 0.80590624 0.074218556 14670784
2.4139881e-05 0.80542952 0.074215949 14999749
2.2917986e-05 0.8049528 0.074213341 16183248
2.1696091e-05 0.80447608 0.074210733 16775642
2.0444393e-05 0.8039993 0.074208111 15724496
-7.8320503e-05 0.76586068 0.073999301 13618877
-7.9542398e-05 0.76538396 0.073996693 13092533
-8.0794096e-05 0.76490724 0.073994085 10656650
-8.2015991e-05 0.76443052 0.073991477 9603962
-8.3237886e-05 0.7639538 0.073988855 11906199
-8.4489584e-05 0.76347703 0.073986247 13945782
-8.5711479e-05 0.76300031 0.073983639 13877413
-8.6963177e-05 0.76252359 0.073981032 13811620
-8.8185072e-05 0.76204681 0.073978424 14270368
-8.9436769e-05 0.7615701 0.073975816 14270368
-9.0658665e-05 0.76109338 0.073973209 14400925
-9.188056e-05 0.76061666 0.073970586 14400925
-9.3132257e-05 0.76013994 0.073967978 14466204
-0.00021067262 0.80685806 0.074636906 12956827
-0.00021192431 0.80638134 0.074634299 14141101
-0.00021314621 0.80590463 0.074631691 13749430
-0.00021439791 0.80542791 0.074629068 14275774
-0.0002156198 0.80495113 0.074626461 14999751
-0.0002168417 0.80447441 0.074623853 15855060
-0.0002180934 0.8039977 0.074621245 16185047
-0.00044921041 0.80685645 0.075050026 13612956
-0.0004504621 0.80637974 0.075047418 13349784
-0.000451684 0.80590296 0.075044811 13945264
-0.00045290589 0.80542624 0.075042203 13813678
-0.00045415759 0.80494952 0.075039595 12302756
-0.00045537949 0.8044728 0.075036988 13684409
-0.00045663118 0.80399603 0.07503438 15001034
-0.0031694472 0.80322236 0.073725343 14014139
-0.0031706989 0.80274069 0.073722705 15330251
-0.0040757954 0.80215681 0.073284581 16580318
-0.0040770471 0.80167353 0.073281944 16777188
-0.0040782988 0.80119032 0.073279291 13684659
-0.0040795505 0.80070704 0.073276654 8551785
-0.0040808022 0.80022377 0.073274001 11249298
-0.0040820539 0.79974049 0.073271364 13948612
-0.0040833056 0.79925722 0.073268712 13356475
-0.0040845573 0.798774 0.073266059 14409940
-0.004085809 0.79829073 0.073263422 13291459
-0.0049960017 0.79575092 0.072814569 16317939
-0.0049972534 0.79526603 0.072811902 16515062
-0.0049985349 0.79478115 0.072809249 16515062
-0.0049997866 0.79429621 0.072806597 16515062
-0.0050248802 0.78459829 0.072753504 13358032
-0.0050261319 0.78411341 0.072750852 14083040
-0.0050274134 0.78362852 0.072748184 15990781
-0.0050286651 0.78314364 0.072745532 16187386
-0.0059339404 0.78249115 0.072307035 15924982
-0.0059351921 0.78200465 0.072304383 12897473
-0.0059364736 0.7815181 0.072301716 12831680
-0.0050362051 0.78023422 0.072729602 15727350
-0.0050374568 0.77974933 0.07272695 16121852
-0.0050387084 0.77926445 0.072724298 14147801
-0.0050399601 0.77877957 0.072721645 11910839
-0.0050412118 0.77829468 0.072718993 12042423
-0.0050424635 0.77780974 0.072716326 11976630
-0.0050437152 0.77732486 0.072713673 12897732
-0.0050449669 0.77683997 0.072711021 16252919
-0.0050462484 0.77635509 0.072708368 16187386
-0.0050475001 0.7758702 0.072705716 15135466
-0.0050487518 0.77538526 0.072703063 13884629
-0.0050500035 0.77490038 0.072700411 12108218
-0.0050512552 0.77441549 0.072697744 13818321
-0.0050537586 0.77344573 0.072692439 16121076
-0.0050550401 0.77296078 0.072689787 13555149
-0.0050562918 0.7724759 0.072687134 11646632
-0.0050575435 0.77199101 0.072684467 11712425
-0.0050612986 0.7705363 0.07267651 16646113
-0.0050625503 0.77005142 0.072673857 16646113
-0.005063802 0.76956654 0.072671205 16580576
-0.0050650835 0.76908165 0.072668552 16580576
-0.0050663352 0.76859671 0.072665885 16776674
-0.0050675869 0.76811182 0.072663233 10854790
-0.0050688386 0.76762694 0.07266058 8483430
-0.0043088496 0.805538 0.073721901 12824725
-0.0043101013 0.80505472 0.073719248 12495760
-0.004311353 0.80457145 0.073716611 13092524
-0.0034079254 0.80418396 0.074147984 13882040
-0.0034091771 0.80370229 0.074145347 13685690
-0.0034104288 0.80322069 0.074142724 14277827
-0.0034116805 0.80273902 0.074140072 15263691
-0.0043176115 0.80215514 0.073703378 16316379
-0.0043188632 0.80167186 0.073700726 16776419
-0.0043201149 0.80118865 0.073698089 10394241
-0.0043213665 0.80070537 0.073695436 8026213
-0.0043226182 0.8002221 0.073692799 14079169
-0.0043238699 0.79973882 0.073690146 11383964
-0.0043251216 0.79925555 0.073687494 15857888
-0.0043263733 0.79877234 0.073684856 16121326
-0.004327625 0.79828906 0.073682204 11910574
-0.0052386224 0.79574925 0.073234767 13554881
-0.0052398741 0.79526436 0.073232114 13423295
-0.0052411556 0.79477942 0.073229462 13686215
-0.0052424073 0.79429454 0.07322681 15594212
-0.0052675009 0.78459662 0.073173702 12633011
-0.0052687824 0.78411174 0.073171049 13687502
-0.0052700341 0.78362685 0.073168397 15332327
-0.0052712858 0.78314197 0.073165745 15989490
-0.0061773956 0.78248948 0.072728664 16383992
-0.0061786473 0.78200293 0.072725996 16318453
-0.006179899 0.78151643 0.072723329 16449527
-0.0052788258 0.78023255 0.073149815 16383992
-0.0052800775 0.77974766 0.073147163 16383992
-0.0052813292 0.77926278 0.073144495 16252919
-0.0052825809 0.7787779 0.073141843 16318456
-0.0052838326 0.77829301 0.073139191 16318454
-0.0052850842 0.77780807 0.073136538 16252917
-0.0052863359 0.77732319 0.073133886 16383991
-0.0052875876 0.7768383 0.073131233 16252917
-0.0052888691 0.77635342 0.073128566 16449527
-0.0052901208 0.77586854 0.073125914 15989744
-0.0052913725 0.77538359 0.073123261 15397866
-0.0052926242 0.77489871 0.073120609 14213592
-0.0052938759 0.77441382 0.073117957 13686217
-0.0052963793 0.773444 0.073112637 13356732
-0.0052976608 0.77295911 0.073109984 14738385
-0.0052989125 0.77247423 0.073107332 16449507
-0.0053001642 0.77198935 0.07310468 16646118
-0.0053039193 0.77053463 0.073096722 16777186
-0.005305171 0.77004975 0.073094055 16777185
-0.0053064227 0.76956487 0.073091403 16646113
-0.0053077042 0.76907998 0.07308875 16646113
-0.0053089559 0.76859504 0.073086098 16777192
-0.0053102076 0.76811016 0.073083445 14803401
-0.0053114593 0.76762527 0.073080778 11708572
-0.0045506358 0.80553633 0.074140683 13809819
-0.0045518875 0.80505306 0.074138045 13151889
-0.0045531392 0.80456978 0.074135393 11906451
-0.0036489367 0.80418229 0.074565366 13946034
-0.0036501586 0.80370063 0.074562728 13816506
-0.0036514103 0.80321902 0.074560091 13882299
-0.003652662 0.80273736 0.074557453 12631973
-0.0045593977 0.80215347 0.074122161 13553075
-0.0045606494 0.80167019 0.074119508 15394255
-0.0045619011 0.80118698 0.074116871 8551783
-0.0045631528 0.8007037 0.074114218 8880752
-0.0045644045 0.80022043 0.074111581 14867915
-0.0045656562 0.79973716 0.074108928 12503215
-0.0045669079 0.79925388 0.074106291 16318441
-0.0045681596 0.79877067 0.074103639 13885383
-0.0045694113 0.79828739 0.074101001 11385249
-0.0054812431 0.79574758 0.073654965 16515048
-0.0054824948 0.79526269 0.073652312 16449511
-0.0054837763 0.79477775 0.07364966 15791327
-0.005485028 0.79429287 0.073647007 11843747
-0.0055101216 0.78459495 0.073593915 15659991
-0.0055114031 0.78411007 0.073591247 14081225
-0.0055126548 0.78362519 0.073588595 11646884
-0.0055139065 0.7831403 0.073585942 11712429
-0.006420821 0.78248781 0.073150277 15002079
-0.0064220726 0.78200126 0.07314761 16449531
-0.0064233243 0.78151476 0.073144943 16383994
-0.0055214465 0.78023088 0.073570013 16383990
-0.0055226982 0.779746 0.073567361 16383990
-0.0055239499 0.77926111 0.073564708 16515060
-0.0055252016 0.77877623 0.073562056 15857386
-0.0055264533 0.77829129 0.073559389 15200226
-0.005527705 0.7778064 0.073556736 15068640
-0.0055289567 0.77732152 0.073554084 13884879
-0.0055302083 0.77683663 0.073551431 12766398
-0.0055314898 0.77635175 0.073548779 12502711
-0.0055327415 0.77586681 0.073546112 12502711
-0.0055339932 0.77538192 0.073543459 12502965
-0.0055352449 0.77489704 0.073540807 13621446
-0.0055364966 0.77441216 0.073538154 14015686
-0.005539 0.77344233 0.07353285 16515041
-0.0055402815 0.77295744 0.073530197 16580578
-0.0055415332 0.77247256 0.07352753 16777190
-0.0055427849 0.77198768 0.073524877 15724244
-0.00554654 0.77053297 0.07351692 16711654
-0.0055477917 0.77004808 0.073514253 16646117
-0.0055490434 0.7695632 0.0735116 16646117
-0.0055503249 0.76907825 0.073508948 16711654
-0.0055515766 0.76859337 0.073506296 16711658
-0.0055528283 0.76810849 0.073503643 16711658
-0.00555408 0.7676236 0.073500991 16710637
-0.0047924519 0.80553466 0.074559465 14728863
-0.0047937036 0.80505139 0.074556828 14597277
-0.0047949553 0.80456811 0.074554175 13021334
-0.0038899183 0.80418062 0.074982733 13481885
-0.00389117 0.80369896 0.074980095 13814450
-0.0038923919 0.80321735 0.074977458 11643281
-0.0038936436 0.80273575 0.07497482 12369060
-0.0048012137 0.8021518 0.074540943 13948092
-0.0048024654 0.80166858 0.074538305 13288879
-0.0048037171 0.80118531 0.074535653 7762267
-0.0048049688 0.80070204 0.074533015 10262403
-0.0048062205 0.80021876 0.074530363 13815225
-0.0048074722 0.79973549 0.074527726 13949889
-0.0048087239 0.79925227 0.074525073 15068370
-0.0048099756 0.798769 0.074522436 13819586
-0.0048112273 0.79828572 0.074519783 12306347
-0.0075315833 0.79745156 0.073223129 16449511
-0.007532835 0.79696339 0.073220462 16252900
-0.0075341165 0.79647523 0.073217779 15002061
-0.0075353682 0.79598707 0.073215112 16711655
-0.0057238638 0.79574591 0.074075162 16251617
-0.0057251155 0.79526103 0.07407251 15791066
-0.005726397 0.79477608 0.074069858 16580583
-0.0057276487 0.7942912 0.074067205 15528151
-0.0075416863 0.79354626 0.073201746 14212288
-0.0075429678 0.7930581 0.073199078 13685944
-0.0075442195 0.79256994 0.073196396 13291443
-0.008451879 0.79194683 0.072762311 13554615
-0.0084531605 0.79145706 0.072759628 13225141
-0.0084544122 0.79096729 0.072756946 12369832
-0.0084556937 0.79047745 0.072754264 12304041
-0.0084569454 0.78998768 0.072751582 12435627
-0.0075518191 0.78964096 0.073180363 12435627
-0.0075530708 0.7891528 0.073177695 12567213
-0.0075543225 0.78866464 0.073175013 13028014
-0.007555604 0.78817648 0.073172346 13422772
-0.0084632933 0.78753871 0.072738171 14146747
-0.0084645748 0.78704894 0.072735488 16120537
-0.0084658265 0.7865591 0.072732806 16646115
-0.008467108 0.78606933 0.072730124 16646115
-0.0084683597 0.7855795 0.072727442 16646115
-0.0084696412 0.78508973 0.07272476 16580578
-0.0084708929 0.78459996 0.072722077 14869964
-0.0057527423 0.78459328 0.074014112 11646107
-0.0057540238 0.7841084 0.074011445 11976869
-0.0057552755 0.78362352 0.074008793 15266519
-0.0057565272 0.78313863 0.07400614 15660509
-0.0066642463 0.78248614 0.073571891 12173480
-0.0066655278 0.78199959 0.073569238 13949391
-0.0066667795 0.78151309 0.073566571 14673114
-0.0075745583 0.78085405 0.073132247 14542809
-0.00757581 0.78036588 0.073129579 14740188
-0.0057640672 0.78022921 0.073990211 14213581
-0.0057653189 0.77974433 0.073987558 13621444
-0.0057665706 0.77925944 0.073984906 14672846
-0.0057678223 0.77877456 0.073982254 15133397
-0.005769074 0.77828962 0.073979601 15528155
-0.0057703257 0.77780473 0.073976934 16251878
-0.0057715774 0.77731985 0.073974282 16449003
-0.0057728589 0.77683496 0.073971629 16646126
-0.0057741106 0.77635008 0.073968977 16580591
-0.0057753623 0.77586514 0.073966324 16580591
-0.005776614 0.77538025 0.073963672 16711661
-0.0057778656 0.77489537 0.073961005 16515050
-0.0057791173 0.77441049 0.073958352 16580581
-0.0085000694 0.77333468 0.072660401 16646118
-0.0057816207 0.77344066 0.073953047 16515043
-0.0057829022 0.77295578 0.073950395 15264976
-0.0057841539 0.77247089 0.073947743 13421489
-0.0057854056 0.77198601 0.073945075 12960938
-0.0085064173 0.77088571 0.072647005 15000780
-0.0085076988 0.77039593 0.072644323 16711398
-0.0057891607 0.7705313 0.073937118 16711660
-0.0057904124 0.77004641 0.073934466 16711660
-0.0057916939 0.76956153 0.073931813 16711660
-0.0057929456 0.76907659 0.073929161 16646123
-0.0057941973 0.7685917 0.073926494 16711402
-0.005795449 0.76810682 0.073923841 16777196
-0.0057967007 0.76762193 0.073921189 16776684
-0.005941391 0.80544215 0.074548468 15122338
-0.0059426427 0.80495727 0.074545816 15188131
-0.0059438944 0.80447233 0.074543163 14925988
-0.0059451461 0.80398744 0.074540511 14531230
-0.007763207 0.80233145 0.073672891 13551538
-0.0077644587 0.80184329 0.073670208 14341054
-0.0077657104 0.80135518 0.073667541 10919820
-0.0077669919 0.80086702 0.073664874 7038033
-0.0077682436 0.80037886 0.073662192 11973019
-0.0077695251 0.7998907 0.073659524 12301984
-0.0068635941 0.79951298 0.074086741 14804171
-0.0068648458 0.79902643 0.074084088 12304037
-0.0068661273 0.79853988 0.074081421 13817787
-0.0077745616 0.79793805 0.07364884 13620408
-0.0077758431 0.79744989 0.073646158 16580581
-0.0077770948 0.79696172 0.073643491 15067854
-0.0077783763 0.79647356 0.073640808 14474177
-0.007779628 0.7959854 0.073638141 13816247
-0.0077808797 0.79549724 0.073635474 10987409
-0.0077821612 0.79500908 0.073632792 13290164
-0.0077834129 0.79452091 0.073630124 16646115
-0.0077846944 0.79403275 0.073627457 16646115
-0.0077859461 0.79354459 0.073624775 16515042
-0.0077871978 0.79305643 0.073622108 16515042
-0.0077884793 0.79256827 0.073619425 16711651
-0.0086969435 0.79194516 0.073186755 16580577
-0.008698225 0.79145539 0.073184073 12435623
-0.0086994767 0.79096556 0.073181391 12435623
-0.0087007582 0.79047579 0.073178709 16449255
-0.0087020397 0.78998595 0.073176026 16711659
-0.0077960491 0.78963929 0.073603392 16711659
-0.0077973306 0.78915113 0.073600724 16711659
-0.0077985823 0.78866297 0.073598057 16711657
-0.0077998638 0.78817481 0.073595375 16515046
-0.0087083578 0.78753698 0.073162615 16580577
-0.0087096393 0.78704721 0.073159933 16646114
-0.008710891 0.78655744 0.073157266 16646115
-0.0087121725 0.78606761 0.073154584 16646115
-0.008713454 0.78557783 0.073151901 16645859
-0.0087147057 0.78508806 0.073149219 12566693
-0.0087159872 0.78459823 0.073146537 11052687
-0.0078099668 0.78426951 0.073573992 11644824
-0.0078112185 0.78378135 0.073571324 16119513
-0.0078125 0.78329319 0.073568642 16580064
-0.0078137517 0.78280503 0.073565975 16580318
-0.0078150332 0.78231686 0.073563308 16317146
-0.0078162849 0.7818287 0.073560625 15396562
-0.0078175366 0.78134054 0.073557958 15330769
-0.0078188181 0.78085238 0.073555291 15659737
-0.0078200698 0.78036422 0.073552608 16251874
-0.0069139898 0.78005183 0.073980197 16449507
-0.0069152415 0.77956527 0.07397753 16449507
-0.006916523 0.77907872 0.073974863 16711648
-0.0069177747 0.77859223 0.073972195 16711648
-0.0069190264 0.77810568 0.073969543 16645857
-0.0069203079 0.77761918 0.073966876 16645857
-0.0069215596 0.77713263 0.073964208 16645859
-0.0078302026 0.77645892 0.07353124 16777189
-0.0078314543 0.77597076 0.073528558 16646119
-0.0087400675 0.77529216 0.073095575 16646119
-0.008741349 0.77480239 0.073092908 16646119
-0.0087426007 0.77431256 0.073090225 16711656
-0.0087438822 0.77382278 0.073087543 16382433
-0.0087451637 0.77333295 0.073084861 12500646
-0.0087464154 0.77284318 0.073082179 11711130
-0.0087476969 0.77235341 0.073079497 12698025
-0.0087489486 0.77186358 0.073076814 15658710
-0.0087502301 0.77137381 0.073074132 16777191
-0.0087514818 0.77088404 0.07307145 16711660
-0.0087527633 0.77039421 0.073068768 16711660
-0.008754015 0.76990443 0.073066086 16777199
-0.0061840117 0.80544049 0.074968666 15384738
-0.0061852634 0.8049556 0.074966013 15450531
-0.0061865151 0.80447066 0.074963361 15450531
-0.0061877668 0.80398577 0.074960709 15253152
-0.008007437 0.80232978 0.07409592 13679266
-0.0080087185 0.80184162 0.074093252 13547680
-0.0080099702 0.80135345 0.07409057 9075047
-0.0080112517 0.80086529 0.074087903 7298636
-0.0080125034 0.80037713 0.074085236 11511695
-0.0080137551 0.79988897 0.074082553 12564383
-0.0071070492 0.79951125 0.074508369 14736579
-0.0071083009 0.79902476 0.074505702 11710101
-0.0071095526 0.79853821 0.074503034 11118993
-0.0080188215 0.79793632 0.074071869 11316372
-0.008020103 0.79744816 0.074069187 12434853
-0.0080213547 0.79696 0.07406652 10263684
-0.0080226064 0.79647183 0.074063838 8946545
-0.0080238879 0.79598367 0.07406117 8420201
-0.0080251396 0.79549551 0.074058503 12106662
-0.0080264211 0.79500735 0.074055821 16580586
-0.0080276728 0.79451919 0.074053153 16777188
-0.0080289543 0.79403102 0.074050486 16777187
-0.008030206 0.79354286 0.074047804 16646113
-0.0080314577 0.7930547 0.074045137 16515039
-0.0080327392 0.79256654 0.074042469 16646115
-0.0089420378 0.79194349 0.0736112 13028012
-0.0089432895 0.79145366 0.073608518 11317399
-0.008944571 0.79096389 0.073605835 14672842
-0.0089458227 0.79047406 0.073603153 16646120
-0.0089471042 0.78998429 0.073600471 16580583
-0.008040309 0.78963757 0.074026421 16646122
-0.0080415905 0.7891494 0.074023753 16646122
-0.0080428421 0.7886613 0.074021086 16580583
-0.0080440938 0.78817314 0.074018404 16580583
-0.0089534521 0.78753531 0.073587075 15001032
-0.0089547038 0.78704554 0.073584393 12369312
-0.0089559853 0.78655571 0.07358171 15658710
-0.008957237 0.78606594 0.073579028 16777192
-0.0089585185 0.78557616 0.073576346 16777191
-0.0089597702 0.78508633 0.073573664 16250847
-0.0089610517 0.78459656 0.073570982 14869194
-0.0080542266 0.78426784 0.073997021 13750713
-0.0080554783 0.78377968 0.073994353 14079930
-0.0080567598 0.78329152 0.073991686 14869446
-0.0080580115 0.78280336 0.073989004 15000773
-0.008059293 0.78231519 0.073986337 15066566
-0.0080605447 0.78182703 0.073983669 15331019
-0.0080617964 0.78133887 0.073980987 15331019
-0.0080630779 0.78085071 0.07397832 14936263
-0.0080643296 0.78036255 0.073975652 15199435
-0.007157445 0.7800501 0.074401811 15264974
-0.0071586967 0.77956361 0.074399143 15264974
-0.0071599483 0.77907705 0.074396476 16054742
-0.0071612 0.77859056 0.074393824 16449500
-0.0071624815 0.77810401 0.074391156 16317914
-0.0071637332 0.77761745 0.074388489 16252121
-0.0071649849 0.77713096 0.074385822 16449502
-0.0080744326 0.77645725 0.073954269 16580576
-0.0080757141 0.77596909 0.073951587 16646115
-0.0089851618 0.77529049 0.073520035 16646115
-0.0089864135 0.77480066 0.073517352 16777189
-0.008987695 0.77431089 0.07351467 14343104
-0.0089889467 0.77382112 0.073511988 11777693
-0.0089902282 0.77333128 0.073509306 12304037
-0.0089914799 0.77284151 0.073506624 15264981
-0.0089927614 0.77235168 0.073503941 16580585
-0.0089940131 0.77186191 0.073501259 16711662
-0.0089952946 0.77137214 0.073498577 16711662
-0.0089965761 0.77088231 0.073495895 16711665
-0.0089978278 0.77039254 0.073493212 16646128
-0.0089991093 0.76990271 0.07349053 16777199
-0.0064266324 0.80543882 0.075388879 15450531
-0.0064278841 0.80495393 0.075386226 15516324
-0.0064291358 0.80446899 0.075383574 15516324
-0.0064303875 0.80398411 0.075380906 15384738
-0.0082516968 0.80232811 0.074518949 14991781
-0.0082529783 0.80183995 0.074516281 14925988
-0.00825423 0.80135179 0.074513599 13678499
-0.0082555115 0.80086362 0.074510932 10849400
-0.0082567632 0.80037546 0.074508265 10457724
-0.0082580149 0.7998873 0.074505582 12694686
-0.0073504746 0.79950958 0.074929982 11708050
-0.0073517263 0.79902309 0.074927315 8878951
-0.0073530078 0.79853654 0.074924648 10394759
-0.0082630813 0.79793465 0.074494898 13552823
-0.008264333 0.79744649 0.074492216 14276546
-0.0082656145 0.79695833 0.074489549 10921103
-0.0082668662 0.79647017 0.074486881 8156516
-0.0082681477 0.795982 0.074484199 8551274
-0.0082693994 0.79549384 0.074481532 12565158
-0.0082706511 0.79500568 0.074478865 13288881
-0.0082719326 0.79451752 0.074476182 14604993
-0.0082731843 0.79402936 0.074473515 15394509
-0.0082744658 0.79354119 0.074470848 15395790
-0.0082757175 0.79305303 0.074468166 16251099
-0.008276999 0.79256487 0.074465498 14474440
-0.0091871023 0.79194176 0.074035645 9408379
-0.009188354 0.79145199 0.074032962 11844515
-0.0091896355 0.79096222 0.07403028 16515050
-0.0091908872 0.79047239 0.074027598 16711656
-0.0091921687 0.78998262 0.074024931 16711656
-0.0082845688 0.7896359 0.07444945 16777192
-0.0082858205 0.78914773 0.074446782 16777192
-0.008287102 0.78865957 0.074444115 16777190
-0.0082883537 0.78817141 0.074441433 16777190
-0.0091985166 0.78753364 0.07401152 14276798
-0.0091997683 0.78704381 0.074008837 9408116
-0.0092010498 0.78655404 0.074006155 12171172
-0.0092023015 0.78606427 0.074003473 16776682
-0.009203583 0.78557444 0.074000791 16646119
-0.0092048645 0.78508466 0.073998109 16711656
-0.0092061162 0.78459489 0.073995426 16646121
-0.0082984865 0.78426611 0.074420065 16711658
-0.0082997382 0.78377795 0.074417382 16646119
-0.0083009899 0.78328979 0.074414715 16580582
-0.0083022714 0.78280163 0.074412048 16580582
-0.0083035231 0.78231347 0.074409366 16646119
-0.0083048046 0.7818253 0.074406698 16580578
-0.0083060563 0.78133714 0.074404016 16646115
-0.0083073378 0.78084898 0.074401349 16580578
-0.0083085895 0.78036082 0.074398682 16580578
-0.0074008703 0.78004843 0.074823424 16580578
-0.007402122 0.77956194 0.074820757 16580578
-0.0074034035 0.77907538 0.074818105 16580576
-0.0074046552 0.77858889 0.074815437 16646113
-0.0074059069 0.77810234 0.07481277 16646113
-0.0074071586 0.77761579 0.074810103 16711650
-0.0074084401 0.77712929 0.07480745 16777185
-0.0083186924 0.77645558 0.074377298 16777187
-0.0083199739 0.77596742 0.074374616 16777189
-0.0092302263 0.77528876 0.073944479 16777189
-0.009231478 0.77479899 0.073941797 15329232
-0.0092327595 0.77430916 0.073939115 13684407
-0.0092340112 0.77381939 0.073936433 16184541
-0.0092352927 0.77332962 0.07393375 16777192
-0.0092365742 0.77283978 0.073931068 16711661
-0.0092378259 0.77235001 0.073928386 16646124
-0.0092391074 0.77186024 0.073925704 16646126
-0.0092403591 0.77137041 0.073923022 16711663
-0.0092416406 0.77088064 0.073920339 16776942
-0.0092428923 0.77039087 0.073917657 15789533
-0.0092441738 0.76990104 0.073914975 14865605
-0.0084959567 0.80232644 0.074941978 15319717
-0.0084972382 0.80183828 0.074939311 15253924
-0.0084984899 0.80135012 0.074936628 14926503
-0.0084997416 0.80086195 0.074933961 14926503
-0.0085010231 0.80037379 0.074931294 13877413
-0.0085022748 0.79988563 0.074928612 13022104
-0.0094131529 0.79928702 0.074500322 10852480
-0.0094144046 0.79879719 0.07449764 11313031
-0.0094156861 0.79830742 0.074494958 13551792
-0.010326594 0.79770225 0.074066609 12630690
-0.010327876 0.79721081 0.074063927 14538946
-0.010329127 0.79671943 0.07406123 10328194
-0.010330409 0.79622799 0.074058548 7629658
-0.01033169 0.79573655 0.074055851 9142897
-0.010332942 0.79524511 0.074053168 8090721
-0.010334224 0.79475367 0.074050471 10393476
-0.010335505 0.79426229 0.074047789 13552051
-0.010336787 0.79377085 0.074045092 13354672
-0.010338038 0.79327941 0.07404241 12894891
-0.01033932 0.79278797 0.074039713 11710617
-0.010340601 0.79229659 0.074037015 9079160
-0.010362238 0.78394234 0.073991284 16711658
-0.010363489 0.7834509 0.073988587 16646121
-0.010364771 0.78295946 0.073985904 16646121
-0.010366052 0.78246802 0.073983207 16711658
-0.010367304 0.78197658 0.07398051 16514791
-0.010368586 0.7814852 0.073977828 16120031
-0.010369867 0.78099376 0.073975131 16120031
-0.010371119 0.78050232 0.073972449 15921882
-0.0103724 0.78001088 0.073969752 15527124
-0.010373682 0.7795195 0.073967069 14935241
-0.010374933 0.77902806 0.073964372 14737862
-0.010376215 0.77853662 0.073961675 14738114
-0.010377496 0.77804518 0.073958993 14277563
-0.010378778 0.77755374 0.073956296 13684913
-0.01038003 0.77706236 0.073953614 12632225
-0.0087402165 0.80232471 0.075365007 15450533
-0.0087414682 0.80183655 0.07536234 15450533
-0.0087427497 0.80134845 0.075359672 15188390
-0.0087440014 0.80086029 0.07535699 15056804
-0.0087452829 0.80037212 0.075354323 14663329
-0.0087465346 0.79988396 0.075351655 14860708
-0.0096582174 0.79928529 0.074924767 14534058
-0.0096594989 0.79879552 0.074922085 14139300
-0.0096607506 0.79830569 0.074919403 13614753
-0.010572493 0.79770058 0.074492484 13351581
-0.010573745 0.79720914 0.074489787 14405815
-0.010575026 0.7967177 0.07448709 9800305
-0.010576308 0.79622626 0.074484408 7892056
-0.010577559 0.79573488 0.074481711 11971222
-0.010578841 0.79524344 0.074479029 8089437
-0.010580122 0.794752 0.074476331 12431775
-0.010581374 0.79426056 0.074473649 14408132
-0.010582656 0.79376912 0.074470952 14276546
-0.010583937 0.79327774 0.074468255 14473923
-0.010585219 0.7927863 0.074465573 15131853
-0.01058647 0.79229486 0.074462876 9078131
-0.010608107 0.78394061 0.074417144 16711654
-0.010609388 0.78344917 0.074414447 16646117
-0.01061067 0.78295779 0.074411765 16646117
-0.010611922 0.78246635 0.074409068 15988449
-0.010613203 0.78197491 0.074406385 13883073
-0.010614485 0.78148347 0.074403688 13883071
-0.010615736 0.78099203 0.074400991 14541001
-0.010617018 0.78050065 0.074398309 15133390
-0.010618299 0.78000921 0.074395612 14804425
-0.010619551 0.77951777 0.07439293 15199181
-0.010620832 0.77902633 0.074390233 15528146
-0.010622114 0.77853495 0.07438755 15396560
-0.010623395 0.77804351 0.074384853 15593939
-0.010624647 0.77755207 0.074382156 15726036
-0.010625929 0.77706063 0.074379474 15791829
-0.0089844763 0.80232304 0.075788051 15385510
-0.008985728 0.80183488 0.075785369 15319717
-0.0089870095 0.80134672 0.075782701 15253924
-0.0089882612 0.80085856 0.075780034 15319717
-0.0089895129 0.8003704 0.075777352 15188644
-0.0089907944 0.79988223 0.075774685 15188644
-0.0099032819 0.79928362 0.075349212 15123367
-0.0099045634 0.79879379 0.075346529 14991781
-0.0099058151 0.79830402 0.075343847 14467234
-0.010818362 0.79769886 0.074918345 14401441
-0.010819644 0.79720742 0.074915648 14075044
-0.010820925 0.79671603 0.074912965 14009251
-0.010822177 0.79622459 0.074910268 13680548
-0.010823458 0.79573315 0.074907571 13943720
-0.01082474 0.79524171 0.074904889 10982785
-0.010825992 0.79475033 0.074902192 13811884
-0.010827273 0.79425889 0.07489951 14209468
-0.010828555 0.79376745 0.074896812 14341054
-0.010829836 0.79327601 0.07489413 14473153
-0.010831088 0.79278457 0.074891433 14604739
-0.010832369 0.79229319 0.074888736 8878953
-0.010854006 0.78393894 0.074843004 16515040
-0.010855287 0.7834475 0.074840307 16646115
-0.010856539 0.78295606 0.074837625 14607044
-0.010857821 0.78246462 0.074834928 11580318
-0.010859102 0.78197324 0.074832246 14738382
-0.010860354 0.7814818 0.074829549 16711656
-0.010861635 0.78099036 0.074826866 16580582
-0.010862917 0.78049892 0.074824169 16711652
-0.010864168 0.78000748 0.074821472 16777190
-0.01086545 0.7795161 0.07481879 16777187
-0.010866731 0.77902466 0.074816093 16711648
-0.010868013 0.77853322 0.074813411 16711648
-0.010869265 0.77804178 0.074810714 16646111
-0.010870546 0.7775504 0.074808031 16448732
-0.010871828 0.77705896 0.074805334 16185560
-0.011971205 0.79955405 0.074933589 15254183
-0.011972487 0.799061 0.074930876 15254183
-0.011973768 0.79856789 0.074928179 15188390
-0.01197505 0.79807484 0.074925482 14926501
-0.011976331 0.79758179 0.074922785 14860708
-0.011977613 0.79708874 0.074920088 14598050
-0.011978865 0.79659569 0.074917376 14729636
-0.012217909 0.79955232 0.075360864 15254183
-0.012219191 0.79905927 0.075358152 15254183
-0.012220472 0.79856622 0.075355455 15188390
-0.012221754 0.79807317 0.075352758 15057574
-0.012223035 0.79758012 0.075350061 15057574
-0.012224317 0.79708701 0.075347364 14991781
-0.012225568 0.79659396 0.075344652 14991781
-0.012464613 0.79955065 0.07578814 15254183
-0.012465894 0.7990576 0.075785428 15254183
-0.012467176 0.79856449 0.075782731 15254183
-0.012468457 0.79807144 0.075780034 15254183
-0.012469739 0.79757839 0.075777337 15254183
-0.01247102 0.79708534 0.07577464 15057574
-0.012472302 0.7965923 0.075771943 15057574
-0.02507019 0.75875962 0.073214918 15057828
-0.025071532 0.75824702 0.073212117 14992035
-0.025072873 0.75773436 0.073209301 14992035
-0.025074184 0.7572217 0.073206499 14992035
-0.025075525 0.75670904 0.073203683 14992035
-0.025076836 0.75619638 0.073200881 14926242
-0.024159223 0.7559281 0.07360889 15057828
-0.024160564 0.75541711 0.073606089 15057828
-0.024161875 0.75490606 0.073603287 14926242
-0.025082141 0.7541458 0.073189661 14992035
-0.025083482 0.75363314 0.073186845 14992035
-0.025084794 0.75312048 0.073184043 14992035
-0.025086135 0.75260782 0.073181242 14926242
-0.025087476 0.75209516 0.073178425 14794656
-0.025088787 0.7515825 0.073175624 14926242
-0.025326699 0.75875789 0.073659167 15122851
-0.02532804 0.75824523 0.073656365 15188644
-0.025329381 0.75773257 0.073653564 15122851
-0.025330693 0.75721991 0.073650748 15188644
-0.025332034 0.75670725 0.073647946 15188644
-0.025333345 0.75619459 0.073645145 15122851
-0.024414927 0.75592637 0.074051723 15188644
-0.024416268 0.75541532 0.074048921 15188644
-0.024417579 0.75490433 0.074046135 15122851
-0.02533865 0.75414401 0.073633909 15122851
-0.025339991 0.75363135 0.073631108 15122851
-0.025341302 0.75311869 0.073628306 15057058
-0.025342643 0.75260603 0.07362549 14794656
-0.025343984 0.75209337 0.073622689 14794656
-0.025345296 0.75158077 0.073619872 14926242
-0.025583237 0.7587561 0.07410343 15188644
-0.025584549 0.75824344 0.074100614 15188644
-0.02558589 0.75773078 0.074097812 15122851
-0.025587201 0.75721812 0.074095011 15320230
-0.025588542 0.75670552 0.074092194 15254437
-0.025589854 0.75619286 0.074089393 15188644
-0.024670631 0.75592458 0.07449457 15254437
-0.024671942 0.75541359 0.074491769 15188644
