# .PCD v0.7 - Point Cloud Data file format
VERSION 0.7
FIELDS x y z rgb
SIZE 4 4 4 4
TYPE F F F U
COUNT 1 1 1 1
WIDTH 1080
HEIGHT 1
VIEWPOINT 0 0 0 1 0 0 0
POINTS 1080
DATA ascii
-0.021740135 0.83101535 0.027096763 14734798
-0.021273959 0.83106267 0.027094364 14734798
-0.020807784 0.83111 0.027091965 14734798
-0.020341609 0.83115727 0.027089566 14471626
-0.019875426 0.83120459 0.027087152 14471626
-0.01940925 0.83125192 0.027084753 14471626
-0.018943075 0.83129919 0.027082354 14471626
-0.018476896 0.83134651 0.02707994 14405833
-0.018010717 0.83139384 0.027077541 14405833
-0.017544542 0.83144116 0.027075142 14405833
-0.017078366 0.83148849 0.027072743 14340040
-0.016612191 0.83153582 0.027070343 14405833
-0.016146012 0.83158308 0.02706793 14340040
-0.015679833 0.83163041 0.02706553 14405833
-0.015213657 0.83167773 0.027063131 14340040
-0.014747478 0.83172506 0.027060732 14405831
-0.014281303 0.83177233 0.027058333 14405831
-0.013815127 0.83181965 0.027055919 14471624
-0.013348948 0.83186698 0.02705352 14405831
-0.012719501 0.83112389 0.026440993 14340038
-0.012251701 0.83117139 0.026438594 14340038
-0.011783898 0.83121884 0.02643618 14340038
-0.011316095 0.83126634 0.026433766 14340038
-0.010848295 0.83131385 0.026431352 14470854
-0.010380495 0.83136129 0.026428938 14536647
-0.009912692 0.83140874 0.026426524 14470854
-0.0094448887 0.83145624 0.026424125 14470854
-0.0089770891 0.83150375 0.026421711 14470854
-0.0085092895 0.83155119 0.026419297 14470854
-0.0080414861 0.8315987 0.026416883 14470854
-0.0073925517 0.83085763 0.025804281 14405061
-0.0069231242 0.83090526 0.025801852 14405061
-0.0064536966 0.83095288 0.025799438 14405061
-0.0059842728 0.83100057 0.025797009 14470854
-0.005514849 0.83104819 0.025794595 14470854
-0.0050454214 0.83109581 0.025792181 14340038
-0.0045759976 0.8311435 0.025789768 14340038
-0.00410657 0.83119112 0.025787339 14536647
-0.0036371462 0.83123875 0.025784925 14470854
-0.0031677224 0.83128643 0.025782496 14470854
-0.0026982911 0.83133405 0.025780082 14470854
-0.0022288673 0.83138168 0.025777668 14405061
-0.0017594434 0.83142936 0.025775254 14339268
-0.0012900196 0.83147699 0.025772825 14405061
-0.00082058832 0.83152461 0.025770411 14405061
-0.00035116449 0.83157229 0.025767982 14274245
0.00011825934 0.83161992 0.025765568 14274245
0.00079644099 0.83088177 0.025152773 14340038
0.0012674928 0.83092958 0.025150344 14340038
0.0017385408 0.83097738 0.025147915 14340038
0.0022095889 0.83102524 0.025145486 14208452
0.0026806407 0.83107305 0.025143057 14208452
0.0031516887 0.83112085 0.025140643 14274245
0.0036227442 0.83116865 0.025138199 14274245
0.0040937848 0.83121645 0.025135785 14274245
0.0045648403 0.83126426 0.025133356 14274245
0.0050358959 0.83131206 0.025130928 14274245
0.0055069514 0.83135986 0.025128499 14208452
0.005977992 0.83140767 0.02512607 14274245
0.0066772811 0.83067173 0.0245132 14274245
0.0071499534 0.83071971 0.024510771 14340038
0.0076226257 0.83076769 0.024508327 14340038
0.0080953054 0.83081567 0.024505883 14274245
0.0085679777 0.8308636 0.024503455 14274245
0.00904065 0.83091158 0.024501026 14274245
0.0095133223 0.83095956 0.024498582 14274245
0.009986002 0.83100754 0.024496138 14208452
0.010458674 0.83105552 0.024493709 14274245
0.010931347 0.83110344 0.02449128 14405831
0.011404019 0.83115149 0.024488837 14470854
0.012122806 0.83041745 0.023875833 14470854
0.01259711 0.83046561 0.023873389 14405061
0.013071414 0.83051372 0.023870945 14405061
0.013545711 0.83056188 0.023868501 14405061
0.014020007 0.83061004 0.023866057 14405061
0.014494311 0.83065814 0.023863614 14405061
0.014968608 0.8307063 0.02386117 14405061
0.015442904 0.8307544 0.023858726 14405061
0.015917201 0.83080256 0.023856282 14405061
0.016391505 0.83085072 0.023853838 14405061
0.016865801 0.83089882 0.023851395 14470854
0.017340098 0.83094698 0.023848951 14536134
0.018079992 0.8302151 0.023235872 14470341
0.018555913 0.83026344 0.023233414 14470341
0.019031834 0.83031172 0.02323097 14470341
0.019507762 0.83036005 0.023228511 14404548
0.019983683 0.83040833 0.023226053 14404548
0.020459604 0.83045661 0.023223609 14404548
0.020935532 0.83050495 0.02322115 14338755
0.021411452 0.83055323 0.023218691 14338755
0.021887381 0.83060157 0.023216248 14470341
0.022363301 0.83064985 0.023213804 14470341
0.022839222 0.83069813 0.023211345 14536134
0.023598608 0.82996833 0.022598147 14536134
0.02407616 0.83001673 0.022595674 14470341
0.024553705 0.83006525 0.022593215 14470341
0.02503125 0.83011371 0.022590756 14470341
0.025508795 0.83016217 0.022588298 14536134
0.025986347 0.83021063 0.022585839 14404548
0.026463892 0.83025908 0.02258338 14536134
0.026941437 0.8303076 0.022580922 14601927
0.02741899 0.830356 0.022578448 14470341
0.027896535 0.83040452 0.022575989 14470341
0.02837408 0.83045298 0.022573531 14470341
0.029152971 0.82972509 0.021960229 14470341
0.029632147 0.82977372 0.021957755 14404548
0.030111309 0.8298223 0.021955296 14470341
0.030590486 0.82987094 0.021952823 14470341
0.031069655 0.82991958 0.021950349 14470341
0.031548832 0.82996821 0.021947891 14404548
0.032028001 0.83001685 0.021945417 14404548
0.03250717 0.83006549 0.021942943 14470341
0.032986347 0.83011413 0.02194047 14470341
0.033465516 0.83016276 0.021938011 14535364
0.033944692 0.8302114 0.021935537 14601157
0.034423854 0.83026004 0.021933064 14601157
0.034903031 0.83030868 0.021930605 14601157
0.0353822 0.83035731 0.021928132 14666437
0.035861377 0.83040595 0.021925658 14600644
0.036666248 0.82968068 0.021312237 14535364
0.037147041 0.8297295 0.021309763 14469571
0.037627835 0.82977831 0.021307275 14337985
0.038108628 0.82982707 0.021304801 14535364
0.038589429 0.82987589 0.021302328 14469571
0.039070215 0.8299247 0.021299839 14469571
0.039551023 0.82997346 0.021297365 14535364
0.040031824 0.83002228 0.021294892 14535364
0.040851314 0.8292985 0.020681381 14535364
0.041333731 0.82934749 0.020678893 14469571
0.041816156 0.82939643 0.020676404 14207169
0.042298581 0.82944536 0.020673916 14338755
0.042780992 0.82949436 0.020671427 14338755
0.043263424 0.82954329 0.020668954 14207169
0.043745834 0.82959229 0.020666465 14338755
0.044228259 0.82964122 0.020663977 14404548
0.04471067 0.82969022 0.020661488 14207169
0.045546401 0.82896805 0.020047903 14404548
0.046030443 0.82901716 0.0200454 14338755
0.046514492 0.82906634 0.020042911 14338755
0.046998527 0.82911545 0.020040423 14207169
0.047482584 0.82916456 0.020037919 14338755
0.048328061 0.82844341 0.019424275 14338755
0.048813734 0.82849276 0.019421771 14338755
0.049299408 0.82854199 0.019419268 14338755
0.049785074 0.82859135 0.019416779 14338755
0.05027074 0.82864058 0.019414276 14338755
0.050756413 0.82868993 0.019411772 14338755
0.05124208 0.82873917 0.019409269 14207169
0.051727746 0.82878846 0.019406766 14141376
0.052213419 0.82883775 0.019404262 14009790
0.053075138 0.82811832 0.018790543 13943997
0.053562436 0.8281678 0.01878804 14009790
0.054049719 0.82821721 0.018785521 13878204
-0.030637927 0.82664591 0.025117546 13220010
-0.030165255 0.82669389 0.025115103 13352627
-0.029692579 0.82674187 0.025112674 13615799
-0.029219907 0.82678986 0.025110245 13682108
-0.028747231 0.82683778 0.025107801 13945280
-0.028274558 0.82688582 0.025105357 14142659
-0.027911637 0.82773036 0.025711343 14274245
-0.027440589 0.82777816 0.025708914 14471624
-0.026969537 0.82782596 0.0257065 14669003
-0.02661312 0.82866991 0.026312545 14800589
-0.026143692 0.82871759 0.026310116 14866382
-0.025674265 0.82876521 0.026307702 15194577
-0.025324341 0.82960844 0.026913747 15194577
-0.024856538 0.82965595 0.026911348 15194577
-0.024388738 0.82970345 0.026908934 15194577
-0.024045315 0.83054608 0.027515024 15062991
-0.023579136 0.83059335 0.027512625 14997198
-0.023112956 0.83064067 0.027510226 14997198
-0.022776026 0.83148265 0.02811636 14997198
-0.022311475 0.83152974 0.028113961 14800591
-0.02184692 0.83157694 0.028111562 14734798
-0.021382369 0.83162409 0.028109178 14734798
-0.020917814 0.83167124 0.028106779 14734798
-0.020453263 0.83171839 0.02810438 14603212
-0.019988708 0.83176553 0.028101996 14669005
-0.019524157 0.83181268 0.028099597 14603212
-0.019059602 0.83185983 0.028097212 14471626
-0.018595051 0.83190697 0.028094813 14405833
-0.0181305 0.83195412 0.028092414 14405833
-0.017665945 0.83200127 0.02809003 14405833
-0.017201394 0.83204842 0.028087631 14340040
-0.016736839 0.83209556 0.028085232 14405833
-0.016272288 0.83214271 0.028082848 14405833
-0.015807737 0.83218986 0.028080449 14405831
-0.015343178 0.83223701 0.028078049 14405831
-0.014878627 0.83228415 0.028075665 14471624
-0.014255591 0.83153963 0.027464584 14405831
-0.013789415 0.83158696 0.027462184 14471624
-0.013323236 0.83163428 0.02745977 14405831
-0.012857061 0.83168161 0.027457371 14405831
-0.012390886 0.83172894 0.027454972 14340038
-0.011924706 0.8317762 0.027452573 14340038
-0.011458527 0.83182353 0.027450174 14274245
-0.010992352 0.83187085 0.02744776 14470854
-0.010526177 0.83191812 0.027445361 14536647
-0.010059997 0.83196545 0.027442962 14470854
-0.0095938183 0.83201277 0.027440548 14470854
-0.0089512877 0.83127022 0.026829377 14470854
-0.0084834881 0.83131766 0.026826963 14470854
-0.0080156848 0.83136517 0.026824549 14536647
-0.0075478815 0.83141267 0.02682215 14470854
-0.0070800819 0.83146012 0.026819736 14470854
-0.0066122822 0.83150756 0.026817322 14470854
-0.0061444789 0.83155507 0.026814908 14470854
-0.0056766793 0.83160257 0.026812494 14405061
-0.005208876 0.83165002 0.02681008 14470854
-0.0047410764 0.83169752 0.026807681 14470854
-0.0042732731 0.83174503 0.026805267 14536647
-0.0038054734 0.83179247 0.026802853 14470854
-0.0033376664 0.83183992 0.026800454 14470854
-0.0028698668 0.83188742 0.02679804 14470854
-0.0024020672 0.83193493 0.026795626 14405061
-0.0019342676 0.83198237 0.026793212 14405061
-0.0014664643 0.83202988 0.026790798 14405061
-0.00099866092 0.83207732 0.026788384 14470854
-0.00032527372 0.83133793 0.026177078 14340038
0.00014415011 0.83138561 0.02617465 14274245
0.00061357394 0.83143324 0.026172236 14274245
0.0010830052 0.83148086 0.026169807 14274245
0.0015524291 0.83152854 0.026167393 14405831
0.0020218529 0.83157617 0.026164979 14208452
0.0024912767 0.83162379 0.02616255 14142659
0.002960708 0.83167148 0.026160136 14274245
0.0034301318 0.8317191 0.026157722 14274245
0.0038995557 0.83176672 0.026155293 14274245
0.0043689795 0.83181441 0.026152879 14274245
0.0048384108 0.83186203 0.026150465 14208452
0.0053078346 0.83190966 0.026148036 14208452
0.0057772659 0.83195734 0.026145622 14208452
0.0064750202 0.83122033 0.025534138 14274245
0.0069460757 0.83126813 0.025531709 14340038
0.0074171312 0.83131599 0.02552928 14471624
0.0078881718 0.8313638 0.025526851 14274245
0.0083592273 0.8314116 0.025524437 14274245
0.0088302754 0.8314594 0.025521994 14340038
0.0093013234 0.83150721 0.02551958 14274245
0.0097723715 0.83155501 0.025517151 14274245
0.01024342 0.83160281 0.025514722 14274245
0.010714475 0.83165061 0.025512293 14340038
0.011185523 0.83169842 0.025509864 14470854
0.011902768 0.83096349 0.02489832 14470854
0.01237544 0.83101141 0.024895877 14405061
0.01284812 0.83105946 0.024893448 14405061
0.013320792 0.83110738 0.024891004 14470854
0.013793472 0.83115536 0.024888575 14405061
0.014266144 0.83120334 0.024886131 14405061
0.014738817 0.83125132 0.024883702 14405061
0.015211489 0.8312993 0.024881274 14470854
0.015684169 0.83134723 0.02487883 14405061
0.016156841 0.83139527 0.024876386 14405061
0.016629513 0.83144319 0.024873957 14339268
0.017102186 0.83149117 0.024871528 14470341
0.017840553 0.83075833 0.024259835 14404548
0.018314857 0.83080649 0.024257392 14404548
0.018789154 0.83085465 0.024254948 14470341
0.01926345 0.83090276 0.024252504 14404548
0.019737754 0.83095092 0.02425006 14338755
0.020212051 0.83099902 0.024247617 14339268
0.020686347 0.83104718 0.024245173 14339268
0.021160651 0.83109534 0.024242729 14339268
0.021634948 0.83114344 0.024240285 14405061
0.022109244 0.8311916 0.024237841 14405061
0.022583541 0.8312397 0.024235398 14405061
0.023341391 0.83050889 0.02362363 14536134
0.023817319 0.83055717 0.023621187 14470341
0.02429324 0.83060551 0.023618728 14470341
0.024769161 0.83065379 0.023616284 14470341
0.025245089 0.83070207 0.023613825 14470341
0.025721017 0.83075041 0.023611367 14404548
0.026196938 0.83079869 0.023608923 14470341
0.026672859 0.83084702 0.023606464 14601927
0.027148779 0.8308953 0.023604006 14470341
0.027922872 0.8301661 0.022992149 14536134
0.028400417 0.83021462 0.02298969 14536134
0.02887797 0.83026302 0.022987232 14536134
0.029355515 0.83031154 0.022984773 14404548
0.02983306 0.83036 0.022982314 14536134
0.030310612 0.83040845 0.022979856 14470341
0.030788157 0.83045691 0.022977382 14470341
0.03126571 0.83050537 0.022974923 14470341
0.031743255 0.83055389 0.022972465 14404548
0.032220799 0.83060235 0.022970006 14470341
0.032698344 0.83065081 0.022967547 14470341
0.033175889 0.83069927 0.022965074 14470341
0.033653442 0.83074772 0.02296263 14470341
0.034130987 0.83079618 0.022960156 14601157
0.034929458 0.83006948 0.022348166 14601157
0.035408627 0.83011812 0.022345707 14601157
0.035887804 0.8301667 0.022343233 14601157
0.036366973 0.83021533 0.022340775 14535364
0.036846142 0.83026397 0.022338301 14535364
0.037325319 0.83031261 0.022335827 14469571
0.037804488 0.83036125 0.022333354 14535364
0.038283657 0.83040988 0.02233088 14469571
0.038762826 0.83045852 0.022328421 14469571
0.039242003 0.83050716 0.022325948 14469571
0.03972118 0.8305558 0.022323489 14535364
0.040539127 0.82983106 0.021711394 14535364
0.041019928 0.82987988 0.021708921 14469571
0.041500714 0.82992864 0.021706447 14207169
0.041981522 0.82997745 0.021703959 14207169
0.042462315 0.83002627 0.021701485 14207169
0.042943109 0.83007503 0.021699011 14338755
0.043423902 0.83012384 0.021696538 14273475
0.043904703 0.83017266 0.021694049 14339268
0.044385489 0.83022141 0.021691576 14338755
0.045219708 0.82949835 0.021079406 14338755
0.045702118 0.82954729 0.021076918 14207169
0.046184544 0.82959628 0.021074444 14207169
0.046666961 0.82964522 0.021071956 14338755
0.047149386 0.82969415 0.021069467 14338755
0.047631796 0.82974315 0.021066979 14207169
0.048477363 0.82902122 0.020454764 14338755
0.048961412 0.82907033 0.020452261 14338755
0.049445447 0.82911944 0.020449758 14404548
0.049929503 0.82916856 0.020447269 14141376
0.050413538 0.82921767 0.020444781 14404548
0.051268872 0.82849675 0.019832492 14141376
0.051754538 0.82854605 0.019829988 14141376
0.052240212 0.82859534 0.019827485 14075583
0.052725878 0.82864463 0.019824982 14009790
0.053211551 0.82869393 0.019822493 14009790
0.05369721 0.82874322 0.01981999 13878204
0.054563891 0.82802343 0.019207671 13746618
0.055051181 0.82807291 0.019205153 13483446
0.055538472 0.82812238 0.01920265 13220787
0.056411657 0.82740319 0.018590257 12957615
0.056900579 0.82745284 0.018587738 12497834
-0.030611858 0.82641 0.025529459 13220010
-0.030139185 0.82645798 0.025527015 13352625
-0.029666509 0.8265059 0.025524586 13615797
-0.029193837 0.82655388 0.025522143 13682108
-0.028721161 0.82660186 0.025519714 13879487
-0.028248489 0.82664984 0.02551727 14142659
-0.027885657 0.82749522 0.02612184 14274245
-0.027414609 0.82754302 0.026119411 14471624
-0.026943557 0.82759082 0.026116982 14471624
-0.026587229 0.8284356 0.026721627 14931405
-0.026117802 0.82848322 0.026719198 15062991
-0.025648378 0.82853091 0.026716784 15194831
-0.02529854 0.82937497 0.027321413 15194831
-0.024830736 0.82942241 0.027318999 15194577
-0.024362937 0.82946992 0.0273166 15194577
-0.024019603 0.83031332 0.027921274 15062991
-0.023553424 0.83036065 0.027918875 14997198
-0.023087244 0.83040798 0.027916476 14866382
-0.022750404 0.83125073 0.02852118 14866382
-0.022285853 0.83129787 0.028518796 14669005
-0.021821298 0.83134502 0.028516397 14669005
-0.021356747 0.83139217 0.028514013 14669005
-0.020892192 0.83143932 0.028511614 14669005
-0.020427641 0.83148646 0.028509215 14603212
-0.019963089 0.83153361 0.02850683 14603212
-0.019498535 0.83158076 0.028504431 14603212
-0.01903398 0.83162791 0.028502032 14471626
-0.018569428 0.83167505 0.028499648 14405833
-0.018104877 0.8317222 0.028497249 14405833
-0.017640322 0.83176935 0.02849485 14405833
-0.017175771 0.83181649 0.028492466 14405833
-0.016711216 0.83186364 0.028490067 14405833
-0.016246665 0.83191085 0.028487667 14340040
-0.015782114 0.83195794 0.028485283 14405833
-0.015317556 0.83200514 0.028482884 14405833
-0.014853004 0.83205223 0.028480485 14405831
-0.014229883 0.83130693 0.027870834 14405831
-0.013763707 0.83135426 0.02786842 14405831
-0.013297528 0.83140159 0.027866021 14405831
-0.012831349 0.83144891 0.027863622 14471624
-0.012365174 0.83149618 0.027861223 14340038
-0.011898998 0.83154351 0.027858824 14340038
-0.011432815 0.83159083 0.02785641 14274245
-0.01096664 0.8316381 0.02785401 14470854
-0.010500465 0.83168542 0.027851611 14536647
-0.010034289 0.83173275 0.027849212 14470854
-0.0095681101 0.83178008 0.027846798 14470854
-0.0089254901 0.83103669 0.027237043 14405061
-0.0084576868 0.83108419 0.027234629 14405061
-0.0079898871 0.83113164 0.027232215 14470854
-0.0075220801 0.83117914 0.027229801 14405061
-0.0070542805 0.83122659 0.027227402 14470854
-0.0065864809 0.83127409 0.027224988 14470854
-0.0061186813 0.8313216 0.027222574 14470854
-0.0056508817 0.83136904 0.02722016 14405061
-0.0051830746 0.83141649 0.027217746 14470854
-0.004715275 0.83146399 0.027215347 14470854
-0.0042474754 0.8315115 0.027212933 14536647
-0.0037796721 0.83155894 0.027210519 14470854
-0.003311865 0.83160645 0.027208105 14470854
-0.0028440654 0.83165389 0.027205706 14470854
-0.0023762658 0.8317014 0.027203292 14470854
-0.0019084662 0.83174884 0.027200878 14405061
-0.0014406629 0.83179635 0.027198464 14405061
-0.00097285956 0.83184385 0.02719605 14470854
-0.00029938295 0.83110362 0.026586145 14340038
0.00017004088 0.83115125 0.026583731 14340038
0.00063946471 0.83119893 0.026581317 14340038
0.001108896 0.83124655 0.026578888 14340038
0.0015783198 0.83129418 0.026576474 14340038
0.0020477436 0.83134186 0.026574045 14208452
0.0025171675 0.83138949 0.026571631 14142659
0.0029865988 0.83143711 0.026569217 14208452
0.0034560226 0.83148479 0.026566803 14340038
0.0039254464 0.83153242 0.026564375 14340038
0.0043948703 0.83158004 0.026561961 14340038
0.0048643015 0.83162773 0.026559532 14208452
0.0053337254 0.83167535 0.026557118 14208452
0.0058031566 0.83172297 0.026554704 14274245
0.0065010078 0.83098519 0.025944635 14274245
0.0069720559 0.83103299 0.025942206 14340038
0.0074431039 0.83108079 0.025939777 14536647
0.007914152 0.8311286 0.025937349 14405061
0.0083852001 0.8311764 0.02593492 14274247
0.0088562556 0.83122426 0.025932491 14274247
0.0093273111 0.83127207 0.025930077 14274247
0.0097983517 0.83131987 0.025927633 14274247
0.010269407 0.83136767 0.025925219 14274245
0.010740455 0.83141547 0.02592279 14274245
0.011211503 0.83146328 0.025920361 14470854
0.011928838 0.83072752 0.025310218 14470854
0.01240151 0.8307755 0.025307789 14405061
0.01287419 0.83082348 0.025305361 14405061
0.013346862 0.83087146 0.025302917 14405061
0.013819542 0.83091938 0.025300473 14405061
0.014292214 0.83096743 0.025298044 14405061
0.014764886 0.83101535 0.025295615 14470854
0.015237559 0.83106333 0.025293171 14536647
0.015710238 0.83111131 0.025290743 14339268
0.016182911 0.83115929 0.025288299 14405061
0.016655583 0.83120728 0.02528587 14339268
0.017128255 0.8312552 0.025283426 14405061
0.017866712 0.83052158 0.024673164 14339268
0.018341016 0.83056974 0.02467072 14339268
0.018815313 0.83061785 0.024668276 14405061
0.019289609 0.83066601 0.024665833 14339268
0.019763913 0.83071411 0.024663389 14273475
0.02023821 0.83076227 0.024660945 14339268
0.020712506 0.83081043 0.024658501 14405061
0.02118681 0.83085859 0.024656057 14405061
0.021661106 0.83090669 0.024653614 14339268
0.022135403 0.83095485 0.02465117 14405061
0.0226097 0.83100295 0.024648711 14405061
0.023367647 0.8302713 0.024038374 14405061
0.023843568 0.83031964 0.024035916 14339268
0.024319489 0.83036792 0.024033457 14470341
0.024795417 0.8304162 0.024031013 14536134
0.025271337 0.83046448 0.024028555 14470341
0.025747266 0.83051282 0.024026111 14470341
0.026223186 0.8305611 0.024023652 14470341
0.026699107 0.83060944 0.024021208 14536134
0.027175028 0.83065772 0.02401875 14470341
0.02794921 0.82992774 0.023408309 14536134
0.028426755 0.8299762 0.02340585 14536134
0.028904308 0.83002466 0.023403391 14536134
0.029381853 0.83007312 0.023400933 14470341
0.029859398 0.83012164 0.023398474 14470341
0.03033695 0.83017009 0.023396015 14470341
0.030814495 0.83021855 0.023393542 14470341
0.031292047 0.83026701 0.023391083 14536134
0.031769592 0.83031547 0.023388624 14536134
0.032247137 0.83036393 0.023386165 14470341
0.032724682 0.83041239 0.023383707 14470341
0.033202227 0.83046091 0.023381233 14470341
0.03367978 0.83050936 0.023378789 14470341
0.034157325 0.83055782 0.023376316 14601157
0.034955885 0.82983029 0.022765741 14601157
0.035435062 0.82987893 0.022763282 14535364
0.035914239 0.82992756 0.022760808 14601157
0.0363934 0.8299762 0.022758335 14535364
0.036872577 0.83002484 0.022755861 14535364
0.037351754 0.83007348 0.022753403 14535364
0.037830915 0.83012205 0.022750929 14535364
0.038310092 0.83017069 0.022748455 14535364
0.038789254 0.83021933 0.022745997 14469571
0.03926843 0.83026797 0.022743523 14469571
0.039747607 0.8303166 0.02274105 14535364
0.040565643 0.82959104 0.022130385 14535364
0.041046444 0.82963985 0.022127911 14469571
0.04152723 0.82968867 0.022125438 14207169
0.042008039 0.82973742 0.022122949 14207169
0.042488832 0.82978624 0.022120476 14207169
0.042969625 0.82983506 0.022118002 14338755
0.043450419 0.82988381 0.022115529 14273475
0.04393122 0.82993263 0.02211304 14273475
0.044412006 0.82998145 0.022110566 14338755
0.045246314 0.82925755 0.021499813 14404548
0.045728724 0.82930648 0.021497324 14405061
0.04621115 0.82935548 0.021494836 14141889
0.046693567 0.82940441 0.021492362 14273475
0.047175992 0.82945335 0.021489874 14273475
0.047658402 0.82950234 0.021487385 14141889
0.048504058 0.82877958 0.020876572 14273475
0.048988108 0.82882869 0.020874083 14273475
0.049472142 0.82887781 0.02087158 14339268
0.049956199 0.82892692 0.020869091 14273475
0.050440233 0.82897609 0.020866603 14405061
0.051295657 0.82825434 0.02025573 14207169
0.051781323 0.82830358 0.020253226 14207169
0.052266996 0.82835293 0.020250723 14075583
0.052752662 0.82840216 0.020248219 14009790
0.053238336 0.82845151 0.020245731 14009790
0.053723995 0.82850075 0.020243227 13746618
0.054590765 0.82778019 0.01963231 13878204
0.055078056 0.82782966 0.019629806 13549239
0.055565346 0.82787907 0.019627303 13352373
0.056438629 0.82715917 0.019016325 12957615
0.056927551 0.82720876 0.019013807 12694443
0.057805698 0.82648933 0.018402845 12299685
0.058296237 0.8265391 0.018400311 11838621
0.058786783 0.82658887 0.018397778 11180691
-0.030585788 0.82617402 0.025941372 13023401
-0.030113116 0.826222 0.025938928 13418418
-0.02964044 0.82626998 0.025936499 13615797
-0.029167768 0.82631797 0.025934055 13813178
-0.028695092 0.82636595 0.025931627 14010557
-0.028222419 0.82641387 0.025929183 14142659
-0.027859677 0.82726008 0.026532337 14274245
-0.027388629 0.82730788 0.026529908 14536647
-0.026917577 0.82735568 0.026527479 14734026
-0.026561338 0.82820129 0.027130693 14931405
-0.026091911 0.82824892 0.027128279 15062991
-0.025622487 0.82829654 0.027125865 15325904
-0.025272738 0.82914144 0.027729079 15260111
-0.024804939 0.82918894 0.027726665 15194577
-0.024337139 0.82923639 0.027724251 15194577
-0.023993891 0.83008063 0.028327525 15194577
-0.023527712 0.83012795 0.028325126 15062991
-0.023061533 0.83017528 0.028322726 14866382
-0.022724781 0.83101881 0.028926015 14866382
-0.02226023 0.83106601 0.028923631 14669003
-0.021795679 0.8311131 0.028921232 14669003
-0.021331124 0.83116031 0.028918833 14669003
-0.020866573 0.83120739 0.028916448 14669003
-0.020402018 0.8312546 0.028914049 14471626
-0.019937467 0.83130175 0.02891165 14603212
-0.019472912 0.8313489 0.028909266 14603212
-0.019008357 0.83139604 0.028906867 14471626
-0.018543806 0.83144319 0.028904468 14603212
-0.018079255 0.83149034 0.028902084 14405833
-0.0176147 0.83153749 0.028899685 14405833
-0.017150149 0.83158463 0.028897285 14405833
-0.016685594 0.83163178 0.028894901 14405833
-0.016221043 0.83167893 0.028892502 14405833
-0.015756492 0.83172607 0.028890103 14471626
-0.015291933 0.83177322 0.028887719 14471626
-0.014827382 0.83182037 0.02888532 14405833
-0.014204171 0.83107424 0.028277069 14405833
-0.013737995 0.83112156 0.02827467 14405831
-0.013271816 0.83116889 0.028272271 14405831
-0.012805637 0.83121616 0.028269872 14536647
-0.012339462 0.83126348 0.028267473 14536647
-0.011873286 0.83131081 0.028265059 14470854
-0.011407103 0.83135813 0.02826266 14470854
-0.010940928 0.8314054 0.028260261 14536647
-0.010474753 0.83145273 0.028257862 14602440
-0.010008577 0.83150005 0.028255463 14470854
-0.0095423982 0.83154738 0.028253049 14470854
-0.0088996887 0.83080316 0.027644694 14470854
-0.0084318854 0.83085066 0.027642295 14405061
-0.0079640858 0.83089817 0.027639881 14405061
-0.0074962787 0.83094561 0.027637467 14405061
-0.0070284791 0.83099306 0.027635053 14470854
-0.0065606795 0.83104056 0.027632654 14470854
-0.0060928799 0.83108807 0.02763024 14470854
-0.0056250803 0.83113551 0.027627826 14405061
-0.0051572733 0.83118302 0.027625412 14470854
-0.0046894737 0.83123052 0.027622998 14536647
-0.0042216741 0.83127797 0.027620599 14536647
-0.0037538707 0.83132541 0.027618185 14405061
-0.0032860637 0.83137292 0.027615771 14470854
-0.0028182641 0.83142042 0.027613357 14470854
-0.0023504645 0.83146787 0.027610958 14470854
-0.0018826649 0.83151537 0.027608544 14405061
-0.0014148615 0.83156282 0.02760613 14405061
-0.0009470582 0.83161032 0.027603716 14470854
-0.00027349219 0.83086932 0.026995227 14470854
0.00019593164 0.83091694 0.026992813 14470854
0.00066535547 0.83096457 0.026990384 14340038
0.0011347868 0.83101225 0.02698797 14340038
0.0016042106 0.83105987 0.026985556 14340038
0.0020736344 0.8311075 0.026983127 14274245
0.0025430582 0.83115518 0.026980713 14142659
0.0030124895 0.83120281 0.026978299 14208452
0.0034819134 0.83125043 0.02697587 14340038
0.0039513372 0.83129811 0.026973456 14340038
0.004420761 0.83134574 0.026971042 14274245
0.0048901923 0.83139336 0.026968613 14274245
0.0053596161 0.83144104 0.026966199 14340038
0.0058290474 0.83148867 0.02696377 14340038
0.0065269805 0.83075005 0.026355132 14405061
0.0069980361 0.83079791 0.026352704 14470854
0.0074690916 0.83084571 0.026350275 14470854
0.0079401322 0.83089352 0.026347846 14405061
0.0084111877 0.83094132 0.026345417 14208454
0.0088822357 0.83098912 0.026342988 14274247
0.0093532838 0.83103693 0.026340559 14274247
0.0098243318 0.83108473 0.02633813 14274247
0.01029538 0.83113253 0.026335716 14274247
0.010766435 0.83118033 0.026333272 14208454
0.011237483 0.83122814 0.026330858 14340040
0.011954907 0.83049154 0.025722131 14274247
0.01242758 0.83053958 0.025719702 14339270
0.012900259 0.83058751 0.025717258 14339270
0.013372932 0.83063549 0.02571483 14339270
0.013845611 0.83068347 0.025712401 14339270
0.014318284 0.83073145 0.025709957 14405061
0.014790956 0.83077943 0.025707513 14405061
0.015263628 0.83082736 0.025705084 14405061
0.015736308 0.8308754 0.025702655 14339268
0.01620898 0.83092332 0.025700212 14470854
0.016681653 0.8309713 0.025697783 14339268
0.017154325 0.83101928 0.025695339 14339268
0.017892871 0.83028483 0.025086477 14405061
0.018367175 0.83033299 0.025084034 14405061
0.018841472 0.8303811 0.02508159 14405061
0.019315768 0.83042926 0.025079146 14339268
0.019790072 0.83047736 0.025076702 14339268
0.020264369 0.83052552 0.025074258 14405063
0.020738665 0.83057368 0.025071815 14405063
0.021212969 0.83062178 0.025069371 14405063
0.021687265 0.83066994 0.025066927 14339270
0.022161562 0.83071804 0.025064483 14405061
0.022635859 0.8307662 0.025062039 14405061
0.023393888 0.83003372 0.024453104 14405061
0.023869816 0.83008206 0.02445066 14405061
0.024345737 0.83013034 0.024448216 14536134
0.024821658 0.83017862 0.024445757 14536134
0.025297586 0.83022696 0.024443299 14536134
0.025773514 0.83027524 0.024440855 14536134
0.026249435 0.83032358 0.024438396 14666950
0.026725356 0.83037186 0.024435937 14666950
0.027201276 0.83042014 0.024433494 14601157
0.027975548 0.82968938 0.023824468 14666950
0.028453093 0.82973784 0.02382201 14601927
0.028930645 0.8297863 0.023819536 14536134
0.02940819 0.82983476 0.023817092 14404548
0.029885735 0.82988322 0.023814619 14404548
0.030363288 0.82993168 0.02381216 14470341
0.030840833 0.82998013 0.023809701 14470341
0.031318385 0.83002865 0.023807243 14536134
0.03179593 0.83007711 0.023804784 14536134
0.032273475 0.83012557 0.02380231 14470341
0.03275102 0.83017403 0.023799852 14470341
0.033228565 0.83022249 0.023797393 14470341
0.033706117 0.83027101 0.023794934 14404548
0.034183662 0.8303194 0.023792475 14404548
0.03498232 0.8295911 0.023183316 14404548
0.035461489 0.82963973 0.023180857 14601157
0.035940666 0.82968837 0.023178384 14535364
0.036419835 0.82973695 0.02317591 14601157
0.036899004 0.82978559 0.023173451 14535364
0.037378181 0.82983422 0.023170978 14535364
0.03785735 0.82988286 0.023168504 14535364
0.038336519 0.8299315 0.023166031 14535364
0.038815688 0.82998013 0.023163557 14535364
0.039294865 0.83002877 0.023161098 14469571
0.039774042 0.83007741 0.023158625 14535364
0.04059216 0.82935107 0.022549376 14404548
0.041072961 0.82939982 0.022546902 14338755
0.041553747 0.82944864 0.022544414 14207169
0.042034555 0.82949746 0.02254194 14207169
0.042515349 0.82954627 0.022539467 14207169
0.042996142 0.82959503 0.022536993 14338755
0.043476935 0.82964385 0.022534519 14273475
0.043957736 0.82969266 0.022532031 14273475
0.044438522 0.82974148 0.022529557 14338755
0.04527292 0.82901669 0.021920219 14404548
0.04575533 0.82906568 0.021917731 14339268
0.046237756 0.82911468 0.021915242 14141889
0.046720173 0.82916361 0.021912754 14273475
0.047202598 0.82921255 0.02191028 14273475
0.047685008 0.82926154 0.021907777 14141889
0.048530761 0.82853794 0.021298394 14141889
0.04901481 0.82858706 0.021295905 14141889
0.049498845 0.82863617 0.021293402 14273475
0.049982902 0.82868534 0.021290913 14273475
0.050466936 0.82873446 0.02128841 14273475
0.051322442 0.82801187 0.020678967 14470341
0.051808108 0.82806116 0.020676464 14207169
0.052293781 0.82811046 0.02067396 14141376
0.052779447 0.82815975 0.020671457 14009790
0.053265121 0.82820904 0.020668954 14009790
0.053750779 0.82825834 0.02066645 13746618
0.05461764 0.82753694 0.020056963 13878204
0.05510493 0.82758641 0.02005446 13549239
0.05559222 0.82763588 0.020051941 13352373
0.0564656 0.82691509 0.019442394 13023408
0.056954522 0.82696474 0.019439876 12694443
0.057832751 0.82624441 0.018830329 12497064
0.05832329 0.82629418 0.018827796 12036000
0.058813836 0.82634401 0.018825263 11575449
-0.030559719 0.82593811 0.02635327 13089192
-0.030087046 0.82598603 0.026350841 13352625
-0.02961437 0.82603401 0.026348412 13550004
-0.029141698 0.82608199 0.026345968 13682362
-0.028669022 0.82612997 0.026343539 13945534
-0.02819635 0.82617795 0.026341096 14142913
-0.027833696 0.82702494 0.026942834 14274499
-0.027362648 0.82707274 0.026940405 14536647
-0.026891597 0.82712054 0.026937976 14799819
-0.026535448 0.82796693 0.027539775 15062478
-0.02606602 0.82801461 0.027537361 15128271
-0.025596596 0.82806224 0.027534932 15325650
-0.02548648 0.83050406 0.029345214 15259857
-0.025021926 0.83055121 0.02934283 15128271
-0.024557374 0.83059835 0.029340431 15259857
-0.02409282 0.8306455 0.029338032 15260370
-0.023628268 0.83069265 0.029335648 15062991
-0.023163714 0.8307398 0.029333249 15062991
-0.02282868 0.83158398 0.029935122 15062991
-0.022365749 0.831631 0.029932737 14931405
-0.021902818 0.83167797 0.029930353 14865612
-0.021439891 0.831725 0.029927969 14734796
-0.020976964 0.83177197 0.029925585 14734796
-0.020514034 0.83181894 0.029923201 14603212
-0.020051107 0.83186591 0.029920816 14603212
-0.019588176 0.83191288 0.029918432 14603212
-0.019125249 0.8319599 0.029916048 14471626
-0.018662319 0.83200687 0.029913649 14471626
-0.018199388 0.83205384 0.029911265 14405833
-0.017736461 0.83210087 0.029908881 14405833
-0.017273534 0.83214784 0.029906496 14405833
-0.016810607 0.83219481 0.029904112 14471626
-0.01634768 0.83224177 0.029901728 14405833
-0.01588475 0.83228874 0.029899344 14471626
-0.015421819 0.83233577 0.02989696 14405833
-0.014958892 0.83238274 0.029894575 14405833
-0.014337208 0.83163559 0.029287755 14405833
-0.013872657 0.8316828 0.029285371 14405831
-0.013408106 0.83172989 0.029282972 14405831
-0.012943555 0.8317771 0.029280573 14536647
-0.012478996 0.83182418 0.029278189 14602440
-0.012014445 0.83187139 0.02927579 14536647
-0.011381395 0.83112538 0.02866891 14536647
-0.010915216 0.8311727 0.028666511 14602440
-0.010449041 0.83122003 0.028664097 14536647
-0.0099828653 0.83126736 0.028661698 14470854
-0.0095166862 0.83131468 0.028659299 14470854
-0.0090505108 0.83136201 0.0286569 14470854
-0.0085843317 0.83140928 0.028654486 14405061
-0.0081181526 0.8314566 0.028652087 14405061
-0.0076519772 0.83150393 0.028649688 14405061
-0.0071858019 0.83155119 0.028647289 14470854
-0.0067196228 0.83159852 0.02864489 14470854
-0.0062534474 0.83164585 0.028642476 14470854
-0.0057872683 0.83169317 0.028640077 14470854
-0.0053210892 0.8317405 0.028637677 14470854
-0.0048549138 0.83178782 0.028635278 14470854
-0.0043887347 0.83183515 0.028632879 14536647
-0.0039225593 0.83188242 0.028630465 14405061
-0.0034563802 0.83192974 0.028628066 14405061
-0.0029902048 0.83197707 0.028625667 14470854
-0.0025240257 0.83202434 0.028623268 14470854
-0.0018568672 0.83128184 0.02801621 14405061
-0.0013890639 0.83132935 0.028013796 14470854
-0.00092126057 0.83137679 0.028011382 14536647
-0.00045346096 0.83142424 0.028008968 14470854
1.4342368e-05 0.83147174 0.028006554 14470854
0.0004821457 0.83151925 0.028004155 14470854
0.0009499453 0.83156669 0.028001741 14470854
0.0014177449 0.8316142 0.027999327 14470854
0.0018855445 0.83166164 0.027996913 14470854
0.0023533516 0.83170915 0.027994514 14405061
0.0028211512 0.83175659 0.0279921 14405061
0.0032889508 0.8318041 0.027989686 14340038
0.0037567504 0.8318516 0.027987272 14340038
0.0042245574 0.83189905 0.027984858 14340038
0.0046923496 0.83194655 0.027982458 14340038
0.0051601566 0.831994 0.027980044 14274245
0.0056279637 0.8320415 0.02797763 14340038
0.006324362 0.83130199 0.027370438 14470854
0.0067937858 0.83134961 0.027368024 14470854
0.0072632097 0.83139729 0.027365595 14405061
0.0077326335 0.83144492 0.027363181 14339268
0.0082020648 0.83149254 0.027360767 14274247
0.0086714886 0.83154017 0.027358338 14274247
0.0091409124 0.83158779 0.027355924 14340040
0.0096103363 0.83163548 0.027353495 14274247
0.010321368 0.83089739 0.026746199 14208454
0.010792416 0.83094519 0.02674377 14208454
0.011263464 0.830993 0.026741356 14274247
0.011734512 0.8310408 0.026738927 14208454
0.01220556 0.83108866 0.026736498 14208454
0.012676615 0.83113647 0.026734069 14405833
0.013147671 0.83118427 0.02673164 14208454
0.013618711 0.83123207 0.026729211 14208454
0.014089767 0.83127987 0.026726782 14274247
0.014560822 0.83132768 0.026724353 14274247
0.015031863 0.83137548 0.026721925 14405063
0.015502919 0.83142328 0.026719496 14405063
0.015973967 0.83147109 0.026717067 14470856
0.016445015 0.83151889 0.026714653 14339270
0.01691607 0.83156669 0.026712224 14339270
0.017653074 0.83083129 0.026104808 14405063
0.018125746 0.83087927 0.026102379 14405063
0.018598419 0.83092725 0.02609995 14405063
0.019071091 0.83097523 0.026097506 14339270
0.019543771 0.83102322 0.026095077 14405063
0.020016443 0.83107114 0.026092634 14536649
0.020489123 0.83111918 0.026090205 14470856
0.020961795 0.8311671 0.026087761 14405063
0.021434467 0.83121508 0.026085332 14339270
0.021907147 0.83126307 0.026082888 14470341
0.022379819 0.83131105 0.026080459 14470341
0.023136321 0.83057761 0.025472924 14470341
0.023610618 0.83062571 0.02547048 14536134
0.024084914 0.83067387 0.025468037 14601927
0.024559211 0.83072197 0.025465593 14536134
0.025033515 0.83077013 0.025463149 14536134
0.025507811 0.8308183 0.025460705 14601927
0.025982108 0.8308664 0.025458261 14732743
0.026456412 0.83091456 0.025455818 14601157
0.026930708 0.83096266 0.025453359 14601157
0.027703453 0.83023089 0.024845779 14732743
0.028179374 0.83027917 0.024843335 14536134
0.028655302 0.83032751 0.024840876 14536134
0.029131223 0.83037579 0.024838418 14470341
0.029607143 0.83042407 0.024835974 14404548
0.030083064 0.83047241 0.024833515 14536134
0.030558992 0.83052069 0.024831071 14470341
0.031034913 0.83056903 0.024828613 14470341
0.031510834 0.83061731 0.024826154 14404548
0.031986762 0.83066559 0.02482371 14470341
0.032462683 0.83071393 0.024821252 14404548
0.033254903 0.82998413 0.024213552 14535364
0.033732455 0.83003259 0.024211094 14535364
0.03421 0.83008105 0.024208635 14666950
0.034687545 0.8301295 0.024206161 14535364
0.035165098 0.83017802 0.024203703 14535364
0.035642643 0.83022642 0.024201244 14535364
0.036120195 0.83027494 0.024198785 14601157
0.036597732 0.8303234 0.024196327 14535364
0.037075285 0.83037186 0.024193868 14535364
0.03755283 0.83042032 0.024191409 14535364
0.038030382 0.83046877 0.024188936 14535364
0.03850792 0.83051729 0.024186477 14535364
0.039321292 0.82978958 0.023578674 14469571
0.039800469 0.82983822 0.0235762 14469571
0.040279631 0.82988685 0.023573726 14470341
0.040758807 0.82993549 0.023571253 14404548
0.041237976 0.82998413 0.023568794 14338755
0.041717153 0.83003271 0.023566321 14338755
0.042196322 0.83008134 0.023563847 14404548
0.042675491 0.83012998 0.023561388 14404548
0.043503452 0.82940388 0.022953495 14338755
0.043984253 0.82945263 0.022951022 14338755
0.044465039 0.82950145 0.022948533 14338755
0.044945847 0.82955027 0.02294606 14470341
0.045426641 0.82959902 0.022943586 14338755
0.045907434 0.82964784 0.022941113 14207169
0.046388227 0.82969666 0.022938639 14141889
0.046869028 0.82974541 0.02293615 14273475
0.047349814 0.82979423 0.022933677 14141889
0.048194047 0.82906967 0.022325695 14141889
0.048676465 0.82911861 0.022323221 14141889
0.049158882 0.8291676 0.022320732 14141889
0.049641307 0.8292166 0.022318244 14338755
0.050123725 0.82926553 0.022315755 14207169
0.050977688 0.82854199 0.021707743 14338755
0.051461723 0.82859111 0.02170524 14141376
0.051945772 0.82864022 0.021702752 14075583
0.052429814 0.82868934 0.021700263 14075583
0.052913856 0.82873845 0.02169776 14009790
0.053397905 0.82878757 0.021695271 13746618
0.054263245 0.82806522 0.021087185 13746618
0.054748904 0.82811451 0.021084681 13615032
0.055234578 0.82816374 0.021082178 13352373
0.0561064 0.82744205 0.020474076 13089201
0.056593698 0.82749152 0.020471573 12760236
0.057080995 0.82754099 0.020469055 12497064
0.057959322 0.8268199 0.019860893 12101793
0.058448244 0.82686949 0.019858375 11707035
0.059725698 0.82537878 0.018644571 10851980
0.060217869 0.82542872 0.018642038 7167572
0.060710032 0.82547867 0.018639505 3092273
-0.030533649 0.82570213 0.026765183 13023399
-0.030060977 0.82575011 0.026762754 13221039
-0.029588301 0.82579809 0.02676031 13484211
-0.029115628 0.82584608 0.026757881 13813178
-0.028642952 0.825894 0.026755452 14273729
-0.02817028 0.82594198 0.026753008 14405315
-0.027807716 0.8267898 0.027353331 14471108
-0.027336668 0.8268376 0.027350903 14602694
-0.026865616 0.82688546 0.027348474 14865866
-0.026509557 0.82773262 0.027948856 15062732
-0.026040129 0.82778025 0.027946442 15128525
-0.025570706 0.82782793 0.027944028 15325904
-0.025460858 0.83027214 0.029750049 15260111
-0.024996303 0.83031929 0.029747665 15325650
-0.024531752 0.83036649 0.029745266 15325650
-0.024067197 0.83041358 0.029742867 15194577
-0.023602646 0.83046079 0.029740483 15194577
-0.023138095 0.83050787 0.029738083 15260370
-0.022803146 0.83135295 0.030338541 15194577
-0.022340219 0.83139992 0.030336156 14997198
-0.021877289 0.83144689 0.030333772 14931405
-0.021414358 0.83149385 0.030331388 14865612
-0.020951431 0.83154088 0.030329004 14865612
-0.020488504 0.83158785 0.03032662 14603212
-0.020025574 0.83163482 0.030324236 14603212
-0.019562647 0.83168185 0.030321851 14471626
-0.019099716 0.83172882 0.030319452 14471626
-0.018636789 0.83177578 0.030317068 14603212
-0.018173859 0.83182275 0.030314684 14405833
-0.017710928 0.83186972 0.0303123 14405833
-0.017248001 0.83191675 0.030309916 14405833
-0.016785074 0.83196372 0.030307531 14405833
-0.016322147 0.83201069 0.030305147 14405833
-0.01585922 0.83205771 0.030302763 14603212
-0.015396286 0.83210468 0.030300379 14405833
-0.014933359 0.83215165 0.030297995 14405831
-0.014311586 0.83140373 0.02969259 14405831
-0.013847034 0.83145088 0.029690206 14405831
-0.013382483 0.83149803 0.029687807 14405831
-0.012917932 0.83154517 0.029685408 14405831
-0.012453374 0.83159232 0.029683024 14405831
-0.011988822 0.83163947 0.029680625 14471624
-0.011355683 0.83089268 0.029075161 14405831
-0.010889504 0.83094001 0.029072762 14405831
-0.010423329 0.83098733 0.029070348 14405831
-0.0099571534 0.83103466 0.029067948 14340038
-0.009490978 0.83108199 0.029065549 14340038
-0.0090247989 0.83112925 0.02906315 14405831
-0.0085586198 0.83117658 0.029060751 14340038
-0.0080924444 0.83122391 0.029058337 14274245
-0.007626269 0.83127123 0.029055938 14274245
-0.0071600899 0.8313185 0.029053539 14340038
-0.0066939108 0.83136582 0.02905114 14340038
-0.0062277354 0.83141315 0.029048726 14536647
-0.0057615601 0.83146048 0.029046327 14602440
-0.0052953772 0.8315078 0.029043928 14470854
-0.0048292018 0.83155513 0.029041529 14470854
-0.0043630265 0.83160239 0.029039115 14470854
-0.0038968474 0.83164972 0.029036716 14470854
-0.0034306683 0.83169705 0.029034317 14405061
-0.0029644929 0.83174431 0.029031917 14470854
-0.0024983138 0.83179164 0.029029518 14470854
-0.0018310659 0.83104831 0.028423876 14470854
-0.0013632625 0.83109581 0.028421462 14470854
-0.0008954592 0.83114326 0.028419048 14536647
-0.0004276596 0.83119076 0.028416634 14602440
4.0143728e-05 0.83123827 0.02841422 14470854
0.00050794706 0.83128572 0.028411821 14470854
0.00097574666 0.83133316 0.028409407 14405061
0.0014435463 0.83138067 0.028406993 14470854
0.0019113459 0.83142817 0.028404579 14470854
0.0023791529 0.83147562 0.028402165 14470854
0.0028469525 0.83152312 0.028399765 14470854
0.0033147521 0.83157057 0.028397352 14274245
0.0037825517 0.83161807 0.028394938 14340038
0.0042503513 0.83166552 0.028392524 14274245
0.0047181584 0.83171302 0.02839011 14274245
0.0051859654 0.83176053 0.02838771 14340038
0.0056537576 0.83180797 0.028385296 14405831
0.0063502528 0.83106762 0.02777952 14536647
0.0068196766 0.83111525 0.027777106 14470854
0.0072891004 0.83116293 0.027774677 14405061
0.0077585243 0.83121055 0.027772263 14339268
0.0082279555 0.83125818 0.027769849 14405061
0.0086973794 0.83130586 0.02776742 14405061
0.0091668032 0.83135349 0.027765006 14340038
0.009636227 0.83140111 0.027762592 14274245
0.01034734 0.83066225 0.027156696 14274247
0.010818396 0.83071005 0.027154267 14208454
0.011289444 0.83075786 0.027151853 14274247
0.011760492 0.83080566 0.027149424 14208454
0.012231547 0.83085346 0.027146995 14208454
0.012702603 0.83090127 0.027144566 14340040
0.013173651 0.83094907 0.027142137 14274247
0.013644699 0.83099693 0.027139708 14274247
0.014115747 0.83104473 0.02713728 14405063
0.014586795 0.83109254 0.027134851 14339270
0.015057851 0.83114034 0.027132422 14405063
0.015528891 0.83118814 0.027129993 14405063
0.015999947 0.83123595 0.027127564 14470856
0.016471002 0.83128375 0.02712515 14339270
0.016942043 0.83133155 0.027122721 14339270
0.017679144 0.83059537 0.026516721 14405063
0.018151816 0.8306433 0.026514292 14405063
0.018624488 0.83069134 0.026511848 14405063
0.019097161 0.83073926 0.026509419 14470856
0.01956984 0.83078724 0.02650699 14536649
0.020042513 0.83083522 0.026504546 14734028
0.020515192 0.8308832 0.026502118 14536649
0.020987865 0.83093119 0.026499674 14405063
0.021460537 0.83097911 0.026497245 14405063
0.021933217 0.83102715 0.026494801 14470341
0.022405889 0.83107507 0.026492372 14536134
0.02316248 0.83034086 0.025886253 14601157
0.023636777 0.83038896 0.025883809 14666950
0.024111073 0.83043706 0.025881365 14666950
0.02458537 0.83048522 0.025878921 14666950
0.025059674 0.83053339 0.025876462 14536134
0.02553397 0.83058155 0.025874019 14601927
0.026008267 0.83062965 0.025871575 14732743
0.026482571 0.83067781 0.025869131 14666950
0.026956867 0.83072591 0.025866687 14666950
0.027729701 0.82999331 0.025260523 14666950
0.028205622 0.83004165 0.025258064 14666950
0.02868155 0.83008993 0.02525562 14666950
0.029157471 0.83013821 0.025253162 14470341
0.029633392 0.83018655 0.025250718 14470341
0.030109312 0.83023483 0.025248259 14536134
0.030585241 0.83028316 0.025245816 14470341
0.031061161 0.83033144 0.025243357 14536134
0.031537082 0.83037972 0.025240898 14470341
0.03201301 0.830428 0.025238454 14536134
0.032488931 0.83047634 0.025235996 14404548
0.033281241 0.82974577 0.024629712 14601157
0.033758793 0.82979417 0.024627253 14601157
0.034236338 0.82984269 0.024624795 14601157
0.034713883 0.82989115 0.024622321 14601157
0.035191435 0.8299396 0.024619862 14535364
0.03566898 0.82998806 0.024617404 14535364
0.036146533 0.83003652 0.024614945 14601157
0.03662407 0.83008504 0.024612486 14535364
0.037101623 0.8301335 0.024610028 14535364
0.037579168 0.83018196 0.024607554 14601157
0.03805672 0.83023041 0.024605095 14469571
0.038534258 0.83027887 0.024602637 14535364
0.039347719 0.82955039 0.023996234 14535364
0.039826896 0.82959902 0.023993775 14535364
0.040306058 0.82964766 0.023991302 14535364
0.040785234 0.8296963 0.023988828 14601157
0.041264404 0.82974494 0.023986369 14404548
0.04174358 0.82979357 0.023983896 14338755
0.042222749 0.82984221 0.023981422 14404548
0.042701919 0.82989085 0.023978949 14404548
0.043529969 0.82916385 0.023372486 14404802
0.04401077 0.82921267 0.023370013 14470595
0.044491556 0.82926142 0.023367524 14339009
0.044972364 0.82931024 0.023365051 14470595
0.045453157 0.82935905 0.023362577 14404548
0.045933951 0.82940781 0.023360103 14338755
0.046414744 0.82945663 0.023357615 14207169
0.046895545 0.82950544 0.023355141 14338755
0.047376331 0.8295542 0.023352668 14207169
0.048220661 0.82882887 0.022746101 14207169
0.048703078 0.82887781 0.022743613 14338755
0.049185496 0.8289268 0.022741139 14207169
0.049667921 0.82897574 0.02273865 14338755
0.050150339 0.82902467 0.022736162 14207169
0.051004384 0.82830036 0.022129565 14207169
0.051488418 0.82834947 0.022127062 14141376
0.051972467 0.82839859 0.022124574 14404548
0.052456509 0.8284477 0.02212207 14075583
0.052940551 0.82849681 0.022119582 14009790
0.053424601 0.82854599 0.022117078 13746618
0.05429003 0.82782274 0.021510422 13746872
0.054775689 0.82787204 0.021507919 13681079
0.055261362 0.82792133 0.021505415 13484213
0.056133274 0.8271988 0.02089873 13089455
0.056620572 0.82724828 0.020896226 12891822
0.05710787 0.82729775 0.020893708 12431271
0.057986278 0.82657588 0.020286962 12102306
0.0584752 0.82662547 0.020284444 11510169
-0.030507579 0.82546616 0.027177095 13023399
-0.030034907 0.82551414 0.027174667 13221039
-0.029562231 0.82556212 0.027172223 13484211
-0.029089559 0.8256101 0.027169794 13878971
-0.028616883 0.82565808 0.02716735 14142143
-0.028144211 0.82570606 0.027164921 14471108
-0.027781736 0.82655466 0.027763829 14536901
-0.027310688 0.82660246 0.0277614 14667974
-0.026839636 0.82665026 0.027758971 14996939
-0.026483666 0.82749832 0.028357938 14996939
-0.026014242 0.82754594 0.028355524 15062732
-0.025544815 0.82759356 0.028353095 15325904
-0.025435235 0.83004028 0.030154884 15325904
-0.024970684 0.83008742 0.030152485 15325650
-0.024506129 0.83013457 0.030150101 15325650
-0.024041574 0.83018172 0.030147702 15259857
-0.023577023 0.83022887 0.030145302 15259857
-0.023112472 0.83027601 0.030142918 15325650
-0.022777613 0.83112186 0.03074196 15259857
-0.022314686 0.83116883 0.030739576 14997198
-0.021851756 0.8312158 0.030737191 14931405
-0.021388829 0.83126283 0.030734807 14799819
