# .PCD v0.7 - Point Cloud Data file format
VERSION 0.7
FIELDS x y z rgb
SIZE 4 4 4 4
TYPE F F F U
COUNT 1 1 1 1
WIDTH 1074
HEIGHT 1
VIEWPOINT 0 0 0 1 0 0 0
POINTS 1074
DATA ascii
-0.03142944 0.75709808 0.06396237 11576457
-0.031517074 0.75751847 0.06396018 11576457
-0.031604707 0.7579388 0.063957989 11707273
-0.031692341 0.75835913 0.063955799 11707273
-0.03177996 0.75877953 0.063953608 11707273
-0.031867594 0.75919986 0.063951418 11773066
-0.031955227 0.75962019 0.063949227 11707273
-0.031210348 0.76021725 0.063421041 11707273
-0.03129831 0.76063919 0.063418835 11707273
-0.031386271 0.76106113 0.063416645 11707273
-0.031474233 0.76148307 0.06341444 11707273
-0.031562194 0.76190507 0.063412249 11838859
-0.031650171 0.76232702 0.063410044 11707273
-0.031738132 0.76274896 0.063407853 11575687
-0.031826094 0.7631709 0.063405648 11707019
-0.03108418 0.76378232 0.062877387 11575433
-0.031172484 0.76420587 0.062875181 11576203
-0.031260774 0.76462942 0.062872976 11707789
-0.031349078 0.76505297 0.062870771 11576203
-0.031437367 0.76547652 0.062868565 11576203
-0.031525671 0.76590008 0.06286636 11576203
-0.031613961 0.76632363 0.062864155 11641996
-0.031702265 0.76674718 0.062861949 11576203
-0.031790555 0.76717073 0.062859744 11444617
-0.031878859 0.76759428 0.062857524 11378824
-0.031967148 0.76801783 0.062855318 11378824
-0.032055452 0.76844138 0.062853113 11444617
-0.032143742 0.76886493 0.062850907 11378824
-0.032232046 0.76928842 0.062848702 11378824
-0.032320336 0.76971197 0.062846497 11313031
-0.031583786 0.77034903 0.062318102 11378826
-0.031672418 0.77077413 0.062315896 11313033
-0.03176105 0.77119929 0.062313676 11313033
-0.031849682 0.77162445 0.062311456 11313033
-0.031938314 0.77204961 0.06230925 11378056
-0.031203717 0.7726962 0.061780795 11246470
-0.031292677 0.77312291 0.061778575 11115654
-0.031381637 0.77354968 0.061776355 11115654
-0.031470597 0.77397645 0.061774135 10918534
-0.031559572 0.77440315 0.061771914 10918534
-0.031648532 0.77482992 0.061769679 10787718
-0.030916303 0.77548766 0.06124118 10590339
-0.031005606 0.77591604 0.061238945 10656648
-0.031094909 0.77634436 0.061236724 10788234
-0.031184196 0.77677274 0.061234489 10921105
-0.031273499 0.77720106 0.061232254 11381656
-0.030543253 0.77786845 0.06070371 11317919
-0.030632883 0.77829838 0.06070146 11581091
-0.030722499 0.77872831 0.060699224 11976880
-0.029993623 0.77940208 0.060170636 12174259
-0.030083582 0.77983361 0.060168386 12503996
-0.03017354 0.78026515 0.060166135 12438203
-0.030263513 0.78069669 0.0601639 12503994
-0.030353472 0.78112823 0.06016165 12240822
-0.03044343 0.78155977 0.0601594 11714991
-0.030533403 0.7819913 0.06015715 10991268
-0.030623361 0.78242284 0.0601549 10200469
-0.03071332 0.78285438 0.06015265 9279367
-0.029987723 0.78354412 0.059623986 8817787
-0.030078024 0.78397727 0.059621722 8357236
-0.03016831 0.78441042 0.059619471 8159857
-0.030258611 0.78484356 0.059617206 8094064
-0.030348912 0.78527671 0.059614956 8356207
-0.030439198 0.78570986 0.059612706 8750965
-0.030529499 0.78614295 0.059610441 8947315
-0.0306198 0.78657609 0.059608191 9276280
-0.029897243 0.7872802 0.059079438 9932927
-0.029987872 0.78771496 0.059077173 10261892
-0.030078501 0.78814971 0.059074908 10656134
-0.030169129 0.78858447 0.059072644 11050892
-0.030259758 0.78901917 0.059070379 10786950
-0.030350387 0.78945392 0.059068114 11050122
-0.029630154 0.79016924 0.058539331 10852741
-0.029721126 0.79060555 0.058537066 10852741
-0.029812083 0.79104191 0.058534786 11115400
-0.029903054 0.79147822 0.058532506 11181193
-0.029994011 0.79191458 0.058530241 11246986
-0.030084968 0.79235089 0.058527961 11246986
-0.030175939 0.79278719 0.058525696 11443595
-0.030266896 0.79322356 0.058523417 11443595
-0.029549628 0.7939533 0.05799453 11509642
-0.029640928 0.79439121 0.05799225 11509642
-0.029732227 0.79482913 0.05798997 11575435
-0.029823512 0.79526711 0.05798769 11575435
-0.029914811 0.79570502 0.057985395 11509642
-0.030006111 0.79614294 0.057983115 11575435
-0.03009741 0.79658085 0.057980835 11575435
-0.030188695 0.79701877 0.057978556 11575435
-0.030279994 0.79745674 0.057976276 11575435
-0.029566109 0.7982024 0.057447329 11575435
-0.029657736 0.79864192 0.057445034 11575435
-0.029749364 0.79908144 0.057442755 11707021
-0.029840991 0.79952103 0.05744046 11707021
-0.029932618 0.79996055 0.057438165 11575435
-0.030024245 0.80040008 0.057435885 11575435
-0.030115873 0.8008396 0.05743359 11707021
-0.0302075 0.80127913 0.057431296 11707021
-0.02949658 0.80203921 0.056902245 11707021
-0.02958855 0.80248034 0.05689995 11575435
-0.029680505 0.80292147 0.056897655 11707021
-0.02977246 0.80336261 0.05689536 11772814
-0.02986443 0.80380374 0.056893066 11838607
-0.0299564 0.80424488 0.056890756 11904400
-0.030048355 0.80468595 0.056888461 11772814
-0.030140311 0.80512714 0.056886166 11772814
-0.03023228 0.80556822 0.056883872 11838607
-0.029524714 0.80634427 0.056354761 11904400
-0.029617012 0.80678701 0.056352451 11838607
-0.029709309 0.80722976 0.056350157 11904400
-0.029801607 0.8076725 0.056347847 11838607
-0.029893905 0.80811518 0.056345537 11904400
-0.029986188 0.80855793 0.056343228 11838607
-0.029280916 0.80934519 0.055814043 11838607
-0.029373541 0.80978954 0.055811718 11838607
-0.028669313 0.81058156 0.055282533 11903887
-0.028762281 0.81102747 0.055280209 11903887
-0.028855234 0.81147337 0.055277884 11969680
-0.028948203 0.81191933 0.055275574 11903887
-0.029041156 0.81236523 0.05527325 11969680
-0.029134125 0.81281114 0.055270925 11903887
-0.02843222 0.81361437 0.054741666 11903887
-0.028525516 0.81406188 0.054739326 11903887
-0.028618813 0.81450939 0.054737002 11903887
-0.028712109 0.81495696 0.054734662 11969680
-0.028805405 0.81540447 0.054732338 11903887
-0.028898701 0.81585199 0.054729998 11969680
-0.028199106 0.81666642 0.054200679 12035473
-0.02829273 0.81711555 0.05419834 12035473
-0.028386354 0.81756467 0.054196 12035473
-0.028479993 0.81801379 0.054193661 12035473
-0.028573617 0.81846291 0.054191321 11969680
-0.027876034 0.81928688 0.053661957 12035473
-0.027970001 0.81973761 0.053659603 12035473
-0.028063953 0.82018834 0.053657264 12035473
-0.02815792 0.82063901 0.053654909 12101266
-0.028251886 0.82108974 0.05365257 12101266
-0.028345838 0.82154047 0.053650215 12035986
-0.028439805 0.82199121 0.053647861 12035986
-0.028533772 0.82244194 0.053645521 12035986
-0.028627723 0.82289267 0.053643167 12035986
-0.027933463 0.82373261 0.053113714 12035986
-0.028027758 0.82418495 0.053111359 12035986
-0.028122053 0.82463729 0.053109005 12167572
-0.028216347 0.82508957 0.053106651 12167572
-0.028310642 0.82554191 0.053104296 12299158
-0.028404936 0.82599419 0.053101942 12299158
-0.028499231 0.82644653 0.053099588 12364697
-0.028593525 0.82689887 0.053097233 12364697
-0.02790229 0.82775325 0.052567706 12430490
-0.027996913 0.82820714 0.052565336 12496283
-0.02809155 0.82866108 0.052562967 12627871
-0.028186172 0.82911497 0.052560613 12825250
-0.028280795 0.82956886 0.052558243 12826020
-0.028375432 0.83002281 0.052555874 13023399
-0.028097197 0.74633873 0.063867331 6774345
-0.028185159 0.74676067 0.063865125 6774345
-0.028273121 0.74718261 0.063862935 6774345
-0.028361082 0.74760455 0.063860729 6840138
-0.028449059 0.74802649 0.063858539 6905931
-0.02853702 0.74844843 0.063856333 6971724
-0.028624982 0.74887043 0.063854143 7102540
-0.028712943 0.74929237 0.063851938 7299919
-0.028800905 0.74971431 0.063849732 7693394
-0.029730171 0.74999774 0.064371929 7956566
-0.029817805 0.75041813 0.064369738 8154199
-0.029905438 0.75083846 0.064367548 8417371
-0.029993072 0.75125879 0.064365357 8746334
-0.030080706 0.75167918 0.064363167 9009506
-0.030168325 0.75209951 0.064360976 9141092
-0.031095281 0.75237179 0.064883202 9535850
-0.031182572 0.75279051 0.064881012 9864815
-0.031269878 0.75320929 0.064878836 10127987
-0.031357169 0.75362802 0.064876646 10785404
-0.031444475 0.7540468 0.06487447 11048576
-0.031531766 0.75446552 0.064872295 11443334
-0.031619072 0.7548843 0.064870104 11772299
-0.03086938 0.75546229 0.064343452 11707789
-0.030956998 0.75588268 0.064341262 11707789
-0.031044632 0.75630301 0.064339072 11707789
-0.031132266 0.75672334 0.064336881 11707789
-0.0312199 0.75714374 0.064334691 11576457
-0.031307533 0.75756407 0.0643325 11576457
-0.031395152 0.7579844 0.06433031 11707273
-0.031482786 0.75840479 0.064328119 11707273
-0.03157042 0.75882512 0.064325929 11707273
-0.031658053 0.75924546 0.064323738 11575687
-0.031745687 0.75966585 0.064321548 11707019
-0.031000003 0.76026303 0.063794777 11707019
-0.031087965 0.76068497 0.063792586 11707273
-0.031175926 0.76110697 0.063790381 11707273
-0.031263888 0.76152891 0.06378819 11773066
-0.031351864 0.76195085 0.063785985 11773066
-0.031439826 0.76237279 0.063783795 11707273
-0.031527787 0.76279473 0.063781589 11575687
-0.031615749 0.76321667 0.063779399 11707273
-0.030873045 0.76382828 0.063252553 11575687
-0.030961335 0.76425183 0.063250348 11707273
-0.031049639 0.76467538 0.063248143 11773066
-0.031137928 0.76509893 0.063245922 11642250
-0.031226233 0.76552248 0.063243717 11576457
-0.031314522 0.76594603 0.063241512 11642250
-0.031402826 0.76636958 0.063239306 11708043
-0.031491116 0.76679313 0.063237101 11773066
-0.03157942 0.76721668 0.063234895 11707273
-0.031667709 0.76764023 0.06323269 11575687
-0.031756014 0.76806378 0.063230485 11509894
-0.031844303 0.76848733 0.063228279 11575687
-0.031932607 0.76891088 0.063226074 11707273
-0.032020897 0.76933444 0.063223869 11773066
-0.032109201 0.76975799 0.063221663 11707273
-0.031371847 0.77039516 0.062694684 11772812
-0.031460479 0.77082026 0.062692463 11707019
-0.031549111 0.77124542 0.062690243 11707019
-0.031637743 0.77167058 0.062688038 11772812
-0.031726375 0.77209574 0.062685817 11772812
-0.030990988 0.77274251 0.062158793 11838605
-0.031079948 0.77316922 0.062156573 11509640
-0.031168908 0.77359599 0.062154338 11509640
-0.031257868 0.77402276 0.062152117 11509640
-0.031346828 0.77444947 0.062149897 11443847
-0.031435803 0.77487624 0.062147677 11313031
-0.030702785 0.77553415 0.061620593 11247238
-0.030792072 0.77596253 0.061618358 11313033
-0.030881375 0.77639085 0.061616123 11115654
-0.030970678 0.77681923 0.061613888 11050374
-0.031059965 0.77724755 0.061611667 10852995
-0.030328929 0.77791512 0.061084524 10524800
-0.030418545 0.77834505 0.061082289 10787972
-0.030508175 0.77877498 0.061080039 10788234
-0.029778495 0.77944893 0.06055288 10525062
-0.029868454 0.77988046 0.06055063 10722954
-0.029958427 0.780312 0.06054838 10920333
-0.030048385 0.78074354 0.06054613 11316376
-0.030138344 0.78117508 0.06054388 11908513
-0.030228317 0.78160661 0.06054163 12041126
-0.030318275 0.78203815 0.06053938 12699056
-0.030408233 0.78246969 0.060537145 12699572
-0.030498207 0.78290123 0.060534894 12831158
-0.029771805 0.78359115 0.060007632 12635064
-0.029862106 0.7840243 0.060005382 12766650
-0.029952392 0.78445745 0.060003117 12307130
-0.030042693 0.78489053 0.060000867 11714993
-0.030132994 0.78532368 0.059998617 11386544
-0.03022328 0.78575683 0.059996352 10597028
-0.030313581 0.78618997 0.059994102 9477516
-0.030403882 0.78662312 0.059991837 9016965
-0.02968052 0.78732741 0.059464514 8621178
-0.029771149 0.78776217 0.059462249 7765869
-0.029861778 0.78819692 0.059459984 7764072
-0.029952407 0.78863162 0.059457719 7895658
-0.030043036 0.78906637 0.059455454 8092004
-0.030133665 0.78950107 0.059453189 8289383
-0.029412657 0.79021657 0.058925822 9406581
-0.029503614 0.79065293 0.058923542 9801339
-0.02959457 0.79108924 0.058921278 10129788
-0.029685542 0.7915256 0.058918998 10261374
-0.029776499 0.79196191 0.058916718 10457470
-0.02986747 0.79239827 0.058914453 10918021
-0.029958427 0.79283458 0.058912173 10654849
-0.030049384 0.79327095 0.058909908 10983814
-0.029331326 0.7940008 0.058382422 11181447
-0.029422611 0.79443872 0.058380142 11247240
-0.02951391 0.79487669 0.058377862 11313033
-0.02960521 0.79531461 0.058375582 11378826
-0.029696509 0.79575253 0.058373302 11378826
-0.029787809 0.7961905 0.058371022 11313033
-0.029879093 0.79662842 0.058368742 11378056
-0.029970393 0.79706633 0.058366463 11509642
-0.030061692 0.79750425 0.058364183 11575435
-0.029347003 0.79825014 0.057836652 11443849
-0.02943863 0.79868966 0.057834357 11443849
-0.029530257 0.79912919 0.057832062 11509642
-0.029621884 0.79956871 0.057829782 11575435
-0.029713511 0.80000824 0.057827488 11509642
-0.029805139 0.80044776 0.057825193 11509642
-0.029896766 0.80088735 0.057822913 11575435
-0.029988408 0.80132687 0.057820618 11575435
-0.029276684 0.80208707 0.057292983 11509642
-0.029368639 0.8025282 0.057290688 11575435
-0.029460609 0.80296934 0.057288393 11575435
-0.029552564 0.80341047 0.057286084 11707021
-0.029644534 0.8038516 0.057283789 11772814
-0.029736489 0.80429274 0.057281494 11772814
-0.029828459 0.80473387 0.057279199 11707021
-0.029920414 0.80517501 0.05727689 11772814
-0.030012369 0.80561614 0.057274595 11838607
-0.029304013 0.80639231 0.056746915 11838607
-0.02939631 0.80683506 0.056744605 11772814
-0.029488608 0.8072778 0.056742296 11838607
-0.029580906 0.80772054 0.056739986 11838607
-0.029673204 0.80816329 0.056737691 11838607
-0.029765487 0.80860597 0.056735381 11772814
-0.029059425 0.80939341 0.056207597 11772814
-0.029152051 0.8098377 0.056205288 11904400
-0.028447032 0.81062996 0.055677518 11838607
-0.028539985 0.81107587 0.055675194 11904400
-0.028632954 0.81152177 0.055672869 11904400
-0.028725907 0.81196773 0.055670545 11838607
-0.028818876 0.81241363 0.05566822 11969678
-0.028911829 0.81285954 0.055665895 11903885
-0.028209135 0.81366295 0.055138052 11903885
-0.028302431 0.81411046 0.055135727 11969678
-0.028395727 0.81455797 0.055133387 11903887
-0.028489023 0.81500554 0.055131063 11969680
-0.02858232 0.81545305 0.055128723 12035473
-0.028675616 0.81590056 0.055126399 11969680
-0.027975217 0.81671518 0.054598495 12035473
-0.028068841 0.8171643 0.054596156 11969680
-0.028162479 0.81761342 0.054593816 12035473
-0.028256103 0.81806254 0.054591477 12035473
-0.028349727 0.81851166 0.054589137 11969680
-0.027651355 0.81933582 0.054061189 12035473
-0.027745306 0.81978655 0.054058835 12035473
-0.027839273 0.82023728 0.054056481 12035473
-0.02793324 0.82068795 0.054054141 12101266
-0.028027207 0.82113868 0.054051787 12101266
-0.028121158 0.82158941 0.054049447 12101266
-0.028215125 0.82204014 0.054047093 12101266
-0.028309077 0.82249081 0.054044753 12101266
-0.028403044 0.82294154 0.054042399 12101266
-0.027707979 0.82378173 0.053514361 12035473
-0.027802274 0.82423407 0.053512007 12232852
-0.027896568 0.82468635 0.053509653 12101266
-0.027990863 0.82513869 0.053507298 12232852
-0.028085157 0.82559097 0.053504944 12299158
-0.028179452 0.82604331 0.053502575 12299158
-0.028273746 0.82649565 0.05350022 12364697
-0.028368041 0.82694793 0.053497866 12364697
-0.027676016 0.82780248 0.052969754 12496283
-0.027770638 0.82825637 0.052967384 12496283
-0.027865261 0.82871032 0.05296503 12693664
-0.027959898 0.82916427 0.052962661 12825250
-0.02805452 0.82961816 0.052960292 12760227
-0.028149158 0.83007205 0.052957937 13023399
-0.027886853 0.7463845 0.064241067 6905161
-0.027974814 0.74680644 0.064238876 6905161
-0.028062776 0.74722838 0.064236671 6905161
-0.028994843 0.74752128 0.064757392 6970954
-0.029082477 0.74794161 0.064755201 6905931
-0.029170111 0.74836195 0.064753011 6971724
-0.029257745 0.74878234 0.06475082 7102540
-0.029345363 0.74920267 0.06474863 7299919
-0.029432997 0.749623 0.064746439 7693394
-0.030362755 0.74990469 0.065267205 7956566
-0.030450046 0.75032341 0.065265015 8153945
-0.030537337 0.7507422 0.065262839 8417117
-0.030624643 0.75116098 0.065260649 8746588
-0.030711934 0.7515797 0.065258473 9009760
-0.03079924 0.75199848 0.065256298 9141346
-0.030886531 0.75241721 0.065254107 9470311
-0.030973837 0.75283599 0.065251932 9864815
-0.031061128 0.75325471 0.065249741 10259573
-0.031148419 0.75367349 0.065247566 10916476
-0.031235725 0.75409222 0.065245375 11179648
-0.031323016 0.754511 0.065243199 11443334
-0.031410322 0.75492972 0.065241024 11772299
-0.031497613 0.7553485 0.065238833 11772812
-0.031584918 0.75576723 0.065236658 11838605
-0.03167221 0.75618601 0.065234467 11641996
-0.031759501 0.75660473 0.065232292 11707789
-0.031846806 0.75702351 0.065230116 11576457
-0.031934097 0.75744224 0.065227926 11642250
-0.032021403 0.75786102 0.06522575 11707273
-0.032108694 0.75827974 0.06522356 11575687
-0.03136088 0.75887072 0.064698264 11707019
-0.031448513 0.75929111 0.064696074 11575433
-0.031536132 0.75971144 0.064693883 11707019
-0.031623766 0.76013184 0.064691693 11707019
-0.0317114 0.76055217 0.064689502 11707273
-0.031799033 0.7609725 0.064687312 11707273
-0.031886667 0.76139283 0.064685121 11707273
-0.031974286 0.76181322 0.064682931 11707273
-0.03206192 0.76223356 0.06468074 11707273
-0.031317443 0.76284051 0.06415534 11575687
-0.031405404 0.76326251 0.064153135 11707273
-0.031493366 0.76368445 0.064150944 11575687
-0.031581342 0.76410639 0.064148739 11707273
-0.031669304 0.76452833 0.064146549 11773066
-0.031757265 0.76495028 0.064144343 11707273
-0.031845227 0.76537222 0.064142153 11707273
-0.031933188 0.76579416 0.064139947 11642250
-0.031191692 0.76641554 0.063614473 11642250
-0.031279981 0.76683909 0.063612267 11707273
-0.031368285 0.76726264 0.063610062 11575687
-0.031456575 0.76768619 0.063607857 11575687
-0.031544879 0.76810974 0.063605636 11575687
-0.031633168 0.76853329 0.063603431 11575687
-0.031721473 0.76895684 0.063601226 11707273
-0.031809762 0.76938039 0.06359902 11773066
-0.031898066 0.76980394 0.063596815 11707273
-0.031986356 0.77022749 0.063594609 11773066
-0.03207466 0.77065104 0.063592404 11773066
-0.031337172 0.77129155 0.063066825 11773066
-0.031425804 0.77171671 0.063064605 11773066
-0.031514436 0.77214187 0.0630624 11838859
-0.031603068 0.77256703 0.063060179 11838859
-0.0316917 0.77299213 0.063057959 11707273
-0.031780332 0.77341729 0.063055754 11575687
-0.031868964 0.77384245 0.063053533 11773066
-0.031957597 0.77426761 0.063051313 11575687
-0.032046214 0.77469277 0.063049108 11575687
-0.031312034 0.77534926 0.06252344 11838859
-0.031400993 0.77577603 0.062521219 11642250
-0.031489953 0.7762028 0.062518999 11379078
-0.030757144 0.77686572 0.061993301 11379078
-0.030846447 0.77729404 0.061991066 11379078
-0.030935735 0.77772236 0.061988831 11444871
-0.031025037 0.77815074 0.06198661 11313285
-0.031114325 0.77857906 0.061984375 11181445
-0.030383483 0.77925158 0.061458632 10984066
-0.030473113 0.7796815 0.061456382 11115654
-0.030562744 0.78011143 0.061454147 11115654
-0.030652374 0.78054142 0.061451912 11115654
-0.030742005 0.78097135 0.061449662 10391931
-0.030831635 0.78140128 0.061447427 10457724
-0.030103147 0.782085 0.060921624 10457724
-0.03019312 0.78251654 0.060919374 10721409
-0.030283079 0.78294808 0.060917124 11116167
-0.030373037 0.78337961 0.060914874 10920331
-0.03046301 0.78381115 0.060912624 11446675
-0.030552968 0.78424269 0.060910389 11777697
-0.030642927 0.78467423 0.060908139 12106662
-0.0307329 0.78510576 0.060905889 12108207
-0.030007362 0.78580385 0.060380012 12634551
-0.030097663 0.786237 0.060377747 12701627
-0.030187964 0.78667009 0.060375497 12899006
-0.030278251 0.7871033 0.060373232 12898752
-0.030368552 0.78753638 0.060370982 12898752
-0.030458853 0.78796953 0.060368732 12570816
-0.030549139 0.78840268 0.060366467 11715507
-0.03063944 0.78883582 0.060364217 10465178
-0.030729741 0.78926897 0.060361952 10070420
-0.030007586 0.78998303 0.059836 9279619
-0.030098215 0.79041773 0.059833735 8161138
-0.030188844 0.79085249 0.05983147 8028523
-0.030279472 0.79128724 0.059829205 7896937
-0.030370101 0.79172194 0.05982694 8224105
-0.03046073 0.7921567 0.059824675 8289898
-0.029740915 0.79288197 0.059298664 9012336
-0.029831871 0.79331827 0.059296384 9341301
-0.029922843 0.79375464 0.059294119 9472374
-0.0300138 0.79419094 0.05929184 9998718
-0.030104756 0.79462731 0.059289575 10195581
-0.030195728 0.79506361 0.059287295 10656132
-0.030286685 0.79549992 0.05928503 10589569
-0.030377656 0.79593629 0.05928275 10655362
-0.029660791 0.79667592 0.058756635 10918021
-0.029752076 0.79711384 0.058754355 10983814
-0.029843375 0.79755181 0.058752075 11115400
-0.029934675 0.79798973 0.058749795 11115400
-0.030025974 0.79842764 0.058747515 11246986
-0.030117273 0.79886556 0.058745235 11312779
-0.030208558 0.79930353 0.058742955 11509388
-0.030299857 0.79974145 0.058740675 11443595
-0.030391157 0.80017936 0.058738396 11443849
-0.029677659 0.80093503 0.058212221 11509642
-0.029769301 0.80137455 0.058209941 11509642
-0.029860929 0.80181408 0.058207646 11443849
-0.029952556 0.8022536 0.058205351 11443849
-0.030044183 0.80269313 0.058203071 11575435
-0.03013581 0.80313265 0.058200777 11575435
-0.030227438 0.80357218 0.058198482 11707021
-0.030319065 0.8040117 0.058196202 11707021
-0.029608548 0.80478173 0.057669923 11575435
-0.029700518 0.80522287 0.057667628 11707021
-0.029792473 0.805664 0.057665333 11707021
-0.029884443 0.80610514 0.057663038 11772814
-0.029976398 0.80654627 0.057660729 11772814
-0.030068368 0.8069874 0.057658434 11838607
-0.030160323 0.80742854 0.057656139 11707021
-0.030252293 0.80786967 0.057653844 11772814
-0.030344248 0.80831075 0.057651535 11772814
-0.029637098 0.80909675 0.057125226 11707021
-0.029729381 0.8095395 0.057122916 11904400
-0.029821679 0.80998224 0.057120606 11838607
-0.029913977 0.81042492 0.057118297 11904400
-0.030006275 0.81086767 0.057115987 11904398
-0.029301077 0.81166327 0.056589589 11838605
-0.029393703 0.81210756 0.056587279 11903885
-0.029486328 0.81255192 0.056584954 11903885
-0.029578954 0.81299627 0.056582645 11903885
-0.02967158 0.81344056 0.056580335 11969678
-0.029764205 0.81388485 0.05657801 11969680
-0.029061392 0.81469166 0.056051582 12035473
-0.029154345 0.81513757 0.056049258 12035473
-0.029247314 0.81558347 0.056046933 12035473
-0.028545812 0.81639665 0.05552046 12035473
-0.028639108 0.81684417 0.055518135 12035473
-0.028732404 0.81729174 0.055515796 12101264
-0.0288257 0.81773925 0.055513471 12101264
-0.028918996 0.81818676 0.055511132 11904398
-0.028219476 0.81900954 0.054984614 11970191
-0.0283131 0.8194586 0.05498226 11970193
-0.028406724 0.81990772 0.05497992 11970193
-0.028500363 0.82035685 0.054977581 12035986
-0.028593987 0.82080597 0.054975241 12035986
-0.028687611 0.82125509 0.054972902 12035986
-0.02878125 0.82170421 0.054970562 12035986
-0.028874874 0.82215333 0.054968223 12035986
-0.028968498 0.82260245 0.054965883 12035986
-0.028272331 0.82344121 0.054439276 11970193
-0.028366283 0.82389194 0.054436922 12167572
-0.028460249 0.82434261 0.054434583 12035986
-0.028554201 0.82479334 0.054432228 12035986
-0.028648168 0.82524407 0.054429889 12299158
-0.028742135 0.8256948 0.054427534 12299158
-0.028048277 0.8265447 0.053900868 12364697
-0.028142571 0.82699704 0.053898513 12364697
-0.028236866 0.82744932 0.053896159 12496283
-0.028331161 0.82790166 0.05389379 12496283
-0.028425455 0.828354 0.053891435 12693664
-0.02851975 0.82880628 0.053889081 12825250
-0.028614044 0.82925862 0.053886726 12826020
-0.028708339 0.82971096 0.053884372 13023399
-0.028017506 0.83057523 0.053357631 13155246
-0.028112128 0.83102918 0.053355262 13418418
-0.028206766 0.83148307 0.053352892 13681590
-0.027676508 0.74643028 0.064614818 6905161
-0.027764484 0.74685228 0.064612612 6905161
-0.027852446 0.74727422 0.064610422 6905161
-0.028785303 0.74756688 0.065129712 6970954
-0.028872937 0.74798727 0.065127522 7036747
-0.028960571 0.7484076 0.065125331 7102540
-0.02904819 0.74882793 0.065123141 7102540
-0.029135823 0.74924827 0.06512095 7299919
-0.029223457 0.74966866 0.06511876 7628371
-0.030154005 0.74995017 0.06563811 7825750
-0.030241296 0.75036889 0.065635934 8023129
-0.030328602 0.75078768 0.065633744 8352094
-0.030415893 0.7512064 0.065631568 8746588
-0.030503184 0.75162518 0.065629378 9009760
-0.03059049 0.7520439 0.065627202 9141346
-0.030677781 0.75246269 0.065625027 9404518
-0.030765086 0.75288141 0.065622836 9930349
-0.030852377 0.75330019 0.065620661 10325107
-0.030939683 0.75371891 0.06561847 10785658
-0.031026974 0.75413769 0.065616295 11048830
-0.03111428 0.75455642 0.065614119 11443334
-0.031201571 0.7549752 0.065611929 11640713
-0.031288862 0.75539392 0.065609753 11772812
-0.031376168 0.7558127 0.065607563 11838605
-0.031463459 0.75623143 0.065605387 11641996
-0.031550765 0.75665021 0.065603212 11641996
-0.031638056 0.75706893 0.065601021 11642250
-0.031725362 0.75748771 0.065598845 11576457
-0.031812653 0.75790644 0.065596655 11707019
-0.031899944 0.75832522 0.065594479 11575433
-0.031151325 0.75891638 0.065070584 11707019
-0.031238958 0.75933671 0.065068394 11707019
-0.031326592 0.7597571 0.065066203 11772812
-0.031414226 0.76017743 0.065064013 11707019
-0.031501859 0.76059777 0.065061823 11707019
-0.031589478 0.76101816 0.065059632 11707019
-0.031677112 0.76143849 0.065057442 11707019
-0.031764746 0.76185882 0.065055266 11772812
-0.031852379 0.76227921 0.065053076 11707019
-0.031107098 0.76288635 0.064529076 11575433
-0.031195074 0.76330829 0.064526886 11707273
-0.031283036 0.76373023 0.06452468 11575687
-0.031370997 0.76415217 0.06452249 11707273
-0.031458959 0.76457411 0.064520285 11773066
-0.031546921 0.76499611 0.064518094 11707273
-0.031634882 0.76541805 0.064515889 11707273
-0.031722844 0.76583999 0.064513698 11773066
-0.030980542 0.76646155 0.063989624 11707273
-0.031068847 0.7668851 0.063987419 11575685
-0.031157136 0.76730859 0.063985214 11575685
-0.03124544 0.76773214 0.063983008 11707271
-0.03133373 0.76815569 0.063980803 11575685
-0.031422034 0.76857924 0.063978598 11575685
-0.031510323 0.7690028 0.063976392 11575685
-0.031598628 0.76942635 0.063974187 11707271
-0.031686932 0.7698499 0.063971981 11707271
-0.031775221 0.77027345 0.063969776 11707273
-0.031863526 0.770697 0.063967556 11707273
-0.031125247 0.77133775 0.063443393 11773066
-0.03121388 0.77176285 0.063441187 11838859
-0.031302512 0.77218801 0.063438967 11838859
-0.031391129 0.77261317 0.063436761 11773066
-0.031479761 0.77303833 0.063434541 11707273
-0.031568393 0.77346343 0.063432321 11707273
-0.031657025 0.77388859 0.063430116 11773066
-0.031745657 0.77431375 0.063427895 11707273
-0.031834289 0.77473891 0.063425675 11707273
-0.031099305 0.77539557 0.062901437 11838859
-0.031188264 0.77582234 0.062899217 11773066
-0.031277224 0.77624911 0.062896982 11575687
-0.03054361 0.77691221 0.062372699 11707273
-0.030632913 0.77734053 0.062370479 11707273
-0.030722201 0.77776885 0.062368244 11773066
-0.030811504 0.77819723 0.062366009 11707273
-0.030900806 0.77862555 0.062363774 11575687
-0.030169159 0.77929825 0.061839446 11707273
-0.03025879 0.77972817 0.061837211 11707019
-0.03034842 0.7801581 0.061834976 11575433
-0.030438051 0.78058809 0.061832726 11509640
-0.030527681 0.78101802 0.061830491 11443847
-0.030617312 0.78144795 0.061828256 11114882
-0.029888034 0.78213179 0.061303869 11246468
-0.029977992 0.78256333 0.061301619 11246468
-0.03006795 0.78299487 0.061299369 11049089
-0.030157924 0.7834264 0.061297119 11114882
-0.030247882 0.783858 0.061294869 11114882
-0.03033784 0.78428954 0.061292619 10786687
-0.030427814 0.78472108 0.061290368 10457722
-0.030517772 0.78515261 0.061288118 10589823
-0.029791445 0.78585088 0.060763657 10721409
-0.029881746 0.78628397 0.060761407 10656648
-0.029972047 0.78671712 0.060759142 11117199
-0.030062333 0.78715026 0.060756892 11447962
-0.030152634 0.78758341 0.060754642 11711134
-0.030242935 0.78801656 0.060752377 12041642
-0.030333221 0.7884497 0.060750127 12304814
-0.030423522 0.78888285 0.060747862 12634549
-0.030513823 0.78931594 0.060745612 13095100
-0.029790863 0.79003018 0.060221061 13029822
-0.029881507 0.79046494 0.060218796 13029822
-0.029972136 0.79089969 0.060216531 12833213
-0.030062765 0.79133439 0.060214266 12701627
-0.030153394 0.79176915 0.060212001 12175283
-0.030244023 0.7922039 0.060209736 11319974
-0.029523402 0.79292929 0.059685141 10069137
-0.029614359 0.79336566 0.059682876 9213828
-0.029705331 0.79380196 0.059680596 8621178
-0.029796287 0.79423833 0.059678331 8160627
-0.029887259 0.79467463 0.059676051 7962478
-0.029978216 0.79511094 0.059673786 7830892
-0.030069172 0.79554731 0.059671506 8355691
-0.030160144 0.79598367 0.059669241 8618863
-0.029442474 0.79672348 0.059144542 8946032
-0.029533774 0.7971614 0.059142262 9143411
-0.029625073 0.79759932 0.059139982 9735030
-0.029716372 0.79803729 0.059137702 10195581
-0.029807657 0.79847521 0.059135422 10918534
-0.029898956 0.79891312 0.059133127 10852741
-0.029990256 0.79935104 0.059130847 10983814
-0.030081555 0.79978901 0.059128568 11115400
-0.030172855 0.80022693 0.059126288 11115400
-0.029458568 0.80098271 0.058601543 11246986
-0.029550195 0.80142224 0.058599249 11115400
-0.029641822 0.80186176 0.058596954 11181193
-0.029733449 0.80230129 0.058594674 11246986
-0.029825076 0.80274081 0.058592379 11312779
-0.029916704 0.80318034 0.058590084 11313033
-0.030008331 0.80361992 0.058587804 11313033
-0.030099958 0.80405945 0.05858551 11575435
-0.029388651 0.8048296 0.058060661 11378056
-0.029480606 0.80527073 0.058058366 11509642
-0.029572576 0.80571187 0.058056056 11707021
-0.029664531 0.806153 0.058053762 11707021
-0.029756501 0.80659413 0.058051467 11707021
-0.029848456 0.80703527 0.058049172 11772814
-0.029940426 0.8074764 0.058046862 11575435
-0.030032381 0.80791754 0.058044568 11707021
-0.030124351 0.80835867 0.058042273 11707021
-0.029416397 0.80914479 0.057517365 11707021
-0.02950868 0.80958754 0.057515055 11904400
-0.029600978 0.81003028 0.05751276 11772814
-0.029693276 0.81047297 0.05751045 11838607
-0.029785573 0.81091571 0.057508141 11904400
-0.029079571 0.81171149 0.056983158 11838607
-0.029172197 0.81215584 0.056980833 11838605
-0.029264838 0.81260014 0.056978524 11772812
-0.029357463 0.81304443 0.056976214 11903885
-0.029450089 0.81348878 0.056973889 11969678
-0.029542714 0.81393313 0.05697158 11969680
-0.028839096 0.81474006 0.056446567 11969680
-0.02893205 0.81518596 0.056444243 11969680
-0.029025018 0.81563187 0.056441918 11969680
-0.028322726 0.81644523 0.055916861 12035473
-0.028416023 0.81689274 0.055914521 12035473
-0.028509319 0.81734025 0.055912197 12035986
-0.028602615 0.81778777 0.055909857 11970193
-0.028695911 0.81823534 0.055907533 11970193
-0.027995586 0.81905824 0.055382416 11970193
-0.02808921 0.81950736 0.055380076 12035986
-0.028182849 0.81995648 0.055377737 12035986
-0.028276473 0.8204056 0.055375397 12035986
-0.028370097 0.82085472 0.055373058 12167572
-0.028463721 0.82130384 0.055370718 12035986
-0.02855736 0.82175297 0.055368379 12035986
-0.028650984 0.82220209 0.055366039 12035986
-0.028744608 0.82265121 0.0553637 12035986
-0.028047636 0.82349014 0.054838508 12035986
-0.028141603 0.82394087 0.054836154 12035986
-0.02823557 0.82439154 0.0548338 12035986
-0.028329521 0.82484227 0.05483146 12167572
-0.028423488 0.825293 0.054829106 12299158
-0.028517455 0.82574373 0.054826766 12299158
-0.027822793 0.82659382 0.054301515 12298904
-0.027917087 0.82704616 0.054299146 12364697
-0.028011382 0.82749844 0.054296792 12496283
-0.028105676 0.82795078 0.054294437 12496283
-0.028199971 0.82840312 0.054292083 12693664
-0.028294265 0.8288554 0.054289728 12825250
-0.02838856 0.82930773 0.054287374 12826020
-0.028482854 0.82976002 0.054285005 13023399
-0.027791232 0.83062452 0.053759679 13155500
-0.027885854 0.83107841 0.053757325 13418672
-0.027980477 0.83153236 0.053754956 13746870
-0.027466178 0.74647611 0.064988554 6905161
-0.027554139 0.74689806 0.064986363 6839368
-0.027642101 0.74732 0.064984158 6839368
-0.028575763 0.74761254 0.065502048 6970954
-0.028663397 0.74803287 0.065499857 7036747
-0.028751016 0.7484532 0.065497667 7102540
-0.028838649 0.74887359 0.065495476 7102540
-0.028926283 0.74929392 0.065493286 7299919
-0.029013917 0.74971426 0.065491095 7628371
-0.029945254 0.74999559 0.06600903 7825750
-0.030032545 0.75041437 0.066006839 8023129
-0.030119851 0.75083309 0.066004664 8286301
-0.030207142 0.75125188 0.066002473 8746334
-0.030294448 0.7516706 0.066000298 9009506
-0.030381739 0.75208938 0.065998122 9141346
-0.030469045 0.7525081 0.065995932 9404518
-0.030556336 0.75292689 0.065993756 9865069
-0.030643627 0.75334561 0.065991566 10259827
-0.030730933 0.75376439 0.06598939 10654072
-0.030818224 0.75418311 0.065987214 11048830
-0.03090553 0.7546019 0.065985024 11443334
-0.030992821 0.75502062 0.065982848 11640713
-0.031080127 0.7554394 0.065980658 11772812
-0.031167418 0.75585812 0.065978482 11838605
-0.031254709 0.75627691 0.065976292 11838605
-0.031342015 0.75669563 0.065974116 11838605
-0.031429306 0.75711441 0.065971941 11838605
-0.031516612 0.75753313 0.06596975 11707019
-0.031603903 0.75795192 0.065967575 11707019
-0.031691208 0.75837064 0.065965384 11707019
-0.030941784 0.75896198 0.06544292 11707019
-0.031029418 0.75938237 0.065440729 11772812
-0.031117052 0.7598027 0.065438539 11838605
-0.031204686 0.76022303 0.065436348 11838605
-0.031292304 0.76064342 0.065434158 11707019
-0.031379938 0.76106375 0.065431967 11707019
-0.031467572 0.76148409 0.065429777 11707019
-0.031555206 0.76190448 0.065427586 11772812
-0.031642824 0.76232481 0.065425396 11707019
-0.030896768 0.76293212 0.064902827 11575433
-0.03098473 0.76335406 0.064900622 11575687
-0.031072691 0.76377606 0.064898431 11509894
-0.031160653 0.76419801 0.064896226 11707273
-0.031248614 0.76461995 0.064894035 11707273
-0.031336576 0.76504189 0.06489183 11575687
-0.031424552 0.76546383 0.06488964 11707273
-0.031512514 0.76588577 0.064887434 11707271
-0.030769408 0.76650751 0.064364791 11707271
-0.030857712 0.76693106 0.064362586 11575685
-0.030946001 0.76735461 0.06436038 11575685
-0.031034306 0.76777816 0.064358175 11707271
-0.031122595 0.76820171 0.064355955 11575685
-0.031210899 0.76862526 0.064353749 11575685
-0.031299189 0.76904881 0.064351544 11575685
-0.031387493 0.76947236 0.064349338 11707271
-0.031475782 0.76989591 0.064347133 11707271
-0.031564087 0.7703194 0.064344928 11575685
-0.031652376 0.77074295 0.064342722 11575685
-0.030913308 0.77138388 0.063819975 11773064
-0.03100194 0.77180904 0.063817754 11773064
-0.031090572 0.77223414 0.063815549 11773064
-0.031179205 0.7726593 0.063813329 11773064
-0.031267837 0.77308446 0.063811108 11707273
-0.031356454 0.77350962 0.063808903 11707273
-0.031445086 0.77393472 0.063806683 11838344
-0.031533718 0.77435988 0.063804477 11640965
-0.03162235 0.77478504 0.063802257 11640965
-0.030886561 0.77544188 0.06327942 11904137
-0.030975536 0.77586865 0.0632772 11773066
-0.031064495 0.77629542 0.06327498 11575687
-0.030330092 0.7769587 0.062752113 11707273
-0.030419379 0.77738702 0.062749878 11773066
-0.030508682 0.77781534 0.062747642 11838859
-0.03059797 0.77824372 0.062745422 11773066
-0.030687273 0.77867204 0.062743187 11773066
-0.029954836 0.77934492 0.062220275 11773066
-0.030044466 0.77977484 0.062218025 11773066
-0.030134097 0.78020477 0.06221579 11773066
-0.030223727 0.78063476 0.062213555 11707273
-0.030313358 0.78106469 0.06221132 11707273
-0.030402988 0.78149462 0.06220907 11575687
-0.029672906 0.78217864 0.061686099 11707273
-0.029762879 0.78261018 0.061683849 11707273
-0.029852837 0.78304172 0.061681598 11509894
-0.029942796 0.78347325 0.061679348 11575174
-0.030032769 0.78390479 0.061677113 11443588
-0.030122727 0.78433633 0.061674863 11509381
-0.030212685 0.78476787 0.061672613 11443588
-0.030302644 0.7851994 0.061670363 11246722
-0.029575527 0.78589785 0.061147317 11312515
-0.029665828 0.786331 0.061145052 11509640
-0.029756129 0.78676414 0.061142802 11246468
-0.029846415 0.78719729 0.061140552 10984068
-0.029936716 0.78763044 0.061138287 10786689
-0.030027017 0.78806353 0.061136037 10852995
-0.030117303 0.78849667 0.061133772 10787202
-0.030207604 0.78892982 0.061131522 10589823
-0.030297905 0.78936297 0.061129257 10918788
-0.029574156 0.79007739 0.060606137 10985611
-0.029664785 0.79051208 0.060603872 11511955
-0.029755414 0.79094684 0.060601607 12104605
-0.029846042 0.7913816 0.060599342 12236191
-0.029936671 0.79181635 0.060597077 12501420
-0.0300273 0.79225105 0.060594812 13159350
-0.02930589 0.79297668 0.060071632 13094330
-0.029396847 0.79341298 0.060069367 13225916
-0.029487818 0.79384935 0.060067087 13489606
-0.029578775 0.79428566 0.060064808 13621192
-0.029669747 0.79472202 0.060062543 13096644
-0.029760703 0.79515833 0.060060263 12767679
-0.02985166 0.79559469 0.060057998 11912370
-0.029942632 0.796031 0.060055718 10859682
-0.029224172 0.79677099 0.059532449 10135446
-0.029315472 0.79720891 0.059530154 9016965
-0.029406756 0.79764688 0.059527874 8423029
-0.029498056 0.7980848 0.059525594 7962478
-0.029589355 0.79852271 0.059523314 7960933
-0.029680654 0.79896069 0.059521034 8158312
-0.029771939 0.7993986 0.059518754 8815729
-0.029863238 0.79983652 0.059516475 8749936
-0.029954538 0.80027449 0.059514195 9275510
-0.029239461 0.8010304 0.058990851 9407096
-0.029331088 0.80146992 0.058988571 9801341
-0.029422715 0.80190951 0.058986276 10327685
-0.029514343 0.80234903 0.058983982 10590341
-0.02960597 0.80278856 0.058981702 10656134
-0.029697597 0.80322808 0.058979407 10983814
-0.029789224 0.8036676 0.058977112 10983814
-0.029880852 0.80410713 0.058974832 11246470
-0.02916874 0.80487752 0.058451384 11246470
-0.02926071 0.80531859 0.05844909 11247240
-0.029352665 0.80575979 0.058446795 11247240
-0.029444635 0.80620086 0.0584445 11313033
-0.02953659 0.806642 0.05844219 11378826
-0.02962856 0.80708313 0.058439896 11444619
-0.029720515 0.80752426 0.058437601 11378826
-0.029812485 0.8079654 0.058435306 11575435
-0.02990444 0.80840653 0.058433011 11707021
-0.029195696 0.8091929 0.057909518 11706767
-0.029287994 0.80963558 0.057907209 11772560
-0.029380277 0.81007832 0.057904899 11772814
-0.029472575 0.81052107 0.057902589 11772814
-0.029564872 0.81096375 0.057900295 11838607
-0.028858081 0.81175971 0.057376713 11838607
-0.028950706 0.812204 0.057374403 11772814
-0.029043332 0.81264836 0.057372093 11838607
-0.029135972 0.81309271 0.057369769 11904400
-0.029228598 0.813537 0.057367459 11838607
-0.029321223 0.81398135 0.057365149 11838607
-0.028616801 0.81478846 0.056841537 11838607
-0.028709769 0.81523436 0.056839228 11904400
-0.028802723 0.81568027 0.056836903 11904400
-0.028099641 0.81649381 0.056313246 11904400
-0.028192937 0.81694132 0.056310922 11904400
-0.028286234 0.81738883 0.056308582 11970193
-0.02837953 0.8178364 0.056306258 11970193
-0.028472811 0.81828392 0.056303933 11970193
-0.027771696 0.819107 0.055780232 11970193
-0.027865335 0.81955612 0.055777892 12035986
-0.027958959 0.82000524 0.055775553 12035986
-0.028052583 0.82045436 0.055773214 12035986
-0.028146207 0.82090348 0.055770874 12167572
-0.028239846 0.8213526 0.055768535 12167572
-0.02833347 0.82180172 0.055766195 12167572
-0.028427094 0.82225084 0.055763856 12035986
-0.028520733 0.82269996 0.055761516 11970193
-0.027822956 0.82353902 0.055237725 12035986
-0.027916923 0.82398975 0.055235386 12035986
-0.028010875 0.82444048 0.055233032 12035986
-0.028104842 0.82489121 0.055230692 12167572
-0.028198808 0.82534194 0.055228338 12233365
-0.02829276 0.82579267 0.055225983 12233365
-0.027597308 0.82664293 0.054702148 12233111
-0.027691603 0.82709521 0.054699793 12364697
-0.027785897 0.82754755 0.054697439 12430492
-0.027880192 0.82799983 0.054695085 12430492
-0.027974486 0.82845217 0.05469273 12693664
-0.028068781 0.82890451 0.054690361 12759457
-0.028163075 0.82935679 0.054688007 12694434
-0.02825737 0.82980913 0.054685652 12957606
-0.027564943 0.83067381 0.054161742 13155500
-0.02765958 0.8311277 0.054159373 13418672
-0.027754202 0.83158159 0.054157004 13681590
-0.028103322 0.74639708 0.065880939 6905415
-0.028190956 0.74681741 0.065878749 6708036
-0.028278589 0.7472378 0.065876558 6839368
-0.029212713 0.74752855 0.066393033 6905161
-0.029300019 0.74794728 0.066390842 6970954
-0.02938731 0.74836606 0.066388667 7036747
-0.029474616 0.74878478 0.066386476 7102540
-0.029561907 0.74920356 0.066384301 7168333
-0.029649213 0.74962229 0.06638211 7562578
-0.030581027 0.74990183 0.066898674 7825750
-0.03066799 0.750319 0.066896498 8023129
-0.030754954 0.75073612 0.066894323 8286301
-0.030841917 0.75115329 0.066892147 8680541
-0.03092888 0.75157046 0.066889971 9009506
-0.031015843 0.75198764 0.066887796 9141346
-0.031102806 0.75240475 0.066885635 9536104
-0.03118977 0.75282192 0.06688346 9930608
-0.031276748 0.7532391 0.066881284 10325366
-0.031363711 0.75365621 0.066879109 10720124
-0.031450674 0.75407338 0.066876933 10983296
-0.031537637 0.75449055 0.066874757 11443334
-0.0316246 0.75490767 0.066872582 11640713
-0.031711563 0.75532484 0.066870421 11772814
-0.031798527 0.75574201 0.066868246 11838607
-0.03188549 0.75615919 0.06686607 11838607
-0.031972453 0.7565763 0.066863894 11904400
-0.032059416 0.75699347 0.066861719 11904398
-0.031307861 0.75757861 0.06634067 11707019
-0.031395152 0.75799733 0.06633848 11772812
-0.031482458 0.75841612 0.066336304 11707019
-0.031569749 0.75883484 0.066334128 11707019
-0.031657055 0.75925362 0.066331938 11707019
-0.031744346 0.75967234 0.066329762 11707019
-0.031831652 0.76009113 0.066327572 11707019
-0.031918943 0.76050985 0.066325396 11707019
-0.032006234 0.76092863 0.066323206 11707019
-0.031258032 0.76152974 0.065802112 11707019
-0.031345651 0.76195008 0.065799922 11707019
-0.031433284 0.76237041 0.065797731 11575433
-0.031520918 0.7627908 0.065795541 11575433
-0.031608552 0.76321113 0.06579335 11575433
-0.031696185 0.76363146 0.06579116 11509640
-0.031783804 0.76405185 0.065788969 11575687
-0.031871438 0.76447219 0.065786779 11575687
-0.031126246 0.76508766 0.065265581 11575687
-0.031214207 0.76550961 0.065263376 11575687
-0.031302169 0.76593161 0.065261185 11707273
-0.031390131 0.76635355 0.06525898 11575687
-0.031478092 0.76677549 0.065256789 11575687
-0.031566054 0.76719743 0.065254584 11575687
-0.03165403 0.76761937 0.065252393 11575687
-0.031741992 0.76804131 0.065250188 11575687
-0.031829953 0.76846325 0.065247998 11509894
-0.031088054 0.76909477 0.06472671 11509894
-0.031176358 0.76951832 0.064724505 11575685
-0.031264648 0.76994187 0.0647223 11707271
-0.031352952 0.77036542 0.064720094 11575685
-0.031441242 0.77078897 0.064717874 11575685
-0.031529546 0.77121252 0.064715669 11707271
-0.031617835 0.77163607 0.064713463 11707271
-0.031706139 0.77205956 0.064711258 11640965
-0.031794429 0.77248311 0.064709052 11640965
-0.031882733 0.77290666 0.064706847 11772551
-0.031971022 0.77333021 0.064704642 11772551
-0.031233162 0.77398092 0.064183265 11772551
-0.031321794 0.77440602 0.064181045 11575172
-0.031410411 0.77483118 0.064178824 11640965
-0.031499043 0.77525634 0.064176619 11838344
-0.031587675 0.7756815 0.064174399 11838344
-0.031676307 0.7761066 0.064172179 11640965
-0.030940726 0.77676845 0.063650742 11640967
-0.031029686 0.77719522 0.063648522 11640967
-0.031118646 0.77762198 0.063646302 11838346
-0.031207621 0.77804869 0.063644081 11838346
-0.031296581 0.77847546 0.063641846 11904139
-0.030563042 0.77914691 0.063120365 11904139
-0.030652344 0.77957523 0.06311813 11969932
-0.030741632 0.78000355 0.063115895 11838346
-0.030830935 0.78043193 0.063113675 11707273
-0.030920222 0.78086025 0.063111439 11773066
-0.031009525 0.78128862 0.063109204 11707273
-0.030278295 0.78197122 0.062587649 11773066
-0.030367926 0.78240114 0.062585413 11838346
-0.030457556 0.78283107 0.062583178 11772553
-0.030547172 0.78326106 0.062580928 11772553
-0.030636817 0.78369099 0.062578693 11772553
-0.030726433 0.78412092 0.062576458 11772553
-0.029997572 0.78481472 0.062054843 11640967
-0.030087531 0.78524625 0.062052608 11838346
-0.030177489 0.78567779 0.062050357 11904139
-0.030267447 0.78610933 0.062048107 11904652
-0.03035742 0.78654087 0.062045857 11575687
-0.030447379 0.7869724 0.062043607 11313031
-0.030537337 0.78740394 0.062041357 11247238
-0.03062731 0.78783548 0.062039107 11378054
-0.029901385 0.7885437 0.061517432 11312261
-0.029991686 0.78897685 0.061515167 11114882
-0.030081987 0.78941 0.061512917 11114882
-0.030172274 0.78984314 0.061510652 11114369
-0.030262575 0.79027629 0.061508402 10916990
-0.030352876 0.79070938 0.061506152 10851710
-0.030443162 0.79114252 0.061503887 10917503
-0.030533463 0.79157567 0.061501637 10786689
-0.030623764 0.79200882 0.061499372 10852482
-0.029901221 0.79273295 0.060977608 10590339
-0.02999185 0.79316771 0.060975343 10985097
-0.030082479 0.79360247 0.060973078 11250070
-0.030173108 0.79403722 0.060970813 11710621
-0.030263737 0.79447192 0.060968548 12040872
-0.030354366 0.79490668 0.060966283 12698802
-0.030444995 0.79534137 0.060964018 12831930
-0.030535623 0.79577613 0.060961753 13292481
-0.029816076 0.79651469 0.060439929 13359303
-0.029907048 0.79695106 0.060437664 13622475
-0.029998004 0.79738736 0.060435385 13359816
-0.030088961 0.79782367 0.06043312 13096644
-0.030179933 0.79826003 0.06043084 12636347
-0.030270889 0.7986964 0.06042856 12175796
-0.030361861 0.7991327 0.060426295 11253929
-0.030452818 0.79956901 0.060424015 10135448
-0.030543774 0.80000538 0.06042175 9016715
-0.02982752 0.80075991 0.059899807 8227199
-0.02991882 0.80119789 0.059897527 7962994
-0.030010119 0.8016358 0.059895247 7568236
-0.030101418 0.80207372 0.059892967 8290414
-0.030192703 0.80251163 0.059890687 8356207
-0.030284002 0.80294955 0.059888408 8880752
-0.030375302 0.80338752 0.059886113 9341303
-0.030466601 0.80382544 0.059883833 10129790
-0.029753387 0.8045944 0.05936186 9800825
-0.029845014 0.80503392 0.059359565 10655364
-0.029936641 0.80547345 0.059357271 10786950
-0.030028269 0.80591297 0.059354991 11181706
-0.030119896 0.8063525 0.059352696 10918534
-0.030211523 0.80679202 0.059350401 11181193
-0.03030315 0.80723155 0.059348121 11181193
-0.030394793 0.80767107 0.059345827 11312779
-0.03048642 0.80811059 0.059343532 11246986
-0.029776499 0.80889553 0.05882144 11312779
-0.029868469 0.80933666 0.058819145 11378572
-0.029960424 0.8097778 0.058816835 11378572
-0.030052394 0.81021893 0.058814541 11378572
-0.030144349 0.81066006 0.058812246 11576205
-0.029436469 0.81145453 0.058290124 11444619
-0.029528767 0.81189728 0.058287829 11576205
-0.029621065 0.81234002 0.058285519 11576205
-0.029713362 0.81278276 0.05828321 11838607
-0.02980566 0.81322545 0.0582809 11838607
-0.029897943 0.81366819 0.05827859 11772814
-0.029192358 0.81447387 0.057756394 11772814
-0.029284984 0.81491822 0.057754084 11838607
-0.029377609 0.81536257 0.05775176 11838607
-0.029470235 0.81580687 0.05774945 11838353
-0.029562876 0.81625116 0.057747126 11904146
-0.029655501 0.81669551 0.057744816 11969939
-0.028952286 0.81751239 0.05722259 11969939
-0.029045239 0.8179583 0.057220265 11904400
-0.029138207 0.81840426 0.057217941 12035986
-0.029231161 0.81885016 0.057215616 12035986
-0.029324129 0.81929612 0.057213292 12035986
-0.02862291 0.82012254 0.056690991 12035986
-0.028716207 0.82057005 0.056688666 12167572
-0.028809503 0.82101762 0.056686327 11970193
-0.028902799 0.82146513 0.056684002 12035986
-0.028996095 0.82191265 0.056681663 12035986
-0.029089391 0.82236016 0.056679338 12167572
-0.028390467 0.82319784 0.056156978 12035986
-0.028484106 0.82364696 0.056154639 12035986
-0.02857773 0.82409608 0.056152299 12035986
-0.028671354 0.8245452 0.05614996 12167572
-0.028764978 0.82499433 0.05614762 12233365
-0.028858617 0.82544345 0.056145281 12167572
-0.028162047 0.82629228 0.055622861 12233111
-0.028255999 0.82674301 0.055620521 12364697
-0.028349966 0.82719368 0.055618167 12496285
-0.028443933 0.82764441 0.055615827 12364699
-0.028537884 0.82809514 0.055613473 12496285
-0.027843311 0.82895362 0.055091009 12693664
-0.027937606 0.8294059 0.055088654 12694436
-0.028031901 0.82985824 0.0550863 13023401
-0.028126195 0.83031052 0.055083945 13089453
-0.02822049 0.83076286 0.055081576 13418418
-0.028314784 0.8312152 0.055079222 13615797
-0.027893782 0.74644268 0.066253275 6905415
-0.027981415 0.74686307 0.066251084 6708036
-0.028069034 0.7472834 0.066248894 6707782
-0.029003978 0.74757397 0.066763937 6839368
-0.029091269 0.74799275 0.066761762 6970954
-0.029178575 0.74841148 0.066759571 7036747
-0.029265866 0.74883026 0.066757396 7102540
-0.029353157 0.74924898 0.066755205 7299919
