# .PCD v0.7 - Point Cloud Data file format
VERSION 0.7
FIELDS x y z rgb
SIZE 4 4 4 4
TYPE F F F U
COUNT 1 1 1 1
WIDTH 1103
HEIGHT 1
VIEWPOINT 0 0 0 1 0 0 0
POINTS 1103
DATA ascii
-0.015483905 0.74490798 0.036474019 5455405
-0.015909106 0.74495465 0.03647165 5455405
-0.016334314 0.74500132 0.036469266 5521198
-0.016759519 0.74504799 0.036466897 5455405
-0.017184719 0.74509466 0.036464512 5455405
-0.01760992 0.74514127 0.036462143 5521198
-0.018035129 0.74518794 0.036459759 5521198
-0.01846033 0.74523461 0.03645739 5521198
-0.018885531 0.74528122 0.036455005 5521198
-0.019310731 0.74532789 0.036452636 5521198
-0.019735936 0.74537456 0.036450252 5521198
-0.020161141 0.74542117 0.036447883 5455405
-0.020586342 0.74546784 0.036445498 5455405
-0.021011543 0.74551451 0.036443129 5389612
-0.021436743 0.74556118 0.036440745 5455405
-0.021861952 0.74560785 0.036438376 5455405
-0.022287153 0.74565446 0.036435992 5389612
-0.022712354 0.74570113 0.036433622 5521198
-0.023137555 0.7457478 0.036431238 5521198
-0.023562767 0.74579442 0.036428869 5455405
-0.023987968 0.74584109 0.036426485 5455405
-0.024413168 0.74588776 0.036424115 5455405
-0.024838369 0.74593437 0.036421731 5521198
-0.02526357 0.74598104 0.036419362 5521198
-0.025688779 0.74602771 0.036416978 5521198
-0.02611398 0.74607438 0.036414608 5521198
-0.02653918 0.74612105 0.036412224 5455659
-0.026964383 0.74616766 0.036409855 5521452
-0.027389588 0.74621433 0.036407471 5587245
-0.027814792 0.746261 0.036405101 5521452
-0.02823999 0.74630761 0.036402717 5455405
-0.028665194 0.74635428 0.036400348 5455405
-0.029090399 0.74640095 0.036397964 5455405
-0.029515604 0.74644756 0.03639558 5455405
-0.029940808 0.74649429 0.03639321 5455659
-0.030366005 0.7465409 0.036390841 5389866
0.049485285 0.74356359 0.032792479 5455657
0.048883557 0.74283409 0.033419877 5324071
0.048448615 0.74288177 0.033417434 5455657
0.048013676 0.74292952 0.033415005 5389864
0.047578733 0.74297726 0.033412576 5455657
0.047143795 0.74302495 0.033410147 5455657
0.046708856 0.74307269 0.033407718 5389866
0.046273913 0.74312043 0.033405274 5389866
0.045838974 0.74316812 0.033402845 5258794
0.045404036 0.74321586 0.033400416 5258794
0.044969093 0.7432636 0.033397987 5258794
0.044534154 0.74331129 0.033395559 5258794
0.04395191 0.74257964 0.034023046 5193001
0.043518592 0.74262714 0.034020633 5193001
0.043085273 0.74267471 0.034018204 5258794
0.042651955 0.74272227 0.03401579 5193001
0.04221864 0.74276984 0.034013361 5061415
0.041785322 0.74281734 0.034010947 5193001
0.041352008 0.74286491 0.034008518 5193001
0.040918689 0.74291241 0.034006089 5258794
0.040485371 0.74295998 0.034003675 5324587
0.040052053 0.74300754 0.034001261 5324587
0.039618734 0.74305511 0.033998832 5258794
0.039185416 0.74310261 0.033996403 5258794
0.038624268 0.74236864 0.034624025 5193001
0.038192574 0.74241602 0.034621611 5193001
0.03776088 0.74246335 0.034619197 5258794
0.037329186 0.74251074 0.034616783 5324587
0.036897492 0.74255812 0.034614369 5455659
0.036465798 0.74260545 0.034611955 5192487
0.036034103 0.74265283 0.034609541 5389866
0.035602409 0.74270022 0.034607127 5389866
0.035170712 0.74274755 0.034604728 5258794
0.034739017 0.74279493 0.034602314 5193001
0.034307323 0.74284232 0.0345999 5192747
0.033875629 0.74288964 0.034597486 5258540
0.033443935 0.74293703 0.034595072 5258540
0.033012241 0.74298441 0.034592658 5258540
0.032580547 0.74303174 0.034590244 5389612
0.032148853 0.74307913 0.03458783 5323819
0.031717159 0.74312651 0.034585416 5389612
0.031285465 0.74317384 0.034583002 5389612
0.030853771 0.74322122 0.034580588 5389612
0.030422077 0.74326861 0.034578174 5323819
0.029895009 0.74253094 0.035205975 5389612
0.029464938 0.74257809 0.035203576 5389612
0.029034866 0.7426253 0.035201162 5389612
0.028604794 0.74267244 0.035198763 5389612
0.028174723 0.74271965 0.035196364 5455405
0.027744653 0.74276686 0.03519395 5389612
0.027314579 0.74281406 0.035191551 5389612
0.02696852 0.74364758 0.034558862 5389612
0.026536826 0.7436949 0.034556448 5389612
0.02610513 0.74374229 0.034554049 5455405
0.025673436 0.74378967 0.034551635 5389612
0.025241742 0.743837 0.034549221 5389612
0.024810048 0.74388438 0.034546807 5389866
0.024378354 0.74393177 0.034544393 5389866
0.02394666 0.7439791 0.034541979 5389866
0.023514966 0.74402648 0.034539565 5389866
0.023083271 0.74407387 0.034537151 5389866
0.022651576 0.74412119 0.034534737 5324073
0.022219881 0.74416858 0.034532323 5258794
0.021788185 0.74421597 0.034529909 5324587
0.021293579 0.74347472 0.035157889 5389866
0.020863507 0.74352187 0.03515549 5389866
0.020433435 0.74356908 0.035153091 5520682
0.020003363 0.74361622 0.035150677 5454889
0.019573292 0.74366343 0.035148278 5454889
0.01914322 0.74371064 0.035145879 5454889
0.018713148 0.74375784 0.03514348 5520682
0.018283077 0.74380499 0.035141066 5520682
0.017853005 0.7438522 0.035138667 5389866
0.017422933 0.74389935 0.035136268 5389866
0.016992861 0.74394655 0.035133854 5389866
0.01656279 0.74399376 0.035131454 5389866
0.01613272 0.74404097 0.035129055 5258794
0.015702646 0.74408811 0.035126641 5258794
0.015272576 0.74413532 0.035124242 5455659
0.014842505 0.74418253 0.035121843 5324073
0.014412433 0.74422967 0.035119429 5324073
0.013947036 0.74348521 0.035747588 5389866
0.013518589 0.74353218 0.035745203 5389866
0.013090139 0.74357921 0.035742804 5389866
0.012661692 0.74362624 0.035740405 5389866
0.012233242 0.74367321 0.035738006 5455659
0.011804795 0.74372023 0.035735607 5389866
0.011376346 0.74376726 0.035733223 5389866
0.010947896 0.74381429 0.035730824 5389612
0.010519449 0.74386132 0.035728425 5389612
0.010090999 0.74390829 0.035726041 5323819
0.0096625518 0.74395531 0.035723642 5389612
0.0092341024 0.74400234 0.035721242 5389612
0.0088056549 0.74404931 0.035718858 5455405
0.0083772056 0.74409634 0.035716459 5389612
0.0079487562 0.74414337 0.03571406 5389612
0.0075093261 0.74339604 0.036342353 5455405
0.0070824991 0.74344289 0.036339968 5389612
0.006655674 0.74348968 0.036337584 5323819
0.0062288488 0.74353653 0.0363352 5455405
0.0058020237 0.74358338 0.036332816 5455405
0.0053751967 0.74363017 0.036330432 5455405
0.0049483716 0.74367702 0.036328048 5455405
0.0045215446 0.74372387 0.036325648 5455405
0.0040947194 0.74377072 0.036323264 5455405
0.0036678943 0.74381751 0.03632088 5455405
0.0032410673 0.74386436 0.036318496 5521198
0.0028142422 0.74391121 0.036316112 5389612
0.002387417 0.743958 0.036313727 5389612
0.0019605919 0.74400485 0.036311328 5455405
0.0015337649 0.74405169 0.036308944 5455659
0.0011069379 0.74409854 0.03630656 5521452
0.00068011275 0.74414533 0.036304176 5521452
0.00026989682 0.74339485 0.036932617 5389866
-0.00015530596 0.74344146 0.036930248 5455659
-0.00058050873 0.74348813 0.036927864 5455659
-0.0010057115 0.7435348 0.036925495 5455659
-0.0014309143 0.74358141 0.03692311 5389866
-0.0018561189 0.74362808 0.036920741 5455659
-0.0022813198 0.74367476 0.036918357 5455659
-0.0027065245 0.74372137 0.036915988 5455405
-0.0031317291 0.74376804 0.036913604 5521198
-0.00355693 0.74381471 0.036911234 5521198
-0.0039821309 0.74386138 0.03690885 5455405
-0.0044073355 0.74390805 0.036906481 5455405
-0.0048325402 0.74395466 0.036904097 5455405
-0.0052577448 0.74400133 0.036901727 5455659
-0.0056829457 0.744048 0.036899343 5455659
-0.0061081466 0.74409461 0.036896974 5455659
-0.0065333475 0.74414128 0.03689459 5455659
-0.0069585559 0.74418795 0.03689222 5455659
-0.0073837568 0.74423456 0.036889836 5455659
-0.0078089577 0.74428123 0.036887467 5455659
-0.0082341582 0.7443279 0.036885083 5455659
-0.0086593628 0.74437457 0.036882713 5455659
-0.0090845674 0.74442124 0.036880329 5521452
-0.0095097683 0.74446785 0.03687796 5521452
-0.0099349692 0.74451452 0.036875576 5389866
-0.010360174 0.7445612 0.036873192 5521452
-0.010785382 0.74460781 0.036870822 5455659
-0.011210583 0.74465448 0.036868453 5455659
-0.011635784 0.74470115 0.036866069 5521452
-0.012060985 0.74474776 0.036863685 5455659
-0.012486193 0.74479443 0.036861315 5455659
-0.012911394 0.7448411 0.036858946 5455659
-0.013336595 0.74488777 0.036856562 5521452
-0.013761796 0.74493444 0.036854178 5521452
-0.014187001 0.74498105 0.036851808 5521452
-0.014612205 0.74502772 0.036849439 5455659
-0.015037406 0.74507439 0.036847055 5455659
-0.015462607 0.745121 0.036844671 5455659
-0.015809529 0.74436355 0.037473515 5455659
-0.016233109 0.74441004 0.037471145 5521452
-0.016656693 0.74445653 0.037468776 5455659
-0.01708027 0.74450296 0.037466407 5455659
-0.01750385 0.74454945 0.037464038 5521452
-0.017927431 0.74459594 0.037461668 5521452
-0.018351011 0.74464238 0.037459314 5521452
-0.018774591 0.74468887 0.03745693 5521198
-0.019198172 0.74473536 0.037454575 5521198
-0.019621748 0.74478185 0.037452206 5521198
-0.020045329 0.74482834 0.037449837 5521198
-0.020468909 0.74487478 0.037447467 5455405
-0.02089249 0.74492127 0.037445098 5455405
-0.02131607 0.7449677 0.037442729 5455405
-0.021739651 0.74501419 0.03744036 5455405
-0.022163231 0.74506068 0.03743799 5389612
-0.022586808 0.74510717 0.037435621 5521198
-0.023010384 0.74515367 0.037433267 5521198
-0.023433968 0.7452001 0.037430897 5455405
-0.023857549 0.74524659 0.037428528 5455405
-0.024281129 0.74529308 0.037426159 5521198
-0.02470471 0.74533951 0.03742379 5521198
-0.025128286 0.745386 0.03742142 5521198
-0.025551867 0.7454325 0.037419051 5521198
-0.025975447 0.74547899 0.037416682 5521198
-0.026399028 0.74552548 0.037414312 5455659
-0.026822606 0.74557191 0.037411958 5521452
-0.027246187 0.7456184 0.037409574 5521452
-0.027669767 0.74566489 0.037407219 5521452
-0.028093347 0.74571133 0.03740485 5455405
-0.028643893 0.74656731 0.036770999 5455405
-0.029069098 0.74661398 0.036768615 5521198
-0.029494302 0.74666059 0.036766246 5455405
-0.029919507 0.74670726 0.036763862 5389612
-0.030344712 0.74675393 0.036761492 5389612
0.048905347 0.74305195 0.033799022 5324073
0.048470404 0.74309969 0.033796579 5455659
0.048035465 0.74314737 0.03379415 5389866
0.047600526 0.74319512 0.033791721 5455659
0.047165584 0.74324286 0.033789292 5455659
0.046730645 0.74329054 0.033786863 5455659
0.046295706 0.74333829 0.033784419 5389866
0.045860764 0.74338603 0.03378199 5258794
0.045425825 0.74343371 0.033779562 5258794
0.044990886 0.74348146 0.033777133 5258794
0.044555943 0.7435292 0.033774704 5258794
0.043973617 0.74279672 0.034400776 5258794
0.043540299 0.74284422 0.034398362 5258794
0.043106984 0.74289179 0.034395933 5258794
0.042673666 0.74293935 0.034393519 5258794
0.042240348 0.74298692 0.03439109 5193001
0.041807029 0.74303442 0.034388661 5258794
0.041373715 0.74308199 0.034386247 5193001
0.040940396 0.74312949 0.034383833 5258794
0.040507078 0.74317706 0.034381405 5324587
0.040073764 0.74322462 0.034378976 5324587
0.039640445 0.74327219 0.034376562 5258794
0.039207127 0.74331969 0.034374133 5258794
0.038645897 0.74258494 0.035000339 5193001
0.038214199 0.74263227 0.034997925 5258794
0.037782505 0.74267966 0.034995511 5324587
0.037350811 0.74272704 0.034993112 5258794
0.036919117 0.74277437 0.034990698 5258794
0.036487423 0.74282175 0.034988284 5193001
0.036055729 0.74286914 0.03498587 5258794
0.035624035 0.74291646 0.034983456 5258794
0.035192341 0.74296385 0.034981042 5258794
0.034760647 0.74301124 0.034978628 5258794
0.034328952 0.74305856 0.034976214 5193001
0.033897258 0.74310595 0.0349738 5258794
0.033465561 0.74315333 0.034971386 5258540
0.033033866 0.74320066 0.034968972 5258540
0.032602172 0.74324805 0.034966558 5389612
0.032170478 0.74329543 0.034964144 5389612
0.031738784 0.74334276 0.03496173 5389612
0.03130709 0.74339014 0.034959316 5389612
0.030875396 0.74343753 0.034956902 5455405
0.030443702 0.74348485 0.034954488 5389612
0.029916555 0.74274635 0.035580888 5389612
0.029486483 0.74279356 0.035578489 5389612
0.029056411 0.74284077 0.035576075 5389612
0.02862634 0.74288797 0.035573676 5389612
0.028196268 0.74293512 0.035571277 5389612
0.027766196 0.74298233 0.035568863 5389612
0.027336126 0.74302948 0.035566464 5389612
0.026990147 0.74386382 0.034935191 5389612
0.026558451 0.74391115 0.034932777 5455405
0.026126757 0.74395853 0.034930363 5455405
0.025695063 0.74400592 0.034927949 5389612
0.025263369 0.74405324 0.034925535 5389612
0.024831673 0.74410063 0.034923121 5389866
0.024399979 0.74414802 0.034920707 5455659
0.023968285 0.74419534 0.034918293 5455659
0.023536591 0.74424273 0.034915879 5389866
0.023104897 0.74429011 0.034913465 5258794
0.022673203 0.74433744 0.034911066 5258794
0.022241509 0.74438483 0.034908652 5258794
0.021809813 0.74443221 0.034906238 5324587
0.021315122 0.74369013 0.035532802 5258794
0.020885052 0.74373734 0.035530403 5324587
0.02045498 0.74378455 0.035528004 5455659
0.020024909 0.74383169 0.03552559 5389866
0.019594837 0.7438789 0.035523191 5520682
0.019164765 0.74392605 0.035520792 5520682
0.018734694 0.74397326 0.035518378 5520682
0.018304622 0.74402046 0.035515979 5520682
0.01787455 0.74406767 0.03551358 5389866
0.017444478 0.74411488 0.035511166 5389866
0.017014407 0.74416202 0.035508767 5389866
0.016584335 0.74420923 0.035506368 5389866
0.016154265 0.74425638 0.035503954 5455659
0.015724191 0.74430358 0.035501555 5389866
0.015294122 0.74435079 0.035499156 5455659
0.01486405 0.744398 0.035496742 5324073
0.014433978 0.74444515 0.035494342 5389866
0.013968499 0.74369985 0.03612107 5324073
0.013540052 0.74374688 0.036118686 5389866
0.013111603 0.74379385 0.036116287 5455659
0.012683155 0.74384087 0.036113888 5389866
0.012254706 0.7438879 0.036111504 5455659
0.011826258 0.74393487 0.036109105 5389866
0.011397809 0.7439819 0.036106706 5389866
0.010969359 0.74402893 0.036104307 5389866
0.010540912 0.74407589 0.036101907 5389866
0.010112463 0.74412292 0.036099523 5389612
0.0096840151 0.74416995 0.036097124 5389612
0.0092555657 0.74421692 0.036094725 5389612
0.0088271182 0.74426395 0.036092341 5455405
0.0083986688 0.74431098 0.036089942 5389612
0.0079702195 0.744358 0.036087543 5389612
0.0075307074 0.74360985 0.03671442 5455405
0.0071038804 0.74365669 0.036712036 5389612
0.0066770553 0.74370354 0.036709651 5323819
0.0062502301 0.74375033 0.036707267 5455405
0.005823405 0.74379718 0.036704883 5455405
0.005396578 0.74384403 0.036702499 5455405
0.0049697529 0.74389088 0.036700115 5455405
0.0045429259 0.74393767 0.036697716 5455405
0.0041161007 0.74398452 0.036695331 5455659
0.0036892756 0.74403137 0.036692947 5455659
0.0032624486 0.74407816 0.036690563 5455659
0.0028356235 0.74412501 0.036688179 5455659
0.0024087983 0.74417186 0.036685795 5455659
0.0019819732 0.74421871 0.03668341 5455659
0.0015551462 0.7442655 0.036681026 5455659
0.0011283192 0.74431235 0.036678642 5521452
0.00070149405 0.7443592 0.036676258 5521452
0.00029119803 0.74360788 0.037303284 5455659
-0.00013400475 0.74365449 0.0373009 5455659
-0.00055920752 0.74370116 0.03729853 5455659
-0.00098441029 0.74374783 0.037296146 5455659
-0.0014096131 0.74379444 0.037293777 5455659
-0.0018348177 0.74384111 0.037291393 5389866
-0.0022600186 0.74388778 0.037289023 5455659
-0.0026852232 0.74393439 0.037286639 5521198
-0.0031104279 0.74398106 0.03728427 5521198
-0.0035356288 0.74402773 0.037281886 5521198
-0.0039608297 0.7440744 0.037279516 5521198
-0.0043860343 0.74412107 0.037277132 5455405
-0.004811239 0.74416769 0.037274763 5455405
-0.0052364436 0.74421436 0.037272379 5324333
-0.0056616445 0.74426103 0.03727001 5324333
-0.0060868454 0.74430764 0.037267625 5258540
-0.0065120463 0.74435431 0.037265256 5324333
-0.0069372547 0.74440098 0.037262872 5324587
-0.0073624556 0.74444759 0.037260503 5324587
-0.0077876565 0.74449426 0.037258118 5324587
-0.0082128569 0.74454093 0.037255749 5324587
-0.0086380616 0.7445876 0.037253365 5324587
-0.0090632662 0.74463427 0.037250996 5390380
-0.0094884671 0.74468088 0.037248611 5324587
-0.009913668 0.74472755 0.037246242 5258794
-0.010338873 0.74477422 0.037243858 5390380
-0.010764081 0.74482083 0.037241489 5390380
-0.011189282 0.7448675 0.037239105 5455659
-0.011614483 0.74491417 0.03723672 5455659
-0.012039684 0.74496078 0.037234351 5586475
-0.012464892 0.74500746 0.037231982 5520682
-0.012890093 0.74505413 0.037229598 5586475
-0.013315294 0.7451008 0.037227213 5652268
-0.013740495 0.74514747 0.037224844 5521452
-0.014165699 0.74519408 0.037222475 5455659
-0.014590904 0.74524075 0.037220091 5521452
-0.015016105 0.74528742 0.037217706 5455659
-0.015441306 0.74533403 0.037215337 5521452
-0.015788309 0.74457574 0.037842751 5455659
-0.01621189 0.74462223 0.037840381 5455659
-0.016635474 0.74466872 0.037838012 5455659
-0.017059051 0.74471521 0.037835658 5455659
-0.017482631 0.74476165 0.037833273 5455659
-0.017906211 0.74480814 0.037830919 5521452
-0.018329792 0.74485457 0.03782855 5521452
-0.018753372 0.74490106 0.03782618 5521198
-0.019176953 0.74494755 0.037823811 5521198
-0.019600529 0.74499404 0.037821442 5521198
-0.02002411 0.74504054 0.037819073 5521198
-0.02044769 0.74508697 0.037816703 5455405
-0.02087127 0.74513346 0.037814334 5455405
-0.021294851 0.74517995 0.037811965 5521198
-0.021718431 0.74522638 0.03780961 5455405
-0.022142012 0.74527287 0.037807226 5455405
-0.022565588 0.74531937 0.037804872 5521198
-0.022989165 0.74536586 0.037802503 5521198
-0.023412749 0.74541235 0.037800133 5455405
-0.02383633 0.74545878 0.037797764 5521198
-0.02425991 0.74550527 0.037795395 5521198
-0.02468349 0.74555176 0.037793025 5521198
-0.025107067 0.7455982 0.037790656 5586991
-0.025530647 0.74564469 0.037788302 5521198
-0.025954228 0.74569118 0.037785918 5521198
-0.026377808 0.74573767 0.037783563 5455405
-0.026801387 0.74578416 0.037781194 5521198
-0.027224967 0.7458306 0.037778825 5587245
-0.027648548 0.74587709 0.037776455 5521452
-0.028072128 0.74592352 0.037774086 5455405
-0.028622592 0.74678034 0.037141651 5455405
-0.029047797 0.74682701 0.037139282 5521198
-0.029473001 0.74687362 0.037136897 5455405
-0.029898206 0.74692029 0.037134528 5389612
-0.03032341 0.74696696 0.037132144 5389612
0.048927136 0.74326986 0.034178168 5389866
0.048492193 0.7433176 0.034175724 5455659
0.048057254 0.74336529 0.034173295 5389866
0.047622312 0.74341303 0.034170866 5455659
0.047187373 0.74346077 0.034168437 5455659
0.046752434 0.74350846 0.034166008 5389866
0.046317492 0.7435562 0.034163564 5389866
0.045882553 0.74360394 0.034161136 5389866
0.045447614 0.74365163 0.034158707 5389866
0.045012672 0.74369937 0.034156278 5324587
0.044577733 0.74374712 0.034153849 5258794
0.043995325 0.7430138 0.034778506 5324587
0.043562006 0.74306136 0.034776092 5324587
0.043128692 0.74310887 0.034773663 5258794
0.042695373 0.74315643 0.034771249 5324587
0.042262055 0.743204 0.03476882 5193001
0.041828737 0.74325156 0.034766406 5258794
0.041395422 0.74329907 0.034763977 5193001
0.040962104 0.74334663 0.034761548 5258794
0.040528785 0.74339414 0.034759134 5324587
0.040095467 0.7434417 0.03475672 5324587
0.039662153 0.74348927 0.034754291 5258794
0.039228834 0.74353677 0.034751862 5324587
0.038667522 0.74280119 0.035376653 5193001
0.038235825 0.74284852 0.035374239 5258794
0.03780413 0.7428959 0.035371825 5324587
0.037372436 0.74294329 0.035369426 5258794
0.036940742 0.74299067 0.035367012 5258794
0.036509048 0.743038 0.035364598 5193001
0.036077354 0.74308538 0.035362184 5258794
0.03564566 0.74313277 0.03535977 5324587
0.035213966 0.7431801 0.035357356 5324587
0.034782272 0.74322748 0.035354942 5324587
0.034350578 0.74327487 0.035352528 5258794
0.033918884 0.74332225 0.035350114 5193001
0.03348719 0.74336958 0.0353477 5258794
0.033055495 0.74341697 0.035345286 5258794
0.032623798 0.74346435 0.035342872 5258794
0.032192104 0.74351168 0.035340458 5258794
0.031760409 0.74355906 0.035338044 5389866
0.031328715 0.74360645 0.03533563 5455659
0.030897023 0.74365377 0.035333216 5521452
0.030465329 0.74370116 0.035330802 5389866
0.0299381 0.74296182 0.035955787 5389866
0.029508028 0.74300903 0.035953373 5389866
0.029077956 0.74305618 0.035950974 5455659
0.028647885 0.74310338 0.035948575 5455659
0.028217813 0.74315059 0.035946161 5389866
0.027787741 0.7431978 0.035943761 5389866
0.02735767 0.74324495 0.035941362 5389866
0.027011773 0.74408007 0.035311505 5389866
0.026580079 0.74412745 0.035309091 5455659
0.026148384 0.74417484 0.035306677 5455659
0.025716688 0.74422216 0.035304263 5389866
0.025284994 0.74426955 0.035301849 5389866
0.0248533 0.74431694 0.035299435 5389866
0.024421604 0.74436426 0.035297021 5455659
0.02398991 0.74441165 0.035294607 5455659
0.023558216 0.74445903 0.035292193 5389866
0.023126522 0.74450636 0.035289779 5193001
0.022694828 0.74455374 0.03528738 5258794
0.022263134 0.74460113 0.035284966 5258794
0.02183144 0.74464846 0.035282552 5258794
0.021336669 0.7439056 0.035907701 5324587
0.020906596 0.74395275 0.035905302 5324587
0.020476526 0.74399996 0.035902888 5455659
0.020046452 0.74404716 0.035900488 5389866
0.01961638 0.74409437 0.035898089 5389866
0.01918631 0.74414152 0.035895675 5389866
0.018756237 0.74418873 0.035893276 5389866
0.018326167 0.74423593 0.035890877 5389866
0.017896095 0.74428308 0.035888463 5455659
0.017466024 0.74433029 0.035886064 5389866
0.017035952 0.74437749 0.035883665 5389866
0.01660588 0.7444247 0.035881251 5389866
0.016175808 0.74447185 0.035878852 5455659
0.015745737 0.74451905 0.035876453 5389866
0.015315665 0.7445662 0.035874039 5455659
0.014885593 0.74461341 0.03587164 5324073
0.014455523 0.74466062 0.035869241 5389866
0.013989965 0.74391448 0.036494553 5324073
0.013561515 0.74396151 0.036492169 5455659
0.013133066 0.74400854 0.03648977 5455659
0.012704618 0.74405551 0.036487371 5455659
0.012276169 0.74410254 0.036484987 5455659
0.011847721 0.74414957 0.036482587 5389866
0.011419272 0.74419653 0.036480188 5389866
0.010990823 0.74424356 0.036477789 5389866
0.010562375 0.74429059 0.03647539 5389866
0.010133926 0.74433756 0.036473006 5455659
0.0097054783 0.74438459 0.036470607 5455659
0.009277029 0.74443161 0.036468208 5389866
0.0088485815 0.74447858 0.036465824 5455659
0.0084201321 0.74452561 0.036463425 5389866
0.0079916827 0.74457264 0.036461025 5455659
0.0075520906 0.74382371 0.037086487 5455405
0.0071252636 0.7438705 0.037084103 5389612
0.0066984384 0.74391735 0.037081718 5389612
0.0062716133 0.7439642 0.037079334 5455405
0.0058447882 0.74401104 0.03707695 5455405
0.0054179612 0.74405789 0.037074566 5455405
0.004991136 0.74410468 0.037072182 5455405
0.004564309 0.74415153 0.037069798 5521198
0.0041374839 0.74419832 0.037067413 5455659
0.0037106588 0.74424517 0.037065029 5455659
0.0032838318 0.74429202 0.037062645 5455659
0.0028570066 0.74433887 0.037060246 5455659
0.0024301815 0.74438572 0.037057862 5521452
0.0020033563 0.74443251 0.037055477 5455659
0.0015765294 0.74447936 0.037053093 5455659
0.0011497024 0.74452615 0.037050709 5521452
0.00072287722 0.744573 0.037048325 5521452
0.00031249924 0.74382085 0.037673935 5521452
-0.00011270354 0.74386752 0.037671566 5455659
-0.00053790631 0.74391419 0.037669182 5521452
-0.00096310908 0.74396086 0.037666798 5455659
-0.0013883119 0.74400747 0.037664428 5455659
-0.0018135165 0.74405414 0.037662059 5389866
-0.0022387174 0.74410081 0.037659675 5455659
-0.002663922 0.74414742 0.037657291 5455405
-0.0030891267 0.74419409 0.037654921 5521198
-0.0035143276 0.74424076 0.037652552 5521198
-0.0039395285 0.74428737 0.037650168 5521198
-0.0043647331 0.74433404 0.037647784 5455405
-0.0047899378 0.74438071 0.037645414 5455405
-0.0052151424 0.74442738 0.037643045 5324333
-0.0056403433 0.74447405 0.037640661 5324333
-0.0060655442 0.74452066 0.037638277 5324333
-0.0064907451 0.74456733 0.037635908 5324333
-0.0069159535 0.74461401 0.037633538 5324333
-0.0073411544 0.74466062 0.037631154 5324333
-0.0077663553 0.74470729 0.03762877 5324333
-0.0081915557 0.74475396 0.037626401 5324333
-0.0086167604 0.74480057 0.037624031 5324333
-0.009041965 0.74484724 0.037621647 5324333
-0.0094671659 0.74489391 0.037619263 5324587
-0.0098923668 0.74494058 0.037616894 5324587
-0.010317571 0.74498725 0.037614509 5324587
-0.01074278 0.74503386 0.03761214 5324587
-0.011167981 0.74508053 0.037609756 5455659
-0.011593182 0.7451272 0.037607387 5455659
-0.012018383 0.74517381 0.037605003 5586475
-0.012443591 0.74522048 0.037602633 5586475
-0.012868792 0.74526715 0.037600249 5455659
-0.013293993 0.74531376 0.03759788 5521452
-0.013719194 0.74536043 0.037595496 5455659
-0.014144398 0.7454071 0.037593126 5455659
-0.014569603 0.74545377 0.037590742 5521452
-0.014994804 0.74550045 0.037588373 5455659
-0.015420005 0.74554706 0.037585989 5521452
-0.01576709 0.74478793 0.038212001 5455659
-0.01619067 0.74483442 0.038209632 5521452
-0.016614255 0.74488091 0.038207263 5521452
-0.017037831 0.74492741 0.038204893 5455659
-0.017461412 0.74497384 0.038202524 5455659
-0.017884992 0.74502033 0.038200155 5521452
-0.018308572 0.74506682 0.038197786 5455659
-0.018732153 0.74511325 0.038195416 5521198
-0.019155733 0.74515975 0.038193047 5521198
-0.01957931 0.74520624 0.038190693 5521198
-0.02000289 0.74525273 0.038188308 5521198
-0.020426471 0.74529922 0.038185954 5455405
-0.020850051 0.74534565 0.038183585 5455405
-0.021273632 0.74539214 0.038181216 5455405
-0.021697212 0.74543864 0.038178846 5455405
-0.022120792 0.74548507 0.038176477 5455405
-0.022544369 0.74553156 0.038174108 5521198
-0.022967946 0.74557805 0.038171738 5521198
-0.02339153 0.74562454 0.038169384 5455405
-0.02381511 0.74567103 0.038167 5521198
-0.024238691 0.74571747 0.038164645 5521198
-0.024662271 0.74576396 0.038162276 5521198
-0.025085848 0.74581045 0.038159907 5586991
-0.025509428 0.74585688 0.038157538 5521198
-0.025933009 0.74590337 0.038155168 5521198
-0.026356589 0.74594986 0.038152799 5455405
-0.026780168 0.74599636 0.03815043 5455405
-0.027203748 0.74604279 0.03814806 5521198
-0.027627328 0.74608928 0.038145691 5521198
-0.028050909 0.74613577 0.038143337 5455405
-0.028601291 0.74699336 0.037512317 5455405
-0.029026495 0.74704003 0.037509933 5455405
-0.0294517 0.74708664 0.037507564 5455405
-0.029876905 0.74713331 0.03750518 5389612
-0.030302109 0.74717999 0.037502795 5323819
0.048783522 0.74270791 0.035182893 5389866
0.048350204 0.74275541 0.035180464 5455659
0.047916885 0.74280298 0.035178035 5455659
0.047483567 0.74285054 0.035175622 5455659
0.047050256 0.74289811 0.035173208 5455659
0.046616938 0.74294561 0.035170779 5389866
0.04618362 0.74299318 0.03516835 5455659
0.045750301 0.74304068 0.035165936 5455659
0.045316987 0.74308825 0.035163507 5389866
0.044883668 0.74313581 0.035161093 5455659
0.04445035 0.74318337 0.035158664 5455659
0.044017032 0.74323088 0.03515625 5455659
0.043583713 0.74327844 0.035153821 5455659
0.043150399 0.74332595 0.035151392 5389866
0.042574394 0.74259114 0.035774693 5455659
0.0421427 0.74263853 0.035772279 5324073
0.041711006 0.74268591 0.035769865 5389866
0.041279312 0.74273324 0.035767451 5258794
0.040847618 0.74278063 0.035765037 5258794
0.040415924 0.74282801 0.035762623 5324587
0.03998423 0.74287534 0.035760209 5324587
0.039552536 0.74292272 0.035757795 5324587
0.039120842 0.74297011 0.035755396 5324587
0.038689148 0.74301744 0.035752982 5258794
0.038257454 0.74306482 0.035750568 5258794
0.03782576 0.74311221 0.035748154 5324587
0.037270859 0.74237508 0.036371559 5258794
0.036840789 0.74242228 0.036369145 5258794
0.036410715 0.74246943 0.036366746 5258794
0.035980646 0.74251664 0.036364347 5258794
0.035550572 0.74256384 0.036361933 5324587
0.035120502 0.74261105 0.036359534 5324587
0.034690429 0.7426582 0.036357135 5324587
0.034260359 0.7427054 0.036354721 5324587
0.033830289 0.74275261 0.036352322 5258794
0.033400215 0.74279976 0.036349922 5258794
0.032970145 0.74284697 0.036347508 5258794
0.032540072 0.74289417 0.036345109 5324587
0.032110002 0.74294138 0.03634271 5324587
0.031679928 0.74298853 0.036340296 5455659
0.031249858 0.74303573 0.036337897 5455659
0.030819787 0.74308288 0.036335498 5455659
0.030389715 0.74313009 0.036333084 5455659
0.029959643 0.74317729 0.036330685 5389866
0.029529573 0.7432245 0.036328286 5455659
0.029099502 0.74327165 0.036325872 5455659
0.02866943 0.74331886 0.036323473 5455659
0.028239358 0.743366 0.036321074 5455659
0.027809286 0.74341321 0.03631866 5455659
0.027379215 0.74346042 0.036316261 5455659
0.026949143 0.74350762 0.036313862 5455659
0.026519071 0.74355483 0.036311448 5521452
0.026089 0.74360198 0.036309049 5455659
0.02565893 0.74364918 0.036306649 5389866
0.025228856 0.74369633 0.036304235 5389866
0.024798786 0.74374354 0.036301836 5455659
0.024368713 0.74379075 0.036299437 5455659
0.023938643 0.74383795 0.036297023 5455659
0.023508569 0.7438851 0.036294624 5455659
0.023078499 0.74393231 0.036292225 5324073
0.022648428 0.74397945 0.036289811 5455659
0.022218356 0.74402666 0.036287412 5324587
0.021788284 0.74407387 0.036285013 5324587
0.021358212 0.74412107 0.036282599 5324587
0.020928141 0.74416828 0.0362802 5324587
0.020498069 0.74421543 0.036277801 5455659
0.020067997 0.74426264 0.036275387 5455659
0.019637926 0.74430978 0.036272988 5389866
0.019207856 0.74435699 0.036270589 5389866
0.018724361 0.74361205 0.036894396 5389866
0.018295912 0.74365902 0.036891997 5389866
0.017867465 0.74370605 0.036889613 5455659
0.017439015 0.74375308 0.036887214 5389866
0.017010566 0.74380004 0.036884815 5389866
0.016582118 0.74384707 0.036882415 5389866
0.016153671 0.7438941 0.036880016 5455659
0.015725221 0.74394107 0.036877632 5389866
0.015296772 0.7439881 0.036875233 5455659
0.014868325 0.74403512 0.036872834 5389866
0.014439877 0.74408209 0.03687045 5389866
0.014011428 0.74412912 0.036868051 5455659
0.013582978 0.74417615 0.036865652 5455659
0.013154531 0.74422312 0.036863267 5455659
0.012695381 0.74347556 0.037487209 5455659
0.012268554 0.74352241 0.03748481 5455659
0.011841731 0.7435692 0.037482426 5389866
0.011414902 0.74361604 0.037480041 5455659
0.010988077 0.74366283 0.037477657 5455659
0.010561252 0.74370968 0.037475273 5389866
0.010134427 0.74375653 0.037472889 5455659
0.0097076017 0.74380338 0.037470505 5455659
0.0092807747 0.74385023 0.037468106 5455659
0.0088539496 0.74389702 0.037465721 5455659
0.0084271245 0.74394387 0.037463337 5455659
0.0080002975 0.74399066 0.037460953 5455659
0.0075734719 0.74403751 0.037458569 5455405
0.0071466449 0.74408436 0.037456185 5455405
0.0067198197 0.74413121 0.0374538 5455405
0.0062929946 0.74417806 0.037451416 5521198
0.0058661695 0.74422485 0.037449032 5455405
0.0054393425 0.7442717 0.037446648 5455405
0.0050110309 0.74352068 0.038070738 5455405
0.0045858263 0.74356735 0.038068354 5521198
0.0041606235 0.74361396 0.038065985 5455659
0.0037354208 0.74366063 0.038063601 5455659
0.0033102199 0.7437073 0.038061231 5455659
0.0028850152 0.74375397 0.038058847 5521452
0.0024598143 0.74380064 0.038056478 5455659
0.0020346115 0.74384725 0.038054094 5455659
0.0016094069 0.74389392 0.038051724 5455659
0.0011842041 0.74394059 0.03804934 5521452
0.00075900136 0.7439872 0.038046971 5521452
0.00033379858 0.74403387 0.038044587 5521452
-9.1404188e-05 0.74408054 0.038042217 5455659
-0.00051660696 0.74412715 0.038039833 5455659
-0.00094180973 0.74417382 0.038037464 5455659
-0.0013670106 0.7442205 0.03803508 5455659
-0.0017922153 0.74426717 0.038032711 5455659
-0.0021913131 0.74351293 0.03865701 5455659
-0.0026148935 0.74355942 0.03865464 5521198
-0.0030384739 0.74360585 0.038652271 5521198
-0.0034620543 0.74365234 0.038649902 5521198
-0.0038856347 0.74369884 0.038647532 5455405
-0.0043092151 0.74374533 0.038645163 5455405
-0.0047327955 0.74379176 0.038642794 5521198
-0.0051563759 0.74383825 0.038640425 5324333
-0.0055799526 0.74388474 0.038638055 5324333
-0.006003533 0.74393117 0.038635701 5324333
-0.0064271134 0.74397767 0.038633317 5324333
-0.0068506938 0.74402416 0.038630962 5324333
-0.0072742742 0.74407065 0.038628593 5324333
-0.0076978547 0.74411714 0.038626224 5324333
-0.0081214346 0.74416357 0.038623855 5390126
-0.0085450113 0.74421006 0.038621485 5324333
-0.0089685917 0.74425656 0.038619116 5324333
-0.0093921721 0.74430299 0.038616747 5324587
-0.0098157525 0.74434948 0.038614392 5390380
-0.010239337 0.74439597 0.038612008 5324587
-0.010662917 0.74444246 0.038609654 5324587
-0.011086494 0.74448895 0.038607284 5324587
-0.011510074 0.74453539 0.038604915 5390380
-0.011933655 0.74458188 0.038602546 5455659
-0.012357235 0.74462837 0.038600177 5455659
-0.012780815 0.7446748 0.038597807 5455659
-0.013204396 0.74472129 0.038595438 5521452
-0.013627972 0.74476779 0.038593069 5521452
-0.014051549 0.74481428 0.038590699 5521452
-0.01447513 0.74486077 0.038588345 5521452
-0.01489871 0.7449072 0.038585961 5455659
-0.01532229 0.74495369 0.038583606 5455659
-0.015745871 0.74500012 0.038581237 5521452
-0.016169451 0.74504662 0.038578868 5521452
-0.016593035 0.74509311 0.038576499 5521452
-0.017016612 0.7451396 0.038574129 5455659
-0.017440192 0.74518609 0.03857176 5455659
-0.017863773 0.74523252 0.038569391 5521452
-0.018287353 0.74527901 0.038567036 5521452
-0.018710934 0.74532551 0.038564652 5521198
-0.019134514 0.74537194 0.038562298 5521198
-0.019558091 0.74541843 0.038559929 5586991
-0.019981671 0.74546492 0.038557559 5521198
-0.020405252 0.74551141 0.03855519 5455405
-0.020828832 0.7455579 0.038552821 5455405
-0.021252412 0.74560434 0.038550451 5455405
-0.021675993 0.74565083 0.038548082 5455405
-0.022099573 0.74569732 0.038545713 5521198
-0.02252315 0.74574375 0.038543344 5586991
-0.022841105 0.74498069 0.03916809 5521198
-0.023263069 0.74502695 0.039165735 5455405
-0.023685025 0.74507326 0.039163366 5521198
-0.024106981 0.74511957 0.039161012 5521198
-0.024528937 0.74516582 0.039158642 5521198
-0.024950897 0.74521214 0.039156288 5586991
-0.02537285 0.74525845 0.039153934 5586991
-0.025911789 0.74611557 0.038524404 5521198
-0.02633537 0.74616206 0.038522035 5455405
-0.026758948 0.74620855 0.038519681 5521198
-0.027182529 0.74625504 0.038517296 5586991
-0.027606109 0.74630147 0.038514942 5586991
-0.02802969 0.74634796 0.038512573 5455405
-0.02845327 0.74639446 0.038510203 5455405
-0.02887685 0.74644089 0.038507834 5455405
-0.029300431 0.74648738 0.038505465 5455405
-0.029724011 0.74653387 0.038503096 5389612
-0.030147592 0.74658036 0.038500726 5389612
-0.030571172 0.74662685 0.038498372 5389866
-0.030994752 0.74667329 0.038495988 5455659
-0.031418335 0.74671978 0.038493633 5455659
0.048805233 0.74292499 0.035560623 5389866
0.048371915 0.74297249 0.035558194 5455657
0.047938596 0.74302006 0.03555578 5455657
0.047505278 0.74306762 0.035553351 5455657
0.04707196 0.74311519 0.035550937 5455657
0.046638645 0.74316269 0.035548508 5389864
0.046205331 0.74321026 0.035546094 5455657
0.045772009 0.74325776 0.035543665 5455657
0.045338694 0.74330533 0.035541236 5455657
0.044905376 0.74335289 0.035538822 5455657
0.044472057 0.74340045 0.035536408 5455657
0.044038739 0.74344796 0.03553398 5455657
0.043605421 0.74349552 0.035531551 5389864
0.043172106 0.74354303 0.035529137 5389864
0.042596024 0.74280745 0.036151007 5389864
0.042164329 0.74285477 0.036148593 5324073
0.041732635 0.74290216 0.036146179 5389866
0.041300941 0.74294955 0.036143765 5258794
0.040869243 0.74299693 0.036141366 5258794
0.040437549 0.74304426 0.036138952 5324587
0.040005855 0.74309164 0.036136538 5258794
0.039574161 0.74313903 0.036134124 5324587
0.039142467 0.74318635 0.03613171 5258794
0.038710773 0.74323374 0.036129296 5258794
0.038279079 0.74328113 0.036126882 5324587
0.037847385 0.74332845 0.036124468 5324587
0.037292402 0.74259055 0.036746457 5324587
0.036862332 0.74263775 0.036744058 5324587
0.036432263 0.7426849 0.036741644 5324587
0.036002189 0.74273211 0.036739245 5258794
0.035572119 0.74277931 0.036736846 5324587
0.035142045 0.74282646 0.036734432 5324587
0.034711976 0.74287367 0.036732033 5324587
0.034281902 0.74292088 0.036729634 5324587
0.033851832 0.74296808 0.03672722 5324587
0.033421762 0.74301523 0.036724821 5258794
0.032991689 0.74306244 0.036722422 5258794
0.032561619 0.74310958 0.036720008 5324587
0.032131545 0.74315679 0.036717609 5324587
0.031701475 0.743204 0.036715209 5455659
0.031271402 0.7432512 0.036712795 5455659
0.030841332 0.74329835 0.036710396 5455659
0.03041126 0.74334556 0.036707997 5521452
0.029981188 0.74339277 0.036705583 5455659
0.029551117 0.74343991 0.036703184 5455659
0.029121047 0.74348712 0.036700785 5455659
0.028690975 0.74353433 0.036698371 5389866
0.028260903 0.74358153 0.036695972 5455659
0.027830832 0.74362868 0.036693573 5455659
0.02740076 0.74367589 0.036691159 5455659
0.026970688 0.74372303 0.03668876 5455659
0.026540617 0.74377024 0.036686361 5521452
0.026110545 0.74381745 0.036683947 5455659
0.025680473 0.74386466 0.036681548 5389866
0.025250401 0.7439118 0.036679149 5389866
0.02482033 0.74395901 0.036676735 5389866
0.02439026 0.74400622 0.036674336 5455659
0.023960186 0.74405336 0.036671937 5455659
0.023530116 0.74410057 0.036669523 5455659
0.023100045 0.74414778 0.036667123 5389866
0.022669973 0.74419498 0.036664724 5521452
0.022239901 0.74424213 0.03666231 5521452
0.021809829 0.74428934 0.036659911 5521452
0.021379758 0.74433649 0.036657512 5455659
0.020949686 0.74438369 0.036655098 5455659
0.020519616 0.7444309 0.036652699 5455659
0.020089542 0.74447811 0.0366503 5455659
0.019659471 0.74452525 0.036647886 5389866
0.019229401 0.74457246 0.036645487 5389866
0.018745825 0.74382663 0.037267879 5455659
0.018317377 0.74387366 0.03726548 5389866
0.017888928 0.74392068 0.037263095 5455659
0.01746048 0.74396771 0.037260696 5389866
0.017032031 0.74401474 0.037258297 5389866
0.016603583 0.74406171 0.037255913 5389866
0.016175134 0.74410874 0.037253514 5389866
0.015746685 0.74415576 0.037251115 5389866
0.015318237 0.74420273 0.037248731 5455659
0.014889788 0.74424976 0.037246332 5389866
0.01446134 0.74429679 0.037243932 5389866
0.014032891 0.74434376 0.037241548 5455659
0.013604442 0.74439079 0.037239149 5455659
0.013175994 0.74443781 0.03723675 5455659
0.012716765 0.74368936 0.037859276 5455659
0.012289938 0.74373621 0.037856892 5455659
0.011863114 0.74378306 0.037854508 5389866
0.011436285 0.74382985 0.037852108 5455659
0.01100946 0.7438767 0.037849724 5455659
0.010582635 0.74392354 0.03784734 5455659
0.01015581 0.74397039 0.037844956 5455659
0.0097289849 0.74401718 0.037842572 5455659
0.0093021579 0.74406403 0.037840188 5521452
0.0088753328 0.74411088 0.037837803 5455659
0.0084485076 0.74415767 0.037835419 5455659
0.0080216806 0.74420452 0.037833035 5455659
0.007594855 0.74425137 0.037830651 5455659
0.007168028 0.74429822 0.037828267 5521452
0.0067412029 0.74434501 0.037825868 5455405
0.0063143778 0.74439186 0.037823483 5521198
0.0058875526 0.74443871 0.037821099 5455405
0.0054607256 0.7444855 0.037818715 5455405
0.0050323321 0.7437337 0.03844139 5455405
0.0046071275 0.74378037 0.038439021 5521198
0.0041819247 0.74382699 0.038436651 5455659
0.003756722 0.74387366 0.038434267 5521452
0.0033315211 0.74392033 0.038431883 5455659
0.0029063164 0.74396694 0.038429514 5521452
0.0024811155 0.74401361 0.038427144 5455659
0.0020559127 0.74406028 0.03842476 5521452
0.0016307081 0.74410695 0.038422376 5455659
0.0012055053 0.74415362 0.038420007 5521452
0.00078030257 0.74420023 0.038417637 5521452
0.00035509979 0.7442469 0.038415253 5521452
-7.0102978e-05 0.74429357 0.038412869 5521452
-0.00049530575 0.74434018 0.0384105 5455659
-0.00092050852 0.74438685 0.03840813 5455659
-0.0013457094 0.74443352 0.038405746 5455659
-0.0017709141 0.74448013 0.038403362 5455659
-0.0021700938 0.74372512 0.039026245 5455659
-0.0025936742 0.74377161 0.039023876 5521198
-0.0030172546 0.74381804 0.039021522 5521198
-0.003440835 0.74386454 0.039019138 5521198
-0.0038644155 0.74391103 0.039016783 5521198
-0.0042879959 0.74395752 0.039014414 5521198
-0.0047115763 0.74400401 0.039012045 5521198
-0.0051351567 0.74405044 0.039009675 5390126
-0.0055587334 0.74409693 0.039007306 5390126
-0.0059823138 0.74414343 0.039004937 5324333
-0.0064058942 0.74418986 0.039002568 5390126
-0.0068294746 0.74423635 0.039000213 5390126
-0.007253055 0.74428284 0.038997829 5324333
-0.0076766354 0.74432933 0.038995475 5390126
-0.0081002153 0.74437582 0.038993105 5390126
-0.008523792 0.74442226 0.038990736 5324333
-0.0089473724 0.74446875 0.038988367 5324333
-0.0093709528 0.74451524 0.038985997 5324587
-0.0097945333 0.74456167 0.038983628 5390380
-0.010218117 0.74460816 0.038981259 5324587
-0.010641698 0.74465466 0.03897889 5324587
-0.011065274 0.74470115 0.03897652 5390380
-0.011488855 0.74474764 0.038974166 5390380
-0.011912435 0.74479407 0.038971797 5521452
-0.012336016 0.74484056 0.038969427 5455659
-0.012759596 0.74488699 0.038967058 5455659
-0.013183177 0.74493349 0.038964689 5521452
-0.013606753 0.74497998 0.038962319 5521452
-0.01403033 0.74502647 0.03895995 5521452
-0.01445391 0.74507296 0.038957581 5521452
-0.014877491 0.74511939 0.038955212 5455659
-0.015301071 0.74516588 0.038952857 5455659
-0.015724652 0.74521238 0.038950473 5521452
-0.016148232 0.74525881 0.038948119 5521452
-0.016571816 0.7453053 0.038945749 5521452
-0.016995393 0.74535179 0.03894338 5455659
-0.017418973 0.74539828 0.038941011 5455659
-0.017842554 0.74544477 0.038938642 5521452
-0.018266134 0.74549121 0.038936272 5521452
-0.018689714 0.7455377 0.038933903 5455405
-0.019113295 0.74558419 0.038931549 5586991
-0.019536871 0.74563062 0.038929164 5586991
-0.019960452 0.74567711 0.03892681 5521198
-0.020384032 0.74572361 0.038924441 5521198
-0.020807613 0.7457701 0.038922071 5455405
-0.021231193 0.74581659 0.038919702 5521198
-0.021654774 0.74586302 0.038917333 5521198
-0.022078354 0.74590951 0.038914964 5521198
-0.022501931 0.745956 0.038912594 5586991
-0.022819964 0.74519205 0.03953591 5521198
-0.023241928 0.74523836 0.039533556 5521198
-0.023663884 0.74528468 0.039531201 5521198
-0.02408584 0.74533093 0.039528832 5521198
-0.024507796 0.74537724 0.039526477 5521198
-0.024929756 0.74542356 0.039524123 5586991
-0.025351709 0.74546981 0.039521754 5586991
-0.02589057 0.74632776 0.038893655 5586991
-0.026314151 0.74637425 0.038891286 5521198
-0.026737729 0.74642074 0.038888916 5521198
-0.027161309 0.74646723 0.038886547 5521198
-0.02758489 0.74651372 0.038884193 5521198
-0.02800847 0.74656016 0.038881809 5455405
-0.028432051 0.74660665 0.038879454 5521198
-0.028855631 0.74665314 0.038877085 5521198
-0.029279212 0.74669957 0.038874716 5455405
-0.029702792 0.74674606 0.038872346 5455405
-0.030126372 0.74679255 0.038869977 5389612
-0.030549953 0.74683905 0.038867608 5389866
-0.030973533 0.74688554 0.038865238 5389866
-0.031397115 0.74693197 0.038862884 5455659
0.04882694 0.74314207 0.035938352 5455659
0.048393622 0.74318957 0.035935923 5521450
0.047960304 0.74323714 0.035933509 5455657
0.047526985 0.7432847 0.035931081 5455657
0.047093671 0.74333227 0.035928667 5455657
0.046660352 0.74337977 0.035926238 5455657
0.046227034 0.74342734 0.035923809 5455657
0.045793716 0.74347484 0.035921395 5455657
0.045360401 0.74352241 0.035918981 5389864
0.044927083 0.74356997 0.035916552 5455657
0.044493768 0.74361753 0.035914123 5455657
0.044060446 0.74366504 0.035911709 5389864
0.043627132 0.7437126 0.03590928 5389864
0.043193813 0.74376011 0.035906866 5389864
0.042617649 0.74302369 0.036527321 5389864
0.042185955 0.74307108 0.036524907 5324073
0.041754261 0.74311841 0.036522493 5389866
0.041322567 0.74316579 0.036520079 5389866
0.040890869 0.74321318 0.03651768 5389866
0.040459175 0.7432605 0.036515266 5324587
0.040027481 0.74330789 0.036512852 5258794
0.039595786 0.74335527 0.036510438 5324587
0.039164092 0.7434026 0.036508024 5258794
0.038732398 0.74344999 0.03650561 5258794
0.038300704 0.74349737 0.036503196 5324587
0.03786901 0.7435447 0.036500782 5324587
0.037313949 0.74280602 0.037121356 5324587
0.036883879 0.74285316 0.037118956 5324587
0.036453806 0.74290037 0.037116557 5324587
0.036023732 0.74294758 0.037114143 5324587
0.035593662 0.74299479 0.037111744 5324587
0.035163593 0.74304193 0.037109345 5390380
0.034733519 0.74308914 0.037106931 5324587
0.034303449 0.74313629 0.037104532 5324587
0.033873376 0.74318349 0.037102133 5324587
0.033443306 0.7432307 0.037099719 5324587
0.033013232 0.74327791 0.03709732 5258794
0.032583162 0.74332505 0.037094921 5324587
0.032153092 0.74337226 0.037092507 5324587
0.031723019 0.74341947 0.037090108 5324587
0.031292949 0.74346662 0.037087709 5324587
0.030862877 0.74351382 0.037085295 5455659
0.030432805 0.74356103 0.037082896 5521452
0.030002734 0.74360824 0.037080497 5455659
0.029572662 0.74365538 0.037078083 5455659
0.02914259 0.74370259 0.037075683 5521452
0.028712519 0.74374974 0.037073284 5389866
0.028282447 0.74379694 0.03707087 5455659
0.027852377 0.74384415 0.037068471 5455659
0.027422305 0.74389136 0.037066072 5455659
0.026992233 0.74393851 0.037063658 5455659
0.026562162 0.74398571 0.037061259 5521452
0.02613209 0.74403292 0.03705886 5455659
0.025702018 0.74408007 0.037056446 5389866
0.025271947 0.74412727 0.037054047 5389866
0.024841875 0.74417448 0.037051648 5520682
0.024411803 0.74422169 0.037049234 5586475
0.023981731 0.74426883 0.037046835 5455659
0.02355166 0.74431604 0.037044436 5455659
0.02312159 0.74436319 0.037042022 5455659
0.022691516 0.7444104 0.037039623 5521452
0.022261446 0.7444576 0.037037224 5521452
0.021831373 0.74450481 0.03703481 5455659
0.021401303 0.74455196 0.037032411 5455659
0.020971231 0.74459916 0.037030011 5455659
0.020541159 0.74464637 0.037027597 5455659
0.020111088 0.74469352 0.037025198 5455659
0.019681016 0.74474072 0.037022799 5389866
0.019250944 0.74478793 0.037020385 5389866
0.018767288 0.74404132 0.037641361 5455659
0.01833884 0.74408829 0.037638962 5389866
0.017910391 0.74413532 0.037636578 5455659
0.017481944 0.74418235 0.037634179 5455659
0.017053494 0.74422932 0.03763178 5389866
0.016625047 0.74427634 0.037629396 5455659
0.016196597 0.74432337 0.037626997 5455659
0.015768148 0.74437034 0.037624598 5455659
0.015339701 0.74441737 0.037622213 5455659
0.014911251 0.7444644 0.037619814 5389866
0.014482804 0.74451143 0.037617415 5455659
0.014054354 0.74455845 0.037615031 5455659
0.013625905 0.74460542 0.037612632 5455659
0.013197457 0.74465245 0.037610233 5455659
0.012738146 0.74390322 0.038231343 5455659
0.012311319 0.74395001 0.038228959 5455659
0.011884496 0.74399686 0.038226575 5586475
0.011457667 0.74404371 0.03822419 5652268
0.011030842 0.74409056 0.038221806 5586475
0.010604016 0.74413735 0.038219422 5520682
0.010177191 0.7441842 0.038217038 5455659
0.0097503662 0.74423105 0.038214654 5455659
0.0093235392 0.74427783 0.038212255 5521452
0.0088967141 0.74432468 0.03820987 5455659
0.0084698889 0.74437153 0.038207486 5455659
0.0080430619 0.74441838 0.038205102 5455659
0.0076162363 0.74446517 0.038202718 5455659
0.0071894093 0.74451202 0.038200334 5521452
0.0067625842 0.74455887 0.038197935 5455659
0.0063357591 0.74460566 0.03819555 5521452
0.0059089339 0.74465251 0.038193166 5455659
0.0054821069 0.74469936 0.038190782 5455659
0.0050536334 0.74394673 0.038812056 5455659
0.0046284287 0.7439934 0.038809687 5521452
0.004203226 0.74404001 0.038807303 5455659
0.0037780232 0.74408668 0.038804919 5521452
0.0033528223 0.74413335 0.038802549 5521452
0.0029276176 0.74417996 0.03880018 5521452
0.0025024167 0.74422663 0.038797796 5455659
0.002077214 0.7442733 0.038795412 5521452
0.0016520093 0.74431992 0.038793042 5521452
0.0012268065 0.74436659 0.038790673 5521452
0.00080160378 0.74441326 0.038788289 5521452
0.000376401 0.74445993 0.038785905 5521452
-4.8801769e-05 0.7445066 0.038783535 5521452
-0.00047400454 0.74455321 0.038781166 5521452
-0.00089920731 0.74459988 0.038778782 5455659
-0.0013244082 0.74464655 0.038776398 5455659
-0.0017496129 0.74469316 0.038774028 5455659
-0.0021488746 0.74393731 0.039395481 5455659
-0.002572455 0.74398381 0.039393127 5521198
-0.0029960354 0.7440303 0.039390758 5521198
-0.0034196121 0.74407673 0.039388388 5521198
-0.0038431925 0.74412322 0.039386019 5455405
-0.0042667729 0.74416971 0.03938365 5390126
-0.0046903533 0.7442162 0.039381281 5455919
-0.0051139337 0.7442627 0.039378911 5390126
-0.0055375104 0.74430913 0.039376542 5390126
-0.0059610908 0.74435562 0.039374173 5324333
-0.0063846712 0.74440211 0.039371818 5390126
-0.0068082516 0.74444854 0.039369449 5324333
-0.007231832 0.74449503 0.03936708 5324333
-0.0076554124 0.74454153 0.03936471 5390126
-0.0080789924 0.74458802 0.039362341 5390126
-0.008502569 0.74463451 0.039359972 5390126
-0.0089261495 0.74468094 0.039357603 5324333
