# .PCD v0.7 - Point Cloud Data file format
VERSION 0.7
FIELDS x y z rgb
SIZE 4 4 4 4
TYPE F F F U
COUNT 1 1 1 1
WIDTH 1074
HEIGHT 1
VIEWPOINT 0 0 0 1 0 0 0
POINTS 1074
DATA ascii
-0.028211758 0.82813132 0.065694839 12563361
-0.028035104 0.82852447 0.065692768 12760742
-0.027858466 0.82891762 0.065690696 12958121
-0.027681813 0.82931077 0.06568861 13221039
-0.027505159 0.82970399 0.065686539 13484211
-0.027328521 0.83009714 0.065684468 13550776
-0.027151868 0.83049029 0.065682381 13813948
-0.026975229 0.83088344 0.06568031 14142913
-0.026798576 0.8312766 0.065678224 14274499
-0.026621923 0.83166975 0.065676153 14800843
-0.025583401 0.83189046 0.06515722 15064015
-0.025406092 0.83228511 0.065155134 15458003
-0.025228769 0.83267975 0.065153047 15786968
-0.02505146 0.83307445 0.065150961 16181726
-0.024874136 0.83346909 0.065148875 16444898
-0.024696827 0.83386374 0.065146789 16707555
-0.024519503 0.83425838 0.065144703 16773348
-0.024342194 0.83465302 0.065142617 16510176
-0.023297668 0.83488715 0.064623609 16378590
-0.023119688 0.83528328 0.064621523 16509660
-0.022941694 0.83567941 0.064619422 16180695
-0.029867619 0.75067592 0.048404366 10061169
-0.029667556 0.75112122 0.048402011 10192755
-0.029467478 0.75156653 0.048399657 10521720
-0.03001897 0.75243175 0.048911452 10719099
-0.029819578 0.75287557 0.048909113 10719099
-0.029620171 0.75331938 0.048906758 10784892
-0.030174315 0.7541787 0.049418569 10982271
-0.029975593 0.75462103 0.049416244 11048064
-0.029776856 0.7550633 0.049413905 11113603
-0.031089231 0.75632769 0.050439954 11113603
-0.030891836 0.75676703 0.050437629 11179650
-0.03069444 0.75720638 0.050435305 11245443
-0.031254634 0.75805229 0.050947204 11180164
-0.031057909 0.75849015 0.050944895 11180164
-0.030861199 0.75892794 0.050942585 11180164
-0.031424031 0.75976789 0.051454499 11311750
-0.031227976 0.76020426 0.05145219 11311750
-0.031031922 0.76064062 0.05144988 11443336
-0.031597435 0.76147461 0.051961824 11443082
-0.031402051 0.76190948 0.05195953 11443082
-0.031206667 0.76234436 0.051957235 11443082
-0.031011283 0.76277918 0.05195494 11443082
-0.030815899 0.76321405 0.051952645 11509129
-0.030620515 0.76364893 0.05195035 11574922
-0.031190723 0.76447248 0.052462354 11509642
-0.03099601 0.76490587 0.052460074 11509642
-0.030801296 0.76533926 0.05245778 11509642
-0.030606583 0.76577258 0.0524555 11509642
-0.030411869 0.76620597 0.052453205 11443849
-0.030986086 0.76702058 0.052965268 11575435
-0.030792043 0.76745248 0.052962989 11575435
-0.030598 0.76788437 0.052960709 11509642
-0.030403942 0.76831627 0.052958414 11575181
-0.030209899 0.7687481 0.052956134 11706767
-0.030015856 0.76918 0.052953854 11575181
-0.030594781 0.76998425 0.053465977 11706767
-0.030401409 0.77041459 0.053463697 11706767
-0.030208036 0.770845 0.053461432 11575181
-0.030789599 0.77164328 0.053973556 11706767
-0.030596897 0.7720722 0.053971291 11706767
-0.03040418 0.77250111 0.053969026 11706767
-0.030988455 0.77329338 0.054481208 11706767
-0.030796409 0.7737208 0.054478958 11575181
-0.030604377 0.77414823 0.054476693 11706767
-0.031191304 0.77493453 0.054988891 11772560
-0.030999929 0.77536047 0.054986641 11575181
-0.030808568 0.7757864 0.054984391 11575181
-0.030617192 0.77621233 0.054982141 11772560
-0.030425817 0.77663827 0.054979891 11772560
-0.030234456 0.77706414 0.054977641 11575181
-0.030826062 0.77784008 0.055489898 11574668
-0.030635357 0.77826452 0.055487648 11772047
-0.030444667 0.77868897 0.055485412 11640715
-0.031038985 0.77945894 0.055997729 11640715
-0.03084895 0.77988183 0.055995494 11640715
-0.030658916 0.78030479 0.055993259 11574922
-0.030468881 0.78072774 0.055991024 11640715
-0.030278862 0.7811507 0.055988789 11772301
-0.030088827 0.78157365 0.055986553 11772301
-0.030687794 0.7823332 0.056498885 11772301
-0.03049843 0.78275466 0.056496665 11640715
-0.030309066 0.78317612 0.056494445 11640715
-0.030119717 0.78359759 0.056492209 11574922
-0.029930353 0.78401899 0.056489989 11574922
-0.029740989 0.78444046 0.056487754 11640715
-0.03034465 0.78518957 0.057000175 11640715
-0.030155957 0.78560954 0.056997955 11575435
-0.029967263 0.78602952 0.056995735 11575435
-0.029778585 0.78644949 0.056993514 11575435
-0.029589891 0.78686947 0.056991294 11772814
-0.029401198 0.78728944 0.056989074 11575435
-0.030009523 0.78802812 0.057501525 11575435
-0.0298215 0.78844661 0.057499319 11575435
-0.029633477 0.78886509 0.057497099 11575435
-0.029445454 0.78928351 0.057494894 11509642
-0.029257432 0.789702 0.057492688 11509642
-0.029069409 0.79012048 0.057490468 11443849
-0.029682457 0.79084873 0.058002993 11509642
-0.029495105 0.79126573 0.058000788 11443849
-0.029307753 0.79168272 0.057998583 11443849
-0.029923454 0.79240507 0.058511123 11443849
-0.029736772 0.79282057 0.058508933 11443849
-0.03035447 0.79353839 0.059021503 11443849
-0.030168459 0.79395241 0.059019312 11312263
-0.029982448 0.79436642 0.059017122 11181447
-0.030602843 0.79507828 0.059529737 11181447
-0.030417487 0.7954908 0.059527546 11312263
-0.030232146 0.79590333 0.059525371 11114884
-0.030046791 0.79631585 0.059523195 11312263
-0.02986145 0.79672837 0.059521019 11049091
-0.02967611 0.7971409 0.059518829 10851712
-0.029490754 0.79755342 0.059516653 11246470
-0.029305413 0.79796594 0.059514478 10720896
-0.029120058 0.79837847 0.059512302 10786689
-0.029747128 0.79907542 0.060024962 10326138
-0.029562458 0.79948646 0.060022801 10260345
-0.029377773 0.79989749 0.060020626 9864563
-0.029193103 0.80030853 0.06001845 8877668
-0.029008418 0.80071956 0.060016289 8482912
-0.028823748 0.80113059 0.060014114 8219740
-0.029455528 0.80181718 0.060526848 8154715
-0.029271528 0.80222672 0.060524687 7496785
-0.029087514 0.80263627 0.060522527 7761756
-0.028903514 0.80304581 0.060520366 8090721
-0.0287195 0.80345535 0.060518205 8684404
-0.028535485 0.8038649 0.06051603 9605506
-0.029171929 0.80454099 0.061028808 10198413
-0.028988585 0.80494905 0.061026663 9869448
-0.028805256 0.8053571 0.061024502 9869703
-0.028621912 0.80576515 0.061022341 9869703
-0.028438568 0.80617321 0.061020195 9738887
-0.028255239 0.80658126 0.061018035 9673094
-0.028896376 0.80724698 0.061530888 9540738
-0.028713703 0.80765355 0.061528742 9803910
-0.02853103 0.80806011 0.061526597 9606274
-0.029174834 0.80871987 0.06203945 9737860
-0.028992832 0.80912495 0.062037319 9934210
-0.028810829 0.80953002 0.062035173 9736831
-0.029457301 0.81018382 0.062548086 10986126
-0.029275969 0.81058741 0.062545955 10525575
-0.029094636 0.81099099 0.062543824 10525575
-0.028913304 0.81139457 0.062541693 10920333
-0.028731972 0.81179816 0.062539563 11116683
-0.02855064 0.81220174 0.062537432 11116683
-0.029201835 0.81284511 0.063050389 11379085
-0.029021174 0.8132472 0.063048273 11379085
-0.028840512 0.81364936 0.063046142 11641998
-0.029494345 0.81428677 0.06355913 11576205
-0.029314354 0.81468737 0.063557014 11509642
-0.029134363 0.81508797 0.063554898 11707021
-0.028954357 0.81548858 0.063552782 11772814
-0.028774366 0.81588918 0.063550666 11772814
-0.028594375 0.81628978 0.06354855 11707021
-0.029252917 0.81691676 0.064061597 11707021
-0.029073596 0.81731588 0.064059496 11707021
-0.028894261 0.81771499 0.06405738 11707021
-0.029555455 0.81833607 0.064570457 11641998
-0.029376805 0.81873369 0.064568356 11707791
-0.029198155 0.81913131 0.064566255 11641998
-0.02901949 0.81952894 0.064564154 11576205
-0.02884084 0.81992656 0.064562052 11576205
-0.02866219 0.82032418 0.064559951 11378826
-0.029328093 0.82093483 0.065073088 11444619
-0.029150113 0.82133096 0.065071002 11576205
-0.028972119 0.8217271 0.065068901 11707021
-0.02879414 0.82212323 0.065066814 11509642
-0.028616145 0.82251936 0.065064728 11509642
-0.029286042 0.82312107 0.065577909 11509642
-0.029108733 0.82351571 0.065575823 11509642
-0.028931409 0.82391036 0.065573737 11509642
-0.028754085 0.824305 0.065571651 11378056
-0.028576776 0.82469964 0.065569565 11312263
-0.028399453 0.82509428 0.065567493 11443336
-0.028222144 0.82548892 0.065565407 11509129
-0.02804482 0.82588357 0.065563321 11443849
-0.027867511 0.82627827 0.065561235 11575435
-0.028544113 0.82686502 0.066074505 11773330
-0.02836746 0.82725817 0.066072419 12102295
-0.028190821 0.82765138 0.066070348 12234394
-0.028014168 0.82804453 0.066068277 12563359
-0.027837515 0.82843769 0.066066191 12694949
-0.027660877 0.82883084 0.066064119 12958121
-0.027484223 0.82922399 0.066062048 13221039
-0.02730757 0.82961714 0.066059962 13484211
-0.027130932 0.83001029 0.066057891 13550776
-0.026954278 0.83040345 0.066055804 13748155
-0.026777625 0.83079666 0.066053733 14011327
-0.026600987 0.83118981 0.066051662 14208706
-0.026424333 0.83158296 0.066049576 14669257
-0.025385067 0.83180332 0.065532058 15064015
-0.025207758 0.83219802 0.065529972 15261394
-0.025030434 0.83259267 0.065527886 15590359
-0.02485311 0.83298731 0.0655258 15721945
-0.024675801 0.83338195 0.065523714 16050910
-0.024498478 0.83377659 0.065521628 16444898
-0.024321169 0.83417124 0.065519556 16642277
-0.024143845 0.83456588 0.06551747 16444898
-0.023098588 0.83479965 0.064999864 16313312
-0.022920594 0.83519578 0.064997777 16312797
-0.022742599 0.83559197 0.064995676 16049625
-0.029643834 0.75057763 0.048827291 10191985
-0.029443771 0.75102293 0.048824951 10323571
-0.029243693 0.75146818 0.048822597 10521720
-0.02979593 0.75233376 0.049332976 10653306
-0.029596537 0.75277758 0.049330622 10653306
-0.029397145 0.75322139 0.049328282 10784892
-0.029952019 0.75408101 0.049838677 10982271
-0.029753298 0.75452334 0.049836338 11048064
-0.029554561 0.75496566 0.049834013 11048064
-0.030868441 0.75623071 0.050857231 11113857
-0.030671045 0.75667006 0.050854906 11113857
-0.03047365 0.7571094 0.050852582 11245443
-0.031034589 0.75795561 0.051363066 11180164
-0.030837864 0.75839347 0.051360756 11180164
-0.030641153 0.75883126 0.051358446 11180164
-0.03120473 0.75967157 0.051868945 11311750
-0.031008676 0.76010793 0.051866636 11311496
-0.030812621 0.7605443 0.051864326 11443082
-0.03137888 0.76137859 0.052374855 11443082
-0.031183511 0.76181346 0.05237256 11443082
-0.030988127 0.76224834 0.052370265 11443082
-0.030792743 0.76268315 0.05236797 11443082
-0.030597359 0.76311803 0.052365676 11574922
-0.030401975 0.7635529 0.052363381 11509129
-0.030972928 0.76437682 0.052873984 11574922
-0.030778214 0.7648102 0.052871689 11509129
-0.030583501 0.76524353 0.052869394 11509642
-0.030388787 0.76567692 0.052867115 11509642
-0.030194074 0.7661103 0.05286482 11443849
-0.030769035 0.76692528 0.053375468 11575435
-0.030574992 0.76735711 0.053373188 11575435
-0.030380934 0.76778901 0.053370908 11509642
-0.030186892 0.7682209 0.053368628 11575435
-0.029992849 0.7686528 0.053366348 11575435
-0.029798806 0.76908463 0.053364068 11575181
-0.030378476 0.76988924 0.053874761 11706767
-0.030185103 0.77031958 0.053872496 11706767
-0.029991731 0.77074999 0.053870216 11575181
-0.030574054 0.77154857 0.054380938 11706767
-0.030381337 0.77197748 0.054378673 11706767
-0.030188635 0.7724064 0.054376408 11706767
-0.03077364 0.77319902 0.054887176 11706767
-0.030581608 0.77362645 0.054884911 11575181
-0.030389562 0.77405387 0.054882661 11772560
-0.030977234 0.77484053 0.055393443 11772560
-0.030785874 0.77526641 0.055391192 11772560
-0.030594498 0.77569234 0.055388942 11706767
-0.030403137 0.77611828 0.055386692 11706767
-0.030211762 0.77654421 0.055384442 11706767
-0.030020401 0.77697015 0.055382192 11509388
-0.030612752 0.77774638 0.055893019 11509642
-0.030422062 0.77817082 0.055890784 11575435
-0.030231357 0.77859527 0.055888548 11575435
-0.03082642 0.77936554 0.056399435 11575435
-0.030636385 0.77978849 0.0563972 11575435
-0.030446351 0.78021145 0.056394979 11509642
-0.030256331 0.7806344 0.056392744 11509642
-0.030066296 0.7810573 0.056390509 11707021
-0.029876262 0.78148025 0.056388274 11707021
-0.030475989 0.78224015 0.05689919 11707021
-0.030286625 0.78266156 0.05689697 11575435
-0.030097261 0.78308302 0.056894735 11509642
-0.029907897 0.78350449 0.056892514 11509642
-0.029718533 0.78392595 0.056890294 11509642
-0.029529169 0.78434741 0.056888059 11575435
-0.03013359 0.78509688 0.057399049 11509642
-0.029944897 0.78551686 0.057396844 11575435
-0.029756203 0.78593677 0.057394624 11707021
-0.02956751 0.78635675 0.057392403 11575435
-0.029378816 0.78677672 0.057390183 11707021
-0.029190138 0.7871967 0.057387963 11509642
-0.029799208 0.78793573 0.057898998 11509642
-0.029611185 0.78835416 0.057896793 11509642
-0.029423162 0.78877264 0.057894573 11509642
-0.029235139 0.78919113 0.057892367 11443849
-0.029047117 0.78960961 0.057890162 11443849
-0.028859094 0.7900281 0.057887942 11443849
-0.029472902 0.7907567 0.058399051 11443849
-0.02928555 0.7911737 0.058396846 11378056
-0.029098183 0.79159069 0.058394641 11378056
-0.029714629 0.79231334 0.058905765 11378056
-0.029527947 0.79272878 0.058903575 11312263
-0.030146405 0.79344696 0.059414729 11312263
-0.029960394 0.79386097 0.059412539 11114884
-0.029774368 0.79427499 0.059410349 10918275
-0.030395508 0.7949872 0.059921548 10918275
-0.030210167 0.79539973 0.059919372 11049091
-0.030024827 0.79581225 0.059917182 10983298
-0.029839471 0.79622477 0.059915006 10983298
-0.02965413 0.7966373 0.059912831 10785919
-0.029468775 0.79704982 0.059910655 10325368
-0.029283434 0.79746234 0.059908479 10062196
-0.029098094 0.79787487 0.059906289 9339756
-0.028912738 0.79828739 0.059904113 8550240
-0.029540569 0.79898471 0.060415372 7826263
-0.029355884 0.79939574 0.060413197 7497298
-0.029171199 0.79980677 0.060411021 7498072
-0.028986529 0.80021781 0.06040886 7761244
-0.028801858 0.80062878 0.060406685 8222822
-0.028617173 0.80103981 0.060404509 8880752
-0.029249713 0.80172676 0.060915843 9211770
-0.029065698 0.8021363 0.060913667 9738114
-0.028881699 0.80254585 0.060911506 10067854
-0.028697684 0.80295539 0.060909346 9804682
-0.02851367 0.80336493 0.060907185 9804428
-0.02832967 0.80377448 0.060905024 9541256
-0.028966859 0.80445093 0.061416388 9606533
-0.028783515 0.80485898 0.061414227 9474947
-0.028600171 0.80526704 0.061412081 9540735
-0.028416842 0.80567509 0.06140992 9474942
-0.028233498 0.80608314 0.06140776 9671549
-0.028050154 0.8064912 0.061405614 9803135
-0.028692037 0.80715722 0.061917037 10065024
-0.028509378 0.80756378 0.061914891 10393989
-0.028326705 0.80797035 0.061912745 10656646
-0.028971255 0.80863047 0.062424198 10919818
-0.028789252 0.80903554 0.062422052 11116683
-0.028607249 0.80944061 0.062419921 11182476
-0.029254466 0.81009471 0.062931418 11248523
-0.029073134 0.8104983 0.062929288 11248523
-0.028891817 0.81090188 0.062927157 11116937
-0.028710485 0.81130546 0.062925026 11248523
-0.028529152 0.81170905 0.062922895 11182730
-0.02834782 0.81211263 0.062920749 11182730
-0.028999761 0.81275636 0.063432306 11576718
-0.028819084 0.81315845 0.06343019 11510925
-0.028638422 0.81356055 0.063428059 11641998
-0.029293016 0.81419832 0.063939631 11641998
-0.029113024 0.81459892 0.063937515 11575435
-0.028933018 0.81499952 0.063935399 11707021
-0.028753027 0.81540012 0.063933283 11772814
-0.028573036 0.81580073 0.063931167 11772814
-0.028393045 0.81620133 0.063929051 11772814
-0.029052332 0.81682867 0.064440683 11707021
-0.028872997 0.81722778 0.064438581 11707021
-0.028693676 0.81762689 0.064436466 11707021
-0.02935563 0.81824827 0.064948127 11707021
-0.029176965 0.81864589 0.064946026 11772814
-0.028998315 0.81904352 0.064943925 11641998
-0.02881965 0.81944114 0.064941823 11576205
-0.028641 0.81983876 0.064939722 11576205
-0.02846235 0.82023638 0.064937621 11444619
-0.029129013 0.82084733 0.065449342 11444619
-0.028951019 0.82124346 0.065447256 11576205
-0.02877304 0.8216396 0.06544517 11707021
-0.028595045 0.82203579 0.065443069 11575435
-0.028417066 0.82243192 0.065440983 11509642
-0.029087707 0.82303393 0.065952748 11509642
-0.028910384 0.82342857 0.065950662 11509642
-0.028733075 0.82382321 0.065948576 11443849
-0.028555751 0.82421786 0.065946504 11378056
-0.028378442 0.8246125 0.065944418 11312263
-0.028201118 0.82500714 0.065942332 11443336
-0.028023809 0.82540178 0.065940246 11509129
-0.027846485 0.82579648 0.06593816 11509129
-0.027669162 0.82619113 0.065936074 11640715
-0.028346524 0.82677823 0.066447929 11707537
-0.02816987 0.82717139 0.066445842 12036502
-0.027993217 0.82756454 0.066443771 12234396
-0.027816579 0.82795769 0.0664417 12497568
-0.027639925 0.82835084 0.066439614 12694949
-0.027463287 0.82874405 0.066437542 12892328
-0.027286634 0.82913721 0.066435471 13221293
-0.027109981 0.82953036 0.066433385 13418672
-0.026933342 0.82992351 0.066431314 13484983
-0.026756689 0.83031666 0.066429242 13682362
-0.026580036 0.83070982 0.066427156 14142913
-0.026403397 0.83110297 0.066425085 14274499
-0.026226744 0.83149612 0.066423014 14603464
-0.025186732 0.83171618 0.065906897 14932429
-0.025009409 0.83211088 0.065904811 15064015
-0.0248321 0.83250552 0.065902725 15590359
-0.024654776 0.83290017 0.065900639 15656152
-0.024477467 0.83329481 0.065898553 15919324
-0.024300143 0.83368945 0.065896481 16379105
-0.024122834 0.83408409 0.065894395 16642277
-0.02394551 0.83447874 0.065892309 16444898
-0.022899494 0.83471221 0.065376118 16313312
-0.022721499 0.83510834 0.065374032 16312797
-0.02254352 0.83550447 0.065371946 16049625
-0.030769289 0.74957305 0.049768552 8613471
-0.030569881 0.75001681 0.049766213 9402215
-0.030370489 0.75046062 0.049763873 9862766
-0.030171096 0.75090444 0.049761519 10191985
-0.029971689 0.75134826 0.049759179 10389364
-0.029772297 0.75179201 0.04975684 10652536
-0.031078964 0.75307709 0.050777122 10784122
-0.030880898 0.75351793 0.050774798 10653306
-0.030682832 0.75395876 0.050772473 10916478
-0.031994879 0.75523192 0.0517928 10982271
-0.031798154 0.75566977 0.051790491 11048064
-0.031601429 0.75610757 0.051788181 11048064
-0.032161742 0.75695717 0.05229722 11113857
-0.031965703 0.75739348 0.05229491 11113857
-0.031769648 0.75782984 0.0522926 11245443
-0.031573594 0.75826621 0.052290305 11180164
-0.031377539 0.75870252 0.052287996 11180164
-0.031181484 0.75913888 0.052285686 11311750
-0.031746492 0.759978 0.052794784 11311750
-0.031551108 0.76041287 0.05279249 11311496
-0.031355724 0.76084775 0.052790195 11443082
-0.03116034 0.76128256 0.0527879 11443082
-0.030964956 0.76171744 0.05278559 11443082
-0.030769572 0.76215231 0.052783296 11377289
-0.031339273 0.762981 0.053292468 11443082
-0.031144559 0.76341438 0.053290173 11508875
-0.030949846 0.76384777 0.053287879 11508875
-0.030755132 0.76428115 0.053285599 11508875
-0.030560419 0.76471448 0.053283304 11508875
-0.030365705 0.76514786 0.053281024 11574668
-0.030940071 0.76596612 0.053790227 11574668
-0.030746028 0.76639801 0.053787947 11443849
-0.030551985 0.76682991 0.053785667 11575435
-0.030357942 0.76726174 0.053783387 11575435
-0.030163884 0.76769364 0.053781107 11509642
-0.030742303 0.76850301 0.054290369 11575435
-0.03054893 0.76893342 0.054288104 11575435
-0.030355558 0.76936376 0.054285824 11575181
-0.030936614 0.77016717 0.054795101 11575181
-0.030743912 0.77059609 0.054792836 11706767
-0.030551195 0.771025 0.054790571 11575181
-0.031134948 0.77182239 0.055299908 11575181
-0.030942917 0.77224982 0.055297643 11706767
-0.030750871 0.77267724 0.055295393 11706767
-0.030558839 0.77310467 0.055293128 11706767
-0.030366793 0.77353203 0.055290878 11575181
-0.030174762 0.77395946 0.055288613 11706767
-0.030763179 0.77474648 0.055797979 11772560
-0.030571818 0.77517241 0.055795729 11772560
-0.030380443 0.77559829 0.055793479 11575181
-0.030971542 0.77637935 0.056302875 11575181
-0.030780837 0.77680379 0.05630064 11706767
-0.030590147 0.77722824 0.056298405 11443595
-0.031183943 0.77800333 0.056807861 11575181
-0.030993924 0.77842629 0.056805626 11575181
-0.030803889 0.77884924 0.05680339 11575435
-0.030613855 0.77927214 0.056801155 11575435
-0.03042382 0.77969509 0.05679892 11575435
-0.0302338 0.78011805 0.056796685 11509642
-0.030832261 0.78088272 0.05730617 11509642
-0.030642897 0.78130418 0.05730395 11575435
-0.030453533 0.78172565 0.057301715 11575435
-0.030264169 0.78214705 0.057299495 11575435
-0.030074805 0.78256851 0.057297274 11575435
-0.029885441 0.78298998 0.057295039 11509642
-0.03048861 0.78374422 0.057804599 11509642
-0.030299917 0.78416419 0.057802379 11575435
-0.030111223 0.78458416 0.057800159 11575435
-0.02992253 0.78500414 0.057797939 11509642
-0.029733837 0.78542411 0.057795733 11575435
-0.029545143 0.78584409 0.057793513 11575435
-0.030152977 0.78658789 0.058303103 11575435
-0.029964954 0.78700638 0.058300897 11509642
-0.029776916 0.7874248 0.058298677 11443849
-0.030387461 0.78816271 0.058808327 11509642
-0.030200094 0.7885797 0.058806121 11509388
-0.030012742 0.7889967 0.058803916 11443595
-0.030625924 0.78972858 0.05931358 11443595
-0.030439243 0.79014409 0.059311375 11377802
-0.030252561 0.79055959 0.059309185 11246470
-0.030065864 0.79097509 0.059306994 11312263
-0.029879183 0.7913906 0.059304804 11246470
-0.029692501 0.7918061 0.059302598 11246470
-0.030310363 0.79252756 0.059812337 10984068
-0.030124351 0.79294157 0.059810147 10918275
-0.029938325 0.79335558 0.059807956 10918275
-0.030558884 0.79407108 0.06031771 10720896
-0.030373544 0.7944836 0.060315534 10589310
-0.030188188 0.79489613 0.060313359 10391931
-0.030002847 0.79530865 0.060311183 9865587
-0.029817492 0.79572117 0.060309008 9076071
-0.030442059 0.79642773 0.060818791 8483164
-0.030257374 0.79683876 0.060816616 7825234
-0.030072704 0.79724979 0.060814455 7365453
-0.029888019 0.79766083 0.06081228 7497039
-0.029703349 0.79807186 0.060810104 7564375
-0.029518664 0.79848289 0.060807943 8485477
-0.03014794 0.79917908 0.061317801 8947574
-0.029963925 0.79958862 0.061315641 9737090
-0.029779911 0.79999816 0.06131348 9672324
-0.029595912 0.80040771 0.061311305 10001289
-0.029411897 0.80081725 0.061309144 9869703
-0.029227898 0.80122679 0.061306983 9606531
-0.029861808 0.80191249 0.061816886 9672324
-0.029678479 0.80232054 0.061814725 9606531
-0.029495135 0.80272859 0.06181258 9540740
-0.029311791 0.80313665 0.061810419 9474947
-0.029128462 0.8035447 0.061808273 9671299
-0.028945118 0.80395275 0.061806113 9737092
-0.029583737 0.80462807 0.062316075 9933440
-0.029401064 0.80503464 0.062313929 10065026
-0.029218405 0.8054412 0.062311783 10261888
-0.029035732 0.80584776 0.062309638 10590853
-0.028853059 0.80625433 0.062307492 10787972
-0.028670385 0.80666089 0.062305346 11116937
-0.029313684 0.80732578 0.062815353 11313544
-0.029131681 0.80773085 0.062813222 11247751
-0.028949678 0.80813593 0.062811077 11378824
-0.029595643 0.80879486 0.063321143 11576203
-0.029414311 0.80919844 0.063318998 11444617
-0.029232979 0.80960202 0.063316867 11444617
-0.029051647 0.81000561 0.063314736 11576203
-0.028870314 0.81040919 0.063312605 11576203
-0.028688982 0.81081277 0.063310474 11313031
-0.029339656 0.81146133 0.063820586 11576203
-0.029158995 0.81186342 0.06381847 11576203
-0.028978333 0.81226552 0.063816339 11444617
-0.029631659 0.81290805 0.06432648 11641996
-0.029451668 0.81330866 0.064324364 11641996
-0.029271677 0.81370926 0.064322248 11641998
-0.029091686 0.81410986 0.064320132 11641998
-0.02891168 0.81451046 0.064318016 11509642
-0.028731689 0.81491107 0.0643159 11707021
-0.029389709 0.81554317 0.064826101 11772814
-0.029210389 0.81594229 0.064823985 11772814
-0.029031068 0.8163414 0.064821884 11772814
-0.029691756 0.81696761 0.0653321 11772814
-0.029513091 0.81736523 0.065329999 11707021
-0.029334441 0.81776285 0.065327898 11575435
-0.029155791 0.81816047 0.065325797 11575435
-0.028977126 0.8185581 0.065323696 11772814
-0.028798476 0.81895572 0.065321594 11641998
-0.029463872 0.8195715 0.065831885 11576205
-0.029285893 0.81996763 0.065829784 11576205
-0.029107898 0.82036376 0.065827698 11444619
-0.028929919 0.82075989 0.065825596 11444619
-0.028751925 0.82115602 0.06582351 11444619
-0.028573945 0.82155216 0.065821424 11575435
-0.029244006 0.8221575 0.066331759 11509642
-0.029066682 0.82255214 0.066329673 11443595
-0.028889358 0.82294679 0.066327587 11443595
-0.028712049 0.82334143 0.066325501 11443595
-0.028534725 0.82373607 0.066323429 11443595
-0.029208809 0.82433248 0.066833809 11378056
-0.029032171 0.82472563 0.066831738 11312263
-0.028855518 0.82511878 0.066829652 11312263
-0.028678864 0.82551193 0.06682758 11443849
-0.028502226 0.82590508 0.066825509 11443849
-0.028325573 0.82629824 0.066823423 11575435
-0.028148919 0.82669145 0.066821352 11707791
-0.027972281 0.8270846 0.06681928 12036756
-0.027795628 0.82747775 0.066817194 12234396
-0.028476387 0.8280592 0.067327648 12497568
-0.028300405 0.82845092 0.067325577 12694949
-0.028124437 0.82884258 0.067323521 12892328
-0.027948454 0.82923424 0.06732145 13024684
-0.027772471 0.8296259 0.067319378 13287856
-0.027596503 0.83001757 0.067317307 13484981
-0.027420521 0.83040923 0.067315236 13682360
-0.026382446 0.83062303 0.066800594 13945534
-0.026205808 0.83101618 0.066798508 14274499
-0.026029155 0.83140934 0.066796437 14471878
-0.025852501 0.83180249 0.066794366 14735050
-0.025675863 0.83219564 0.066792279 14932175
-0.02549921 0.83258885 0.066790208 15590105
-0.025322556 0.832982 0.066788137 15852761
-0.025145918 0.83337516 0.066786051 15984347
-0.024101809 0.83360231 0.06627132 16181726
-0.023924485 0.83399695 0.066269234 16379105
-0.023747176 0.83439159 0.066267148 16378592
-0.023569852 0.8347863 0.066265061 16378592
-0.023392543 0.83518094 0.066262975 16443613
-0.023215219 0.83557558 0.066260889 16180441
-0.030546248 0.74947506 0.050190076 8613471
-0.030346841 0.74991882 0.050187737 9271399
-0.030147448 0.75036263 0.050185382 9731950
-0.029948056 0.75080645 0.050183043 10191985
-0.029748648 0.75125027 0.050180703 10389364
-0.029549256 0.75169402 0.050178349 10718327
-0.030857414 0.75297976 0.051195815 10849913
-0.030659363 0.75342059 0.051193491 10849913
-0.030461296 0.75386143 0.051191166 11047292
-0.031774834 0.75513524 0.052208662 10982271
-0.031578109 0.75557309 0.052206352 11048064
-0.031381384 0.75601095 0.052204043 11048064
-0.031942457 0.75686079 0.052711666 11113857
-0.031746402 0.75729716 0.052709356 11245443
-0.031550348 0.75773346 0.052707046 11245443
-0.031354293 0.75816983 0.052704751 11180164
-0.031158239 0.7586062 0.052702442 11311750
-0.030962184 0.75904256 0.052700147 11311750
-0.031527936 0.75988197 0.053207815 11377543
-0.031332552 0.76031685 0.05320552 11311496
-0.031137168 0.76075172 0.053203225 11377289
-0.030941784 0.7611866 0.05320093 11443082
-0.0307464 0.76162142 0.053198636 11443082
-0.030551031 0.76205629 0.053196326 11443082
-0.031121477 0.76288533 0.053704083 11443082
-0.030926764 0.76331872 0.053701788 11443082
-0.030732051 0.7637521 0.053699508 11508875
-0.030537337 0.76418543 0.053697214 11508875
-0.030342609 0.76461881 0.053694919 11508875
-0.030147895 0.7650522 0.053692639 11574668
-0.03072302 0.76587081 0.054200441 11574668
-0.030528978 0.76630265 0.054198161 11443595
-0.030334935 0.76673454 0.054195881 11509388
-0.030140892 0.76716644 0.054193601 11575435
-0.029946834 0.76759827 0.054191306 11509642
-0.030525997 0.768408 0.054699168 11575435
-0.030332625 0.76883835 0.054696888 11575435
-0.030139253 0.76926875 0.054694623 11575181
-0.030721053 0.77007246 0.055202484 11575181
-0.030528352 0.77050138 0.055200219 11706767
-0.03033565 0.77093029 0.055197954 11575181
-0.030920148 0.77172804 0.05570586 11575181
-0.030728102 0.77215546 0.05570361 11706767
-0.03053607 0.77258289 0.055701345 11706767
-0.030344039 0.77301025 0.055699095 11706767
-0.030151993 0.77343768 0.05569683 11575181
-0.029959962 0.7738651 0.05569458 11706767
-0.030549124 0.77465242 0.056202531 11706767
-0.030357763 0.77507836 0.056200281 11706767
-0.030166388 0.77550429 0.056198031 11575181
-0.030758232 0.77628565 0.056706011 11509388
-0.030567542 0.77671009 0.056703776 11509388
-0.030376837 0.77713454 0.056701526 11443595
-0.030971393 0.77790993 0.057209581 11509388
-0.030781358 0.77833289 0.057207346 11509388
-0.030591324 0.77875584 0.057205111 11575435
-0.030401289 0.7791788 0.057202876 11707021
-0.03021127 0.77960169 0.05720064 11575435
-0.030021235 0.78002465 0.057198405 11509642
-0.030620441 0.78078967 0.057706475 11509642
-0.030431077 0.78121114 0.057704255 11575435
-0.030241713 0.78163254 0.05770202 11575435
-0.030052364 0.78205401 0.0576998 11509642
-0.029863 0.78247547 0.057697564 11509642
-0.029673636 0.78289694 0.057695344 11509642
-0.030277535 0.78365153 0.058203489 11509642
-0.030088842 0.78407151 0.058201268 11509642
-0.029900163 0.78449142 0.058199048 11509642
-0.02971147 0.78491139 0.058196828 11509642
-0.029522777 0.78533137 0.058194607 11509642
-0.029334083 0.78575134 0.058192402 11443849
-0.029942662 0.78649551 0.058700576 11443849
-0.029754639 0.78691399 0.058698371 11443849
-0.029566601 0.78733242 0.058696151 11378056
-0.030177891 0.78807062 0.059204385 11378056
-0.029990539 0.78848761 0.059202179 11246470
-0.029803187 0.78890461 0.059199974 11246470
-0.030417114 0.78963685 0.059708223 11312009
-0.030230418 0.79005235 0.059706032 11048837
-0.030043736 0.79046786 0.059703827 11049091
-0.029857054 0.7908833 0.059701636 10983298
-0.029670373 0.79129887 0.059699446 10786689
-0.029483676 0.79171431 0.059697241 10655103
-0.030102298 0.79243612 0.060205564 10129272
-0.029916272 0.79285014 0.060203373 9471342
-0.02973026 0.79326415 0.060201183 8879205
-0.030351564 0.79398 0.060709536 8681826
-0.030166224 0.79439253 0.060707346 7760472
-0.029980868 0.79480505 0.06070517 7168335
-0.029795527 0.79521757 0.060702994 7037519
-0.029610172 0.7956301 0.060700819 7629656
-0.030235484 0.79633701 0.061209187 8354408
-0.030050799 0.79674804 0.061207026 9275510
-0.029866129 0.79715908 0.061204851 9738114
-0.029681444 0.79757011 0.061202675 9935493
-0.029496774 0.79798114 0.061200514 9804164
-0.029312089 0.79839218 0.061198339 9935750
-0.02994211 0.79908866 0.061706781 9672324
-0.029758096 0.7994982 0.061704621 9540738
-0.029574096 0.79990774 0.06170246 9474945
-0.029390082 0.80031729 0.061700299 9540738
-0.029206082 0.80072683 0.061698139 9802883
-0.029022068 0.80113637 0.061695978 9737090
-0.029656738 0.80182242 0.062204465 9671297
-0.029473394 0.80223048 0.062202305 9737090
-0.029290065 0.80263853 0.062200144 10262151
-0.029106721 0.80304658 0.062197998 10262151
-0.028923377 0.80345464 0.062195837 10590857
-0.028740048 0.80386269 0.062193677 10854029
-0.029379413 0.80453831 0.062702239 11116685
-0.029196739 0.80494487 0.062700093 11182478
-0.029014066 0.80535144 0.062697947 11247753
-0.028831407 0.805758 0.062695801 11379339
-0.028648734 0.80616456 0.062693655 11378824
-0.028466061 0.80657113 0.06269151 11378824
-0.029110104 0.80723637 0.063200101 11576203
-0.028928101 0.80764145 0.063197955 11378824
-0.028746098 0.80804652 0.063195825 11575433
-0.029392809 0.80870575 0.063704461 11772812
-0.029211476 0.80910933 0.06370233 11772812
-0.029030144 0.80951291 0.063700199 11707019
-0.028848812 0.8099165 0.063698068 11707019
-0.02866748 0.81032008 0.063695937 11707019
-0.028486148 0.81072366 0.063693807 11575433
-0.029137582 0.81137252 0.064202502 11772812
-0.02895692 0.81177461 0.064200386 11772812
-0.028776258 0.8121767 0.064198256 11707019
-0.02943033 0.8128196 0.064706966 11772812
-0.029250324 0.8132202 0.06470485 11772812
-0.029070333 0.81362081 0.064702734 11707021
-0.028890342 0.81402141 0.064700618 11575435
-0.02871035 0.81442201 0.064698502 11509642
-0.028530359 0.81482261 0.064696401 11707021
-0.02918914 0.81545508 0.065205172 11707021
-0.029009804 0.81585419 0.065203071 11772814
-0.028830484 0.8162533 0.06520097 11772814
-0.029491916 0.81687981 0.06570977 11772814
-0.029313266 0.81727743 0.065707669 11707021
-0.029134601 0.81767505 0.065705568 11575435
-0.028955951 0.81807268 0.065703467 11575435
-0.028777301 0.8184703 0.065701365 11707021
-0.028598636 0.81886792 0.065699264 11707021
-0.029264793 0.819484 0.066208139 11707021
-0.029086798 0.81988013 0.066206038 11378826
-0.028908819 0.82027626 0.066203952 11378826
-0.028730825 0.82067239 0.066201866 11444619
-0.028552845 0.82106858 0.066199765 11378826
-0.028374851 0.82146472 0.066197678 11575435
-0.029045656 0.82207036 0.066706598 11509642
-0.028868347 0.822465 0.066704512 11443595
-0.028691024 0.82285964 0.066702425 11443595
-0.0285137 0.82325429 0.066700354 11443595
-0.028336391 0.82364893 0.066698268 11443595
-0.02901122 0.82424563 0.067207232 11377802
-0.028834581 0.82463884 0.067205161 11312009
-0.028657928 0.825032 0.06720309 11312263
-0.028481275 0.82542515 0.067201003 11443849
-0.028304636 0.8258183 0.067198932 11443849
-0.028127983 0.82621145 0.067196861 11575435
-0.02795133 0.8266046 0.067194775 11707537
-0.027774692 0.82699776 0.067192703 11904916
-0.027598038 0.82739091 0.067190632 12168603
-0.028279543 0.82797277 0.067699656 12497568
-0.02810356 0.82836443 0.0676976 12629156
-0.027927592 0.82875609 0.067695528 12892328
-0.02775161 0.82914776 0.067693457 13024684
-0.027575627 0.82953942 0.067691386 13287856
-0.027399659 0.82993108 0.067689314 13484981
-0.027223676 0.83032274 0.067687258 13550774
-0.026184857 0.83053625 0.067174017 13813948
-0.026008204 0.8309294 0.067171946 14011327
-0.025831565 0.83132255 0.06716986 14405831
-0.025654912 0.8317157 0.067167789 14603210
-0.025478274 0.83210886 0.067165703 14866382
-0.02530162 0.83250201 0.067163631 15261140
-0.025124967 0.83289516 0.06716156 15786966
-0.024948329 0.83328837 0.067159474 15852759
-0.023903459 0.83351517 0.066646159 16115418
-0.02372615 0.83390981 0.066644073 16378590
-0.023548827 0.83430445 0.066641986 16443613
-0.023371518 0.83469915 0.0666399 16509406
-0.023194194 0.8350938 0.066637814 16443867
-0.023016885 0.83548844 0.066635743 16180695
-0.031073719 0.7498073 0.051120013 8548192
-0.030874982 0.75024962 0.051117688 9271399
-0.030676261 0.75069189 0.051115349 9666157
-0.031230062 0.75155997 0.051621497 10126962
-0.031031996 0.75200081 0.051619157 10324341
-0.03083393 0.75244164 0.051616833 10587765
-0.031390399 0.75330377 0.05212298 10719351
-0.031193003 0.75374305 0.052120656 10785144
-0.030995622 0.7541824 0.052118331 10916730
-0.031554788 0.75503856 0.052624524 11113087
-0.031358063 0.75547642 0.052622214 11178880
-0.031161338 0.75591427 0.052619904 11244673
-0.031723157 0.75676447 0.053126112 11310466
-0.031527102 0.75720084 0.053123802 11245443
-0.031331047 0.75763714 0.053121507 11311236
-0.031895548 0.75848138 0.053627744 11311236
-0.031700164 0.75891626 0.05362545 11442822
-0.03150478 0.75935113 0.05362314 11442822
-0.031309396 0.75978601 0.053620845 11508615
-0.031114012 0.76022083 0.05361855 11311750
-0.030918628 0.7606557 0.053616256 11377543
-0.030723244 0.76109058 0.053613961 11443336
-0.03052786 0.76152539 0.053611666 11443336
-0.030332476 0.76196027 0.053609371 11509129
-0.030903667 0.76278967 0.054115698 11443336
-0.030708954 0.76322299 0.054113403 11443082
-0.03051424 0.76365638 0.054111123 11443082
-0.030319527 0.76408976 0.054108828 11508875
-0.030124813 0.76452315 0.054106548 11508875
-0.0299301 0.76495647 0.054104254 11508875
-0.03050597 0.76577544 0.05461064 11508875
-0.030311927 0.76620734 0.05460836 11443595
-0.030117884 0.76663917 0.05460608 11509388
-0.029923826 0.76707107 0.0546038 11575181
-0.029729784 0.76750296 0.05460152 11575181
-0.030309692 0.76831293 0.055107951 11575181
-0.03011632 0.76874334 0.055105686 11575181
-0.029922947 0.76917374 0.055103406 11575181
-0.030505508 0.76997781 0.055609852 11575181
-0.030312791 0.77040666 0.055607587 11575181
-0.03012009 0.77083558 0.055605322 11575181
-0.030705333 0.77163368 0.056111827 11575181
-0.030513301 0.77206111 0.056109563 11575181
-0.03032127 0.77248847 0.056107312 11706767
-0.030129224 0.7729159 0.056105047 11706767
-0.029937193 0.77334332 0.056102797 11575181
-0.029745147 0.77377075 0.056100532 11706767
-0.030335069 0.77455842 0.056607068 11772560
-0.030143693 0.7749843 0.056604818 11706767
-0.029952332 0.77541023 0.056602582 11575181
-0.030544922 0.77619195 0.057109147 11509388
-0.030354232 0.77661639 0.057106897 11509388
-0.030163527 0.77704084 0.057104662 11443595
-0.030758828 0.77781653 0.057611287 11575181
-0.030568793 0.77823949 0.057609051 11509388
-0.030378774 0.77866244 0.057606816 11575181
-0.030188739 0.7790854 0.057604596 11706767
-0.029998705 0.77950835 0.057602361 11575181
-0.02980867 0.77993131 0.057600126 11509388
-0.030408636 0.78069663 0.05810678 11509388
-0.030219272 0.78111804 0.058104545 11509388
-0.030029908 0.7815395 0.058102325 11575181
-0.029840544 0.78196096 0.058100104 11509388
-0.02965118 0.78238243 0.058097869 11509388
-0.029461831 0.78280389 0.058095649 11443595
-0.030066475 0.78355879 0.058602378 11443849
-0.029877782 0.78397876 0.058600157 11443849
-0.029689088 0.78439873 0.058597937 11443849
-0.029500395 0.78481871 0.058595717 11443849
-0.029311717 0.78523862 0.058593497 11443849
-0.029123023 0.7856586 0.058591276 11312263
-0.029732347 0.78640306 0.05909805 11114884
-0.029544324 0.78682154 0.059095845 11049091
-0.029356286 0.78724003 0.059093624 11114630
-0.029968321 0.78797859 0.059600443 11312009
-0.029780969 0.78839552 0.059598237 10852482
-0.029593617 0.78881252 0.059596032 10720896
-0.03020829 0.78954512 0.060102865 10194552
-0.030021608 0.78996062 0.060100675 10457724
-0.029834926 0.79037607 0.060098469 9734001
-0.029648229 0.79079163 0.060096279 9273450
-0.029461548 0.79120708 0.060094088 8352607
-0.029274866 0.79162258 0.060091898 7892056
-0.029894218 0.79234469 0.060598791 7892826
-0.029708207 0.7927587 0.0605966 7300689
-0.029522195 0.79317272 0.060594425 7696478
-0.030144244 0.79388893 0.061101347 8420201
-0.029958904 0.79430145 0.061099172 8881268
-0.029773548 0.79471397 0.061096996 9276026
-0.029588208 0.7951265 0.061094806 9672067
-0.029402852 0.79553902 0.06109263 10001032
-0.030028909 0.79624623 0.061599597 9672324
-0.029844224 0.79665726 0.061597422 9672324
-0.029659554 0.7970683 0.061595246 9672578
-0.029474869 0.79747933 0.061593086 9475199
-0.029290199 0.79789037 0.06159091 9409406
-0.029105514 0.7983014 0.061588734 9540992
-0.02973628 0.79899824 0.062095776 9671551
-0.029552281 0.79940778 0.062093616 9342586
-0.029368266 0.79981732 0.06209144 9934210
-0.029184252 0.80022687 0.062089279 9934210
-0.029000252 0.80063641 0.062087119 10590853
-0.028816238 0.80104595 0.062084958 10788232
-0.029451668 0.8017323 0.06259203 11182478
-0.029268324 0.80214036 0.062589869 11116685
-0.02908498 0.80254841 0.062587723 11116685
-0.028901637 0.80295646 0.062585562 10985099
-0.028718308 0.80336452 0.062583417 11115915
-0.028534964 0.80377257 0.062581256 11247501
-0.029175088 0.80444854 0.063088402 11312779
-0.028992414 0.80485511 0.063086256 11378572
-0.028809741 0.80526167 0.063084096 11444619
-0.028627068 0.80566823 0.06308195 11576205
-0.028444409 0.8060748 0.063079804 11575433
-0.028261736 0.80648136 0.063077658 11707019
-0.028906524 0.80714691 0.063584849 11772299
-0.028724521 0.80755198 0.063582703 11640713
-0.028542519 0.80795705 0.063580558 11640713
-0.029189974 0.80861664 0.064087793 11772299
-0.029008642 0.80902022 0.064085662 11772299
-0.02882731 0.8094238 0.064083531 11772299
-0.028645977 0.80982739 0.064081401 11707019
-0.028464645 0.81023097 0.06407927 11707019
-0.028283313 0.81063455 0.064077139 11575433
-0.028935492 0.81128371 0.064584419 11772812
-0.02875483 0.8116858 0.064582303 11707019
-0.028574169 0.81208795 0.064580172 11707019
-0.029228985 0.81273115 0.065087467 11772814
-0.029048994 0.81313175 0.065085351 11707021
-0.028869003 0.81353235 0.065083236 11707021
-0.028689012 0.81393296 0.06508112 11575435
-0.028509021 0.81433356 0.065079004 11509642
-0.028329015 0.81473416 0.065076888 11509642
-0.02898854 0.81536692 0.065584257 11707021
-0.02880922 0.81576604 0.065582156 11707021
-0.028629899 0.81616521 0.065580055 11772814
-0.029292077 0.81679201 0.06608744 11772814
-0.029113427 0.81718963 0.066085339 11707021
-0.028934762 0.81758726 0.066083238 11575435
-0.028756112 0.81798488 0.066081136 11575435
-0.028577462 0.8183825 0.066079035 11707021
-0.028398797 0.81878012 0.066076934 11707021
-0.029065698 0.81939656 0.066584393 11575435
-0.028887719 0.81979269 0.066582292 11509642
-0.028709725 0.82018882 0.066580206 11509642
-0.028531745 0.82058495 0.06657812 11509642
-0.028353751 0.82098109 0.066576019 11443849
-0.028175771 0.82137722 0.066573933 11575435
-0.028847322 0.82198322 0.067081437 11509642
-0.028669998 0.82237786 0.067079365 11443849
-0.028492689 0.8227725 0.067077279 11443849
-0.028315365 0.82316715 0.067075193 11443595
-0.028138056 0.82356179 0.067073107 11509388
-0.02881363 0.82415885 0.06758067 11377802
-0.028636992 0.824552 0.067578584 11312009
-0.028460339 0.82494515 0.067576513 11312009
-0.028283685 0.8253383 0.067574441 11443595
-0.028107047 0.82573152 0.067572355 11443595
-0.027930394 0.82612467 0.067570284 11706767
-0.027753741 0.82651782 0.067568213 11838353
-0.027577102 0.82691097 0.067566127 11969939
-0.027400449 0.82730412 0.067564055 12168090
-0.028082699 0.82788628 0.068071678 12562848
-0.027906716 0.82827795 0.068069607 12629154
-0.027730748 0.82866961 0.068067536 12760740
-0.027554765 0.82906127 0.068065464 12958891
-0.027378783 0.82945293 0.068063408 13222063
-0.027202815 0.82984459 0.068061337 13485235
-0.027026832 0.83023632 0.068059266 13485235
-0.025987267 0.8304494 0.067547441 13879487
-0.025810614 0.83084255 0.067545369 14142659
-0.025633976 0.83123571 0.067543283 14340038
-0.025457323 0.83162892 0.067541212 14603210
-0.025280669 0.83202207 0.067539141 14800589
-0.025104031 0.83241522 0.067537054 15326933
-0.024927378 0.83280838 0.067534983 15590359
-0.024750724 0.83320153 0.067532912 15656152
-0.023705125 0.83342803 0.067020997 15983832
-0.023527801 0.83382273 0.067018911 16115418
-0.023350492 0.83421737 0.067016825 16245721
-0.023173168 0.83461201 0.067014739 16245721
-0.022995859 0.83500665 0.067012668 16245975
-0.022818536 0.8354013 0.067010581 16180182
-0.030851424 0.74970967 0.051540121 8548192
-0.030652702 0.75015199 0.051537782 9271399
-0.030453965 0.75059426 0.051535457 9600364
-0.031008512 0.7514627 0.052040175 10126960
-0.03081046 0.75190353 0.05203785 10324339
-0.030612394 0.75234431 0.052035525 10521972
-0.031169608 0.75320673 0.052540258 10653558
-0.030972213 0.75364608 0.052537933 10785144
-0.030774832 0.75408542 0.052535608 10916730
-0.031334743 0.75494194 0.053040385 10982271
-0.031138018 0.75537974 0.053038076 11048064
-0.030941293 0.75581759 0.053035766 11113857
-0.031503856 0.75666809 0.053540558 11179650
-0.031307802 0.75710446 0.053538248 11311236
-0.031111762 0.75754082 0.053535953 11311236
-0.031676993 0.75838542 0.054040775 11442822
-0.031481609 0.75882024 0.05403848 11442822
-0.031286225 0.75925511 0.054036185 11442822
-0.031090841 0.75968999 0.054033875 11508615
-0.030895457 0.7601248 0.054031581 11377543
-0.030700073 0.76055968 0.054029286 11377543
-0.031270012 0.76139385 0.054534182 11443336
-0.031075299 0.76182723 0.054531887 11443336
-0.030880585 0.76226062 0.054529607 11509129
-0.030685872 0.76269394 0.054527313 11377543
-0.030491158 0.76312733 0.054525033 11508875
-0.030296445 0.76356071 0.054522738 11508875
-0.030871049 0.76438445 0.055027694 11508875
-0.030677006 0.76481628 0.055025414 11508875
-0.030482963 0.76524818 0.055023119 11508875
-0.03028892 0.76568007 0.055020839 11508875
-0.030094877 0.76611197 0.055018559 11443595
-0.029900834 0.76654381 0.055016279 11509388
-0.030480146 0.76735711 0.055521294 11575181
-0.030286774 0.76778752 0.055519015 11706767
-0.030868068 0.76859635 0.05602403 11575181
-0.030675367 0.76902527 0.056021765 11575181
-0.03048265 0.76945418 0.0560195 11575181
-0.031066641 0.77025706 0.05652456 11575181
-0.03087461 0.77068448 0.056522295 11575181
-0.030682579 0.77111191 0.056520045 11575181
-0.030490533 0.77153933 0.05651778 11575181
-0.030298501 0.7719667 0.05651553 11509388
-0.030106455 0.77239412 0.056513265 11575181
-0.030695111 0.77318656 0.057018369 11706767
-0.03050375 0.7736125 0.057016119 11575181
-0.030312374 0.77403843 0.057013869 11706767
-0.030903712 0.77482492 0.057519004 11706767
-0.030713022 0.77524936 0.057516754 11706767
-0.030522317 0.77567381 0.057514518 11509388
-0.031116351 0.77645433 0.058019713 11509388
-0.030926332 0.77687728 0.058017477 11509388
-0.030736297 0.77730024 0.058015242 11509388
-0.030546263 0.77772319 0.058013007 11509388
-0.030356243 0.77814615 0.058010772 11509388
-0.030166209 0.77856904 0.058008537 11509388
-0.030764908 0.77933919 0.058513761 11575181
-0.030575544 0.77976066 0.058511525 11509388
-0.03038618 0.78018212 0.058509305 11443595
-0.030987561 0.78094625 0.059014574 11443595
-0.030798867 0.78136623 0.059012353 11509388
-0.030610189 0.7817862 0.059010133 11443597
-0.030421495 0.78220618 0.059007913 11443597
-0.030232802 0.78262615 0.059005693 11377804
-0.030044109 0.78304613 0.059003472 11377804
-0.030650169 0.78379983 0.059508786 11181193
-0.030462146 0.78421831 0.059506565 11181193
-0.030274123 0.7846368 0.05950436 10983814
-0.0300861 0.78505528 0.059502155 10786435
-0.029898077 0.7854737 0.059499949 10918021
-0.029710039 0.78589225 0.059497729 10983814
-0.030320823 0.78663552 0.060003102 10852228
-0.030133456 0.78705251 0.060000896 10654849
-0.029946104 0.78746951 0.059998706 10194298
-0.030559525 0.78820688 0.060504094 9667954
-0.030372843 0.78862238 0.060501903 9076071
-0.030186161 0.78903788 0.060499698 8549727
-0.03080225 0.78976923 0.061005145 7958103
-0.030616239 0.79018325 0.061002955 7497552
-0.030430213 0.79059726 0.061000764 7169617
-0.030244201 0.79101127 0.060998574 7301203
-0.03005819 0.79142529 0.060996398 8289644
-0.029872164 0.7918393 0.060994208 9079160
-0.030492961 0.79256028 0.0614997 9014394
-0.030307621 0.7929728 0.061497524 9935496
-0.030122265 0.79338533 0.061495334 10132618
-0.030745715 0.79410034 0.062000856 9737860
-0.030561045 0.79451138 0.06199868 9606274
-0.03037636 0.79492241 0.061996505 9408895
-0.03019169 0.79533345 0.061994344 9408895
-0.030007005 0.79574448 0.061992168 9474688
-0.029822335 0.79615551 0.061989993 9671549
-0.02963765 0.79656655 0.061987817 9605756
-0.02945298 0.79697758 0.061985657 9671549
-0.030082479 0.79767919 0.062491253 9737342
-0.02989848 0.79808873 0.062489077 9933438
-0.029714465 0.79849827 0.062486917 10328196
-0.029530466 0.79890782 0.062484756 10590853
-0.029346451 0.79931736 0.062482595 10788232
-0.029162437 0.7997269 0.062480435 11050890
-0.0297966 0.80041808 0.062986061 11116683
-0.029613256 0.80082613 0.062983915 11050890
-0.029429927 0.80123419 0.062981755 11116683
-0.029246584 0.80164224 0.062979609 11313292
-0.02906324 0.80205029 0.062977448 11379085
-0.028879911 0.80245835 0.062975287 11313292
-0.029518768 0.80313909 0.063481003 11313292
-0.029336095 0.80354565 0.063478842 11378572
-0.029153422 0.80395222 0.063476697 11378572
-0.029794946 0.80462706 0.063982427 11378826
-0.029612944 0.80503213 0.063980281 11444619
-0.029430941 0.80543721 0.06397815 11575435
-0.029248938 0.80584228 0.063976005 11707021
-0.029066935 0.80624735 0.063973859 11772299
-0.028884947 0.80665243 0.063971728 11772299
-0.029531136 0.80731678 0.064477518 11772299
-0.029349804 0.80772036 0.064475387 11640713
-0.029168472 0.80812395 0.064473256 11771785
-0.029817387 0.8087824 0.064979076 11903371
-0.029636726 0.80918449 0.064976946 11772299
-0.029456064 0.80958658 0.06497483 11640713
-0.029275402 0.80998868 0.064972699 11772299
-0.029094741 0.81039077 0.064970583 11772299
-0.028914079 0.81079286 0.064968452 11640713
-0.029567644 0.81144083 0.065474316 11772299
-0.029387653 0.81184149 0.065472201 11575433
-0.029207647 0.81224209 0.065470085 11707019
-0.029027656 0.81264269 0.065467969 11772814
-0.028847665 0.8130433 0.065465853 11707021
-0.028667673 0.8134439 0.065463737 11575435
-0.029325932 0.81408149 0.065969676 11575435
-0.029146612 0.8144806 0.06596756 11509642
-0.028967291 0.81487972 0.065965459 11509642
-0.029628202 0.81551135 0.066471398 11707021
-0.029449552 0.81590897 0.066469312 11707021
-0.029270902 0.81630659 0.066467211 11772814
-0.029092237 0.81670421 0.06646511 11772814
-0.028913587 0.81710184 0.066463009 11707021
-0.028734937 0.81749946 0.066460907 11575435
-0.029400572 0.81812066 0.066966921 11707021
-0.029222578 0.81851679 0.066964835 11575435
-0.029044598 0.81891292 0.066962734 11707021
-0.028866619 0.81930906 0.066960648 11575435
-0.028688625 0.81970525 0.066958562 11509642
