# .PCD v0.7 - Point Cloud Data file format
VERSION 0.7
FIELDS x y z rgb
SIZE 4 4 4 4
TYPE F F F U
COUNT 1 1 1 1
WIDTH 1083
HEIGHT 1
VIEWPOINT 0 0 0 1 0 0 0
POINTS 1083
DATA ascii
0.057342112 0.82423937 0.050005302 11904148
0.057710573 0.82402533 0.050002918 11771533
0.058079027 0.82381129 0.050000533 11442568
0.058447488 0.82359719 0.049998149 11113603
0.058815949 0.82338315 0.04999575 10653052
0.059184402 0.82316911 0.049993366 10388851
0.059552863 0.82295507 0.049990967 9994093
0.059921309 0.82274103 0.049988583 9664356
0.060289778 0.82252693 0.049986199 9203805
-0.017081358 0.83215779 0.029280603 16574936
-0.016660668 0.83191335 0.029277876 16509143
-0.016239978 0.83166897 0.029275149 16509143
-0.015418217 0.83213943 0.029852957 16574936
-0.014998943 0.83189583 0.02985023 16509143
-0.014579661 0.83165228 0.029847518 16509143
-0.01416038 0.83140874 0.029844791 16509143
-0.013741098 0.83116513 0.029842079 16509143
-0.013321824 0.83092153 0.029839352 16509143
-0.012509912 0.83139777 0.030417234 16509143
-0.012092046 0.831155 0.030414522 16509143
-0.011674181 0.83091223 0.03041181 16509143
-0.010867953 0.83139169 0.030989721 16574936
-0.010451496 0.83114982 0.030987009 16509143
-0.010035038 0.83090782 0.030984312 16442836
-0.0096185803 0.83066595 0.030981615 16574422
-0.0092021227 0.83042395 0.030978903 16574422
-0.0087856725 0.83018202 0.030976206 16640215
-0.0079893097 0.83066726 0.031554192 16640469
-0.0075742602 0.83042616 0.031551495 16640469
-0.0071592182 0.83018506 0.031548813 16574676
-0.0063685179 0.83067352 0.032126799 16640469
-0.005954884 0.83043325 0.032124117 16706262
-0.0055412501 0.83019292 0.032121435 16640469
-0.0043847635 0.83141685 0.033280209 16640469
-0.0039739534 0.83117819 0.033277541 16706262
-0.0035631508 0.83093953 0.033274874 16640469
-0.0027851313 0.83143538 0.033852965 16640469
-0.0023757368 0.8311975 0.033850312 16640469
-0.0019663423 0.83095968 0.033847645 16640469
-0.0011939779 0.83145887 0.03442578 16706262
-0.00078599155 0.83122188 0.034423143 16706262
-0.00037800521 0.83098483 0.03442049 16640469
0.00038869679 0.8314873 0.034998655 16574676
0.00079527497 0.83125108 0.034996018 16771801
0.0012018457 0.83101487 0.03499338 16640215
0.0019629151 0.83152062 0.03557159 16640215
0.0023680776 0.83128524 0.035568953 16772058
0.0027732402 0.83104992 0.03556633 16771801
0.0031784028 0.83081448 0.035563707 16706008
0.0035835654 0.83057916 0.03556107 16706008
0.0039887279 0.83034372 0.035558447 16706008
0.0047398955 0.83085525 0.036136702 16640215
0.0051436499 0.83062065 0.036134079 16640215
0.0055473968 0.8303861 0.036131471 16574422
0.0062929392 0.83090085 0.036709756 16574422
0.0066952705 0.83066714 0.036707148 16771801
0.0070976093 0.83043337 0.03670454 16706008
0.0078375041 0.83095145 0.037282884 16706008
0.0082384348 0.83071852 0.037280276 16706008
0.008639358 0.83048558 0.037277684 16640215
0.0090402812 0.83025265 0.037275091 16640215
0.0094412118 0.83001977 0.037272483 16706008
0.0098421425 0.82978684 0.03726989 16771801
0.010572143 0.83031058 0.037848279 16706008
0.010971658 0.83007848 0.037845686 16640215
0.01137118 0.82984638 0.037843093 16706008
0.012095541 0.83037347 0.038421541 16772058
0.01249364 0.8301422 0.038418964 16640215
0.012891747 0.82991093 0.038416371 16574422
0.013610452 0.83044124 0.038994864 16640469
0.014007136 0.8302108 0.038992286 16772055
0.014403835 0.82998031 0.038989708 16706262
0.015116915 0.83051395 0.039568231 16640469
0.015512198 0.83028436 0.039565668 16640469
0.015907474 0.8300547 0.039563105 16706262
0.016614884 0.83059156 0.040141642 16640215
0.017008752 0.8303628 0.040139094 16574422
0.017402619 0.83013391 0.040136531 16706008
0.018104389 0.83067411 0.040715113 16640215
0.018496841 0.83044612 0.040712565 16574422
0.018889301 0.83021814 0.040710017 16574422
0.01928176 0.82999015 0.040707484 16706010
0.019674212 0.8297621 0.040704936 16640217
0.020066664 0.82953411 0.040702388 16640217
0.020758569 0.83008003 0.041281044 16706010
0.021149613 0.82985288 0.041278511 16772060
0.021540657 0.82962573 0.041275978 16771803
0.0219317 0.82939851 0.04127343 16706010
0.022322744 0.82917136 0.041270897 16706010
0.022713795 0.82894421 0.041268364 16574938
0.023104839 0.82871699 0.04126583 16772317
0.023495883 0.82848984 0.041263297 16772317
0.024175063 0.82904315 0.041842014 16706524
0.024564698 0.82881677 0.041839495 16772317
0.024954334 0.82859039 0.041836962 16706524
0.025627866 0.82914698 0.042415738 16574938
0.026016086 0.82892144 0.04241322 16640731
0.026404314 0.82869589 0.042410702 16640731
0.026792534 0.82847041 0.042408183 16640731
0.027737275 0.8298173 0.043568328 16574938
0.028122671 0.82959342 0.043565825 16509145
0.028508067 0.82936949 0.043563336 16509143
0.029441506 0.83072293 0.044723526 16574936
0.029824086 0.83050066 0.044721052 16509143
0.030206658 0.8302784 0.044718564 16509143
0.030859023 0.83084732 0.045297474 16574422
0.031240188 0.83062589 0.045295015 16574422
0.031621344 0.83040446 0.045292541 16574422
0.032002509 0.83018303 0.045290068 16574422
0.032383673 0.8299616 0.045287594 16442836
0.032764837 0.82974017 0.045285121 16442836
0.033407316 0.83031476 0.045864075 16574422
0.033787072 0.8300941 0.045861617 16574422
0.034166828 0.8298735 0.045859158 16640215
0.034546569 0.82965291 0.045856699 16706008
0.034926325 0.82943231 0.045854226 16574422
0.03556034 0.83001184 0.046433255 16442836
0.03593868 0.82979202 0.046430811 16442836
0.036317021 0.82957226 0.046428353 16640215
0.036695361 0.8293525 0.046425894 16706008
0.037073694 0.82913268 0.04642345 16640215
0.037452027 0.82891285 0.046420991 16640217
0.038076155 0.82949817 0.047000065 16706010
0.038453087 0.82927918 0.046997622 16706010
0.038830012 0.8290602 0.046995178 16640217
0.0394485 0.82964879 0.047574311 16640217
0.039824009 0.82943064 0.047571883 16574424
0.040199526 0.82921249 0.047569454 16640217
0.040812358 0.8298043 0.048148602 16574424
0.041186467 0.82958698 0.048146173 16442836
0.041560572 0.82936966 0.048143744 16442836
0.04216776 0.82996476 0.048722953 16507859
0.042540453 0.82974827 0.048720539 16507859
0.042913143 0.82953173 0.048718125 16507861
0.043514684 0.83013016 0.049297348 16507861
0.043885965 0.82991445 0.049294934 16573652
0.044257246 0.82969874 0.049292535 16771031
0.044853132 0.83030045 0.049871787 16573652
0.045223001 0.83008552 0.049869388 16573652
0.045592874 0.8298707 0.049866989 16507859
0.045962743 0.82965583 0.04986459 16507859
0.046332613 0.82944095 0.049862191 16507861
0.046702482 0.82922608 0.049859807 16507861
0.047288496 0.82983351 0.050439149 16705240
0.047656953 0.82961947 0.05043675 16705240
0.048025407 0.82940543 0.050434366 16507859
0.048393864 0.82919133 0.050431982 16573652
0.048762321 0.82897729 0.050429583 16573654
0.049130782 0.82876325 0.050427198 16442068
0.04970691 0.8293764 0.051006585 16441555
0.050073955 0.82916313 0.051004201 16441555
0.050441001 0.82894993 0.051001832 16441557
0.050808046 0.82873666 0.050999448 16375764
0.051175095 0.82852346 0.050997064 16309201
0.051542141 0.82831025 0.050994679 16243408
0.051909186 0.82809699 0.05099231 16177100
0.052276235 0.82788372 0.050989926 16045514
0.052643284 0.82767051 0.050987542 15847365
0.053010322 0.82745731 0.050985157 15715779
0.053377375 0.82724404 0.050982788 15321791
0.053744413 0.82703084 0.050980404 15190205
0.054111466 0.82681757 0.05097802 14665144
0.054478519 0.82660437 0.050975636 14599351
0.054845557 0.8263911 0.050973266 14074290
0.055212602 0.8261779 0.050970882 13876911
0.055579647 0.82596463 0.050968498 13482667
0.055946693 0.82575142 0.050966129 13351081
0.056313738 0.82553816 0.050963745 12956838
0.056680791 0.82532495 0.05096136 12759459
0.057047829 0.82511175 0.050958976 12495772
0.057236843 0.82405406 0.050374627 12101014
0.057605304 0.82384002 0.050372243 11771535
0.057973765 0.82362592 0.050369844 11442570
0.058342218 0.82341188 0.05036746 11244419
0.058710679 0.82319784 0.050365075 10915454
0.059079133 0.8229838 0.050362691 10454644
0.059447594 0.82276976 0.050360292 10191472
0.05981604 0.82255566 0.050357908 9730149
0.060184509 0.82234162 0.050355509 9269598
-0.01720155 0.83194619 0.029702291 16509656
-0.016780861 0.83170176 0.029699549 16443863
-0.016360171 0.83145738 0.029696822 16574936
-0.015538007 0.83192855 0.030273214 16574936
-0.015118726 0.83168495 0.030270487 16509143
-0.014699444 0.8314414 0.030267775 16509143
-0.01428017 0.83119786 0.030265048 16509143
-0.013860889 0.83095425 0.030262336 16443350
-0.013441607 0.83071065 0.030259624 16509143
-0.0126293 0.83118761 0.030836076 16509143
-0.012211435 0.83094484 0.030833364 16509143
-0.011793561 0.83070207 0.030830652 16509143
-0.010986932 0.83118224 0.031407148 16574936
-0.010570474 0.83094031 0.031404436 16443350
-0.010154024 0.83069837 0.031401739 16442836
-0.0097375661 0.83045644 0.031399041 16574422
-0.0093211085 0.8302145 0.031396344 16640469
-0.0089046508 0.82997257 0.031393632 16640469
-0.0081078857 0.83045852 0.031970203 16443090
-0.0076928437 0.83021742 0.031967506 16640469
-0.0072778016 0.82997632 0.031964824 16574676
-0.0064866915 0.8304655 0.032541409 16772312
-0.0060730577 0.83022523 0.032538727 16772055
-0.0056594312 0.8299849 0.032536045 16706262
-0.0045021325 0.8312102 0.033691972 16640469
-0.0040913224 0.83097154 0.03368932 16706262
-0.0036805123 0.83073288 0.033686653 16640469
-0.002902098 0.83122945 0.034263313 16640469
-0.0024927035 0.83099163 0.03426066 16706262
-0.0020833015 0.8307538 0.034258008 16706262
-0.0013105422 0.83125365 0.034834728 16706262
-0.00090254843 0.83101666 0.034832075 16706262
-0.00049456954 0.83077967 0.034829438 16640469
0.00027254224 0.83128279 0.035406172 16640469
0.00067911297 0.83104658 0.035403535 16771801
0.0010856837 0.83081043 0.035400897 16640215
0.0018471628 0.83131683 0.035977691 16706008
0.0022523254 0.83108151 0.035975069 16771801
0.0026574805 0.83084607 0.035972446 16771801
0.0030626431 0.83061075 0.035969809 16771801
0.0034678057 0.83037531 0.035967186 16771801
0.0038729683 0.83013999 0.035964563 16771801
0.0046245456 0.83065212 0.036541402 16640215
0.0050282925 0.83041757 0.03653878 16706008
0.0054320469 0.83018303 0.036536157 16640215
0.0061779916 0.83069849 0.037113041 16706008
0.006580323 0.83046472 0.037110433 16771801
0.0069826618 0.83023101 0.037107825 16706008
0.0077229589 0.83074975 0.037684754 16706008
0.0081238896 0.83051682 0.037682146 16706008
0.0085248128 0.83028394 0.037679553 16574422
0.0089257434 0.830051 0.037676945 16771801
0.0093266666 0.82981813 0.037674353 16706008
0.0097275972 0.82958519 0.037671745 16771801
0.010458007 0.83010966 0.038248733 16706008
0.010857522 0.82987756 0.03824614 16640215
0.011257038 0.82964545 0.038243547 16640215
0.0119818 0.83017325 0.03882058 16771801
0.012379907 0.82994199 0.038817987 16640215
0.012778006 0.82971072 0.038815409 16640215
0.013497114 0.83024168 0.039392486 16574422
0.013893805 0.83001125 0.039389908 16706008
0.014290504 0.82978082 0.03938733 16706262
0.015003979 0.83031511 0.039964437 16574676
0.015399262 0.83008552 0.039961874 16574676
0.015794545 0.82985586 0.039959311 16574676
0.016502358 0.83039349 0.040536433 16640215
0.016896226 0.83016467 0.040533885 16574422
0.017290093 0.82993585 0.040531322 16640215
0.017992258 0.8304767 0.041108489 16442836
0.018384717 0.83024871 0.041105941 16574424
0.018777177 0.83002073 0.041103393 16706010
0.019169629 0.82979274 0.041100845 16706010
0.019562088 0.82956475 0.041098312 16640217
0.019954547 0.82933676 0.041095763 16574424
0.020646848 0.8298834 0.041673005 16640217
0.021037892 0.82965618 0.041670471 16771803
0.021428935 0.82942903 0.041667923 16771803
0.021819979 0.82920182 0.04166539 16771803
0.02221103 0.82897466 0.041662857 16706010
0.022602066 0.82874751 0.041660324 16574938
0.029332206 0.83053052 0.045106992 16574936
0.029714778 0.83030826 0.045104519 16509143
0.03009735 0.83008599 0.04510203 16574936
0.030750126 0.83065557 0.045679525 16443350
0.03113129 0.8304342 0.045677066 16443350
0.031512447 0.83021271 0.045674592 16574422
0.031893611 0.82999128 0.045672119 16574422
0.032274775 0.82976985 0.045669645 16442836
0.032655939 0.82954842 0.045667171 16377043
0.03329882 0.83012378 0.046244726 16574422
0.033678576 0.82990313 0.046242252 16640215
0.034058332 0.82968253 0.046239793 16640215
0.034438074 0.82946193 0.046237335 16640215
0.03481783 0.82924128 0.046234861 16574422
0.035452247 0.82982159 0.04681249 16442836
0.035830587 0.82960176 0.046810031 16640215
0.036208928 0.82938194 0.046807572 16640215
0.036587268 0.82916218 0.046805128 16640215
0.036965601 0.82894242 0.04680267 16640215
0.037343934 0.8287226 0.046800211 16640215
0.037968472 0.82930857 0.047377884 16706008
0.038345397 0.82908958 0.047375441 16640217
0.038722321 0.82887059 0.047372997 16640217
0.039341211 0.82945991 0.047950715 16640217
0.039716728 0.82924175 0.047948271 16640217
0.040092245 0.8290236 0.047945842 16706010
0.04070548 0.82961613 0.048523575 16442838
0.041079581 0.82939881 0.048521146 16442838
0.041453689 0.82918143 0.048518732 16442838
0.04206128 0.8297773 0.049096525 16507861
0.042433973 0.82956082 0.049094096 16507861
0.042806663 0.82934427 0.049091682 16573654
0.04340861 0.82994342 0.049669489 16507861
0.043779891 0.82972771 0.04966709 16573654
0.044151172 0.829512 0.049664676 16771033
0.044747461 0.83011436 0.050242528 16771033
0.04511733 0.82989955 0.050240129 16705240
0.045487203 0.82968462 0.05023773 16507861
0.045857072 0.8294698 0.050235331 16507861
0.046226941 0.82925487 0.050232932 16507859
0.04659681 0.82904005 0.050230533 16507859
0.047183227 0.8296482 0.05080846 16771033
0.047551684 0.82943416 0.050806075 16705240
0.047920138 0.82922006 0.050803676 16573654
0.048288595 0.82900602 0.050801292 16573654
0.048657052 0.82879198 0.050798908 16573141
0.049025513 0.82857788 0.050796509 16507348
0.049602047 0.8291918 0.05137448 16441555
0.049969092 0.82897854 0.051372111 16441555
0.050336137 0.82876527 0.051369727 16441557
0.050703183 0.82855207 0.051367342 16507350
0.051070232 0.82833886 0.051364973 16506580
0.051437277 0.8281256 0.051362589 16440787
0.051804323 0.82791239 0.051360205 16308688
0.052171372 0.82769912 0.051357821 16045516
0.052538417 0.82748592 0.051355451 16176330
0.052905455 0.82727265 0.051353067 15847365
0.053272508 0.82705945 0.051350683 15519170
0.053639546 0.82684624 0.051348314 15190205
0.054006599 0.82663298 0.05134593 14730937
0.054373652 0.82641971 0.051343545 14665144
0.05474069 0.82620651 0.051341161 14205878
0.055107735 0.8259933 0.051338777 13942706
0.05547478 0.82578003 0.051336408 13614255
0.055841826 0.82556677 0.051334023 13351083
0.056208871 0.82535356 0.051331639 13022118
0.056575924 0.82514036 0.05132927 12824739
0.056942962 0.82492709 0.051326886 12495772
0.057131581 0.82386875 0.050743952 12101014
0.057500035 0.82365465 0.050741553 11968914
0.057868496 0.82344061 0.050739169 11771535
0.058236949 0.82322657 0.050736785 11179396
0.05860541 0.82301253 0.050734386 10982017
0.058973864 0.82279849 0.050732002 10586489
0.059342325 0.82258439 0.050729617 10191731
0.059710771 0.82237035 0.050727218 9927530
0.060079239 0.82215631 0.050724834 9401186
-0.017321736 0.8317346 0.030123964 16575449
-0.016901046 0.83149016 0.030121222 16443863
-0.016480356 0.83124578 0.030118495 16509143
-0.01565779 0.83171767 0.030693471 16509143
-0.015238509 0.83147407 0.030690745 16509143
-0.014819235 0.83123052 0.030688033 16509143
-0.014399953 0.83098692 0.030685306 16509143
-0.013980672 0.83074337 0.030682594 16574936
-0.013561398 0.83049977 0.030679867 16574936
-0.012748681 0.83097744 0.031254917 16509143
-0.012330815 0.83073467 0.031252205 16509143
-0.011912949 0.8304919 0.031249493 16509143
-0.01110591 0.83097279 0.031824574 16574936
-0.010689452 0.83073086 0.031821862 16443350
-0.010273002 0.83048892 0.031819165 16377297
-0.0098565444 0.83024698 0.031816468 16574676
-0.0094400868 0.83000505 0.031813771 16574676
-0.0090236291 0.82976311 0.031811059 16640469
-0.0082264617 0.83024979 0.032386214 16574676
-0.0078114197 0.83000863 0.032383516 16640469
-0.0073963702 0.82976753 0.032380834 16574676
-0.0066048652 0.83025742 0.032956004 16772055
-0.0061912388 0.83001715 0.032953322 16640469
-0.0057775974 0.82977688 0.03295064 16640469
-0.0046194941 0.83100355 0.034103751 16574676
-0.004208684 0.83076489 0.034101084 16640469
-0.0037978813 0.83052623 0.034098417 16640469
-0.0030190647 0.83102357 0.034673676 16640469
-0.0026096702 0.83078569 0.034671009 16772055
-0.0022002682 0.83054787 0.034668356 16706262
-0.0014270991 0.83104849 0.03524366 16706262
-0.0010191128 0.83081144 0.035241023 16772055
-0.00061112642 0.83057445 0.03523837 16640469
0.00015638769 0.83107829 0.035813704 16640469
0.00056295842 0.83084214 0.035811052 16706008
0.00096952915 0.83060592 0.035808429 16640215
0.0017314106 0.8311131 0.036383808 16706008
0.0021365657 0.83087766 0.03638117 16640215
0.0025417283 0.83064234 0.036378548 16706008
0.0029468909 0.8304069 0.036375925 16771801
0.0033520535 0.83017159 0.036373287 16771801
0.003757216 0.82993615 0.036370665 16771801
0.0045091957 0.8304491 0.036946088 16640215
0.0049129426 0.8302145 0.036943465 16706008
0.0053166971 0.82997996 0.036940858 16771801
0.0060630441 0.83049613 0.037516311 16771801
0.0064653754 0.83026236 0.037513703 16771801
0.0068677142 0.83002865 0.037511095 16771801
0.0076084137 0.83054811 0.038086608 16706008
0.0080093443 0.83031523 0.038084015 16706008
0.0084102675 0.8300823 0.038081408 16640215
0.0088111982 0.82984936 0.038078815 16771801
0.0092121214 0.82961643 0.038076207 16706008
0.009613052 0.82938355 0.038073614 16574422
0.010343865 0.82990873 0.038649172 16640215
0.01074338 0.82967663 0.038646579 16640215
0.011142895 0.82944453 0.038644001 16640215
0.01186806 0.82997298 0.039219603 16706008
0.012266167 0.82974172 0.039217025 16640215
0.012664273 0.82951045 0.039214447 16574422
0.013383783 0.83004218 0.039790094 16574422
0.013780475 0.82981175 0.039787516 16574422
0.014177173 0.82958126 0.039784953 16706262
0.014891051 0.83011633 0.040360644 16574676
0.015286334 0.82988667 0.040358081 16574676
0.01568161 0.82965708 0.040355518 16377297
0.016389832 0.83019537 0.040931225 16640469
0.016783699 0.82996655 0.040928662 16640469
0.017177567 0.82973772 0.040926114 16640215
0.017880134 0.83027935 0.041501865 16574422
0.018272594 0.8300513 0.041499317 16640217
0.018665053 0.82982332 0.041496769 16706010
0.019057505 0.82959533 0.04149422 16706010
0.019449964 0.82936734 0.041491672 16640217
0.019842416 0.82913935 0.041489139 16640217
0.020535126 0.8296867 0.042064965 16706010
0.02092617 0.82945955 0.042062417 16771803
0.021317214 0.82923234 0.042059883 16771803
0.021708257 0.82900518 0.04205735 16772317
0.022099309 0.82877803 0.042054817 16771803
0.022490352 0.82855082 0.042052284 16772317
0.029222906 0.83033812 0.045490459 16509656
0.029605478 0.8301158 0.045487985 16509143
0.02998805 0.82989359 0.045485497 16574936
0.030641228 0.83046389 0.04606159 16443350
0.031022392 0.83024246 0.046059117 16509143
0.031403556 0.83002102 0.046056643 16509143
0.031784713 0.82979959 0.04605417 16509143
0.032165885 0.82957816 0.046051696 16442836
0.032547042 0.82935673 0.046049222 16442836
0.033190325 0.82993275 0.046625361 16574422
0.033570081 0.82971215 0.046622887 16574422
0.033949837 0.8294915 0.046620429 16574422
0.034329578 0.8292709 0.04661797 16574422
0.034709334 0.8290503 0.046615511 16640217
0.035344154 0.82963127 0.047191709 16574424
0.035722494 0.82941151 0.047189251 16640217
0.036100835 0.82919168 0.047186807 16640217
0.036479175 0.82897186 0.047184348 16640217
0.036857516 0.8287521 0.047181889 16706010
0.037235849 0.82853228 0.047179446 16706010
0.037860781 0.82911897 0.047755688 16706010
0.038237706 0.82889998 0.047753245 16574424
0.038614638 0.82868105 0.047750801 16640217
0.039233923 0.82927102 0.048327103 16377045
0.039609447 0.82905287 0.048324674 16706010
0.039984956 0.82883471 0.048322231 16706010
0.040598601 0.82942796 0.048898563 16574424
0.04097271 0.82921064 0.048896134 16574424
0.041346811 0.82899332 0.048893705 16442838
0.041954804 0.82958984 0.049470082 16442838
0.042327497 0.82937336 0.049467668 16377045
0.042700186 0.82915688 0.049465239 16573654
0.043302536 0.82975668 0.050041646 16573654
0.043673817 0.82954097 0.050039232 16573654
0.044045098 0.82932526 0.050036833 16771033
0.044641793 0.8299284 0.050613254 16705240
0.045011662 0.82971346 0.050610855 16573654
0.045381531 0.82949865 0.050608456 16507861
0.0457514 0.82928371 0.050606057 16573654
0.046121269 0.8290689 0.050603658 16573654
0.046491139 0.82885396 0.050601259 16507861
0.047077961 0.82946289 0.051177785 16573654
0.047446419 0.82924879 0.051175386 16573654
0.047814872 0.82903475 0.051173002 16573654
0.048183329 0.82882071 0.051170602 16573654
0.048551787 0.82860661 0.051168218 16507348
0.048920248 0.82839262 0.051165834 16507348
0.049497183 0.82900715 0.05174239 16441555
0.049864229 0.82879394 0.051740006 16441555
0.050231274 0.82858068 0.051737636 16506578
0.05059832 0.82836747 0.051735252 16572371
0.050965369 0.82815421 0.051732868 16440785
0.051332414 0.827941 0.051730484 16243406
0.05169946 0.82772779 0.051728114 16111820
0.052066509 0.82751453 0.05172573 15980234
0.052433554 0.82730126 0.051723346 16307916
0.052800596 0.82708806 0.051720962 15913158
0.053167649 0.82687485 0.051718593 15519170
0.053534687 0.82666159 0.051716208 15255998
0.053901732 0.82644832 0.051713824 14730939
0.054268785 0.82623512 0.051711455 14599353
0.054635823 0.82602191 0.051709071 14271671
0.055002876 0.82580864 0.051706687 13942706
0.055369921 0.82559544 0.051704302 13614255
0.055736966 0.82538217 0.051701918 13351083
0.056104004 0.82516897 0.051699549 12956838
0.056471057 0.8249557 0.051697165 12759459
0.056838095 0.8247425 0.051694781 12430492
0.057026312 0.82368338 0.051113263 12233113
0.057394765 0.82346934 0.051110879 12034707
0.057763226 0.8232553 0.051108479 11968914
0.058131687 0.82304126 0.051106095 11310984
0.058500148 0.82282722 0.051103711 10982019
0.058868594 0.82261312 0.051101312 10652282
0.059237055 0.82239908 0.051098928 10191731
0.059605502 0.82218504 0.051096544 9927276
0.059973978 0.821971 0.051094145 9466725
-0.02037254 0.8313241 0.029406846 16379094
-0.019949026 0.83107805 0.029404089 16509910
-0.019525513 0.830832 0.029401347 16575703
-0.018692665 0.83129889 0.029974833 16575703
-0.01827056 0.83105367 0.029972091 16509910
-0.017441928 0.831523 0.030545637 16509656
-0.017021239 0.83127856 0.030542895 16443863
-0.016600549 0.83103418 0.030540168 16509143
-0.01577758 0.83150679 0.031113729 16574936
-0.015358299 0.83126318 0.031111017 16640729
-0.014939025 0.83101964 0.03110829 16574936
-0.014121667 0.83149552 0.031681895 16509143
-0.013703801 0.83125275 0.031679183 16509143
-0.013285935 0.83100998 0.031676471 16574936
-0.012474261 0.83148915 0.032250091 16509143
-0.012057804 0.83124721 0.032247394 16509143
-0.011641346 0.83100528 0.032244697 16574936
-0.010835305 0.83148772 0.032818377 16574936
-0.010420263 0.83124661 0.03281568 16509143
-0.010005221 0.83100545 0.032812998 16377297
-0.0095901713 0.83076435 0.032810301 16640469
-0.0091751292 0.83052325 0.032807618 16574676
-0.0087600872 0.83028215 0.032804921 16640469
-0.0079639405 0.83077031 0.033378646 16574676
-0.0075503066 0.83052999 0.033375964 16640469
-0.0071366727 0.83028972 0.033373281 16640469
-0.0059692934 0.83151293 0.034523502 16772055
-0.0055584833 0.83127427 0.03452085 16640469
-0.0051476732 0.83103561 0.034518182 16706262
-0.0043642223 0.83153117 0.035091981 16640469
-0.0039548203 0.83129328 0.035089329 16640469
-0.0035454184 0.83105546 0.035086676 16640469
-0.002767615 0.83155429 0.035660535 16640469
-0.0023596287 0.83131731 0.035657898 16772055
-0.0019516498 0.83108032 0.035655245 16706262
-0.001179494 0.83158243 0.036229134 16706262
-0.00077292323 0.83134621 0.036226496 16706262
-0.00036634505 0.83111 0.036223859 16640469
0.00040016323 0.83161545 0.036797792 16640469
0.00080532581 0.83138001 0.036795169 16706262
0.0012104884 0.83114469 0.036792532 16574676
0.001615651 0.83090925 0.036789909 16640215
0.0020208135 0.83067393 0.036787286 16640215
0.0024259761 0.83043849 0.036784664 16640215
0.00318259 0.83094966 0.037358642 16706008
0.0035863444 0.83071512 0.037356019 16640215
0.0039900988 0.83048058 0.037353396 16706008
0.0043938458 0.83024597 0.037350789 16706008
0.0047975928 0.83001143 0.037348166 16706008
0.0052013472 0.82977688 0.037345544 16706008
0.0059480965 0.83029377 0.037919596 16771801
0.0063504279 0.83006001 0.037916988 16706008
0.0067527667 0.8298263 0.03791438 16771801
0.0074938685 0.83034647 0.038488477 16640729
0.0078947991 0.83011353 0.03848587 16640729
0.0082957223 0.8298806 0.038483277 16574936
0.0086966529 0.82964772 0.038480669 16640729
0.0090975761 0.82941478 0.038478076 16574936
0.0094985068 0.82918191 0.038475469 16574936
0.010560021 0.83046663 0.03962639 16574936
0.01095812 0.8302353 0.039623812 16574936
0.01135622 0.83000404 0.039621219 16509143
0.012080371 0.83053404 0.040195435 16574936
0.01247707 0.83030355 0.040192857 16509143
0.012873754 0.83007312 0.040190294 16509143
0.01359228 0.8306064 0.04076454 16574422
0.013987556 0.8303768 0.040761977 16574422
0.014382839 0.83014715 0.0407594 16640215
0.015095696 0.83068371 0.041333675 16640215
0.015489563 0.83045489 0.041331127 16640469
0.015883431 0.83022606 0.041328564 16574676
0.01659064 0.8307659 0.04190287 16640469
0.016983099 0.83053792 0.041900322 16640469
0.017375559 0.83030993 0.041897774 16640215
0.01776801 0.83008194 0.041895226 16640215
0.01816047 0.82985389 0.041892692 16640217
0.018552929 0.82962596 0.041890144 16706010
0.019250274 0.83017153 0.042464525 16706010
0.019641317 0.82994437 0.042461991 16706010
0.020032361 0.82971716 0.042459458 16640217
0.020724043 0.830266 0.043033853 16706010
0.021113679 0.83003968 0.043031335 16771803
0.021503314 0.82981336 0.043028802 16706010
0.02189295 0.82958698 0.043026283 16640217
0.022282578 0.8293606 0.04302375 16771803
0.022672206 0.82913423 0.043021217 16640731
0.023354016 0.82968891 0.043595716 16772317
0.023742244 0.82946336 0.043593198 16509145
0.024130464 0.82923782 0.04359068 16640731
0.024518684 0.82901227 0.043588161 16509145
0.029388845 0.83093649 0.046451047 16443863
0.029770002 0.83071506 0.046448573 16509143
0.030151166 0.83049363 0.046446115 16443350
0.03053233 0.8302722 0.046443641 16509143
0.030913495 0.83005077 0.046441168 16509143
0.031294659 0.82982934 0.046438694 16509143
0.031942584 0.83040357 0.047013387 16574936
0.032322332 0.83018297 0.047010913 16509143
0.032702088 0.82996237 0.047008455 16509143
0.033081837 0.82974172 0.047005996 16509143
0.033461586 0.82952112 0.047003537 16509143
0.033841342 0.82930052 0.047001064 16574422
0.03447938 0.8298806 0.047575846 16574422
0.03485772 0.82966077 0.047573388 16574422
0.035236061 0.82944095 0.047570929 16574422
0.035614401 0.82922119 0.047568485 16640215
0.035992742 0.82900137 0.047566026 16640215
0.036622301 0.82958633 0.048140839 16706008
0.036999233 0.82936734 0.048138395 16706008
0.037376158 0.82914835 0.048135936 16706008
0.038000092 0.82973659 0.048710808 16640215
0.038375609 0.82951844 0.048708364 16574424
0.038751125 0.82930028 0.048705935 16640217
0.039369404 0.8298918 0.049280807 16377045
0.039743513 0.82967448 0.049278393 16640217
0.040117614 0.82945716 0.049275964 16706010
0.040491715 0.82923979 0.049273536 16640217
0.041102946 0.82983541 0.049848482 16706010
0.041475635 0.82961893 0.049846068 16574424
0.041848328 0.82940245 0.049843639 16574424
0.042453904 0.83000129 0.0504186 16442838
0.042825181 0.82978559 0.050416201 16573654
0.043196462 0.82956994 0.050413787 16507861
0.043567743 0.82935423 0.050411388 16705240
0.043939024 0.82913852 0.050408974 16771033
0.044536121 0.82974231 0.050983995 16573654
0.04490599 0.82952744 0.050981596 16573654
0.04527586 0.82931256 0.050979197 16573654
0.04586732 0.8299197 0.051554263 16771033
0.046235777 0.82970566 0.051551878 16573654
0.046604235 0.82949162 0.051549479 16507861
0.046972692 0.82927752 0.051547095 16507861
0.047341149 0.82906348 0.051544711 16442068
0.047709603 0.82884943 0.051542312 16573141
0.04829118 0.82946223 0.052117437 16573141
0.048658229 0.82924902 0.052115053 16507348
0.049025275 0.82903576 0.052112669 16441555
0.049392316 0.82882255 0.052110299 16441555
0.049759362 0.82860935 0.052107915 16441555
0.050126407 0.82839608 0.052105531 16506578
0.050698105 0.82901466 0.052680731 16506578
0.051063735 0.82880223 0.052678362 16440785
0.051429372 0.82858986 0.052675992 16177613
0.051795006 0.82837743 0.052673623 16243406
0.052160643 0.82816505 0.052671254 16046027
0.05252628 0.82795262 0.052668884 16045514
0.05289191 0.82774019 0.0526665 15782342
0.053257547 0.82752776 0.052664131 15519170
0.053623177 0.82731539 0.052661762 15255998
0.053988814 0.82710296 0.052659392 14730939
0.054354452 0.82689053 0.052657023 14599353
0.054720081 0.82667816 0.052654654 14271417
0.055085719 0.82646573 0.052652285 13942452
0.055265054 0.82541084 0.052072212 13548975
0.0556321 0.82519758 0.052069828 13285803
0.055999145 0.82498431 0.052067444 12956838
0.056366198 0.82477111 0.052065074 12693666
0.056733236 0.8245579 0.05206269 12430492
0.057100281 0.82434464 0.052060306 12298906
0.057467327 0.82413143 0.052057937 12035221
0.057834372 0.82391816 0.052055553 11837842
0.058201417 0.82370496 0.052053168 11574156
0.05856847 0.82349169 0.052050784 11113605
0.058935508 0.82327849 0.0520484 10783355
0.059131794 0.82221377 0.051468253 10388597
0.05950024 0.82199973 0.051465854 9862253
0.059868708 0.82178569 0.05146347 9401702
-0.020493537 0.83111107 0.029831335 16444633
-0.020070024 0.83086503 0.029828593 16575449
-0.01964651 0.83061904 0.029825851 16575449
-0.01881326 0.83108658 0.030397922 16575449
-0.018391155 0.83084136 0.03039518 16443863
-0.017562121 0.8313114 0.03096731 16443863
-0.017141432 0.83106697 0.030964568 16443863
-0.016720742 0.83082259 0.030961841 16443350
-0.015897363 0.83129591 0.031533986 16706522
-0.015478089 0.8310523 0.031531259 16640729
-0.015058808 0.83080876 0.031528547 16574936
-0.014241055 0.83128536 0.032100737 16640729
-0.013823189 0.83104259 0.032098025 16509143
-0.013405323 0.83079982 0.032095313 16509143
-0.01259324 0.8312797 0.032667533 16443350
-0.012176782 0.83103776 0.032664821 16574936
-0.011760324 0.83079582 0.032662123 16574936
-0.010953881 0.83127898 0.033234388 16575190
-0.010538839 0.83103788 0.033231691 16509397
-0.010123797 0.83079672 0.033229008 16443604
-0.0097087473 0.83055562 0.033226311 16509397
-0.0092937052 0.83031452 0.033223629 16443604
-0.0088786632 0.83007336 0.033220932 16509397
-0.0080821142 0.83056223 0.033793241 16509397
-0.0076684803 0.83032197 0.033790559 16575190
-0.0072548464 0.83008164 0.033787876 16509397
-0.0060866624 0.83130628 0.034935281 16640983
-0.0056758523 0.83106762 0.034932613 16575190
-0.0052650422 0.83082896 0.034929946 16640983
-0.0044811815 0.83132523 0.035502344 16509397
-0.004071787 0.83108741 0.035499677 16509397
-0.003662385 0.83084953 0.035497025 16509397
-0.0028841794 0.83134913 0.036069483 16575190
-0.002476193 0.83111209 0.03606683 16640983
-0.0020682067 0.8308751 0.036064193 16575190
-0.001295656 0.83137792 0.036636651 16509397
-0.00088907778 0.83114171 0.036634013 16575190
-0.00048250705 0.8309055 0.036631376 16640469
0.00028441101 0.8314116 0.037203893 16640469
0.00068957359 0.83117628 0.03720127 16706262
0.0010947362 0.83094084 0.037198648 16640469
0.0014998987 0.83070552 0.037196025 16640469
0.0019050613 0.83047009 0.037193388 16640469
0.0023102164 0.83023477 0.037190765 16640469
0.0030672401 0.83074659 0.037763327 16640469
0.0034709945 0.83051205 0.03776072 16706008
0.0038747489 0.83027744 0.037758097 16771801
0.0042784959 0.83004296 0.037755474 16772315
0.01044628 0.83026636 0.040025428 16574936
0.01084438 0.83003509 0.040022835 16706522
0.011242487 0.82980382 0.040020257 16575190
0.011967041 0.83033454 0.040593043 16575190
0.012363732 0.83010405 0.04059048 16575190
0.012760423 0.82987356 0.040587902 16509397
0.013479352 0.83040762 0.041160733 16311764
0.013874628 0.83017796 0.04115817 16509143
0.014269911 0.82994831 0.041155607 16640215
0.014983162 0.83048558 0.041728467 16640215
0.015377045 0.83025682 0.041725904 16706008
0.015770905 0.830028 0.041723356 16574422
0.016478524 0.83056855 0.042296246 16640215
0.016870975 0.8303405 0.042293698 16640215
0.017263427 0.83011252 0.042291149 16640215
0.017655887 0.82988453 0.042288601 16640215
0.018048346 0.82965654 0.042286053 16640217
0.018440805 0.82942855 0.04228352 16771803
0.019138552 0.82997483 0.042856485 16771803
0.019529596 0.82974768 0.042853951 16771803
0.01992064 0.82952052 0.042851418 16706010
0.020612732 0.83007008 0.043424398 16771803
0.02100236 0.8298437 0.043421879 16706010
0.021391988 0.82961738 0.043419346 16706010
0.021781623 0.829391 0.043416813 16706010
0.022171259 0.82916462 0.043414295 16772060
0.022560894 0.82893831 0.043411762 16640731
0.023243099 0.82949364 0.04398483 16706524
0.023631327 0.8292681 0.043982312 16509145
0.024019547 0.82904255 0.043979809 16706524
0.024407774 0.82881701 0.043977275 16443352
0.029279947 0.83074474 0.046833113 16575449
0.029661104 0.83052337 0.046830639 16509143
0.030042268 0.83030188 0.046828166 16443350
0.030423433 0.83008045 0.046825692 16509143
0.030804597 0.82985902 0.046823218 16574936
0.031185761 0.82963759 0.046820745 16574936
0.031834088 0.83021259 0.047394022 16574936
0.032213837 0.82999194 0.047391564 16640729
0.032593593 0.82977134 0.04738909 16574936
0.032973342 0.82955074 0.047386631 16509143
0.03335309 0.82933009 0.047384173 16509143
0.033732846 0.82910949 0.047381714 16443350
0.034371287 0.82969028 0.047955066 16509143
0.034749627 0.82947046 0.047952607 16574422
0.035127968 0.82925069 0.047950149 16574422
0.035506308 0.82903087 0.047947705 16640215
0.035884649 0.82881111 0.047945246 16574422
0.036514618 0.82939672 0.048518643 16640215
0.03689155 0.82917774 0.048516199 16706008
0.037268475 0.82895875 0.048513755 16706008
0.037892804 0.82954776 0.049087197 16640215
0.038268328 0.82932961 0.049084753 16442838
0.038643837 0.82911146 0.049082324 16442838
0.039262526 0.82970363 0.049655795 16377045
0.039636627 0.82948631 0.049653366 16574424
0.040010735 0.82926899 0.049650937 16574424
0.040384836 0.82905161 0.049648508 16574424
0.040996462 0.82964802 0.050222039 16640217
0.041369155 0.82943147 0.050219625 16574424
0.041741848 0.82921493 0.050217211 16574424
0.04234783 0.82981455 0.050790757 16574424
0.042719107 0.8295989 0.050788343 16573654
0.043090388 0.82938313 0.050785944 16573654
0.043461669 0.82916749 0.05078353 16705240
0.04383295 0.82895178 0.050781116 16705240
0.04443045 0.82955629 0.051354721 16573654
0.044800319 0.82934141 0.051352322 16573654
0.045170192 0.82912654 0.051349923 16573654
0.045762055 0.82973439 0.051923588 16771033
0.046130512 0.82952034 0.051921189 16573654
0.046498969 0.82930624 0.051918805 16573654
0.046867426 0.8290922 0.051916406 16442068
0.047235884 0.82887816 0.051914021 16442068
0.047604337 0.82866406 0.051911637 16507861
0.048186317 0.82927763 0.052485332 16507861
0.048553366 0.82906437 0.052482963 16507861
0.048920412 0.82885116 0.052480578 16442068
0.049287453 0.82863796 0.052478194 16441555
0.049654499 0.82842469 0.052475825 16441555
0.050021544 0.82821149 0.052473441 16375762
0.050593644 0.82883078 0.053047225 16375762
0.050959274 0.82861835 0.053044841 16506578
0.051324911 0.82840598 0.053042471 16309199
0.051690545 0.82819355 0.053040102 16177613
0.052056182 0.82798111 0.053037733 16046027
0.052421819 0.82776868 0.053035364 16045512
0.052787449 0.82755631 0.053032994 15782340
0.053153083 0.82734388 0.053030625 15519168
0.053518713 0.82713145 0.053028256 15255996
0.053884357 0.82691908 0.053025886 14862525
0.054249994 0.82670665 0.053023502 14599353
0.054615624 0.82649422 0.053021133 14271417
0.054981254 0.82628179 0.053018764 13942452
0.055160195 0.82522619 0.052440107 13548973
0.05552724 0.82501298 0.052437738 13351594
0.055894278 0.82479972 0.052435353 12956836
0.056261331 0.82458651 0.052432969 12759457
0.056628369 0.82437325 0.052430585 12496285
0.056995422 0.82416004 0.052428216 12298906
0.057362467 0.82394683 0.052425832 12035221
0.057729512 0.82373357 0.052423447 11837842
0.058096558 0.8235203 0.052421078 11639947
0.058463611 0.8233071 0.052418694 11113603
0.058830649 0.82309389 0.05241631 10849148
0.059026524 0.82202846 0.051837564 10388597
0.059394971 0.82181442 0.051835179 9928300
0.059763439 0.82160032 0.05183278 9401956
-0.020614535 0.83089811 0.030255839 16510426
-0.020191021 0.83065206 0.030253097 16575449
-0.019767508 0.83040601 0.030250356 16575449
-0.018933848 0.83087426 0.03082101 16575449
-0.01851175 0.83062905 0.030818269 16509656
-0.017682314 0.83109981 0.031388968 16443863
-0.017261624 0.83085537 0.031386241 16509656
-0.016840927 0.83061099 0.031383514 16509143
-0.016017154 0.83108503 0.031954244 16640729
-0.015597872 0.83084142 0.031951532 16706522
-0.015178591 0.83059788 0.031948805 16706522
-0.014360435 0.83107519 0.032519579 16641242
-0.013942569 0.83083236 0.032516867 16443863
-0.013524704 0.83058965 0.032514155 16509656
-0.012712218 0.83107018 0.033084959 16443863
-0.012295768 0.83082831 0.033082262 16640729
-0.01187931 0.83058631 0.03307955 16640729
-0.011072457 0.83107018 0.033650398 16640983
-0.010657415 0.83082908 0.033647716 16575190
-0.010242373 0.83058798 0.033645019 16443604
-0.0098273307 0.83034682 0.033642337 16509397
-0.0094122812 0.83010572 0.03363964 16509397
-0.0089972392 0.82986462 0.033636943 16509397
-0.0082002878 0.83035421 0.034207836 16575190
-0.0077866539 0.83011389 0.034205154 16575190
-0.0073730201 0.82987362 0.034202471 16509397
-0.006204024 0.83109963 0.035347044 16640983
-0.0057932138 0.83086097 0.035344377 16575190
-0.0053824037 0.83062232 0.03534171 16640983
-0.0045981407 0.8311193 0.035912693 16509397
-0.0041887462 0.83088148 0.03591004 16640983
-0.0037793517 0.83064365 0.035907373 16575190
-0.0030007362 0.83114392 0.036478415 16640983
-0.0025927499 0.83090687 0.036475763 16640983
-0.0021847636 0.83066988 0.036473125 16640983
-0.0014118105 0.83117342 0.037044182 16575190
-0.0010052323 0.83093721 0.037041545 16443604
-0.0005986616 0.83070099 0.037038907 16509397
0.00016865879 0.83120787 0.037610009 16443604
0.00057382137 0.83097243 0.037607387 16509397
0.00097898394 0.83073711 0.037604749 16443604
0.0013841465 0.83050174 0.037602127 16575190
0.0017893016 0.83026636 0.037599489 16575190
0.0021944642 0.83003098 0.037596866 16509397
0.0029518902 0.83054352 0.038168028 16575190
0.0033556446 0.83030897 0.038165405 16772569
0.0037593991 0.83007443 0.038162783 16773340
0.004163146 0.82983983 0.03816016 16772569
0.01033254 0.83006614 0.040424451 16574936
0.010730647 0.82983482 0.040421873 16574936
0.011128746 0.82960355 0.040419295 16509397
0.01185371 0.83013499 0.040990666 16575190
0.012250394 0.82990456 0.040988088 16509397
0.012647092 0.82967407 0.040985525 16575190
0.013366416 0.83020878 0.041556939 16311764
0.013761699 0.82997918 0.041554376 16443350
0.014156982 0.82974952 0.041551813 16574422
0.014870644 0.83028752 0.042123243 16706008
0.015264511 0.83005869 0.042120695 16706008
0.015658379 0.82982987 0.042118132 16706008
0.016366392 0.83037114 0.042689607 16640215
0.016758852 0.83014309 0.042687073 16640215
0.017151311 0.82991517 0.042684525 16640215
0.017543763 0.82968712 0.042681977 16640215
0.017936222 0.82945913 0.042679429 16640217
0.018328682 0.82923114 0.042676881 16772060
0.019026831 0.82977819 0.043248445 16771803
0.019417882 0.82955098 0.043245912 16706010
0.019808918 0.82932383 0.043243363 16640217
0.020501412 0.8298741 0.043814942 16706010
0.020891041 0.82964772 0.043812409 16706010
0.021280676 0.8294214 0.043809891 16771803
0.021670312 0.82919502 0.043807358 16706010
0.02205994 0.82896864 0.043804839 16771803
0.022449575 0.82874233 0.043802306 16640731
0.02313219 0.82929838 0.044373959 16640731
0.02352041 0.82907283 0.044371441 16574938
0.02390863 0.82884729 0.044368938 16706524
0.024296857 0.82862175 0.044366404 16772317
0.02917105 0.83055305 0.047215164 16575449
0.029552206 0.83033162 0.04721269 16509656
0.029933371 0.83011019 0.047210217 16443863
0.030314535 0.82988876 0.047207743 16574936
0.030695699 0.82966733 0.047205269 16574936
0.031076863 0.8294459 0.047202796 16574936
0.031725593 0.83002156 0.047774658 16574936
0.032105342 0.82980096 0.047772199 16640729
0.032485098 0.82958037 0.04776974 16574936
0.032864846 0.82935977 0.047767267 16509143
0.033244595 0.82913911 0.047764808 16509143
0.033624351 0.82891852 0.047762349 16640215
0.034263201 0.82949996 0.048334286 16640215
0.034641542 0.8292802 0.048331827 16574422
0.035019882 0.82906038 0.048329368 16574422
0.035398223 0.82884061 0.048326924 16640215
0.035776563 0.82862079 0.048324466 16574422
0.036406934 0.82920718 0.048896447 16640215
0.036783859 0.82898819 0.048894003 16706008
0.037160784 0.82876921 0.048891559 16771801
0.037785523 0.82935888 0.049463585 16640215
0.038161039 0.82914072 0.049461156 16640215
0.038536556 0.82892257 0.049458712 16442836
0.039155647 0.82951546 0.050030768 16442838
0.039529756 0.82929814 0.050028339 16574424
0.039903849 0.82908082 0.05002591 16574424
0.040277958 0.8288635 0.050023481 16442838
0.040889986 0.8294605 0.050595596 16574424
0.041262679 0.82924402 0.050593182 16574424
0.041635372 0.82902753 0.050590768 16574424
0.042241756 0.82962781 0.051162899 16574424
0.042613033 0.8294121 0.051160485 16573654
0.042984314 0.82919645 0.051158085 16705240
0.043355595 0.82898074 0.051155671 16705240
0.043726876 0.82876503 0.051153272 16771033
0.044324778 0.82937026 0.051725462 16573654
0.044694647 0.82915539 0.051723048 16573654
0.04506452 0.82894051 0.051720664 16705240
0.045656785 0.82954907 0.052292898 16771033
0.046025246 0.82933497 0.052290514 16771033
0.0463937 0.82912093 0.052288115 16573654
0.046762161 0.82890689 0.052285731 16507861
0.047130615 0.82869285 0.052283332 16507861
0.047499068 0.82847881 0.052280948 16507861
0.048081454 0.82909304 0.052853242 16705240
0.048448503 0.82887977 0.052850857 16573654
0.048815548 0.82866657 0.052848473 16573654
0.04918259 0.8284533 0.052846104 16441555
0.049549635 0.8282401 0.05284372 16441555
0.049916681 0.82802689 0.052841336 16375762
0.050489184 0.8286469 0.053413704 16375762
0.050854813 0.82843447 0.053411335 16572369
0.051220451 0.82822204 0.053408965 16440783
0.051586084 0.82800961 0.053406596 16307914
0.051951721 0.82779723 0.053404227 16242121
0.052317359 0.8275848 0.053401858 16176328
0.052682988 0.82737237 0.053399488 16242121
0.053048626 0.82716 0.053397104 15584961
0.053414255 0.82694757 0.053394735 15321789
0.053779893 0.82673514 0.053392366 14993857
0.05414553 0.82652271 0.053389996 14730685
0.05451116 0.82631034 0.053387627 14140345
0.054876797 0.82609791 0.053385258 13877173
0.055055328 0.82504159 0.052808017 13614255
0.055422373 0.82482839 0.052805632 13416876
0.055789411 0.82461512 0.052803263 13088422
0.056156464 0.82440186 0.052800879 12891043
0.056523502 0.82418865 0.052798495 12627871
0.056890555 0.82397544 0.052796111 12364699
0.0572576 0.82376218 0.052793726 12035734
0.057624646 0.82354897 0.052791357 11772562
0.057991691 0.82333571 0.052788973 11639947
0.058358744 0.8231225 0.052786589 11245189
0.058725782 0.82290924 0.052784219 10980734
0.058921255 0.82184315 0.052206874 10388597
0.059289701 0.82162905 0.05220449 9994091
0.05965817 0.82141501 0.052202106 9467747
-0.020735532 0.83068508 0.030680344 16641242
-0.020312019 0.83043903 0.030677602 16575449
-0.019888505 0.83019298 0.03067486 16575449
-0.019054443 0.83066195 0.031244099 16509656
-0.018632345 0.83041674 0.031241357 16509656
-0.017802499 0.83088821 0.031810656 16509656
-0.01738181 0.83064377 0.031807914 16575449
-0.01696112 0.83039939 0.031805187 16509656
-0.016136944 0.83087415 0.032374501 16575449
-0.015315555 0.83135051 0.032943845 16641242
-0.014897689 0.83110774 0.032941133 16641242
-0.014479823 0.83086497 0.032938421 16707035
-0.013664111 0.8313446 0.033507779 16509656
-0.013247654 0.83110267 0.033505082 16509656
-0.012831196 0.83086073 0.033502385 16509656
-0.012021124 0.83134371 0.034071803 16641242
-0.011606082 0.83110261 0.034069106 16641242
-0.010800257 0.83158791 0.034638539 16641496
-0.010386623 0.83134764 0.034635857 16575703
-0.0099729896 0.83110738 0.034633175 16444117
-0.0095593557 0.83086705 0.034630492 16509910
-0.0091457218 0.83062673 0.03462781 16575190
-0.0087320954 0.83038646 0.034625128 16575190
-0.0079361498 0.83087754 0.03519462 16640983
-0.0075239241 0.83063811 0.035191938 16640983
-0.0071117058 0.83039862 0.035189271 16575190
-0.006321393 0.83089304 0.035758808 16575190
-0.0059105903 0.83065438 0.035756141 16575190
-0.0054997802 0.83041573 0.035753489 16640983
-0.0043412521 0.83164978 0.03689529 16575190
-0.0039332658 0.83141273 0.036892653 16640983
-0.0035252869 0.83117574 0.03689 16640983
-0.0027476847 0.8316775 0.037459612 16706776
-0.002341114 0.83144128 0.037456974 16640983
-0.0019345433 0.83120513 0.037454337 16640983
-0.0011625811 0.83171022 0.038023993 16575190
-0.00075741857 0.83147478 0.038021371 16443604
-0.00035226345 0.83123946 0.038018748 16509397
5.2899122e-05 0.83100402 0.038016111 16509397
0.0004580617 0.8307687 0.038013488 16443604
0.00086322427 0.83053333 0.038010865 16575190
0.001625292 0.83104414 0.038580567 16640983
0.0020290464 0.83080959 0.038577959 16640983
0.0024327934 0.83057499 0.038575336 16575190
0.0028365403 0.83034045 0.038572714 16575190
0.0032402948 0.8301059 0.038570091 16772569
0.0036440492 0.8298713 0.038567483 16772569
0.0040477961 0.82963681 0.038564861 16706776
0.010218807 0.82986593 0.040823489 16575190
0.010616906 0.82963461 0.040820912 16443604
0.011015013 0.82940334 0.040818319 16509397
0.012067646 0.83069891 0.041960835 16509397
0.012462929 0.83046925 0.041958272 16443604
0.012858212 0.83023965 0.041955709 16575190
0.013576508 0.83077586 0.042525694 16443604
0.013970375 0.83054703 0.042523146 16443604
0.014364243 0.83031821 0.042520598 16640215
0.015076898 0.83085775 0.043090627 16640215
0.015469357 0.83062971 0.043088078 16706008
0.015861809 0.83040172 0.04308553 16706008
0.016254276 0.83017373 0.043082982 16640215
0.016646728 0.82994574 0.043080434 16574422
0.01703918 0.82971776 0.043077901 16640217
0.017741978 0.83026302 0.043648005 16640217
0.018133022 0.83003581 0.043645471 16706010
0.018524066 0.82980865 0.043642938 16772060
0.019221187 0.83035719 0.044213071 16706010
0.019610822 0.83013082 0.044210538 16706010
0.020000458 0.82990444 0.04420802 16706010
0.020691946 0.83045632 0.044778198 16706010
0.021080166 0.83023077 0.04477568 16706010
0.021468394 0.83000523 0.044773161 16771803
0.021856613 0.82977968 0.044770643 16706010
0.022244833 0.8295542 0.044768125 16640217
0.022633053 0.82932866 0.044765607 16706010
0.023314655 0.8298862 0.045335844 16706010
0.023701474 0.82966149 0.045333341 16640731
0.024088278 0.82943672 0.045330822 16706524
0.02447509 0.82921201 0.045328319 16772317
0.027918659 0.83102566 0.047604635 16773087
0.028299823 0.83080423 0.047602162 16641244
0.028680988 0.8305828 0.047599688 16575449
0.029062152 0.83036137 0.047597215 16509656
0.029443309 0.83013988 0.047594741 16509656
0.029824473 0.8299185 0.047592267 16443863
0.030477844 0.83049244 0.048162684 16574936
0.030857593 0.83027184 0.048160225 16574936
0.031237349 0.83005118 0.048157766 16574936
0.031617098 0.82983059 0.048155293 16574936
0.031996854 0.82960999 0.048152834 16640729
0.032376602 0.82938933 0.048150375 16574936
0.033020094 0.82996905 0.048720866 16443350
0.033398435 0.82974929 0.048718408 16443350
0.033776775 0.82952946 0.048715964 16509143
0.034155108 0.8293097 0.048713505 16509143
0.034533449 0.82908988 0.048711047 16574422
0.034911789 0.82887006 0.048708603 16574422
0.035545394 0.82945549 0.049279138 16640215
0.035922319 0.82923651 0.049276695 16640215
0.036299244 0.82901758 0.049274251 16640215
0.036927208 0.82960629 0.049844846 16640215
0.037302725 0.82938814 0.049842417 16771801
0.037678242 0.82916999 0.049839973 16706008
0.038053758 0.82895184 0.049837545 16640215
0.038429275 0.82873368 0.049835116 16574422
0.039048761 0.82932734 0.050405741 16640215
0.03942287 0.82910997 0.050403312 16574422
0.039796971 0.82889265 0.050400898 16574422
0.040410817 0.82948959 0.050971583 16442836
