# .PCD v0.7 - Point Cloud Data file format
VERSION 0.7
FIELDS x y z rgb
SIZE 4 4 4 4
TYPE F F F U
COUNT 1 1 1 1
WIDTH 1077
HEIGHT 1
VIEWPOINT 0 0 0 1 0 0 0
POINTS 1077
DATA ascii
-0.0085125268 0.83422381 0.059491307 13619397
-0.0075682104 0.833785 0.058959574 13816006
-0.0071842372 0.83400482 0.058956668 13816006
-0.006800279 0.8342247 0.058953777 13881286
-0.0058503002 0.83378911 0.058421984 13881286
-0.0054649264 0.83400977 0.058419079 14012102
-0.0045106858 0.83357668 0.057887271 14077895
-0.0041238964 0.83379811 0.05788435 14077895
-0.003737092 0.8340196 0.05788143 14143688
-0.002777189 0.83358967 0.057349548 14208966
-0.0023889691 0.83381194 0.057346627 14143173
-0.0020007491 0.8340342 0.057343692 14077380
-0.0010351837 0.83360761 0.05681181 14077380
-0.00064554811 0.83383071 0.056808859 14011587
-0.00025591254 0.83405375 0.056805924 14077380
0.00071531534 0.83363038 0.056273967 14143173
0.0011063665 0.83385426 0.056271017 14077380
0.0020818412 0.83343333 0.055739045 14077380
0.002474308 0.83365804 0.05573608 14077380
0.0028667748 0.83388275 0.055733114 14208966
0.0038479567 0.83346498 0.055201083 14143173
0.0042418391 0.83369052 0.055198118 14143173
0.0046357214 0.83391607 0.055195138 14143173
0.0083952546 0.83117121 0.052543715 14143173
0.00879623 0.83140081 0.05254069 14274245
0.0091971904 0.83163035 0.05253765 14274245
0.0095981658 0.83185995 0.052534625 14340038
0.010599136 0.83145362 0.05200246 14340038
0.011001527 0.83168399 0.05199942 14405061
0.011403903 0.83191437 0.05199638 14470854
0.011806294 0.83214474 0.05199334 14405061
0.01220867 0.83237517 0.0519903 14405061
0.012611061 0.83260548 0.051987261 14339268
0.013621986 0.83220482 0.051455021 14339268
0.014025778 0.83243603 0.051451966 14339268
0.015040934 0.83203781 0.050919697 14405061
0.015446156 0.83226979 0.050916642 14274245
0.015851364 0.83250183 0.050913572 14340038
0.016872182 0.83210683 0.050381258 14405061
0.01727882 0.83233964 0.050378188 14470854
0.017685458 0.83257246 0.050375119 14470854
0.018711954 0.83218068 0.04984276 14405061
0.019120023 0.83241433 0.049839675 14405061
0.019528061 0.83264792 0.049836591 14405061
0.02056022 0.83225948 0.049304187 14339268
0.020969689 0.8324939 0.049301088 14405061
0.021379143 0.83272833 0.049298003 14405061
0.022416979 0.83234304 0.048765555 14405061
0.022827879 0.8325783 0.048762441 14405061
0.023869947 0.83219552 0.048229977 14405061
0.024282247 0.83243155 0.048226863 14470854
0.024694562 0.83266759 0.048223749 14405061
0.025742307 0.83228803 0.047691211 14405061
0.026156023 0.8325249 0.047688097 14339268
0.026569754 0.83276176 0.047684968 14405061
0.027623147 0.83238542 0.047152415 14470854
0.028038293 0.83262312 0.047149271 14536647
0.028453425 0.83286083 0.047146142 14470854
0.030156448 0.83187693 0.046084061 14470854
0.030574411 0.83211625 0.046080902 14470854
0.031639159 0.8317464 0.04554826 14536134
0.032058552 0.83198655 0.045545101 14470341
0.032477945 0.83222663 0.045541927 14470341
0.034199387 0.83125329 0.044479713 14470341
0.034621596 0.83149505 0.044476524 14470341
0.035043821 0.8317368 0.044473335 14470341
0.036121339 0.83137423 0.043940574 14404548
0.036544979 0.83161676 0.04393737 14404548
0.037626714 0.83125669 0.043404609 14207169
0.038051769 0.83150005 0.04340139 14404548
0.038476825 0.83174342 0.043398187 14404548
0.039564252 0.83138657 0.042865366 14338755
0.039990723 0.83163071 0.042862132 14338755
0.040417194 0.83187485 0.042858914 14338755
0.042176872 0.8309235 0.041796416 14404548
0.042606175 0.83116925 0.041793182 14404548
0.043035477 0.83141506 0.041789934 14338755
0.04413566 0.83106548 0.041256994 14207169
0.044566393 0.83131206 0.041253746 14207169
0.044997096 0.8315587 0.041250497 14338755
0.045427829 0.83180535 0.041247234 14338755
0.045858532 0.83205193 0.041243985 14338755
0.046967208 0.83170724 0.040711015 14338755
0.047399342 0.83195466 0.040707752 14075583
0.047831476 0.83220208 0.040704489 14076350
0.048945844 0.8318606 0.040171459 14076350
0.049379393 0.83210886 0.040168196 14010557
0.049812943 0.83235705 0.040164918 14010557
-0.030241773 0.82545054 0.062131181 9079680
-0.029864892 0.82566631 0.062128335 11183001
-0.029488012 0.82588208 0.062125489 11972517
-0.029602453 0.82679701 0.062649533 12235943
-0.029226989 0.82701194 0.062646687 12630701
-0.028851524 0.82722694 0.062643856 12697010
-0.028476059 0.82744193 0.062641025 13025975
-0.028597608 0.82835269 0.063165128 13158074
-0.028223559 0.82856691 0.063162297 13355453
-0.02784951 0.82878101 0.063159481 13356225
-0.027976722 0.82968861 0.063683629 13619397
-0.027604088 0.82990193 0.063680813 13816524
-0.027231455 0.83011532 0.063677996 14211282
-0.026858822 0.83032864 0.06367518 14342868
-0.026486203 0.83054197 0.063672379 14606040
-0.02611357 0.83075535 0.063669562 14606297
-0.025740936 0.83096874 0.063666746 14672090
-0.025368303 0.83118206 0.06366393 14606297
-0.02499567 0.83139539 0.063661113 14606297
-0.024623036 0.83160877 0.063658297 14606297
-0.024250418 0.8318221 0.063655481 14540504
-0.023877785 0.83203542 0.063652664 14671833
-0.023505151 0.83224881 0.063649848 14540247
-0.023132518 0.83246213 0.063647047 14408915
-0.022759885 0.83267546 0.06364423 14343122
-0.022387251 0.83288884 0.063641414 14408145
-0.022014633 0.83310217 0.063638598 14342352
-0.021641999 0.83331555 0.063635781 14276559
-0.021269366 0.83352888 0.063632965 14210766
-0.020896733 0.83374226 0.063630149 14144460
-0.020524099 0.83395559 0.063627332 14012874
-0.019620463 0.83349252 0.063097328 13947079
-0.019246414 0.83370674 0.063094497 13881286
-0.018338531 0.83324611 0.062564448 14012102
-0.017963052 0.83346105 0.062561616 13814723
-0.017587602 0.83367604 0.06255877 13618112
-0.016674042 0.83321869 0.062028706 13618112
-0.016297162 0.83343446 0.06202586 13486526
-0.015920281 0.83365023 0.062023014 12302252
-0.015001059 0.83319616 0.06149286 11117978
-0.014622748 0.83341277 0.061489999 10262669
-0.014244452 0.83362937 0.061487138 10527126
-0.013319567 0.83317846 0.060956985 11777193
-0.012939841 0.8333959 0.060954109 12371642
-0.012010694 0.83294743 0.060423881 13095365
-0.011629552 0.83316565 0.060421005 12834506
-0.011248425 0.83338392 0.060418129 12176576
-0.01031363 0.83293867 0.059887886 11058095
-0.0099310726 0.83315772 0.05988501 10136993
-0.00954853 0.83337677 0.059882119 10463391
-0.0091659725 0.83359575 0.059879228 11187114
-0.0087834299 0.8338148 0.059876338 12829886
-0.0084008873 0.83403385 0.059873447 13356230
-0.0074561387 0.83359432 0.059343114 13619399
-0.0070721805 0.83381414 0.059340224 13487813
-0.0066882074 0.83403397 0.059337318 13816006
-0.0057378262 0.83359778 0.058806956 13816006
-0.0053524524 0.83381838 0.058804035 13881286
-0.0043977946 0.83338457 0.058273658 13881286
-0.0040110052 0.83360606 0.058270723 13881286
-0.0036242008 0.8338275 0.058267802 13947079
-0.0026638806 0.83339691 0.05773735 14077893
-0.0022756606 0.83361918 0.057734415 14077893
-0.0018874407 0.83384144 0.057731479 14012100
-0.00092145801 0.83341414 0.057201013 14012100
-0.00053183734 0.83363724 0.057198063 13946307
-0.00014220178 0.83386028 0.057195127 14012100
0.00082945824 0.83343619 0.056664601 14077893
0.0012204945 0.83366007 0.056661636 14012100
0.0021963865 0.83323842 0.05613108 14012100
0.0025888681 0.83346313 0.056128114 14012100
0.00298132 0.83368784 0.056125149 14077893
0.0039629042 0.83326942 0.055594549 14077893
0.0043568015 0.8334949 0.055591568 14077893
0.0047506839 0.83372045 0.055588588 14077893
0.010314196 0.8310234 0.052407444 14274759
0.010716587 0.83125377 0.052404404 14208966
0.011118963 0.8314842 0.052401364 14274245
0.011521339 0.83171457 0.052398324 14340038
0.01192373 0.83194494 0.052395284 14340038
0.012326121 0.83217531 0.052392244 14274245
0.012728497 0.83240569 0.052389205 14208452
0.013739824 0.83200431 0.05185838 14142659
0.014143631 0.83223552 0.051855326 14208452
0.01515919 0.83183658 0.051324472 14208452
0.015564412 0.83206856 0.051321417 14274245
0.015969634 0.8323006 0.051318362 14340038
0.01699087 0.83190489 0.050787449 14405061
0.017397493 0.8321377 0.050784379 14405061
0.017804131 0.83237052 0.05078131 14405061
0.018831059 0.83197808 0.050250366 14339268
0.019239113 0.83221173 0.050247282 14405061
0.019647151 0.83244532 0.050244197 14405061
0.020679727 0.83205616 0.049713209 14339268
0.021089196 0.83229059 0.04971011 14405061
0.022126019 0.83190376 0.049179092 14405061
0.022536904 0.83213902 0.049175993 14405061
0.022947788 0.83237427 0.049172878 14405061
0.023990273 0.83199078 0.048641831 14405061
0.024402589 0.83222681 0.048638716 14470854
0.024814889 0.83246291 0.048635602 14470854
0.025863051 0.83208257 0.04810448 14470854
0.026276767 0.83231944 0.048101366 14405061
0.026690498 0.83255637 0.048098236 14470854
0.027744308 0.83217931 0.047567099 14536647
0.028159454 0.83241701 0.047563955 14536647
0.028574586 0.83265465 0.047560826 14470854
0.030278444 0.83166939 0.046501577 14536134
0.030696407 0.8319087 0.046498418 14536134
0.031761557 0.83153814 0.045967191 14536134
0.03218095 0.83177829 0.045964032 14470341
0.032600343 0.83201838 0.045960858 14470341
0.034322605 0.83104366 0.044901475 14470341
0.034744829 0.83128536 0.044898286 14470341
0.035167038 0.83152711 0.044895098 14470341
0.036244988 0.83116388 0.044363737 14404548
0.036668628 0.83140641 0.044360548 14338755
0.037750781 0.83104563 0.043829188 14207169
0.038175821 0.83128899 0.043825984 14338755
0.038600892 0.83153236 0.043822765 14404548
0.039688706 0.83117473 0.04329136 14338755
0.040115178 0.83141893 0.043288141 14338755
0.040541664 0.83166313 0.043284923 14404548
0.042302161 0.83071029 0.042225257 14404548
0.042731479 0.8309561 0.042222008 14404548
0.043160781 0.83120191 0.042218775 14404548
0.044261366 0.83085161 0.04168725 14338755
0.044692099 0.8310982 0.041684002 14338755
0.045122802 0.83134484 0.041680753 14338755
0.045553535 0.83159143 0.04167749 14338755
0.045984238 0.83183801 0.041674241 14338755
0.047093332 0.83149266 0.041142687 14141889
0.047525465 0.83174008 0.041139424 14076096
0.047957599 0.8319875 0.04113616 14076350
0.04907237 0.83164531 0.040604547 14076350
0.049505919 0.83189356 0.040601268 13944764
0.049939483 0.83214176 0.04059799 13944764
-0.030131772 0.82526338 0.062507659 10985622
-0.029754892 0.82547915 0.062504798 11314074
-0.029378012 0.82569498 0.062501952 11906211
-0.02949287 0.82661057 0.06302458 12235430
-0.029117405 0.8268255 0.063021749 12695981
-0.028741941 0.82704049 0.063018918 12762287
-0.028366476 0.82725543 0.063016072 13091252
-0.028488442 0.82816696 0.063538775 13157561
-0.028114393 0.82838112 0.063535944 13420733
-0.027740344 0.82859528 0.063533112 13487039
-0.027867973 0.82950354 0.06405586 13750211
-0.02749534 0.82971692 0.064053044 13685192
-0.027122706 0.82993025 0.064050227 14145743
-0.026750073 0.83014363 0.064047411 14277329
-0.026377439 0.83035696 0.064044595 14540501
-0.026004806 0.83057034 0.064041778 14540758
-0.025632173 0.83078367 0.064038962 14672344
-0.025259554 0.83099699 0.064036146 14606551
-0.024886921 0.83121037 0.064033344 14540758
-0.024514288 0.8314237 0.064030528 14474965
-0.024141654 0.83163702 0.064027712 14606551
-0.023769021 0.83185041 0.064024895 14540758
-0.023396403 0.83206373 0.064022079 14211793
-0.023023769 0.83227712 0.064019263 14343122
-0.022651136 0.83249044 0.064016446 14277329
-0.022278503 0.83270383 0.06401363 14342352
-0.021905869 0.83291715 0.064010814 14342352
-0.021533251 0.83313048 0.064008012 14276559
-0.021160617 0.83334386 0.064005196 14210766
-0.020787984 0.83355719 0.06400238 14144460
-0.020415351 0.83377051 0.063999563 14012874
-0.019511297 0.83330679 0.06347096 13947079
-0.019137248 0.83352101 0.063468128 13947079
-0.018228948 0.83305967 0.06293951 14077895
-0.017853469 0.8332746 0.062936664 14012102
-0.017478019 0.8334896 0.062933832 13814721
-0.016564041 0.83303154 0.062405169 13814721
-0.016187161 0.8332473 0.062402323 13618112
-0.015810281 0.83346313 0.062399477 13815491
-0.014890641 0.83300829 0.061870739 13486526
-0.014512345 0.83322489 0.061867878 13091768
-0.014134049 0.8334415 0.061865032 11973800
-0.013208747 0.83298993 0.061336279 10592147
-0.012829021 0.83320731 0.061333418 10855319
-0.011899456 0.83275819 0.060804605 11250077
-0.011518329 0.8329764 0.06080173 11711657
-0.011137187 0.83319461 0.060798839 12501173
-0.010201976 0.83274877 0.060270026 12109499
-0.0098194182 0.83296776 0.060267136 12570050
-0.0094368756 0.83318681 0.060264245 11781050
-0.009054333 0.83340585 0.060261354 10596776
-0.0086717755 0.83362484 0.060258463 9872026
-0.0082892329 0.83384389 0.060255572 10200991
-0.007344082 0.83340365 0.05972667 12172726
-0.0069601238 0.83362353 0.059723765 13093828
-0.0065761507 0.83384335 0.059720859 13685192
-0.0056253523 0.83340639 0.059191912 13750985
-0.0052399635 0.83362699 0.059189007 13816008
-0.0042849034 0.83319253 0.05866003 13816008
-0.003898114 0.83341396 0.05865711 13815493
-0.0035113096 0.83363545 0.058654189 13947079
-0.0025505722 0.83320415 0.058125138 13947079
-0.0021623522 0.83342642 0.058122203 13947079
-0.0017741323 0.83364868 0.058119282 14012100
-0.00080774724 0.83322066 0.057590216 14012100
-0.00041811168 0.83344376 0.057587281 13946307
-2.849102e-05 0.8336668 0.05758433 13946307
0.00094358623 0.833242 0.05705522 14012100
0.0013346374 0.83346587 0.05705227 14012100
0.0023109317 0.83304358 0.056523114 14012100
0.0027033985 0.83326828 0.056520149 14012100
0.0030958652 0.83349299 0.056517184 14077893
0.0040778667 0.83307385 0.055987999 14077893
0.0044717491 0.83329934 0.055985019 14012100
0.0048656315 0.83352482 0.055982053 14012100
0.010431632 0.8308236 0.052809387 14208966
0.010834023 0.83105397 0.052806348 14143173
0.011236399 0.83128434 0.052803308 14274245
0.01163879 0.83151472 0.052800268 14274245
0.012041166 0.83174515 0.052797228 14340038
0.012443557 0.83197552 0.052794188 14274245
0.012845933 0.83220589 0.052791148 14208452
0.013857692 0.8318038 0.05226174 14208452
0.014261484 0.83203501 0.052258685 14274245
0.01527746 0.83163536 0.051729262 14274245
0.015682682 0.83186734 0.051726192 14274245
0.016087905 0.83209938 0.051723137 14274245
0.017109543 0.83170295 0.05119364 14274245
0.017516181 0.83193576 0.05119057 14274245
0.017922819 0.83216858 0.0511875 14208452
0.018950149 0.83177543 0.050657973 14208452
0.019358203 0.83200908 0.050654888 14208452
0.019766256 0.83224273 0.050651804 14274245
0.020799235 0.83185279 0.050122231 14274245
0.021208704 0.83208722 0.050119132 14274245
0.022245944 0.83169973 0.04958953 14405061
0.022656828 0.83193499 0.04958643 14339268
0.023067713 0.83217025 0.049583316 14405061
0.024110615 0.83178604 0.049053684 14339268
0.024522915 0.83202207 0.04905057 14339268
0.024935216 0.83225816 0.049047455 14405061
0.02598381 0.83187711 0.048517749 14470854
0.026397526 0.83211398 0.048514619 14470854
0.026811242 0.83235085 0.048511505 14470854
0.027865469 0.83197314 0.047981784 14470854
0.028280616 0.83221084 0.04797864 14536647
0.028695747 0.83244854 0.04797551 14470854
0.030400425 0.83146185 0.046919093 14536134
0.030818403 0.83170116 0.046915933 14536134
0.03188397 0.83132988 0.046386123 14536134
0.032303363 0.83157003 0.046382964 14470341
0.032722741 0.83181012 0.04637979 14536134
0.034445837 0.83083397 0.045323223 14536134
0.034868062 0.83107573 0.045320034 14470341
0.035290271 0.83131748 0.045316845 14470341
0.036368623 0.83095348 0.044786915 14404548
0.036792263 0.83119607 0.044783711 14404548
0.037874818 0.83083451 0.044253781 14404548
0.038299888 0.83107793 0.044250578 14338755
0.038724929 0.83132124 0.044247359 14404548
0.039813191 0.83096302 0.043717369 14338755
0.040239662 0.83120716 0.043714151 14404548
0.040666133 0.8314513 0.043710932 14470341
0.042427465 0.83049715 0.042654097 14470595
0.042856783 0.83074296 0.042650849 14470595
0.043286085 0.83098871 0.042647615 14404802
0.044387072 0.83063769 0.042117506 14339009
0.044817805 0.83088434 0.042114258 14273475
0.045248523 0.83113092 0.042110994 14273475
0.045679241 0.83137751 0.042107746 14273475
0.046109959 0.83162415 0.042104498 14141889
0.047219455 0.83127809 0.041574359 14141889
0.047651589 0.83152544 0.041571096 14141889
0.048083723 0.83177292 0.041567832 14076096
0.049198911 0.83143002 0.041037634 14010303
0.04963246 0.83167827 0.041034356 13813694
0.050066024 0.83192647 0.041031078 13813694
-0.030021772 0.82507622 0.062884122 10919570
-0.030134216 0.82599413 0.063405305 11445914
-0.029758751 0.82620913 0.063402474 11906465
-0.029383287 0.82642412 0.063399643 12235430
-0.029501408 0.82733876 0.063920885 12498602
-0.029127359 0.82755291 0.063918054 12762287
-0.028753325 0.82776707 0.063915238 13091252
-0.028877109 0.82867849 0.064436525 13157561
-0.028504461 0.82889181 0.064433709 13420733
-0.028131843 0.8291052 0.064430892 13487039
-0.028261289 0.83001333 0.06495221 13750211
-0.027890071 0.83022588 0.064949408 13685190
-0.027518868 0.83043838 0.064946607 14079948
-0.027147651 0.83065093 0.064943805 14211793
-0.026776433 0.83086348 0.064940989 14343379
-0.026405215 0.83107603 0.064938188 14540758
-0.026034012 0.83128858 0.064935386 14606551
-0.025662795 0.83150113 0.064932585 14606551
-0.025291577 0.83171362 0.064929783 14540758
-0.024920359 0.83192617 0.064926982 14540758
-0.024549156 0.83213872 0.064924166 14540758
-0.024177939 0.83235121 0.064921364 14474965
-0.023806721 0.83256376 0.064918563 14277586
-0.023435503 0.83277631 0.064915761 14343122
-0.0230643 0.83298886 0.06491296 14277329
-0.022693083 0.83320141 0.064910159 14342352
-0.022321865 0.83341396 0.064907342 14342352
-0.021950662 0.83362645 0.064904541 14276559
-0.021051854 0.83315879 0.064377412 14210766
-0.020679221 0.83337212 0.064374596 14144460
-0.020306587 0.8335855 0.06437178 14012874
-0.019933969 0.83379889 0.064368978 14143688
-0.019561335 0.83401221 0.064366162 14077895
-0.019188702 0.83422554 0.064363346 14143688
-0.018279985 0.83376354 0.063836128 14077895
-0.017905936 0.8339777 0.063833296 14012100
-0.016992971 0.83351815 0.063306049 13946307
-0.016617507 0.83373308 0.063303217 13815491
-0.016242027 0.83394808 0.063300371 13815491
-0.015323415 0.83349174 0.062773094 13881284
-0.014946535 0.83370751 0.062770247 13815491
-0.01456964 0.83392334 0.062767401 13815491
-0.013645336 0.83347023 0.062240049 13486526
-0.01326704 0.83368683 0.062237203 12565937
-0.01288873 0.83390343 0.062234342 11447456
-0.011958763 0.8334536 0.061706975 10394768
-0.011579052 0.83367097 0.061704114 10394768
-0.010644823 0.83322358 0.061176687 11119263
-0.010263696 0.83344179 0.061173812 11842986
-0.0098825693 0.83366001 0.061170921 11976884
-0.0089426786 0.83321583 0.060643494 12108470
-0.0085601211 0.83343488 0.060640603 12175292
-0.0081775784 0.83365393 0.060637712 11648948
-0.0077950358 0.83387291 0.060634822 10135709
-0.0074124783 0.83409196 0.060631931 9609365
-0.0070299357 0.83431101 0.06062904 10856866
-0.0060801208 0.8338725 0.060101509 12633277
-0.0056961477 0.83409232 0.060098618 13224387
-0.0047421008 0.83365631 0.059571058 13487559
-0.004356727 0.83387697 0.059568137 13422020
-0.0039713383 0.83409762 0.059565231 13685192
-0.0030116141 0.83366483 0.059037641 13816008
-0.0026248246 0.83388627 0.05903472 13881801
-0.0022380203 0.83410776 0.059031799 13881286
-0.0012726188 0.83367813 0.058504134 13881286
-0.00088441372 0.83390045 0.058501199 13946307
-0.00049619377 0.83412272 0.058498278 13946307
0.0004748702 0.83369642 0.057970598 13946307
0.00086450577 0.83391953 0.057967663 14012100
0.0018398166 0.83349562 0.057439938 14012100
0.0022308677 0.83371949 0.057436988 14012100
0.0026219189 0.83394337 0.057434022 14077893
0.0036028773 0.8335228 0.056906268 13946307
0.003995344 0.83374751 0.056903303 14012100
0.0043878257 0.83397222 0.056900337 14012100
0.0053744763 0.83355474 0.056372523 14077380
0.0057683587 0.83378029 0.056369558 14208966
0.0061622411 0.83400583 0.056366578 14143173
0.010549068 0.83062375 0.053211331 14143173
0.010951459 0.83085418 0.053208292 14143173
0.01135385 0.83108455 0.053205252 14208966
0.011152133 0.83195132 0.053727135 14143173
0.011553109 0.83218092 0.05372411 14274245
0.011954069 0.83241045 0.05372107 14208452
0.012355044 0.83264005 0.053718045 14208452
0.01336576 0.83223647 0.053190053 14274245
0.013768151 0.83246684 0.053187013 14274245
0.014170527 0.83269721 0.053183973 14274245
0.015186936 0.83229685 0.05265595 14274245
0.015590742 0.83252805 0.052652895 14274245
0.016611382 0.83213013 0.052124843 14274245
0.017016605 0.83236217 0.052121788 14274245
0.017421827 0.83259416 0.052118734 14208452
0.018448129 0.83219951 0.051590621 14208452
0.018854767 0.83243233 0.051587552 14208452
0.01926139 0.83266515 0.051584482 14208452
0.0202934 0.83227372 0.051056325 14208452
0.020701453 0.83250731 0.051053241 14208452
0.021109506 0.83274096 0.051050171 14274245
0.022147149 0.83235276 0.05052197 14208452
0.022556603 0.83258724 0.050518885 14405061
0.023598522 0.83220148 0.049990654 14339268
0.024009407 0.83243668 0.049987555 14339268
0.024420291 0.83267194 0.049984455 14405061
0.025467858 0.83228946 0.049456194 14470854
0.025880158 0.83252549 0.04945308 14470854
0.026292473 0.83276159 0.049449965 14470854
0.027345702 0.83238232 0.048921645 14470854
0.027759433 0.83261919 0.048918515 14536647
0.028173149 0.83285606 0.048915401 14536647
0.029877216 0.83186716 0.047861829 14601927
0.030293792 0.83210564 0.047858685 14470341
0.031358361 0.83173287 0.04733029 14536134
0.031776324 0.83197224 0.047327131 14470341
0.032194287 0.83221149 0.047323972 14536134
0.033264533 0.83184201 0.046795547 14536134
0.033683911 0.83208209 0.046792388 14470341
0.034103304 0.83232224 0.046789214 14470341
0.035835713 0.83134955 0.045735419 14404548
0.036257952 0.83159125 0.04573223 14404548
0.036680162 0.831833 0.045729041 14404548
0.037763178 0.83147079 0.045200497 14404548
0.038186803 0.83171332 0.045197293 14404548
0.039937645 0.83075118 0.044143379 14404548
0.040364116 0.83099538 0.04414016 14404548
0.040790603 0.83123958 0.044136927 14404548
0.041884914 0.83088386 0.043608308 14470595
0.042312801 0.83112884 0.043605089 14470595
0.042740703 0.83137381 0.043601856 14404802
0.043840677 0.83102131 0.043073207 14404802
0.044269979 0.83126712 0.043069959 14273729
0.044699281 0.83151293 0.04306671 14339522
0.045804948 0.83116364 0.042538002 14339522
0.046235666 0.83141029 0.042534739 14142143
0.047345579 0.83106345 0.042006016 14142143
0.047777712 0.83131087 0.042002752 14142143
0.048209846 0.83155829 0.041999489 14076350
0.04864198 0.83180571 0.041996226 14076350
0.049074128 0.83205318 0.041992962 14010303
0.049506262 0.83230054 0.041989699 14010303
0.050626099 0.83195943 0.041460887 13813694
0.051059663 0.83220762 0.041457608 13879487
0.051493227 0.83245587 0.041454345 13813694
-0.030024633 0.82580769 0.063780367 11642779
-0.029649168 0.82602268 0.063777536 12037537
-0.029273704 0.82623762 0.06377469 12169637
-0.029392242 0.82715303 0.064294532 12498602
-0.029018193 0.82736719 0.064291701 12762287
-0.028644145 0.82758135 0.06428887 13091252
-0.028768346 0.82849348 0.064808741 13091768
-0.028395712 0.8287068 0.06480594 13420733
-0.028023079 0.82892013 0.064803123 13618112
-0.028152943 0.82982898 0.065323025 13815491
-0.02778174 0.83004153 0.065320209 13816006
-0.027410522 0.83025408 0.065317407 14079178
-0.027039304 0.83046663 0.065314606 14277329
-0.026668102 0.83067918 0.065311804 14408915
-0.026296884 0.83089167 0.065309003 14343379
-0.025925666 0.83110422 0.065306202 14606551
-0.025554448 0.83131677 0.065303385 14606551
-0.025183231 0.83152926 0.065300584 14606551
-0.024812028 0.83174181 0.065297782 14606294
-0.02444081 0.83195436 0.065294981 14540501
-0.024069592 0.83216691 0.06529218 14540501
-0.02369839 0.83237946 0.065289378 14408915
-0.023327172 0.83259201 0.065286562 14408145
-0.022955954 0.8328045 0.06528376 14408145
-0.022584736 0.83301705 0.065280959 14408145
-0.022213519 0.8332296 0.065278158 14342352
-0.021842316 0.83344209 0.065275356 14276046
-0.020943105 0.83297378 0.064749643 14276046
-0.020570472 0.8331871 0.064746827 14144460
-0.020197839 0.83340049 0.064744011 14078667
-0.019825205 0.83361381 0.064741194 14012872
-0.019452572 0.83382714 0.064738378 14012872
-0.019079953 0.83404052 0.064735562 14012872
-0.018170819 0.83357781 0.064209759 13947079
-0.01779677 0.83379197 0.064206943 13881286
-0.016883388 0.8333317 0.063681111 13881286
-0.016507924 0.83354664 0.063678265 13881286
-0.016132444 0.83376163 0.063675433 13881286
-0.015213415 0.83330458 0.063149571 13947077
-0.014836535 0.83352041 0.063146725 13815491
-0.014459655 0.83373618 0.063143879 13815491
-0.013534933 0.83328235 0.062617943 13683905
-0.013156623 0.83349895 0.062615082 13683905
-0.012778327 0.83371556 0.062612221 13683905
-0.011847943 0.83326501 0.062086284 13420733
-0.011468232 0.83348244 0.062083408 12565424
-0.010533586 0.83303428 0.061557397 11249564
-0.010152459 0.83325255 0.061554521 11117978
-0.0097713321 0.83347076 0.061551645 10723733
-0.0088310242 0.83302587 0.06102562 11579042
-0.0084484816 0.83324492 0.061022729 11909036
-0.0080659389 0.83346391 0.061019838 12501173
-0.0076833814 0.83368295 0.061016947 12635584
-0.0073008388 0.833902 0.061014056 12240826
-0.0069182813 0.83412099 0.061011165 11057327
-0.0059680492 0.83368182 0.060485065 9807260
-0.0055840909 0.83390164 0.060482159 9674394
-0.0046296269 0.83346492 0.059956014 11121840
-0.0042442381 0.83368558 0.059953108 12764865
-0.0038588643 0.83390623 0.059950188 13225416
-0.0028987229 0.83347273 0.059424013 13290437
-0.0025119334 0.83369422 0.059421092 13422023
-0.0021251291 0.83391565 0.059418172 13750213
-0.0011593103 0.83348536 0.058891922 13816006
-0.00077110529 0.83370769 0.058889002 13815491
-0.00038288534 0.8339299 0.058886066 13815491
0.00058858097 0.83350295 0.058359802 13946307
0.00097821653 0.83372605 0.058356866 14012100
0.0019539446 0.83330142 0.057830557 14012100
0.0023449957 0.8335253 0.057827607 14012100
0.0027360469 0.83374918 0.057824656 14077893
0.0037174225 0.83332789 0.057298303 13946307
0.0041098893 0.8335526 0.057295337 14012100
0.0045023561 0.83377731 0.057292372 14012100
0.0054894388 0.83335918 0.056765988 14012100
0.0058833212 0.83358467 0.056763008 14143686
0.0062772036 0.83381021 0.056760028 14143173
0.011269167 0.83175224 0.054127663 14143173
0.011670128 0.83198178 0.054124638 14143173
0.012071103 0.83221138 0.054121599 14077380
0.012472063 0.83244097 0.054118574 14143173
0.013483196 0.83203661 0.053591996 14143173
0.013885587 0.83226705 0.053588957 14274245
0.014287978 0.83249742 0.053585917 14274245
0.015304804 0.83209634 0.05305931 14274245
0.015708596 0.83232754 0.053056255 14274245
0.016729653 0.83192891 0.052529618 14274245
0.017134875 0.83216095 0.052526563 14208452
0.017540097 0.83239293 0.052523509 14208454
0.018566817 0.83199757 0.051996812 14208454
0.01897344 0.83223039 0.051993743 14208452
0.019380078 0.8324632 0.051990673 14142659
0.02041249 0.83207107 0.051463932 14077380
0.020820543 0.83230472 0.051460847 14143173
0.021228597 0.83253831 0.051457778 14077380
0.022266656 0.83214945 0.050930992 14077380
0.02267611 0.83238387 0.050927907 14274245
0.023718446 0.83199739 0.050401092 14208452
0.024129331 0.83223265 0.050397992 14274245
0.024540216 0.83246791 0.050394893 14274245
0.025588199 0.83208472 0.049868047 14470854
0.026000485 0.83232081 0.049864933 14470854
0.0264128 0.83255684 0.049861819 14405061
0.027466446 0.83217686 0.049334913 14405061
0.027880177 0.83241373 0.049331784 14470854
0.028293893 0.8326506 0.049328655 14470854
0.029998794 0.83166033 0.048277929 14470854
0.030415356 0.83189881 0.048274785 14602440
0.031480342 0.83152533 0.047747806 14667720
0.03189832 0.83176464 0.047744647 14536134
0.032316282 0.83200395 0.047741488 14536134
0.033386946 0.83163375 0.047214478 14601927
0.033806324 0.83187383 0.047211319 14470341
0.034225702 0.83211398 0.047208145 14470341
0.035958946 0.83113986 0.046157181 14404548
0.036381185 0.83138162 0.046153992 14404548
0.036803395 0.83162338 0.046150804 14404548
0.037886813 0.83126044 0.045623675 14404548
0.038310438 0.83150297 0.045620471 14404548
0.040062129 0.83053946 0.044569388 14404548
0.040488601 0.83078361 0.044566154 14470341
0.040915072 0.83102775 0.044562936 14470341
0.042009801 0.83067131 0.044035733 14404802
0.042437673 0.83091635 0.044032499 14404802
0.042865574 0.83116132 0.044029266 14339009
0.043965966 0.83080816 0.043502033 14404802
0.044395283 0.83105397 0.043498799 14404802
0.04482457 0.83129972 0.043495551 14339009
0.045930654 0.83094978 0.042968243 14404802
0.046361387 0.83119637 0.042964995 14339009
0.047471702 0.83084887 0.042437688 14207423
0.047903836 0.83109629 0.042434424 14339009
0.048335969 0.83134371 0.042431161 14142143
0.048768103 0.83159113 0.042427897 14076350
0.049200252 0.83183855 0.042424634 14076350
0.049632385 0.83208597 0.042421371 14076350
0.05075264 0.83174413 0.041893974 14076350
0.051186204 0.83199233 0.041890696 14010557
0.051619768 0.83224058 0.041887417 13944510
-0.02991505 0.82562125 0.064155415 11642777
-0.029539585 0.82583624 0.064152583 11971742
-0.029164121 0.82605118 0.064149752 12169635
-0.029283077 0.82696724 0.064668164 12498600
-0.028909028 0.82718146 0.064665347 12696492
-0.028534979 0.82739556 0.064662516 13025457
-0.028659597 0.8283084 0.065180972 13091768
-0.028286964 0.82852173 0.065178156 13354940
-0.02791433 0.82873511 0.06517534 13486526
-0.028044611 0.82964468 0.065693825 13618112
-0.027673393 0.82985723 0.065691024 13881799
-0.027302176 0.83006972 0.065688223 14013385
-0.026930958 0.83028227 0.065685421 14342350
-0.026559755 0.83049482 0.06568262 14473936
-0.026188537 0.83070731 0.065679803 14408913
-0.02581732 0.83091986 0.065677002 14540499
-0.025446102 0.83113241 0.065674201 14606294
-0.025074899 0.83134496 0.065671399 14606294
-0.024703681 0.83155751 0.065668598 14540501
-0.024332464 0.83177006 0.065665796 14540501
-0.023961246 0.83198255 0.06566298 14540501
-0.023590043 0.8321951 0.065660179 14408915
-0.023218825 0.83240765 0.065657377 14408145
-0.022847608 0.83262014 0.065654576 14342352
-0.02247639 0.83283269 0.065651774 14539218
-0.022105187 0.83304524 0.065648973 14407632
-0.021733969 0.83325779 0.065646157 14341839
-0.020834342 0.83278871 0.065121859 14341839
-0.020461708 0.83300209 0.065119058 14144460
-0.02008909 0.83321542 0.065116242 14012874
-0.019716457 0.83342874 0.065113425 14078667
-0.019343823 0.83364213 0.065110609 14012874
-0.01897119 0.83385545 0.065107793 14012872
-0.018061653 0.83339202 0.064583406 13947079
-0.017687604 0.83360624 0.064580575 13881286
-0.016773805 0.83314526 0.064056158 13881286
-0.01639834 0.8333602 0.064053327 13947079
-0.016022861 0.83357519 0.064050496 13947079
-0.015103415 0.83311749 0.063526034 14143686
-0.014726534 0.83333325 0.063523188 14143686
-0.014349654 0.83354902 0.063520342 14077893
-0.013424516 0.83309454 0.062995821 14143686
-0.013046205 0.83331108 0.062992975 14012100
-0.012667924 0.83352768 0.062990114 14077893
-0.011737123 0.83307648 0.062465578 14077893
-0.011357412 0.83329386 0.062462717 14143686
-0.010422349 0.83284503 0.061938122 14078147
-0.010041222 0.83306324 0.061935231 13946561
-0.009660095 0.83328152 0.061932355 12960182
-0.0087193847 0.83283591 0.061407745 11578529
-0.0083368272 0.83305496 0.061404854 10657940
-0.0079542845 0.83327401 0.061401978 10526354
-0.007571727 0.83349299 0.061399087 10922139
-0.0071891844 0.83371204 0.061396196 11777448
-0.0068066418 0.83393109 0.061393306 11647917
-0.0058559924 0.83349115 0.060868606 12569019
-0.0054720342 0.83371103 0.0608657 11912122
-0.0045171529 0.83327353 0.060340971 10530469
-0.0041317642 0.83349419 0.060338065 9872539
-0.0037463903 0.83371484 0.060335159 10135711
-0.0027858317 0.83328068 0.0598104 11646384
-0.0023990422 0.83350211 0.059807479 13028037
-0.0020122379 0.8337236 0.059804559 13750215
-0.0010460168 0.8332926 0.059279725 13816008
-0.00065779686 0.83351487 0.059276789 13750215
-0.00026957691 0.83373713 0.059273854 13618629
0.00070229173 0.83330941 0.05874902 13683907
0.0010919273 0.83353251 0.05874607 13815493
0.0020680726 0.83310723 0.058221176 13881286
0.0024591386 0.83333111 0.058218226 13881286
0.0028501749 0.83355498 0.058215275 14012102
0.0038319677 0.83313298 0.057690337 13946309
0.0042244345 0.83335769 0.057687372 14012102
0.0046169162 0.8335824 0.057684407 14012102
0.0056043863 0.83316362 0.057159439 14012102
0.0059982836 0.8333891 0.057156458 14143688
0.006392166 0.83361459 0.057153493 14143173
0.011386186 0.8315531 0.054528192 14143173
0.011787161 0.8317827 0.054525167 14208966
0.012188122 0.8320123 0.054522142 14077380
0.012589097 0.83224183 0.054519102 14143173
0.013600647 0.83183682 0.053993955 14143173
0.014003024 0.83206725 0.053990915 14143173
0.014405414 0.83229756 0.053987876 14143173
0.015422642 0.83189583 0.053462669 14208452
0.015826449 0.83212703 0.053459615 14274245
0.016847923 0.83172774 0.052934408 14274245
0.017253146 0.83195972 0.052931339 14208452
0.017658353 0.83219171 0.052928284 14208454
0.01868549 0.83179569 0.052403003 14142661
0.019092113 0.83202851 0.052399933 14274245
0.019498765 0.83226132 0.052396864 14208452
0.02053158 0.83186841 0.051871538 14077380
0.020939633 0.83210206 0.051868469 14143173
0.021347687 0.83233571 0.051865384 14077380
0.022386163 0.83194613 0.051340014 14077380
0.022795618 0.83218056 0.051336929 14208452
0.023838371 0.83179337 0.050811529 14208452
0.024249241 0.83202863 0.05080843 14274245
0.024660125 0.83226389 0.05080533 14340038
0.025708526 0.83187997 0.0502799 14405061
0.026120827 0.83211607 0.050276786 14470854
0.026533142 0.8323521 0.050273672 14405061
0.027587205 0.83197141 0.049748182 14405061
0.028000921 0.83220828 0.049745053 14470854
0.028414637 0.83244514 0.049741924 14470854
0.030120373 0.83145344 0.048694029 14470854
0.030536935 0.83169198 0.048690885 14470854
0.031602323 0.83131778 0.048165321 14601927
0.032020301 0.8315571 0.048162162 14536134
0.032438278 0.83179641 0.048159003 14536134
0.033509344 0.83142549 0.04763341 14536134
0.033928722 0.83166558 0.04763025 14470341
0.0343481 0.83190572 0.047627077 14536134
0.036082178 0.83093023 0.046578944 14470341
0.036504403 0.83117199 0.046575755 14404548
0.036926612 0.83141369 0.046572566 14404548
0.038010448 0.83105004 0.046046838 14404548
0.038434088 0.83129263 0.046043649 14404548
0.040186584 0.83032763 0.044995382 14404548
0.040613055 0.83057183 0.044992164 14404548
0.041039541 0.83081603 0.044988945 14404548
0.042134672 0.83045888 0.044463158 14404548
0.042562574 0.83070385 0.044459924 14536134
0.042990461 0.83094883 0.044456691 14470341
0.044091269 0.83059496 0.043930873 14470341
0.044520587 0.83084077 0.04392764 14404548
0.044949874 0.83108652 0.043924391 14338755
0.04605636 0.83073586 0.043398499 14207169
0.046487093 0.83098251 0.043395251 14338755
0.047597826 0.8306343 0.042869359 14338755
0.048029959 0.83088171 0.042866096 14338755
0.048462093 0.83112913 0.042862833 14076096
0.048894227 0.83137655 0.042859569 14076096
0.049326375 0.83162397 0.042856306 14076096
0.049758509 0.83187139 0.042853028 14076096
0.05087918 0.83152884 0.042327046 14076096
0.051312745 0.83177704 0.042323783 14010303
0.051746294 0.83202529 0.042320505 13944510
-0.029805467 0.8254348 0.064530477 11773847
-0.029430002 0.8256498 0.064527646 12102812
-0.029054537 0.82586473 0.0645248 12235682
-0.029668719 0.8274833 0.065561637 12498854
-0.0292961 0.82769668 0.065558821 12696492
-0.028923467 0.82791001 0.065556005 12893871
-0.029049903 0.82882273 0.066073045 13091768
-0.028678685 0.82903528 0.066070244 13223354
-0.028307483 0.82924777 0.066067442 13486526
-0.028439596 0.83015728 0.066584557 13552319
-0.028069794 0.830369 0.066581756 13881799
-0.027700007 0.83058071 0.066578969 14079178
-0.027330205 0.83079243 0.066576168 14276557
-0.026960403 0.8310042 0.066573381 14342350
-0.026590616 0.83121592 0.066570595 14343120
-0.026220813 0.83142763 0.066567793 14408913
-0.025851011 0.83163935 0.066565007 14408915
-0.025481224 0.83185107 0.066562206 14540501
-0.025111422 0.83206284 0.066559419 14540501
-0.02474162 0.83227456 0.066556618 14540501
-0.024371833 0.83248627 0.066553831 14540501
-0.02400203 0.83269799 0.06655103 14540501
-0.023632228 0.8329097 0.066548243 14408145
-0.023262441 0.83312142 0.066545442 14408145
-0.022368059 0.8326484 0.066022575 14408145
-0.021996841 0.83286095 0.066019773 14276559
-0.021625623 0.83307344 0.066016972 14341839
-0.02125442 0.83328599 0.066014171 14341839
-0.020883203 0.83349854 0.066011369 14144460
-0.020511985 0.83371109 0.066008553 14012874
-0.019607693 0.83324373 0.065485641 14012874
-0.019235075 0.83345711 0.065482825 13947081
-0.018862441 0.83367044 0.065480024 14012872
-0.018489808 0.83388376 0.065477207 13947079
-0.018117175 0.83409715 0.065474391 14012102
-0.017204389 0.83363461 0.06495139 14012102
-0.01683034 0.83384877 0.064948574 14077895
-0.016456291 0.83406293 0.064945742 14077895
-0.015537828 0.83360368 0.064422712 14143686
-0.015162349 0.83381867 0.064419866 14143686
-0.014786899 0.83403361 0.064417034 14208966
-0.013862774 0.83357763 0.063893974 14274759
-0.013485894 0.8337934 0.063891128 14077893
-0.013109013 0.83400923 0.063888282 14077893
-0.012179211 0.83355641 0.063365147 14077893
-0.011800915 0.83377302 0.063362285 14077893
-0.010866866 0.8333227 0.06283915 14143940
-0.010487154 0.83354014 0.062836275 13946561
-0.010107443 0.83375752 0.062833413 14209733
-0.0091677159 0.83331043 0.062310189 14275526
-0.0087865889 0.83352864 0.062307313 13552832
-0.0084054619 0.83374685 0.062304437 12565937
-0.0074600875 0.83330303 0.061781213 11382687
-0.00707753 0.83352208 0.061778322 10724757
-0.0066949874 0.83374107 0.061775431 11185308
-0.0057439208 0.83330047 0.061252147 11119515
-0.0053599626 0.83352035 0.061249256 11778220
-0.004404664 0.8330822 0.060725942 12041392
-0.0040192902 0.83330286 0.060723022 11780788
-0.0036339164 0.83352351 0.060720116 11188651
-0.0026729405 0.83308858 0.060196772 10069916
-0.0022861511 0.83331007 0.060193852 9543572
-0.0018993467 0.8335315 0.060190931 10462110
-0.0015125573 0.83375299 0.06018801 11909556
-0.0011257529 0.83397442 0.06018509 13027262
-0.00073894858 0.83419591 0.060182169 13290434
0.00023193657 0.83376664 0.059658721 13487813
0.00062015653 0.8339889 0.059655786 13619399
0.0010083616 0.83421117 0.05965285 13816008
0.0019849241 0.83378518 0.059129387 13816008
0.0023745447 0.83400828 0.059126452 13881288
0.0033553541 0.83358473 0.058602944 13683909
0.0037464052 0.8338086 0.058599994 13881286
0.0041374564 0.83403254 0.058597028 13881286
0.0051239133 0.8336122 0.058073491 13881286
0.0055163801 0.83383691 0.058070526 14012872
0.0059088469 0.83406162 0.05806756 14077895
0.01150322 0.83135402 0.05492872 14143173
0.01190418 0.83158356 0.054925695 14143173
0.012305155 0.83181316 0.05492267 14077380
0.012706116 0.83204269 0.05491963 14077380
0.013718084 0.83163702 0.054395899 14143173
0.01412046 0.8318674 0.054392859 14143173
0.014522851 0.83209777 0.05438982 14143173
0.01554051 0.83169532 0.053866029 14208452
0.015944302 0.83192652 0.053862974 14340038
0.016966194 0.83152652 0.053339183 14274245
0.017371416 0.8317585 0.053336114 14208452
0.017776623 0.83199048 0.053333059 14208452
0.018804163 0.83159375 0.052809194 14208452
0.019210801 0.83182657 0.052806124 14274245
0.019617438 0.83205938 0.052803054 14208452
0.020650685 0.83166581 0.052279145 14077380
0.021058723 0.8318994 0.052276075 14143173
0.021466777 0.83213305 0.05227299 14143173
0.022505671 0.83174276 0.051749036 14077380
0.022915125 0.83197725 0.051745951 14208452
0.023324594 0.83221167 0.051742852 14274245
0.023734063 0.8324461 0.051739767 14274245
0.024143547 0.83268058 0.051736668 14340038
0.025190949 0.83229506 0.051212654 14405061
0.025601834 0.83253038 0.051209554 14405061
0.026012719 0.83276558 0.051206455 14405061
0.027065769 0.83238345 0.050682411 14536647
0.027478069 0.83261949 0.050679296 14470854
0.027890354 0.83285558 0.050676182 14405061
0.029595524 0.83186162 0.049631104 14470854
0.03001067 0.83209932 0.049627975 14470854
0.03107506 0.83172363 0.049103841 14470854
0.031491607 0.83196211 0.049100682 14470854
0.031908154 0.83220065 0.049097538 14470854
0.033631742 0.83121723 0.048052341 14405061
0.03405112 0.83145732 0.048049167 14405061
0.034470513 0.83169746 0.048046008 14405061
0.034889892 0.83193755 0.048042834 14405061
0.035309285 0.8321777 0.048039675 14339268
0.035728663 0.83241785 0.048036501 14338755
0.037472069 0.83144575 0.04699114 14404548
0.037894279 0.83168751 0.046987951 14404548
0.038981378 0.83132482 0.046463624 14404548
0.039405018 0.83156735 0.04646042 14404548
0.039828643 0.83180988 0.046457216 14338755
0.041590467 0.8308484 0.045411736 14338755
0.042016953 0.8310926 0.045408502 14404548
0.042443424 0.83133674 0.045405284 14404548
0.04354322 0.83098137 0.044880882 14404548
0.043971121 0.83122635 0.044877648 14404548
0.044398993 0.83147132 0.044874415 14338755
0.045504481 0.83111918 0.044349983 14207169
0.045933783 0.83136499 0.044346735 14207169
0.047043532 0.83101523 0.043822244 14273475
0.047474235 0.83126181 0.043818995 14273475
0.047904968 0.8315084 0.043815732 14076096
0.048335686 0.83175504 0.043812484 14076096
0.048766404 0.83200163 0.043809235 14076096
0.049197122 0.83224821 0.043805972 14076096
0.049627855 0.83249485 0.043802723 14076096
0.050058573 0.8327415 0.043799475 13944510
0.050489292 0.83298808 0.043796211 13878717
0.051613197 0.83264649 0.043271646 13812924
0.05204533 0.83289391 0.043268383 13682108
0.052477479 0.83314133 0.043265119 13353143
-0.029695883 0.82524836 0.064905539 11773847
-0.029320419 0.82546329 0.064902693 12102812
-0.028944954 0.82567829 0.064899862 12300707
-0.02955997 0.82729828 0.065933868 12563879
-0.029187337 0.82751161 0.065931052 12630699
-0.028814703 0.82772499 0.065928236 12828078
-0.028941572 0.82863837 0.066443861 13156791
-0.028570354 0.82885092 0.066441059 13354170
-0.028199136 0.82906342 0.066438258 13420733
-0.028331667 0.82997364 0.066953942 13552319
-0.027961865 0.83018535 0.066951156 13816006
-0.027592063 0.83039713 0.066948354 14013385
-0.027222276 0.83060884 0.066945568 14210764
-0.026852474 0.83082056 0.066942781 14276557
-0.026482671 0.83103228 0.06693998 14342350
-0.026112884 0.83124399 0.066937193 14539729
-0.025743082 0.83145571 0.066934392 14408913
-0.025373295 0.83166742 0.066931605 14408913
-0.025003493 0.8318792 0.066928804 14343122
-0.024633691 0.83209091 0.066926017 14408915
-0.024263903 0.83230263 0.066923216 14408915
-0.023894101 0.83251435 0.066920429 14408915
-0.023524299 0.83272612 0.066917643 14408145
-0.023154512 0.83293784 0.066914842 14408145
-0.022259712 0.83246404 0.06639339 14408145
-0.021888494 0.83267659 0.066390589 14276559
-0.021517292 0.83288914 0.066387787 14276046
-0.021146074 0.83310163 0.066384971 14144460
-0.020774856 0.83331418 0.06638217 14144460
-0.020403638 0.83352673 0.066379368 13947081
-0.019498944 0.83305871 0.065857872 13947081
-0.019126311 0.83327204 0.065855056 13947081
-0.018753678 0.83348536 0.06585224 13947079
-0.018381059 0.83369875 0.065849423 13947079
-0.018008411 0.83391207 0.065846607 14012102
-0.017095208 0.83344889 0.065325037 14012102
-0.016721174 0.83366305 0.065322205 14077895
-0.016347125 0.83387721 0.065319389 14143688
-0.015428245 0.83341724 0.064797759 14208966
-0.015052766 0.83363223 0.064794928 14208966
-0.014677316 0.83384717 0.064792097 14208966
-0.013752788 0.83339047 0.064270437 14274759
-0.013375893 0.83360624 0.064267591 14208966
-0.012999013 0.83382207 0.064264745 14208966
-0.012068808 0.8333686 0.063743025 14077893
-0.011690497 0.8335852 0.063740164 14077893
-0.010756046 0.83313417 0.063218445 14209220
-0.010376334 0.83335155 0.063215584 14209220
-0.0099966228 0.83356893 0.063212708 14275013
-0.0090564787 0.83312118 0.062690914 14209220
-0.0086753517 0.83333939 0.062688038 14143940
-0.0082942247 0.83355761 0.062685162 14078147
-0.0073484331 0.83311307 0.062163353 13947844
-0.0069658756 0.83333212 0.062160462 13750465
-0.006583333 0.83355111 0.062157571 12566191
-0.0056318641 0.83310986 0.061635703 11316124
-0.0052479059 0.83332968 0.061632797 11118232
-0.0042921901 0.83289081 0.061110899 11052439
-0.0039068162 0.83311146 0.061107993 11382687
-0.0035214424 0.83333212 0.061105072 12106410
-0.0025600493 0.83289653 0.060583144 11911087
-0.0021732599 0.83311796 0.060580224 11845294
-0.0017864555 0.83333945 0.060577303 11319724
-0.0013996661 0.83356088 0.060574383 10135450
-0.0010128617 0.83378237 0.060571462 10134680
-0.00062605739 0.83400381 0.060568541 10989989
0.000345245 0.83357388 0.060046509 12500921
0.00073346496 0.83379614 0.060043573 13422023
0.00112167 0.83401841 0.060040653 13619399
0.0020986348 0.8335917 0.059518605 13422020
0.0024882704 0.8338148 0.059515655 13619399
0.003469497 0.83339053 0.058993563 13487813
0.0038605332 0.83361441 0.058990613 13750215
0.0042515993 0.83383834 0.058987662 13816008
0.0052384734 0.8334173 0.058465526 13947079
0.0056309402 0.83364201 0.05846256 14012872
0.0060233921 0.83386672 0.058459595 14077895
0.011620238 0.83115488 0.055329248 14077895
0.012021214 0.83138448 0.055326223 14077380
0.012422174 0.83161402 0.055323198 14077380
0.01282315 0.83184361 0.055320174 14077380
0.01383552 0.83143723 0.054797843 14143173
0.014237911 0.8316676 0.054794803 14143173
0.014640287 0.83189797 0.054791763 14077380
0.015658349 0.83149481 0.054269388 14274245
0.016062155 0.83172596 0.054266348 14340038
0.01708445 0.83132529 0.053743958 14274245
0.017489672 0.83155727 0.053740889 14208452
0.017894894 0.83178926 0.053737834 14208452
0.01892285 0.83139181 0.053215384 14208452
0.019329488 0.83162463 0.053212315 14274245
0.019736111 0.83185744 0.053209245 14208452
0.020769775 0.83146316 0.052686751 14274245
0.021177828 0.83169681 0.052683681 14274245
0.021585882 0.8319304 0.052680597 14274245
0.022625178 0.83153945 0.052158058 14208452
0.023034632 0.83177388 0.052154973 14274245
0.023444101 0.83200836 0.052151874 14274245
0.02385357 0.83224279 0.052148789 14208452
0.024263039 0.83247721 0.05214569 14274245
0.025310859 0.83209109 0.051623091 14405061
0.025721744 0.83232629 0.051619992 14405061
0.026132643 0.83256155 0.051616892 14405061
0.027186096 0.83217871 0.051094264 14470854
0.027598411 0.83241475 0.051091149 14405061
0.028010696 0.83265084 0.051088035 14470854
0.0297167 0.8316555 0.050045788 14470854
0.030131847 0.83189315 0.050042659 14470854
0.031196624 0.83151674 0.049519926 14405061
0.031613186 0.83175528 0.049516782 14470854
0.032029748 0.83199376 0.049513638 14405061
0.03375414 0.83100897 0.048471272 14405061
0.034173518 0.83124906 0.048468098 14339268
0.034592912 0.83148921 0.048464939 14339268
0.03501229 0.83172929 0.048461765 14405061
0.035431683 0.83196944 0.048458606 14339268
0.035851061 0.83220959 0.048455432 14339268
0.037595302 0.83123612 0.047412902 14339268
0.038017511 0.83147788 0.047409713 14339268
0.039105013 0.83111441 0.046886802 14339268
0.039528653 0.831357 0.046883598 14339268
0.039952278 0.83159953 0.046880394 14273475
0.041714936 0.83063662 0.04583773 14141889
0.042141408 0.83088082 0.045834512 14273475
0.042567879 0.83112502 0.045831293 14339268
0.043668121 0.83076888 0.045308307 14339268
0.044095993 0.83101386 0.045305073 14273475
0.044523895 0.83125883 0.04530184 14141889
0.045629784 0.83090597 0.044778824 14141889
0.046059087 0.83115178 0.044775575 14141889
0.047169238 0.83080131 0.0442525 14273475
0.047599941 0.83104795 0.044249237 14141889
0.048030674 0.83129454 0.044245988 14141889
0.048461393 0.83154118 0.04424274 14076096
0.048892111 0.83178777 0.044239491 14076096
0.049322844 0.83203435 0.044236228 14076096
0.049753562 0.83228099 0.044232979 14076096
0.05018428 0.83252758 0.044229731 13944510
0.050615013 0.83277416 0.044226468 13944510
0.05173932 0.83243191 0.043703318 13812924
0.052171454 0.83267927 0.043700054 13550522
0.052603602 0.83292675 0.043696791 13353143
-0.0295863 0.82506192 0.065280586 11642777
-0.029210836 0.82527685 0.065277755 11971742
-0.028835371 0.82549185 0.065274909 12169121
-0.029451221 0.82711327 0.066306084 12498086
-0.029078588 0.8273266 0.066303268 12564908
-0.028705955 0.82753992 0.066300467 12828080
-0.028833225 0.82845402 0.066814676 13156791
-0.028462008 0.82866657 0.06681186 13288377
-0.02809079 0.82887912 0.066809058 13485756
-0.028223738 0.82979 0.067323342 13683135
