# .PCD v0.7 - Point Cloud Data file format
VERSION 0.7
FIELDS x y z rgb
SIZE 4 4 4 4
TYPE F F F U
COUNT 1 1 1 1
WIDTH 1120
HEIGHT 1
VIEWPOINT 0 0 0 1 0 0 0
POINTS 1120
DATA ascii
0.057040915 0.79235584 0.066874847 6113069
0.056798056 0.79202372 0.06687279 6047276
0.056555212 0.7916916 0.066870734 6047276
0.056312367 0.79135954 0.066868678 6113069
0.057665721 0.78175998 0.071127832 6047276
0.05743058 0.78143841 0.07112585 6047276
0.057195455 0.78111684 0.071123853 6047278
0.056960315 0.78079528 0.071121871 6178864
0.056725174 0.78047371 0.071119875 6178864
0.056490049 0.78015214 0.071117893 6310450
0.056254908 0.77983057 0.071115896 6311218
0.056019768 0.77950901 0.071113914 6969148
0.055784628 0.77918744 0.071111917 7034941
0.055549502 0.77886581 0.071109936 7495492
0.055314362 0.77854431 0.071107939 7889482
0.055079222 0.77822268 0.071105957 8086861
0.055571228 0.77746427 0.071641073 8350031
0.055337057 0.77714401 0.071639091 8415824
0.055102885 0.77682376 0.071637109 8810067
0.055598736 0.77607059 0.072172284 8941653
0.055365533 0.77575165 0.072170302 9073239
0.055132315 0.77543271 0.072168335 9533790
0.054899111 0.77511376 0.072166368 9534303
0.054665893 0.77479482 0.072164387 9534303
0.05443269 0.77447593 0.07216242 9730399
0.054935306 0.77373195 0.072697625 9664606
0.054703057 0.77341437 0.072695658 9664606
0.054470807 0.77309674 0.072693691 9664606
0.054238573 0.77277911 0.072691739 9730653
0.054006323 0.77246147 0.072689772 9599067
0.053774074 0.77214384 0.072687805 9534044
0.053541824 0.77182627 0.072685838 9534044
0.053309575 0.77150863 0.072683871 9534044
0.05307734 0.771191 0.072681904 9599837
0.053589582 0.77046025 0.073217198 9730653
0.053358302 0.77014399 0.073215246 9730653
0.053127021 0.76982766 0.073213294 9862239
0.05289574 0.76951134 0.073211327 9664860
0.052664459 0.76919508 0.073209375 9533274
0.052433178 0.76887876 0.073207423 9664860
0.052201897 0.76856244 0.073205456 9664860
0.051970616 0.76824617 0.073203504 9664860
0.051739335 0.76792985 0.073201552 9599067
0.051508054 0.76761353 0.073199585 9599067
0.051276773 0.76729727 0.073197633 9599067
0.051045477 0.76698095 0.073195681 9533274
0.050814196 0.76666468 0.073193714 9533274
0.050582916 0.76634836 0.073191762 9533274
0.050351635 0.76603204 0.07318981 9599067
0.050120354 0.76571578 0.073187843 9467481
0.049889073 0.76539946 0.073185891 9467481
0.049657792 0.76508319 0.073183939 9533274
0.049426511 0.76476687 0.073181972 9467481
0.04919523 0.76445055 0.07318002 9401688
0.048963949 0.76413429 0.073178068 9401688
0.047967941 0.76420343 0.072638676 9467481
0.047735691 0.76388586 0.072636709 9401686
0.047503456 0.76356822 0.072634742 9401686
0.047271207 0.76325059 0.072632775 9401686
0.047038957 0.76293296 0.072630808 9270100
0.046806708 0.76261532 0.072628856 9401688
0.046574473 0.76229775 0.072626889 9270102
0.047113702 0.76160389 0.073162407 9204055
0.046882406 0.76128757 0.073160455 9204055
0.04665114 0.76097125 0.073158503 9204055
0.046419844 0.76065499 0.073156536 9204055
0.046188578 0.76033866 0.073154584 9138516
0.045957282 0.7600224 0.073152632 9138516
0.045726001 0.75970608 0.073150665 9138516
0.04549472 0.75938976 0.073148713 9138516
0.045263439 0.7590735 0.07314676 9007700
0.045032158 0.75875717 0.073144794 9007700
0.044800878 0.75844085 0.073142841 8941907
0.044569597 0.75812459 0.073140889 8941907
0.044338316 0.75780827 0.073138922 9072723
0.044107035 0.75749195 0.07313697 9072723
0.043875754 0.75717568 0.073135018 9072723
0.043644473 0.75685936 0.073133051 9072723
0.043413192 0.7565431 0.073131099 9072723
0.043181911 0.75622678 0.073129147 9006930
0.04295063 0.75591046 0.07312718 9006930
0.042719349 0.75559419 0.073125228 9072723
0.042488068 0.75527787 0.073123276 9072723
0.042256787 0.75496161 0.073121309 9006930
0.042025492 0.75464529 0.073119357 9006930
0.041794226 0.75432897 0.073117405 9006930
0.04156293 0.7540127 0.073115438 8941137
0.041331664 0.75369638 0.073113486 8941137
0.041100368 0.75338006 0.073111534 9006930
0.040869087 0.7530638 0.073109567 9006930
0.040637806 0.75274748 0.073107615 9072723
0.040406525 0.75243115 0.073105663 9072723
0.040175244 0.75211489 0.073103696 9006930
0.039943963 0.75179857 0.073101744 9006930
0.039712682 0.75148231 0.073099792 9072210
0.039481401 0.75116599 0.073097825 9072210
0.039250121 0.75084966 0.073095873 9138003
0.03901884 0.7505334 0.073093921 9072210
0.037981391 0.75054586 0.072554171 9138001
0.037749141 0.75022829 0.072552204 9138001
0.037516907 0.74991065 0.072550237 9072208
0.037284657 0.74959302 0.072548285 9138001
0.037052408 0.74927545 0.072546318 9138001
0.036820158 0.74895781 0.072544351 9138001
0.036587909 0.74864018 0.072542384 9203794
0.036355674 0.74832255 0.072540417 9203794
0.034143507 0.74672854 0.071990743 9269589
0.033910289 0.7464096 0.071988761 9269589
0.033677086 0.74609065 0.071986794 9269589
0.033443883 0.74577171 0.071984813 9203796
0.033210665 0.74545276 0.071982846 9203796
0.032977462 0.74513388 0.071980879 9269589
0.033568725 0.74451113 0.072516844 9203796
0.033336475 0.74419355 0.072514877 9269589
0.033104241 0.74387592 0.07251291 9269589
0.032871991 0.74355829 0.072510943 9269589
0.031811416 0.74353915 0.071970999 9269589
0.031578198 0.74322021 0.071969032 9203796
0.031344995 0.74290133 0.071967065 9203796
0.031111792 0.74258238 0.071965083 9203542
0.030878574 0.74226344 0.071963117 9203542
0.03064537 0.74194449 0.071961135 9203796
0.030412152 0.74162555 0.071959168 9203796
0.030178949 0.74130666 0.071957186 9006417
0.058909193 0.81818259 0.058775902 5455139
0.058650926 0.81782937 0.058773711 5784104
0.058392659 0.81747615 0.058771536 6577218
0.058784127 0.81657887 0.059304386 7958871
0.058526829 0.81622696 0.059302211 8684652
0.058269531 0.81587505 0.059300035 8618859
0.058664873 0.81498307 0.059832916 8683110
0.058408543 0.81463248 0.05983074 8156766
0.058152199 0.81428194 0.059828579 7233349
0.058551386 0.81339514 0.060361505 6312247
0.05829601 0.81304592 0.060359344 6507314
0.058040634 0.8126967 0.060357183 6507314
0.05844368 0.8118152 0.060890138 6638900
0.058189273 0.81146729 0.060887992 6573107
0.057934865 0.81111932 0.060885847 6573107
0.057680458 0.81077141 0.060883686 6573107
0.05742605 0.81042349 0.06088154 6507314
0.057171628 0.81007552 0.06087938 6507314
0.05691722 0.80972761 0.060877234 6442034
0.058330774 0.79446858 0.067243725 6113069
0.05808793 0.79413646 0.067241669 6113069
0.057845086 0.79380435 0.067239612 6047276
0.057602242 0.79347223 0.067237556 6047276
0.057359397 0.79314017 0.0672355 6113069
0.057116553 0.79280806 0.067233443 6047276
0.056873709 0.79247594 0.067231387 6113069
0.056630865 0.79214382 0.067229345 6047276
0.056388006 0.7918117 0.067227289 6047276
0.056145161 0.79147959 0.067225233 6113069
0.057503834 0.78187621 0.071473062 6113069
0.057268694 0.78155464 0.07147108 6113069
0.057033554 0.78123307 0.071469083 6310450
0.056798413 0.78091151 0.071467102 6639415
0.056563288 0.78058994 0.071465105 6771001
0.056328148 0.78026837 0.071463123 7363138
0.056093007 0.7799468 0.071461126 7823689
0.055857867 0.77962524 0.071459144 7889482
0.055622742 0.77930367 0.071457148 7956043
0.055387601 0.7789821 0.071455166 8219215
0.055152461 0.77866054 0.071453169 8416594
0.054917321 0.77833897 0.071451187 8416594
0.054682195 0.7780174 0.07144919 8941655
0.054447055 0.77769578 0.071447209 9139034
0.054211915 0.77737427 0.071445212 9336411
0.054707482 0.77661926 0.071978942 9270618
0.054473311 0.776299 0.071976975 9402204
0.054239139 0.77597874 0.071974993 9533790
0.054738536 0.7752291 0.072508767 9731169
0.054505333 0.77491015 0.072506785 9796962
0.054272115 0.77459121 0.072504818 9861985
0.054038912 0.77427226 0.072502837 9730399
0.053805709 0.77395332 0.07250087 9664606
0.053572491 0.77363437 0.072498903 9664606
0.053339288 0.77331543 0.072496921 9730399
0.053106084 0.77299654 0.072494954 9730399
0.052872866 0.7726776 0.072492972 9533790
0.05338192 0.77194107 0.073026821 9599583
0.053149685 0.77162343 0.073024854 9599583
0.052917436 0.77130586 0.073022887 9599583
0.052685186 0.77098823 0.073020935 9730399
0.052452937 0.77067059 0.073018968 9730399
0.052220702 0.77035296 0.073017001 9861985
0.051988453 0.77003539 0.073015034 9664606
0.051756203 0.76971775 0.073013067 9664606
0.052273929 0.76899308 0.073546991 9664606
0.052042648 0.76867682 0.073545039 9664606
0.051811367 0.7683605 0.073543072 9664606
0.051580086 0.76804417 0.07354112 9598813
0.051348805 0.76772791 0.073539168 9598813
0.051117525 0.76741159 0.073537201 9664860
0.050886244 0.76709533 0.073535249 9599067
0.050654963 0.76677901 0.073533297 9599067
0.050423682 0.76646268 0.07353133 9599067
0.050192401 0.76614642 0.073529378 9599067
0.04996112 0.7658301 0.073527426 9533274
0.049729839 0.76551378 0.073525459 9467481
0.049498558 0.76519752 0.073523507 9533274
0.049267277 0.76488119 0.073521554 9336665
0.049035996 0.76456487 0.073519588 9270872
0.048804715 0.76424861 0.073517635 9336665
0.047808036 0.76431823 0.072979659 9336665
0.047575787 0.76400065 0.072977692 9336665
0.047343537 0.76368302 0.072975725 9336665
0.047111303 0.76336539 0.072973773 9270872
0.046879053 0.76304781 0.072971806 9139286
0.046646804 0.76273018 0.072969839 9270872
0.046414569 0.76241255 0.072967872 9139286
0.046954453 0.76171821 0.073501974 9204309
0.046723172 0.76140189 0.073500022 9204309
0.046491891 0.76108563 0.07349807 9204309
0.04626061 0.76076931 0.073496103 9204309
0.046029329 0.76045299 0.073494151 9204309
0.045798048 0.76013672 0.073492199 9138516
0.045566767 0.7598204 0.073490232 9138516
0.045335487 0.75950408 0.07348828 9138516
0.045104206 0.75918782 0.073486328 9007700
0.044872925 0.7588715 0.073484361 9007700
0.044641644 0.75855523 0.073482409 8941907
0.044410363 0.75823891 0.073480457 9007700
0.044179067 0.75792259 0.07347849 9072723
0.043947786 0.75760633 0.073476538 9072723
0.043716505 0.75729001 0.073474586 9072723
0.043485224 0.75697374 0.073472619 9072723
0.043253943 0.75665742 0.073470667 9072723
0.043022662 0.7563411 0.073468715 9006930
0.042791381 0.75602484 0.073466748 9006930
0.042560101 0.75570852 0.073464796 9072723
0.04232882 0.75539219 0.073462844 9072723
0.042097539 0.75507593 0.073460877 9006930
0.041866258 0.75475961 0.073458925 9006930
0.041634977 0.75444329 0.073456973 9006930
0.041403696 0.75412703 0.073455006 8941137
0.041172415 0.7538107 0.073453054 8941137
0.040941134 0.75349444 0.073451102 9072723
0.040709838 0.75317812 0.073449135 9072723
0.040478572 0.7528618 0.073447183 9072723
0.040247291 0.75254554 0.073445231 9072723
0.040015996 0.75222921 0.073443279 9072723
0.039784715 0.75191295 0.073441312 9006930
0.039553434 0.75159663 0.07343936 9006930
0.039322153 0.75128031 0.073437408 9072723
0.039090872 0.75096405 0.073435441 9138003
0.038859591 0.75064772 0.073433489 9072210
0.037821487 0.75066072 0.072895154 9138001
0.037589237 0.75034308 0.072893202 9138001
0.037356988 0.75002545 0.072891235 9072208
0.037124753 0.74970782 0.072889268 9138001
0.036892503 0.74939024 0.072887301 9138001
0.036660254 0.74907261 0.072885334 9138001
0.036428005 0.74875498 0.072883368 9203794
0.03619577 0.7484374 0.072881401 9203794
0.035148978 0.74843848 0.072343007 9203796
0.034915775 0.74811959 0.07234104 9269589
0.034682557 0.74780065 0.072339058 9269589
0.033631936 0.74779648 0.071800619 9269589
0.033397764 0.74747622 0.071798638 9335382
0.033982933 0.74684381 0.072333142 9269589
0.033749729 0.74652487 0.07233116 9269589
0.033516511 0.74620593 0.072329193 9269589
0.033283308 0.74588704 0.072327211 9203796
0.033050105 0.7455681 0.072325245 9203796
0.032816887 0.74524915 0.072323278 9269589
0.033408821 0.74462599 0.072857827 9269589
0.033176571 0.74430835 0.07285586 9269589
0.032944337 0.74399072 0.072853893 9269589
0.032712087 0.74367309 0.072851926 9269589
0.031650841 0.74365449 0.072313413 9269589
0.031417638 0.74333555 0.072311431 9203796
0.03118442 0.7430166 0.072309464 9203796
0.030951217 0.74269766 0.072307482 9203542
0.030718014 0.74237871 0.072305515 9203542
0.030484796 0.74205977 0.072303534 9269335
0.030251592 0.74174082 0.072301567 9203542
0.030018374 0.74142194 0.0722996 9138003
0.058731362 0.81831026 0.059155092 7761746
0.05847311 0.81795704 0.059152901 8880227
0.058214843 0.81760383 0.059150711 9144944
0.058606982 0.81670606 0.059682161 9210737
0.058349684 0.81635416 0.059679985 8683623
0.058092371 0.81600231 0.059677795 7894107
0.058488384 0.81510979 0.060209274 6641212
0.058232039 0.81475919 0.060207099 6180661
0.057975709 0.81440866 0.060204938 6771001
0.058375552 0.81352139 0.060736448 6639415
0.058120176 0.81317216 0.060734287 6638130
0.0578648 0.81282294 0.060732111 6638130
0.058268517 0.81194097 0.061263666 6573107
0.05801411 0.81159306 0.06126152 6573107
0.057759702 0.81124508 0.061259374 6507312
0.057505295 0.81089717 0.061257213 6573105
0.057250872 0.81054926 0.061255068 6507312
0.056996465 0.81020129 0.061252907 6375726
0.056742057 0.80985337 0.061250761 6442034
0.058163568 0.79458869 0.067600265 6113069
0.057920724 0.79425657 0.067598224 6113069
0.05767788 0.79392445 0.067596167 6047276
0.057435036 0.79359233 0.067594111 6113069
0.057192191 0.79326022 0.067592055 6113069
0.056949347 0.7929281 0.067589998 6047276
0.056706503 0.79259598 0.067587942 6113069
0.056463659 0.79226387 0.067585886 6047276
0.056220815 0.79193175 0.067583829 6047276
0.05597797 0.79159963 0.067581773 6113069
0.057341933 0.7819925 0.071818292 6442034
0.057106793 0.78167093 0.07181631 6507827
0.056871653 0.7813493 0.071814314 7034943
0.056636527 0.78102779 0.071812332 7429701
0.056401387 0.78070617 0.071810335 7890252
0.056166247 0.7803846 0.071808353 7824459
0.055931106 0.78006303 0.071806356 8284240
0.055695981 0.77974147 0.071804374 8415826
0.05546084 0.7794199 0.071802378 8744789
0.0552257 0.77909833 0.071800396 9007961
0.054990575 0.77877676 0.071798399 9336926
0.054755434 0.7784552 0.071796417 9336926
0.054520294 0.77813363 0.07179442 9402206
0.054285154 0.77781206 0.071792439 9402206
0.054050028 0.7774905 0.071790442 9467997
0.054546252 0.77673507 0.072322771 9467997
0.05431208 0.77641475 0.072320789 9533790
0.054077908 0.77609456 0.072318807 9731169
0.054577976 0.77534437 0.072851166 9796962
0.054344758 0.77502543 0.072849184 9796962
0.054111555 0.77470648 0.072847217 9861985
0.053878352 0.77438754 0.072845235 9730399
0.053645134 0.77406859 0.072843269 9730399
0.053411931 0.77374971 0.072841302 9730399
0.053178713 0.77343076 0.07283932 9861985
0.05294551 0.77311182 0.072837353 9730399
0.052712306 0.77279288 0.072835371 9861985
0.053222016 0.77205586 0.073367804 9730399
0.052989766 0.77173829 0.073365852 9599583
0.052757531 0.77142066 0.073363885 9599583
0.052525282 0.77110302 0.073361918 9599583
0.052293032 0.77078545 0.073359951 9599583
0.052060798 0.77046782 0.073357984 9731169
0.051828548 0.77015018 0.073356017 9599583
0.051596299 0.76983255 0.073354051 9533790
0.051364049 0.76951492 0.073352084 9533790
0.051131815 0.76919734 0.073350117 9533790
0.050899565 0.76887971 0.073348165 9533790
0.050667316 0.76856208 0.073346198 9533790
0.050435066 0.7682445 0.073344231 9533790
0.050202832 0.76792687 0.073342264 9534044
0.049970582 0.76760924 0.073340297 9468251
0.049738333 0.76729161 0.07333833 9468251
0.049506083 0.76697403 0.073336363 9534044
0.049273849 0.7666564 0.073334396 9534044
0.048281327 0.76673311 0.07279788 9402458
0.048048124 0.76641417 0.072795913 9402458
0.048577115 0.76570356 0.07332851 9468251
0.048344865 0.76538593 0.073326543 9336665
0.048112616 0.76506829 0.073324576 9270872
0.047880381 0.76475072 0.073322609 9336665
0.047648132 0.76443309 0.073320642 9336665
0.047415882 0.76411545 0.073318675 9336665
0.047183633 0.76379782 0.073316723 9270872
0.046951398 0.76348019 0.073314756 9270872
0.046719149 0.76316261 0.073312789 9270872
0.046486899 0.76284498 0.073310822 9270872
0.04625465 0.76252735 0.073308855 9270872
0.046022415 0.76220977 0.073306888 9270102
0.045790166 0.76189214 0.073304921 9204309
0.045557916 0.76157451 0.073302954 9204309
0.045325682 0.76125687 0.073301002 9270102
0.045093432 0.7609393 0.073299035 9204309
0.044861183 0.76062167 0.073297068 9138516
0.044628933 0.76030403 0.073295102 9204309
0.044396698 0.7599864 0.073293135 9138516
0.044164449 0.75966883 0.073291168 9138516
0.043932199 0.75935119 0.073289201 9072723
0.043699965 0.75903356 0.073287234 8941907
0.043467715 0.75871599 0.073285267 9007700
0.043235466 0.75839835 0.073283315 9072723
0.043003216 0.75808072 0.073281348 9138516
0.042770982 0.75776309 0.073279381 9138516
0.042538732 0.75744545 0.073277414 9072723
0.042306483 0.75712788 0.073275447 9072723
0.042074233 0.75681025 0.07327348 9006930
0.041841999 0.75649261 0.073271513 9006930
0.041609749 0.75617504 0.073269561 9072723
0.0413775 0.75585741 0.073267594 9072723
0.041145265 0.75553977 0.073265627 9006930
0.040913016 0.75522214 0.07326366 9006930
0.040680766 0.75490451 0.073261693 9006930
0.040448517 0.75458694 0.073259726 8941137
0.040216282 0.7542693 0.073257759 8941137
0.039984033 0.75395167 0.073255792 9072723
0.039751783 0.7536341 0.073253825 9072723
0.039519534 0.75331646 0.073251873 9072723
0.039287299 0.75299883 0.073249906 9072723
0.039055049 0.7526812 0.073247939 9072723
0.0388228 0.75236362 0.073245972 9006930
0.038590565 0.75204599 0.073244005 9072723
0.037553713 0.75206208 0.072707117 9072723
0.03732051 0.75174314 0.072705135 9072721
0.037087291 0.75142419 0.072703168 9006928
0.036854088 0.75110525 0.072701186 9072721
0.03662087 0.7507863 0.072699219 9072721
0.036387667 0.75046742 0.072697252 9006928
0.036154464 0.75014848 0.07269527 9072721
0.035921246 0.74982953 0.072693303 9072721
0.035688043 0.74951059 0.072691321 9138514
0.035454825 0.74919164 0.072689354 9138514
0.035221621 0.74887276 0.072687373 9138514
0.034988418 0.74855375 0.072685406 9204309
0.0347552 0.74823487 0.072683439 9204309
0.034521997 0.74791592 0.072681457 9270102
0.033470705 0.74791223 0.072144434 9204309
0.033236533 0.74759197 0.072142452 9204309
0.033002362 0.74727172 0.07214047 9204309
0.03276819 0.74695146 0.072138488 9204309
0.032534018 0.74663121 0.072136506 9204309
0.033122733 0.74600232 0.072669625 9204309
0.03288953 0.74568337 0.072667643 9138516
0.032656327 0.74536443 0.072665676 9204309
0.032423124 0.74504548 0.072663695 9204309
0.032189906 0.74472654 0.072661728 9204309
0.031956688 0.74440765 0.072659746 9138516
0.031723484 0.74408871 0.072657779 9269589
0.030660629 0.74406922 0.072120652 9269589
0.030426458 0.74374896 0.07211867 9269589
0.030192286 0.74342871 0.072116688 9203796
0.029958114 0.74310845 0.072114721 9203796
0.029723942 0.7427882 0.072112724 9203796
0.029489771 0.74246794 0.072110757 9203796
0.029255599 0.74214768 0.072108775 9203796
0.029021427 0.74182743 0.072106794 9137749
0.059328347 0.81949753 0.059540838 7234119
0.059070081 0.81914431 0.059538648 7961181
0.058811814 0.81879109 0.059536457 8816490
0.059201717 0.81788892 0.060066462 8815977
0.058944419 0.81753701 0.060064286 8552805
0.058687121 0.81718516 0.06006211 8419422
0.059080899 0.81628823 0.060592145 6774597
0.058824554 0.81593764 0.060589969 6443320
0.058568224 0.81558704 0.060587808 5982769
0.058311895 0.81523651 0.060585633 6507827
0.05805555 0.81488597 0.060583457 6507827
0.057799205 0.81453538 0.060581297 6507827
0.058199719 0.81364769 0.061111391 6507827
0.057944342 0.8132984 0.06110923 6506544
0.057688966 0.81294918 0.061107054 6638130
0.058093354 0.81206673 0.061637208 6573107
0.057838947 0.81171882 0.061635047 6573107
0.057584539 0.81137085 0.061632901 6573107
0.057330117 0.81102294 0.061630741 6573107
0.057075709 0.81067502 0.061628595 6507314
0.056821302 0.81032705 0.061626434 6375728
0.056566894 0.80997914 0.061624289 6310448
0.058036253 0.79619873 0.067430437 6113069
0.05779244 0.7958653 0.06742838 6113069
0.057548627 0.79553187 0.067426309 6113069
0.057996377 0.79470873 0.06795682 6047276
0.057753518 0.79437661 0.067954764 6113069
0.057510674 0.79404449 0.067952707 6047276
0.05726783 0.79371238 0.067950651 6178862
0.057024986 0.79338026 0.06794861 6113069
0.056782141 0.79304814 0.067946553 6047276
0.056539297 0.79271603 0.067944497 6113069
0.056296453 0.79238391 0.067942441 6047276
0.056053609 0.79205179 0.067940384 6113069
0.05651097 0.79124182 0.06847094 6113069
0.056269094 0.79091108 0.068468899 6047276
0.056027204 0.79058027 0.068466842 6178349
0.055785328 0.79024947 0.068464801 6112556
0.057180032 0.78210872 0.072163522 7363138
0.056944907 0.78178716 0.07216154 8021068
0.056709766 0.78146559 0.072159544 7890252
0.056474626 0.78114402 0.072157562 8021838
0.056239486 0.78082246 0.072155565 8285008
0.05600436 0.78050089 0.072153583 8613973
0.05576922 0.78017926 0.072151586 8942168
0.05553408 0.77985775 0.072149605 9073754
0.055298939 0.77953613 0.072147608 9336926
0.055063814 0.77921456 0.072145626 9468512
0.054828674 0.77889299 0.072143629 9731171
0.054593533 0.77857143 0.072141647 9599585
0.054358393 0.77824986 0.072139651 9533792
0.054123268 0.77792829 0.072137669 9533792
0.053888127 0.77760673 0.072135672 9599583
0.054385021 0.77685082 0.072666585 9599583
0.05415085 0.77653056 0.072664604 9599583
0.053916678 0.77621031 0.072662622 9796962
0.054417402 0.77545965 0.073193565 9796962
0.054184198 0.7751407 0.073191583 9796962
0.05395098 0.77482176 0.073189616 9927778
0.053717777 0.77450287 0.073187649 9861985
0.053484574 0.77418393 0.073185667 9861985
0.053251356 0.77386498 0.0731837 9861985
0.053018153 0.77354604 0.073181719 9927778
0.052784935 0.7732271 0.073179752 9861985
0.052551731 0.77290815 0.07317777 9731169
0.053062111 0.77217072 0.073708802 9599583
0.052829862 0.77185309 0.073706836 9599583
0.052597627 0.77153546 0.073704869 9599583
0.052365378 0.77121782 0.073702902 9599583
0.052133128 0.77090025 0.073700935 9599583
0.051900879 0.77058262 0.073698968 9731169
0.051668644 0.77026498 0.073697001 9599583
0.051436394 0.76994741 0.073695049 9599583
0.051204145 0.76962978 0.073693082 9533790
0.05097191 0.76931214 0.073691115 9533790
0.050739661 0.76899451 0.073689148 9533790
0.050507411 0.76867688 0.073687181 9533790
0.050275162 0.7683593 0.073685214 9533790
0.050042927 0.76804167 0.073683247 9533790
0.049810678 0.76772404 0.07368128 9467997
0.049578428 0.76740646 0.073679313 9467997
0.049346179 0.76708883 0.073677361 9533790
0.049113944 0.7667712 0.073675394 9533790
0.048120752 0.76684839 0.073140278 9467997
0.047887549 0.76652944 0.073138312 9402204
0.048417211 0.76581836 0.073669493 9402204
0.048184961 0.76550072 0.073667526 9402458
0.047952712 0.76518309 0.073665559 9336665
0.047720477 0.76486552 0.073663592 9336665
0.047488227 0.76454788 0.07366164 9336665
0.047255978 0.76423025 0.073659673 9402458
0.047023728 0.76391268 0.073657706 9336665
0.046791479 0.76359504 0.073655739 9270872
0.046559244 0.76327741 0.073653772 9270872
0.046326995 0.76295978 0.073651806 9270872
0.04609476 0.76264215 0.073649839 9270872
0.045862511 0.76232457 0.073647872 9139286
0.045630261 0.76200694 0.07364592 9073493
0.045398012 0.76168931 0.073643953 9270102
0.045165762 0.76137173 0.073641986 9270102
0.044933528 0.7610541 0.073640019 9204309
0.044701278 0.76073647 0.073638052 9204309
0.044469029 0.76041889 0.073636085 9270102
0.044236794 0.76010126 0.073634118 9204309
0.044004545 0.75978363 0.073632151 9007700
0.043772295 0.75946599 0.073630199 8941907
0.043540046 0.75914836 0.073628232 8941907
0.043307811 0.75883079 0.073626265 9007700
0.043075562 0.75851315 0.073624298 9007700
0.042843312 0.75819552 0.073622331 9007700
0.042611077 0.75787795 0.073620364 9138514
0.042378828 0.75756031 0.073618397 9138514
0.042146578 0.75724268 0.07361643 9072721
0.041914329 0.75692505 0.073614463 9072721
0.041682079 0.75660741 0.073612511 9072721
0.041449845 0.75628984 0.073610544 9072721
0.041217595 0.75597221 0.073608577 9072721
0.040985361 0.75565457 0.07360661 9072721
0.040753111 0.755337 0.073604643 9072721
0.040520862 0.75501937 0.073602676 9006928
0.040288612 0.75470173 0.073600709 8941135
0.040056363 0.75438416 0.073598742 8941135
0.039824128 0.75406653 0.07359679 9006928
0.039591879 0.75374889 0.073594823 9072721
0.039359629 0.75343126 0.073592857 9138001
0.039127395 0.75311363 0.07359089 9138001
0.038895145 0.75279605 0.073588923 9138001
0.038662896 0.75247842 0.073586956 9072208
0.038430646 0.75216079 0.073584989 9138001
0.037393138 0.75217736 0.073049515 9138001
0.037159935 0.75185841 0.073047534 9138001
0.036926731 0.75153947 0.073045567 9072208
0.036693513 0.75122058 0.0730436 9138001
0.03646031 0.75090164 0.073041618 9138001
0.036227092 0.7505827 0.073039651 9072208
0.035993889 0.75026375 0.073037669 9138001
0.035760686 0.74994481 0.073035702 9138514
0.035527468 0.74962592 0.07303372 9138514
0.03529425 0.74930692 0.073031753 9138514
0.035061046 0.74898803 0.073029786 9138514
0.034827843 0.74866909 0.073027804 9138514
0.03459464 0.74835014 0.073025838 9204307
0.034361422 0.7480312 0.073023856 9204307
0.033309475 0.74802804 0.072488248 9204307
0.033075303 0.74770772 0.072486266 9204307
0.032841131 0.74738753 0.072484285 9204307
0.032606959 0.74706727 0.072482303 9204307
0.032372788 0.74674702 0.072480321 9204307
0.032962173 0.74611759 0.073012024 9204307
0.032728955 0.74579865 0.073010042 9138514
0.032495752 0.7454797 0.073008075 9204309
0.032262549 0.74516082 0.073006108 9204309
0.032029331 0.74484187 0.073004127 9204309
0.031796128 0.74452293 0.07300216 9204309
0.031562909 0.74420398 0.073000178 9203796
0.030499399 0.74418497 0.072464481 9269589
0.030265227 0.74386472 0.072462484 9203796
0.030031055 0.74354446 0.072460517 9203796
0.029796883 0.7432242 0.072458535 9203796
0.029562712 0.74290395 0.072456554 9203796
0.02932854 0.74258369 0.072454572 9203796
0.029094368 0.74226344 0.07245259 9203796
0.028860196 0.74194318 0.072450608 9203542
0.059150532 0.8196252 0.059920013 8487014
0.058892265 0.81927198 0.059917837 8882283
0.058633998 0.81891882 0.059915647 8290146
0.059024572 0.81801611 0.060444236 7563597
0.058767274 0.81766421 0.06044206 6510909
0.058509961 0.81731236 0.060439885 6377525
0.058904409 0.81641495 0.060968503 6180146
0.058648065 0.81606436 0.060966328 6442034
0.058391735 0.81571376 0.060964167 6310448
0.05813539 0.81536323 0.060961992 6310448
0.057879061 0.81501269 0.060959816 6507827
0.057622716 0.8146621 0.060957655 6442034
0.058023885 0.81377393 0.061486334 6507827
0.057768524 0.81342471 0.061484173 6375728
0.057513148 0.81307542 0.061482012 6507314
0.057918191 0.8121925 0.062010735 6507314
0.057663783 0.81184459 0.062008575 6507314
0.057409361 0.81149662 0.062006429 6507314
0.057154953 0.8111487 0.062004268 6507314
0.057868376 0.79631925 0.067788407 6113069
0.057624564 0.79598582 0.067786351 6178862
0.057380766 0.79565239 0.06778428 6113069
0.057829171 0.79482877 0.068313375 6047276
0.057586327 0.79449666 0.068311319 6113069
0.057343468 0.79416454 0.068309262 6113069
0.057100624 0.79383242 0.068307206 6178862
0.05685778 0.7935003 0.06830515 6178862
0.056614935 0.79316819 0.068303093 6047276
0.056372091 0.79283607 0.068301037 6047276
0.056129247 0.79250395 0.068298981 6047276
0.055886403 0.79217184 0.068296939 6113069
0.056344435 0.79136145 0.068826079 6113069
0.056102544 0.79103065 0.068824023 6047276
0.055860668 0.79069984 0.068821982 6113069
0.055618778 0.79036903 0.06881994 6047276
0.056299925 0.78267956 0.071977407 8152654
0.056063816 0.78235668 0.07197541 8547412
0.055827722 0.7820338 0.071973413 8810584
0.055591613 0.78171086 0.071971416 8876377
0.055355519 0.78138798 0.071969405 9073754
0.055119425 0.78106511 0.071967408 9271133
0.054883316 0.78074223 0.071965411 9336926
0.054647222 0.78041935 0.071963415 9468512
0.054411113 0.78009641 0.071961418 9665891
0.054175019 0.77977353 0.071959421 9665891
0.053938925 0.77945065 0.071957424 9731171
0.053702816 0.77912778 0.071955428 9599585
0.054196507 0.77836609 0.072484881 9599585
0.053961366 0.77804452 0.072482899 9599585
0.053726226 0.77772295 0.072480902 9928802
0.053491101 0.77740139 0.07247892 9731423
0.05325596 0.77707982 0.072476923 9731423
0.05302082 0.77675825 0.072474942 9797216
0.05278568 0.77643669 0.072472945 9862755
0.052550554 0.77611512 0.072470963 9796962
0.052315414 0.77579355 0.072468966 9927778
0.052080274 0.77547199 0.072466984 9927778
0.051845133 0.77515042 0.072464988 9861985
0.051610008 0.77482885 0.072463006 9861985
0.051374868 0.77450728 0.072461009 9927778
0.051139727 0.77418566 0.072459027 9861985
0.050904587 0.77386409 0.07245703 9731169
0.050669461 0.77354252 0.072455034 9731169
0.050434321 0.77322096 0.072453052 9731169
0.050945371 0.77248305 0.072982654 9731169
0.0507112 0.7721628 0.072980672 9599583
0.050477013 0.77184254 0.07297869 9731169
0.050242856 0.77152228 0.072976708 9731169
0.049258634 0.77161312 0.072443098 9599583
0.049023494 0.77129155 0.072441116 9599583
0.048788369 0.77096999 0.072439119 9599583
0.048553228 0.77064842 0.072437137 9533790
0.048318088 0.77032685 0.072435141 9533790
0.048837811 0.76960075 0.072964817 9533790
0.048603639 0.76928049 0.072962835 9533790
0.048369467 0.76896024 0.072960854 9533790
0.048135296 0.76863998 0.072958872 9533790
0.047901124 0.76831973 0.072956905 9533790
0.047666952 0.76799947 0.072954923 9599583
0.04743278 0.76767921 0.072952941 9533790
0.047198609 0.76735896 0.072950959 9467997
0.046964437 0.7670387 0.072948977 9467997
0.04673025 0.76671845 0.072946995 9467997
0.046496078 0.76639819 0.072945014 9468251
0.046261907 0.766078 0.072943032 9402458
0.046027735 0.76575768 0.07294105 9402458
0.045793563 0.76543748 0.072939068 9402458
0.045559391 0.76511723 0.072937086 9402458
0.04532522 0.76479697 0.072935104 9336665
0.045091048 0.76447672 0.072933123 9270872
0.044856876 0.76415646 0.072931141 9270872
0.044622704 0.76383621 0.072929159 9270872
0.044388533 0.76351595 0.072927177 9270872
0.044928476 0.7628175 0.073457032 9139286
0.044695258 0.76249862 0.073455065 9073493
0.044462055 0.76217967 0.073453084 9139286
0.044228837 0.76186073 0.073451117 9270872
0.043995634 0.76154178 0.073449135 9139286
0.043762431 0.76122284 0.073447168 9139286
0.043529212 0.76090389 0.073445186 9139286
0.043296009 0.76058495 0.073443219 9073493
0.043062806 0.76026607 0.073441252 9007700
0.042829588 0.75994712 0.07343927 8941907
0.042596385 0.75962818 0.073437303 9007700
0.042363167 0.75930923 0.073435321 9007700
0.042129964 0.75899029 0.073433354 9007700
0.04189676 0.7586714 0.073431373 9073493
0.041663542 0.7583524 0.073429406 9073491
0.042218924 0.75767511 0.07395938 9007698
0.041986674 0.75735748 0.073957428 9072721
0.041754425 0.7570399 0.073955461 9072721
0.037266687 0.75521296 0.072341636 9006928
0.037031546 0.7548914 0.072339639 9072721
0.036796406 0.75456983 0.072337657 9138001
0.03736335 0.75390834 0.072867736 9138001
0.037129179 0.75358808 0.072865754 9138001
0.036895007 0.75326782 0.072863773 9072208
0.036660835 0.75294757 0.072861791 9138001
0.036426663 0.75262731 0.072859809 9203794
0.036192492 0.75230706 0.072857827 9138001
0.035958305 0.7519868 0.072855845 9138001
0.035724133 0.75166655 0.072853863 9138001
0.035489962 0.75134629 0.072851881 9138001
0.03525579 0.75102603 0.0728499 9072208
0.035021618 0.75070584 0.072847918 9138001
0.034787446 0.75038552 0.072845936 9138514
0.033269361 0.74974626 0.07230781 9138516
0.03303422 0.7494247 0.072305828 9204309
0.032799095 0.74910313 0.072303832 9204309
0.032563955 0.74878156 0.07230185 9270102
0.032328814 0.74845999 0.072299853 9204309
0.032093689 0.74813843 0.072297856 9204309
0.031858549 0.74781686 0.072295874 9204309
0.031623408 0.74749529 0.072293878 9204309
0.031388268 0.74717373 0.072291896 9138516
0.031153142 0.74685216 0.072289899 9138516
0.030918002 0.74653053 0.072287917 9138516
0.030682862 0.74620897 0.07228592 9204309
0.030447736 0.7458874 0.072283939 9204309
0.030212596 0.74556583 0.072281942 9204309
0.029977456 0.74524426 0.07227996 9204309
0.029742315 0.7449227 0.072277963 9203796
0.029507175 0.74460113 0.072275981 9269589
0.02927205 0.74427956 0.072273985 9269589
0.029036909 0.743958 0.072272003 9269589
0.028801769 0.74363643 0.072270006 9203796
0.028566644 0.74331486 0.072268024 9203796
0.028331503 0.7429933 0.072266027 9203796
0.028096363 0.74267173 0.072264045 9269589
0.027861223 0.7423501 0.072262049 9269589
0.058972701 0.81975287 0.060299203 7894105
0.058714435 0.81939965 0.060297027 7234119
0.058456168 0.8190465 0.060294837 5852466
0.058847412 0.81814331 0.06082201 6442806
0.058590114 0.81779146 0.060819834 6442806
0.058332816 0.81743956 0.060817659 6442034
0.058727905 0.81654167 0.061344862 6310448
0.058471575 0.81619108 0.061342686 6442034
0.058215246 0.81584048 0.061340526 6310448
0.057958901 0.81548995 0.06133835 6442034
0.057702556 0.81513941 0.061336175 6442034
0.057446226 0.81478882 0.061334014 6442034
0.057848066 0.81390017 0.061861277 6442034
0.05759269 0.81355095 0.061859116 6375728
0.057337314 0.81320167 0.061856955 6507314
0.057743013 0.81231827 0.062384263 6507314
0.057488605 0.81197035 0.062382102 6507314
0.057234198 0.81162238 0.062379956 6507314
0.05697979 0.81127447 0.062377796 6507314
0.057700515 0.79643977 0.068146378 6113069
0.057456702 0.79610634 0.068144307 6178862
0.057212889 0.79577291 0.06814225 6113069
0.057661965 0.79494882 0.068669915 6047276
0.057419121 0.7946167 0.068667874 6113069
0.057176277 0.79428458 0.068665817 6047276
0.056933433 0.79395247 0.068663761 6178862
0.056690574 0.79362035 0.068661705 6178862
0.056447729 0.79328823 0.068659648 6047276
0.056204885 0.79295611 0.068657592 6047276
0.055962041 0.792624 0.068655536 6047276
0.055719197 0.79229188 0.068653479 6113069
0.056177884 0.79148102 0.069181204 6113069
0.055936009 0.79115021 0.069179162 6113069
0.055694118 0.79081941 0.069177121 6178349
0.055452242 0.7904886 0.069175065 6112556
0.056137353 0.78279626 0.072324052 9007961
0.055901259 0.78247339 0.072322056 9271133
0.055665165 0.78215051 0.072320059 9534305
0.055429056 0.78182757 0.072318062 9665891
0.055192962 0.78150469 0.072316051 9731684
0.054956853 0.78118181 0.072314054 9534305
0.054720759 0.78085893 0.072312057 9665891
0.054484665 0.78053606 0.07231006 9665891
0.054248556 0.78021318 0.072308064 9731684
0.054012462 0.7798903 0.072306067 9731684
0.053776354 0.77956736 0.07230407 9796964
0.05354026 0.77924448 0.072302073 9731171
0.054034606 0.77848238 0.072830111 9731171
0.053799465 0.77816081 0.072828129 9731171
0.05356434 0.77783918 0.072826132 9862755
0.0533292 0.77751762 0.07282415 9731169
0.053094059 0.77719605 0.072822154 9797216
0.052858934 0.77687448 0.072820172 9863009
0.052623793 0.77655292 0.072818175 9862755
0.052388653 0.77623135 0.072816193 9862755
0.052153513 0.77590978 0.072814196 9927778
0.051918373 0.77558821 0.072812214 9927778
0.051683247 0.77526665 0.072810218 9861985
0.051448107 0.77494508 0.072808236 9730399
0.051212966 0.77462351 0.072806239 9927778
0.050977841 0.77430195 0.072804257 9861985
0.050742701 0.77398038 0.072802261 9927778
0.05050756 0.77365875 0.072800279 9861985
0.05027242 0.77333724 0.072798282 9927778
0.050784126 0.7725988 0.073326468 9861985
0.050549969 0.77227855 0.073324487 9730399
0.050315782 0.77195829 0.073322505 9861985
0.050081611 0.77163804 0.073320523 9861985
0.049096748 0.77172935 0.072788328 9861985
0.048861608 0.77140778 0.072786346 9731169
0.048626468 0.77108622 0.072784349 9731169
0.048391327 0.77076465 0.072782367 9599583
0.048156202 0.77044308 0.072780371 9599583
0.04867658 0.7697165 0.073308632 9599583
0.048442408 0.76939625 0.073306665 9533790
0.048208237 0.76907599 0.073304683 9533790
0.047974065 0.76875573 0.073302701 9533790
0.047739893 0.76843548 0.073300719 9533790
0.047505721 0.76811528 0.073298737 9599583
0.04727155 0.76779497 0.073296756 9533790
0.047037378 0.76747477 0.073294774 9467997
0.046803191 0.76715451 0.073292792 9467997
0.04656902 0.76683426 0.07329081 9467997
0.046334848 0.766514 0.073288828 9468251
0.046100676 0.76619375 0.073286846 9468251
0.045866504 0.76587349 0.073284864 9468251
0.045632333 0.76555324 0.073282883 9402458
0.045398161 0.76523298 0.073280901 9402458
0.045163989 0.76491272 0.073278919 9336665
0.044929817 0.76459247 0.073276937 9270872
0.044695646 0.76427221 0.073274955 9336665
0.044461474 0.76395196 0.073272973 9270872
0.044227302 0.7636317 0.073270991 9270872
0.044767901 0.76293284 0.073799431 9270872
0.044534698 0.76261389 0.073797464 9139286
0.04430148 0.76229495 0.073795483 9139286
0.044068277 0.761976 0.073793516 9270872
0.043835074 0.76165706 0.073791534 9139286
0.043601856 0.76133811 0.073789567 9139286
0.043368652 0.76101923 0.0737876 9139286
0.043135434 0.76070029 0.073785618 9073493
0.042902231 0.76038134 0.073783651 9073493
0.042669028 0.7600624 0.073781669 9007700
0.04243581 0.75974345 0.073779702 9139286
0.042202607 0.75942451 0.07377772 9007700
0.041969389 0.75910556 0.073775753 9073493
0.041736186 0.75878668 0.073773786 9073493
0.041502967 0.75846773 0.073771805 9204307
0.042059019 0.75778991 0.074300379 9138514
0.04182677 0.75747234 0.074298412 9072721
0.04159452 0.7571547 0.074296445 9072721
0.037104785 0.75532925 0.072686866 9072721
0.036869645 0.75500762 0.072684869 9072721
0.03663452 0.75468612 0.072682887 9138001
0.03720212 0.75402409 0.073211551 9138001
0.036967948 0.75370383 0.073209569 9203794
0.036733761 0.75338358 0.073207587 9138001
0.036499605 0.75306332 0.073205605 9138003
0.036265418 0.75274312 0.073203623 9203796
0.036031261 0.75242281 0.073201641 9203796
0.035797074 0.75210261 0.07319966 9138003
0.035562903 0.7517823 0.073197678 9138001
0.035328731 0.7514621 0.073195696 9138001
0.035094559 0.75114185 0.073193714 9138001
0.034860387 0.75082159 0.073191732 9138001
0.034626216 0.75050133 0.07318975 9138003
0.033107474 0.74986249 0.07265304 9138516
0.032872334 0.74954093 0.072651058 9204309
0.032637194 0.74921936 0.072649062 9204309
0.032402053 0.74889779 0.07264708 9270102
0.032166913 0.74857622 0.072645083 9204309
0.031931788 0.74825466 0.072643101 9204309
0.031696647 0.74793309 0.072641104 9204309
0.031461522 0.74761152 0.072639108 9204309
0.031226382 0.74728996 0.072637126 9138516
0.030991241 0.74696839 0.072635129 9138516
0.030756101 0.74664682 0.072633147 9138516
0.030520961 0.74632525 0.07263115 9204309
0.030285835 0.74600363 0.072629169 9204309
0.030050695 0.74568212 0.072627172 9204309
0.029815555 0.74536049 0.07262519 9204309
0.029580429 0.74503893 0.072623193 9269589
0.029345289 0.74471736 0.072621211 9269589
0.029110149 0.74439579 0.072619215 9203796
0.028875008 0.74407423 0.072617233 9269589
0.028639868 0.74375266 0.072615236 9203796
0.028404742 0.74343109 0.072613254 9138003
0.028169602 0.74310952 0.072611257 9203796
0.027934462 0.74278796 0.072609276 9269589
0.027699336 0.74246639 0.072607279 9269589
0.058794886 0.81988055 0.060678393 6377011
0.058536619 0.81952733 0.060676202 6639413
0.058278352 0.81917417 0.060674027 6507827
0.058670253 0.8182705 0.061199784 6507827
0.058412954 0.81791866 0.061197609 6442034
0.058155656 0.81756675 0.061195418 6375728
0.058551416 0.81666839 0.061721221 6375728
0.058295086 0.8163178 0.061719045 6310448
0.058038741 0.81596726 0.061716869 6310448
0.057782412 0.81561667 0.061714709 6442034
0.057526067 0.81526613 0.061712533 6310448
0.057269737 0.81491554 0.061710373 6310448
0.057672232 0.81402642 0.06223622 6310448
0.057416856 0.81367719 0.062234059 6375728
0.05716148 0.81332791 0.062231898 6507314
0.05756785 0.81244403 0.06275779 6375728
0.057313442 0.81209612 0.062755629 6507314
0.057059035 0.81174821 0.062753484 6375728
0.056804627 0.81140029 0.062751323 6375728
0.058310643 0.79906392 0.067988485 6178349
0.058065876 0.79872912 0.067986414 6178349
0.057821095 0.79839438 0.067984343 6178349
0.058264077 0.79756057 0.068510517 6178349
0.058020264 0.79722714 0.068508461 6113069
0.057776451 0.79689372 0.068506405 6178862
0.057532638 0.79656029 0.068504333 6113069
0.05728884 0.79622686 0.068502277 6113069
0.057045028 0.79589343 0.068500206 6113069
0.05749476 0.79506886 0.06902647 6113069
0.057251915 0.79473674 0.069024414 6113069
0.057009071 0.79440463 0.069022357 6047276
0.056766227 0.79407251 0.069020301 6113069
0.056523383 0.79374039 0.069018245 6178862
0.056280524 0.79340827 0.069016203 6113069
0.056037679 0.79307616 0.069014147 6047276
0.055794835 0.79274404 0.069012091 6047276
0.055551991 0.79241198 0.069010034 6113069
0.056011349 0.79160058 0.069536343 6178862
0.055769473 0.79126978 0.069534302 6178862
0.055527583 0.79093897 0.069532245 6113069
0.055285707 0.79060817 0.069530204 6113069
0.055268049 0.78914446 0.070052505 6442034
0.055027142 0.78881496 0.070050463 6442034
0.05478622 0.78848547 0.070048437 6902585
0.054545298 0.78815603 0.070046395 7692101
0.055249766 0.78480065 0.071619675 9205342
0.055011749 0.78447509 0.071617663 9271135
0.054773718 0.78414959 0.071615651 9534307
0.055974796 0.78291297 0.072670698 9600868
0.055738702 0.78259009 0.072668701 9666661
0.055502608 0.78226721 0.072666705 9600868
0.0552665 0.78194433 0.072664693 9666661
0.055030406 0.78162146 0.072662696 9732454
0.054794297 0.78129852 0.072660699 9600868
0.054558203 0.78097564 0.072658703 9797477
0.054322094 0.78065276 0.072656706 9863270
0.054086 0.78032988 0.072654709 9862757
0.053849906 0.780007 0.072652712 9928550
0.053613797 0.77968407 0.072650716 9796964
0.053377703 0.77936119 0.072648719 9862757
0.053872705 0.77859861 0.073175341 9796964
0.053637579 0.77827704 0.073173359 9796964
0.053402439 0.77795547 0.073171362 9928548
0.053167298 0.77763391 0.07316938 9796962
0.052932158 0.77731228 0.073167384 9993571
0.052697033 0.77699077 0.073165402 10059364
0.052461892 0.77666914 0.073163405 9993571
0.052226752 0.77634758 0.073161423 9993571
0.051991627 0.77602601 0.073159426 9993571
0.051756486 0.77570444 0.073157445 9927778
0.051521346 0.77538288 0.073155448 9861985
0.051286206 0.77506131 0.073153466 9861985
0.05105108 0.77473974 0.073151469 9927778
0.05081594 0.77441818 0.073149487 9861985
0.0505808 0.77409661 0.073147491 9927778
0.050345659 0.77377504 0.073145509 9861985
0.050110534 0.77345347 0.073143512 9927778
0.050622895 0.77271456 0.073670283 9861985
0.050388724 0.7723943 0.073668301 9861985
0.050154552 0.77207404 0.073666319 9861985
0.04992038 0.77175379 0.073664337 9861985
0.048934847 0.77184558 0.073133558 9861985
0.048699707 0.77152401 0.073131576 9730399
0.048464566 0.77120245 0.073129579 9861985
0.048229441 0.77088088 0.073127598 9730399
0.047994301 0.77055931 0.073125601 9730399
0.04851535 0.76983225 0.073652461 9730399
0.048281178 0.76951206 0.073650479 9730399
0.048047006 0.7691918 0.073648497 9599583
0.047812834 0.76887155 0.073646516 9599583
0.047578663 0.76855129 0.073644534 9533790
0.047344491 0.76823103 0.073642552 9599583
0.047110304 0.76791078 0.07364057 9533790
0.046876132 0.76759052 0.073638588 9533790
0.046641961 0.76727027 0.073636606 9533790
0.046407789 0.76695001 0.073634624 9467997
0.046173617 0.76662976 0.073632643 9534044
0.045939445 0.7663095 0.073630661 9468251
0.045705274 0.76598924 0.073628679 9599067
0.045471102 0.76566899 0.073626697 9533274
0.04523693 0.76534873 0.073624715 9402458
0.045002759 0.76502848 0.073622733 9336665
0.044768587 0.76470822 0.073620752 9336665
0.044534415 0.76438797 0.07361877 9336665
0.044300243 0.76406771 0.073616788 9270872
0.044066057 0.76374745 0.073614806 9270872
0.044607326 0.76304811 0.07414183 9270872
0.044374123 0.76272917 0.074139863 9270872
0.04414092 0.76241022 0.074137881 9270872
0.043907702 0.76209128 0.074135914 9270872
0.043674499 0.76177239 0.074133947 9139286
0.043441296 0.76145345 0.074131966 9139286
0.043208078 0.76113451 0.074129999 9139286
0.042974874 0.76081556 0.074128017 9073493
0.042741656 0.76049662 0.07412605 9139286
0.042508453 0.76017767 0.074124068 9073493
0.042275235 0.75985873 0.074122101 9139286
0.042042032 0.75953984 0.074120134 9073493
0.041808829 0.7592209 0.074118152 9073493
0.041575611 0.75890195 0.074116185 9007700
0.041342407 0.75858301 0.074114203 9204309
0.0418991 0.75790477 0.074641362 9204309
0.041666865 0.75758713 0.074639395 9138516
0.041434616 0.7572695 0.074637428 9138516
0.038823977 0.75801802 0.07304801 9204307
0.038588852 0.75769645 0.073046029 9138514
0.038353711 0.75737488 0.073044032 9138514
0.038118571 0.75705332 0.07304205 9138514
0.037883431 0.75673175 0.073040053 9204307
0.037648305 0.75641018 0.073038056 9138514
0.037413165 0.75608861 0.073036075 9072721
0.037178025 0.75576705 0.073034078 9072721
0.036942899 0.75544548 0.073032096 9138514
0.036707759 0.75512391 0.073030099 9072721
0.036472619 0.75480235 0.073028117 9072721
0.037040874 0.7541399 0.073555365 9138514
0.036806718 0.75381958 0.073553383 9138516
0.036572531 0.75349939 0.073551401 9072723
0.036338359 0.75317913 0.07354942 9072723
0.036104187 0.75285888 0.073547438 9138516
0.035870016 0.75253862 0.073545456 9138516
0.035635844 0.75221837 0.073543474 9072723
0.035401672 0.75189811 0.073541492 9138514
0.0351675 0.75157785 0.07353951 9138514
0.034933329 0.7512576 0.073537529 9072721
0.034699157 0.75093734 0.073535547 9072721
0.034464985 0.75061709 0.073533565 9072723
0.032945573 0.74997878 0.07299827 9138516
0.032710433 0.74965715 0.072996289 9204309
0.032475293 0.74933565 0.072994292 9204309
0.032240167 0.74901402 0.07299231 9270102
0.032005027 0.74869245 0.072990313 9270102
0.031769887 0.74837089 0.072988331 9204309
0.031534746 0.74804932 0.072986335 9204309
0.031299621 0.74772775 0.072984338 9204309
0.031064481 0.74740618 0.072982356 9204309
0.03082934 0.74708462 0.072980359 9138516
0.030594215 0.74676305 0.072978377 9138516
0.030359074 0.74644148 0.072976381 9204309
0.030123934 0.74611992 0.072974399 9204309
0.029888794 0.74579835 0.072972402 9204309
0.029653654 0.74547678 0.07297042 9204309
0.029418528 0.74515522 0.072968423 9203796
0.029183388 0.74483359 0.072966442 9269589
0.028948247 0.74451208 0.072964445 9203796
0.028713122 0.74419045 0.072962463 9203796
0.028477982 0.74386889 0.072960466 9203796
0.028242841 0.74354732 0.072958484 9203796
0.028007701 0.74322575 0.072956488 9203796
0.027772561 0.74290419 0.072954506 9269589
0.027537435 0.74258262 0.072952509 9204309
0.05861707 0.82000822 0.061057582 6638898
0.058358803 0.819655 0.061055392 6573105
0.058100536 0.81930184 0.061053216 6507312
0.058493093 0.8183977 0.061577559 6507314
0.058235794 0.81804585 0.061575368 6507314
0.057978496 0.81769395 0.061573192 6375728
0.058374926 0.81679511 0.062097579 6375728
0.058118597 0.81644452 0.062095404 6375728
0.057862252 0.81609398 0.062093228 6375728
0.057605907 0.81574339 0.062091067 6442034
0.057349578 0.81539285 0.062088892 6310448
0.057093233 0.81504226 0.062086731 6310448
0.056836903 0.81469172 0.062084556 6310448
0.058142111 0.79918492 0.068347856 6178349
0.057897344 0.79885018 0.068345785 6178349
0.057652563 0.79851538 0.068343714 6178349
0.0580962 0.79768115 0.068868488 6178349
0.057852402 0.79734772 0.068866432 6113069
0.05760859 0.79701424 0.06886436 6178862
0.057364777 0.79668081 0.068862304 6113069
0.057120964 0.79634738 0.068860233 6113069
0.056877151 0.79601395 0.068858176 6113069
0.057327554 0.7951889 0.069383025 6178862
0.057084709 0.79485679 0.069380969 6113069
0.056841865 0.79452467 0.069378912 6047276
0.056599021 0.79419261 0.069376856 6113069
0.056356177 0.7938605 0.0693748 6178862
0.056113333 0.79352838 0.069372743 6113069
0.055870473 0.79319626 0.069370687 6113069
0.055627629 0.79286414 0.069368631 6113069
0.055384785 0.79253203 0.069366589 6178862
0.055844814 0.79172015 0.069891483 6178862
0.055602923 0.79138935 0.069889426 6244655
0.055361047 0.79105854 0.069887385 6244655
0.055119157 0.79072779 0.069885343 6244655
0.055102184 0.78926355 0.070406228 7363138
0.054861262 0.78893405 0.070404187 7889482
0.05462034 0.78860462 0.070402145 7890252
0.054379418 0.78827512 0.070400119 8021838
0.055085883 0.78491831 0.071969151 9732456
0.054847851 0.78459281 0.07196714 9732456
0.054609835 0.78426725 0.071965113 9798249
0.055092037 0.78348571 0.07249023 9864040
0.054854974 0.78316152 0.072488219 9798247
0.054617897 0.78283733 0.072486207 9798247
0.054380834 0.78251308 0.07248421 9798247
0.054143772 0.78218889 0.072482198 9732454
0.053906709 0.7818647 0.072480202 9666661
0.053669646 0.78154051 0.07247819 9863270
0.053432584 0.78121626 0.072476178 9929063
0.053195521 0.78089207 0.072474182 9994341
0.052958459 0.78056788 0.07247217 10060134
0.052721396 0.78024364 0.072470173 9862755
0.052484334 0.77991945 0.072468162 9928548
