# .PCD v0.7 - Point Cloud Data file format
VERSION 0.7
FIELDS x y z rgb
SIZE 4 4 4 4
TYPE F F F U
COUNT 1 1 1 1
WIDTH 1099
HEIGHT 1
VIEWPOINT 0 0 0 1 0 0 0
POINTS 1099
DATA ascii
-0.023698866 0.74622774 0.051202223 5258794
-0.024055757 0.7464357 0.051199451 5258794
-0.024412647 0.74664366 0.051196694 5258794
-0.02476953 0.74685162 0.051193923 5324073
-0.025126413 0.74705958 0.051191166 5389866
-0.025792487 0.74650973 0.051785454 5389866
-0.026147962 0.74671686 0.051782697 5389866
-0.026503436 0.74692398 0.051779956 5324073
-0.026858911 0.74713111 0.051777199 5324073
-0.027214386 0.74733829 0.051774442 5324073
-0.02756986 0.74754542 0.051771685 5192487
-0.027925335 0.74775255 0.051768929 5192487
-0.02828081 0.74795973 0.051766172 5192487
-0.028636284 0.74816686 0.05176343 4929829
-0.028991759 0.74837399 0.051760674 4929829
-0.029347233 0.74858117 0.051757917 4995622
-0.029702708 0.7487883 0.05175516 4995622
-0.030058183 0.74899542 0.051752403 4995622
-0.030413657 0.74920261 0.051749647 4995622
-0.030769125 0.74940974 0.051746905 4995622
-0.031124607 0.74961686 0.051744148 4995622
-0.031480074 0.74982405 0.051741391 5061415
-0.031835549 0.75003117 0.051738635 5258794
-0.032191023 0.7502383 0.051735878 5390380
-0.032264113 0.75121891 0.051135853 5456173
-0.032620996 0.75142688 0.051133081 5785138
-0.032977879 0.75163484 0.051130325 5982517
-0.033334769 0.7518428 0.051127553 6508347
-0.03369166 0.75205076 0.051124796 6968898
-0.033773214 0.75303626 0.050524727 7560517
-0.034131512 0.75324506 0.050521955 7889482
-0.034489803 0.75345385 0.050519168 8284240
0.021513492 0.74265516 0.037557065 5126692
0.021122754 0.74288285 0.037554026 5126692
0.020732015 0.74311054 0.037551001 5126692
0.02034127 0.74333823 0.037547976 5060899
0.019950531 0.74356592 0.037544951 5060899
0.019559793 0.74379361 0.037541926 5060899
0.019169055 0.7440213 0.037538886 5060899
0.018778317 0.74424899 0.037535861 5257508
0.018387571 0.74447668 0.037532836 5257508
0.017557479 0.74402148 0.038124442 5060899
0.017168149 0.74424839 0.038121417 5060899
0.016778819 0.74447525 0.038118407 5126692
0.016389489 0.7447021 0.038115382 5126692
0.016000159 0.74492896 0.038112372 5126692
0.015610829 0.74515581 0.038109347 5126692
0.015221499 0.74538273 0.038106337 5126692
0.0096265227 0.74394834 0.041053116 5324071
0.0092442483 0.74417114 0.041050151 5192485
0.0088619739 0.74439389 0.041047186 5192485
0.0080657154 0.7439189 0.041639045 5126692
0.0076848492 0.74414086 0.041636094 5192485
0.007303983 0.74436283 0.041633144 5324071
0.0069231167 0.74458474 0.041630194 5324071
0.0065422505 0.74480665 0.041627243 5192485
0.0061613917 0.74502861 0.041624293 5192485
0.0053750202 0.7445479 0.042216212 5192485
0.0049955621 0.74476904 0.042213276 5192485
0.0046161115 0.74499017 0.04221034 5192485
0.0042366534 0.74521124 0.04220739 5324071
-0.011832625 0.74518585 0.048063174 5193001
-0.012197979 0.74539876 0.048060343 5193001
-0.012563325 0.74561161 0.048057511 5193001
-0.013279162 0.74508983 0.048649982 5258794
-0.013643101 0.7453019 0.04864715 5258794
-0.014007039 0.74551398 0.048644334 5258794
-0.014370978 0.74572605 0.048641518 5258794
-0.014734916 0.74593812 0.048638701 5193001
-0.015098855 0.7461502 0.04863587 5192999
-0.015804835 0.74562263 0.04922843 5192999
-0.016167358 0.74583387 0.049225628 5192999
-0.016529888 0.74604511 0.049222827 5192999
-0.017230213 0.74551427 0.049815416 5389864
-0.017591327 0.74572474 0.04981263 5389864
-0.017952442 0.7459352 0.049809828 5324071
-0.018647119 0.74540102 0.050402462 5324071
-0.019006833 0.74561065 0.050399676 5389864
-0.019366533 0.74582028 0.050396889 5455657
-0.019726239 0.74602985 0.050394103 5455657
-0.020085946 0.74623948 0.050391316 5455657
-0.020445652 0.74644911 0.05038853 5389864
-0.021130458 0.74590921 0.050981253 5389864
-0.021488756 0.74611795 0.050978482 5258792
-0.021847054 0.7463268 0.050975695 5258792
-0.022526219 0.74578363 0.051568449 5258794
-0.022883102 0.74599159 0.051565692 5258794
-0.023239985 0.74619955 0.05156292 5258794
-0.023596875 0.74640751 0.051560163 5258794
-0.023953758 0.74661547 0.051557392 5258794
-0.024310648 0.74682343 0.05155462 5258794
-0.024667531 0.74703139 0.051551864 5389866
-0.025024414 0.74723935 0.051549092 5389866
-0.025690898 0.74668878 0.052141979 5389866
-0.026046365 0.74689591 0.052139223 5455659
-0.026401848 0.7471031 0.052136466 5193001
-0.026757315 0.74731022 0.052133709 5193001
-0.027112789 0.74751735 0.052130967 5193001
-0.027468264 0.74772453 0.052128211 5193001
-0.027823739 0.74793166 0.052125454 5061415
-0.028179213 0.74813879 0.052122697 4995622
-0.028534696 0.74834597 0.052119941 4929829
-0.028890163 0.7485531 0.052117184 4995622
-0.029245637 0.74876022 0.052114427 5061415
-0.029601112 0.74896741 0.052111685 4995622
-0.029956587 0.74917454 0.052108929 4995622
-0.030312061 0.74938166 0.052106172 4995622
-0.030667536 0.74958885 0.052103415 4995622
-0.031023011 0.74979597 0.052100658 4995622
-0.031378485 0.7500031 0.052097902 5061415
-0.03173396 0.75021023 0.052095145 5258794
-0.032089435 0.75041741 0.052092403 5324587
-0.032162115 0.75139868 0.051493779 5456173
-0.032518998 0.75160664 0.051491022 5785138
-0.032875881 0.7518146 0.05148825 5982517
-0.033232771 0.75202262 0.051485494 6574140
-0.033589661 0.75223058 0.051482722 6968898
-0.033670813 0.7532168 0.050884083 7494724
-0.034029111 0.7534256 0.050881296 7823689
-0.034387402 0.75363433 0.050878525 8284240
0.022406638 0.74239659 0.037955001 5126694
0.022015899 0.74262428 0.037951976 5060899
0.021625161 0.74285197 0.037948951 5126692
0.021234423 0.74307966 0.037945926 5126692
0.020843685 0.74330735 0.037942886 5126692
0.020452946 0.74353504 0.037939861 5060899
0.020062208 0.74376279 0.037936836 5060899
0.01967147 0.74399048 0.037933812 5060899
0.018836737 0.74353701 0.038523957 5060899
0.018447407 0.74376386 0.038520947 5257508
0.018058077 0.74399078 0.038517922 5191715
0.017668746 0.74421763 0.038514912 5191715
0.017279416 0.74444449 0.038511887 5191715
0.016890086 0.74467134 0.038508877 5192485
0.016065218 0.74421215 0.039099112 5126692
0.015677296 0.74443817 0.039096102 5126692
0.015289381 0.74466425 0.039093092 5126692
0.014901459 0.74489033 0.039090082 5126692
0.0093171597 0.74344498 0.042029887 5192485
0.0089363009 0.74366689 0.042026937 5192485
0.0085554346 0.74388885 0.042023987 5324071
0.0081745684 0.74411082 0.042021036 5192485
0.0077937022 0.74433273 0.042018086 5192485
0.007412836 0.74455464 0.042015135 5192999
0.0070319697 0.74477661 0.042012185 5192999
0.0066511035 0.74499857 0.042009234 5061413
0.0062702373 0.74522048 0.042006284 5061413
0.0054834634 0.74473906 0.042596787 5061413
0.0051040128 0.74496019 0.042593837 5061413
0.0047245547 0.74518132 0.042590901 5324071
0.0043451041 0.74540246 0.042587966 5324071
-0.010632165 0.74473119 0.048438087 5324071
-0.010997519 0.7449441 0.048435256 5324071
-0.011362866 0.745157 0.048432425 5324071
-0.011728212 0.74536991 0.048429593 5192999
-0.012093559 0.74558282 0.048426762 5258792
-0.012458906 0.74579567 0.048423931 5258792
-0.013175152 0.74527317 0.049014986 5258792
-0.013539091 0.74548525 0.049012154 5258792
-0.013903022 0.74569732 0.049009338 5258792
-0.014613643 0.74517155 0.049600452 5192999
-0.014976174 0.74538279 0.049597651 5258792
-0.015338689 0.74559402 0.049594834 5193001
-0.016043648 0.74506497 0.050185993 5193001
-0.01640477 0.74527538 0.050183192 5192999
-0.016765885 0.74548578 0.050180405 5258792
-0.017465204 0.74495345 0.050771579 5258792
-0.017824903 0.74516308 0.050768793 5258792
-0.01818461 0.74537265 0.050766006 5192999
-0.018878289 0.74483699 0.051357254 5192999
-0.01923658 0.74504578 0.051354483 5258792
-0.019594878 0.74525452 0.051351711 5324585
-0.019953176 0.74546337 0.051348925 5324585
-0.020311475 0.74567211 0.051346153 5324585
-0.020669766 0.7458809 0.051343381 5258792
-0.021353565 0.74533951 0.051934674 5258792
-0.021710455 0.74554747 0.051931918 5258792
-0.022067338 0.74575543 0.051929146 5258792
-0.022424221 0.74596339 0.051926389 5258794
-0.022781104 0.74617136 0.051923618 5258794
-0.023137987 0.74637938 0.051920861 5258794
-0.023811921 0.74583215 0.052512273 5258794
-0.024167404 0.74603927 0.052509516 5258794
-0.024522871 0.74624646 0.05250676 5258794
-0.024878353 0.74645358 0.052504003 5389866
-0.02523382 0.74666071 0.052501246 5389866
-0.025589302 0.7468679 0.05249849 5258794
-0.02625335 0.746315 0.053089947 5258794
-0.026607409 0.74652129 0.053087205 5193001
-0.026961476 0.74672759 0.053084463 5193001
-0.027315542 0.74693394 0.053081721 5193001
-0.027669609 0.74714029 0.053078979 5061415
-0.028023668 0.74734658 0.053076237 4995622
-0.028377734 0.74755287 0.053073496 4995622
-0.028731793 0.74775922 0.053070754 4929829
-0.02908586 0.74796557 0.053068012 4995622
-0.029439926 0.74817187 0.053065255 5061415
-0.029793993 0.74837816 0.053062513 5061415
-0.030148044 0.74858451 0.053059772 4995622
-0.030210465 0.74956077 0.052462682 4995622
-0.03056594 0.7497679 0.052459925 4995622
-0.030921414 0.74997503 0.052457184 4995622
-0.031276889 0.75018215 0.052454427 5193001
-0.031632364 0.75038934 0.05245167 5258794
-0.031987838 0.75059646 0.052448913 5390380
-0.032343313 0.75080359 0.052446157 5521966
-0.032698788 0.75101078 0.0524434 5785138
-0.033054262 0.7512179 0.052440643 5982517
-0.03313078 0.75220239 0.05184342 6508347
-0.033487663 0.75241035 0.051840663 6968898
-0.033844545 0.75261831 0.051837891 7428931
-0.034201428 0.75282627 0.05183512 7823689
-0.034558311 0.75303423 0.051832363 8284240
0.022518322 0.74259347 0.038346887 5126694
0.022127584 0.74282116 0.038343862 5060901
0.021736845 0.74304885 0.038340837 5126694
0.021346092 0.74327654 0.038337812 5126692
0.020955361 0.74350423 0.038334787 5126692
0.020564623 0.74373192 0.038331747 5126692
0.020173877 0.74395961 0.038328722 5126692
0.019783139 0.74418736 0.038325697 5126692
0.018948004 0.74373317 0.038914427 5126692
0.018558674 0.74396002 0.038911417 5257508
0.018169343 0.74418688 0.038908392 5191715
0.017780021 0.74441373 0.038905382 5191715
0.017390691 0.74464065 0.038902372 5257508
0.017001361 0.7448675 0.038899347 5192485
0.016176082 0.74440759 0.039488167 5192485
0.015788168 0.74463362 0.039485157 5126692
0.015400246 0.7448597 0.039482147 5192485
0.015012324 0.74508572 0.039479151 5192485
0.0094260126 0.74363685 0.042411879 5192739
0.0090451464 0.74385881 0.042408913 5192739
0.0086642802 0.74408072 0.042405963 5390118
0.0082834214 0.74430269 0.042403013 5192485
0.0079025552 0.7445246 0.042400062 5192485
0.0075216889 0.74474657 0.042397112 5324071
0.0071408227 0.74496847 0.042394161 5324071
0.0067599565 0.74519044 0.042391211 5192485
0.0063790902 0.74541235 0.04238826 5324071
0.005998224 0.74563432 0.04238531 5192999
-0.010527745 0.74491525 0.048804507 5324071
-0.010893099 0.74512815 0.048801675 5324071
-0.011258446 0.74534106 0.048798844 5324071
-0.011623792 0.74555397 0.048796013 5258792
-0.011989146 0.74576688 0.048793182 5258792
-0.012354493 0.74597973 0.048790351 5258792
-0.013071135 0.74545652 0.04937999 5258792
-0.013435073 0.74566859 0.049377173 5258792
-0.013799012 0.74588066 0.049374342 5258792
-0.014510028 0.74535418 0.049964055 5192999
-0.014872558 0.74556541 0.049961239 5258792
-0.015235081 0.74577665 0.049958438 5192999
-0.015940443 0.74524689 0.050548181 5258792
-0.016301557 0.74545729 0.05054538 5258792
-0.01666268 0.7456677 0.050542578 5258792
-0.017362393 0.74513465 0.051132351 5258792
-0.0177221 0.74534428 0.051129565 5258792
-0.018081807 0.74555385 0.051126778 5192999
-0.018775888 0.74501747 0.051716611 5192999
-0.019134179 0.74522626 0.051713824 5258792
-0.019492477 0.74543506 0.051711053 5324585
-0.019850776 0.74564385 0.051708281 5258792
-0.020209074 0.74585265 0.051705495 5258792
-0.020567365 0.74606144 0.051702723 5258792
-0.021251567 0.74551928 0.052292615 5258792
-0.021608457 0.7457273 0.052289844 5258792
-0.02196534 0.7459352 0.052287087 5324585
-0.022322223 0.74614322 0.052284315 5258792
-0.022679105 0.74635118 0.052281559 5258792
-0.023035988 0.74655914 0.052278787 5258794
-0.023710333 0.74601126 0.052868783 5258794
-0.024065807 0.74621838 0.052866027 5258794
-0.024421275 0.74642551 0.05286327 5258794
-0.024776757 0.7466327 0.052860528 5193001
-0.025132224 0.74683982 0.052857772 5258794
-0.025487706 0.74704695 0.052855015 5258794
-0.026152156 0.74649334 0.053445056 5258794
-0.026506215 0.74669969 0.053442314 5193001
-0.026860282 0.74690598 0.053439572 5193001
-0.027214348 0.74711227 0.053436831 5193001
-0.027568415 0.74731863 0.053434089 5061415
-0.027922474 0.74752498 0.053431332 4995622
-0.02827654 0.74773127 0.05342859 5061415
-0.028630599 0.74793756 0.053425848 4929829
-0.028984666 0.74814391 0.053423107 5061415
-0.029338732 0.74835026 0.053420365 5061415
-0.029692799 0.74855655 0.053417623 4995622
-0.030046858 0.74876291 0.053414881 4995622
-0.030108869 0.74973983 0.052819207 4995622
-0.030464344 0.74994695 0.052816451 4995622
-0.030819818 0.75015414 0.052813694 5061415
-0.031175293 0.75036126 0.052810937 5193001
-0.031530768 0.75056839 0.05280818 5258794
-0.031886242 0.75077558 0.052805424 5324587
-0.032241717 0.7509827 0.052802682 5521966
-0.032597192 0.75118983 0.052799925 5719345
-0.032952666 0.75139701 0.052797168 5916724
-0.033028781 0.75238216 0.05220136 6442554
-0.033385664 0.75259018 0.052198589 6903105
-0.033742547 0.75279814 0.052195817 7428931
-0.03409943 0.7530061 0.052193061 7823689
-0.034456313 0.75321406 0.052190289 8152654
0.022629991 0.74279034 0.038738787 5126694
0.022239253 0.74301803 0.038735747 5060901
0.021848515 0.74324572 0.038732722 5126694
0.021457776 0.74347341 0.038729697 5192485
0.021067031 0.7437011 0.038726673 5126692
0.020676292 0.74392879 0.038723648 5192485
0.020285554 0.74415648 0.038720608 5126692
0.019894816 0.74438417 0.038717583 5192485
0.019059278 0.74392927 0.039304912 5126692
0.018669948 0.74415618 0.039301887 5192485
0.018280618 0.74438304 0.039298877 5126692
0.017891288 0.74460989 0.039295852 5060899
0.017501958 0.74483681 0.039292842 5126692
0.017112628 0.74506366 0.039289817 5192485
0.016286947 0.74460304 0.039877221 5192485
0.015899032 0.74482906 0.039874211 5126692
0.01551111 0.74505508 0.039871216 5192485
0.015123196 0.74528116 0.039868206 5192485
0.0095348656 0.74382871 0.042793855 5454887
0.0091539994 0.74405068 0.042790905 5454887
0.0087731332 0.74427259 0.042787954 5520680
0.0083922669 0.74449456 0.042785004 5324071
0.0080114082 0.74471647 0.042782053 5324071
0.0076305419 0.74493843 0.042779103 5389864
0.0072496757 0.74516034 0.042776152 5324071
0.0068688095 0.74538231 0.042773202 5192485
0.0064879432 0.74560428 0.042770237 5324071
0.006107077 0.74582618 0.042767286 5324071
-0.010423332 0.74509931 0.049170926 5324071
-0.010788679 0.74531221 0.049168095 5192999
-0.011154033 0.74552512 0.049165264 5192999
-0.01151938 0.74573803 0.049162433 5192999
-0.011884727 0.74595094 0.049159601 5258792
-0.012250081 0.74616379 0.04915677 5258792
-0.012967125 0.74563986 0.049744993 5258792
-0.013331063 0.74585193 0.049742177 5324585
-0.013695002 0.74606401 0.049739361 5258792
-0.014406413 0.7455368 0.050327644 5192999
-0.014768943 0.74574804 0.050324827 5258792
-0.015131474 0.74595928 0.050322026 5192999
-0.015837237 0.7454288 0.050910354 5258792
-0.016198352 0.7456392 0.050907552 5324585
-0.016559467 0.74584967 0.050904751 5258792
-0.01725959 0.74531591 0.051493108 5258792
-0.017619297 0.74552548 0.051490322 5258792
-0.017979003 0.74573511 0.051487535 5192999
-0.018673487 0.74519801 0.052075952 5258792
-0.019031778 0.74540675 0.052073181 5258792
-0.019390076 0.7456156 0.052070409 5258792
-0.019748375 0.74582434 0.052067623 5258792
-0.020106673 0.74603313 0.052064851 5258792
-0.020464964 0.74624193 0.052062064 5258792
-0.021149568 0.74569911 0.052650541 5258792
-0.021506459 0.74590707 0.052647784 5258792
-0.021863341 0.74611503 0.052645013 5324585
-0.022220224 0.74632299 0.052642256 5258794
-0.022577107 0.74653095 0.052639484 5258794
-0.02293399 0.74673891 0.052636713 5193001
-0.023608737 0.74619031 0.053225309 5258794
-0.023964211 0.7463975 0.053222552 5258794
-0.024319686 0.74660462 0.053219795 5258794
-0.024675161 0.74681175 0.053217039 5193001
-0.025030635 0.74701893 0.053214282 5258794
-0.02538611 0.74722606 0.053211525 5258794
-0.02605097 0.74667174 0.053800166 5258794
-0.026405029 0.74687803 0.053797424 5193001
-0.026759088 0.74708438 0.053794682 5193001
-0.027113155 0.74729067 0.053791925 5193001
-0.027467221 0.74749702 0.053789183 5061415
-0.027821288 0.74770331 0.053786442 4995622
-0.028175354 0.74790967 0.0537837 5061415
-0.028529413 0.74811596 0.053780958 4995622
-0.028883472 0.74832231 0.053778216 5061415
-0.029237539 0.7485286 0.053775474 4995622
-0.029591605 0.74873495 0.053772718 4929829
-0.029945672 0.74894124 0.053769976 4929829
-0.030007273 0.74991894 0.053175718 4995622
-0.030362755 0.75012606 0.053172976 4995622
-0.030718222 0.75033319 0.053170219 5061415
-0.031073704 0.75054038 0.053167462 5193001
-0.031429172 0.7507475 0.053164706 5258794
-0.031784654 0.75095463 0.053161949 5324587
-0.032140121 0.75116181 0.053159192 5521966
-0.032495603 0.75136894 0.053156435 5719345
-0.03285107 0.75157607 0.053153694 5982517
-0.032926783 0.75256199 0.052559286 6442554
-0.033283666 0.75276995 0.052556515 6903105
-0.033640549 0.75297791 0.052553758 7428931
-0.033997431 0.75318587 0.052550986 7823689
-0.034354314 0.75339383 0.05254823 8086861
0.024374619 0.74297833 0.038550928 5192485
0.023982465 0.74320686 0.038547888 5060899
0.023590311 0.74343538 0.038544849 5060901
0.02274166 0.74298716 0.039130658 5126694
0.022350922 0.74321485 0.039127633 5060901
0.021960184 0.74344254 0.039124608 5126694
0.021569446 0.74367023 0.039121583 5126694
0.021178707 0.74389791 0.039118558 5126694
0.020338535 0.7434448 0.039704427 5192485
0.019949205 0.74367166 0.039701402 5192485
0.019559875 0.74389857 0.039698392 5192485
0.019170545 0.74412543 0.039695382 5192485
0.018781215 0.74435234 0.039692357 5192485
0.018391885 0.7445792 0.039689347 5126692
0.01756157 0.7441203 0.040275291 5126692
0.017173655 0.74434632 0.040272295 5126692
0.016785733 0.7445724 0.040269285 5192485
0.016397819 0.74479842 0.040266275 5192485
0.016009897 0.7450245 0.040263265 5126692
0.015621983 0.74525052 0.04026027 5192485
0.015234061 0.7454766 0.04025726 5192485
0.010786317 0.7433548 0.043184698 5323301
0.010405451 0.74357671 0.043181747 5454887
0.010024585 0.74379867 0.043178797 5454887
0.0096437186 0.74402058 0.043175846 5454887
0.0092628524 0.74424255 0.043172881 5454887
0.0088819861 0.74446452 0.043169931 5520680
0.0085011199 0.74468642 0.04316698 5324071
0.0081202537 0.74490833 0.04316403 5324071
0.0077393875 0.7451303 0.043161079 5389864
0.0069471747 0.74464923 0.043747306 5324071
0.006567724 0.74487036 0.04374437 5192485
0.006188266 0.74509144 0.043741435 5324071
0.0058088154 0.74531257 0.043738484 5324071
-0.01031892 0.74528337 0.049537346 5389864
-0.010684267 0.74549627 0.049534515 5324071
-0.011049613 0.74570918 0.049531683 5389864
-0.011771299 0.74518698 0.050118461 5258792
-0.012135237 0.74539906 0.050115645 5258792
-0.012499169 0.74561113 0.050112829 5258792
-0.013215229 0.74508566 0.050699666 5258792
-0.013577752 0.7452969 0.05069685 5258792
-0.013940282 0.74550819 0.050694048 5258792
-0.01465068 0.74497944 0.051280916 5192999
-0.015011795 0.74518985 0.051278129 5258792
-0.015372917 0.74540031 0.051275328 5192999
-0.016077667 0.74486828 0.05186224 5258792
-0.016437374 0.74507785 0.051859453 5324585
-0.016797081 0.74528748 0.051856667 5258792
-0.017496198 0.74475211 0.052443624 5258792
-0.017854497 0.7449609 0.052440852 5258792
-0.018212788 0.7451697 0.05243808 5192999
-0.018906265 0.74463111 0.053025067 5258792
-0.019263148 0.74483907 0.05302231 5258794
-0.019620031 0.74504703 0.053019539 5258794
-0.019976914 0.74525499 0.053016782 5258794
-0.020333797 0.74546295 0.05301401 5258794
-0.020690687 0.74567091 0.053011239 5258794
-0.021374293 0.74512655 0.053598344 5324587
-0.021729767 0.74533367 0.053595603 5258794
-0.022085242 0.74554086 0.053592846 5324587
-0.022440717 0.74574798 0.053590089 5324333
-0.022796191 0.74595511 0.053587332 5258540
-0.023151666 0.7461623 0.053584576 5258540
-0.023825392 0.74561214 0.054171726 5258540
-0.024179451 0.7458185 0.054168984 5258794
-0.024533518 0.74602479 0.054166242 5258794
-0.024887584 0.74623114 0.054163501 5193001
-0.025241643 0.74643743 0.054160759 5193001
-0.02559571 0.74664378 0.054158002 5258794
-0.025949776 0.74685007 0.05415526 5258794
-0.026303843 0.74705642 0.054152519 5193001
-0.026657902 0.74726272 0.054149777 5193001
-0.027011961 0.74746907 0.054147035 5193001
-0.027366027 0.74767536 0.054144293 5061415
-0.027720094 0.74788171 0.054141551 4995622
-0.02807416 0.748088 0.054138809 5061415
-0.028428227 0.74829435 0.054136068 4995622
-0.028782286 0.74850065 0.054133311 5061415
-0.029136345 0.748707 0.054130569 4995622
-0.029490411 0.74891329 0.054127827 4929829
-0.029844478 0.74911964 0.054125085 4929829
-0.030198537 0.74932599 0.054122344 4929829
-0.030552596 0.74953228 0.054119602 4995622
-0.030906662 0.74973857 0.05411686 5061415
-0.031260729 0.74994493 0.054114118 5061415
-0.031614795 0.75015128 0.054111362 5193001
-0.031968862 0.75035757 0.05410862 5324587
-0.032038525 0.75134087 0.053515717 5521966
-0.032394007 0.75154805 0.053512961 5653552
-0.032749474 0.75175518 0.053510204 5982517
-0.033104956 0.7519623 0.053507447 6442554
-0.033460423 0.75216949 0.053504691 6837312
-0.03353855 0.75315773 0.052911684 7362884
-0.033895433 0.7533657 0.052908927 7823435
-0.034252316 0.75357366 0.052906156 8086607
0.024486691 0.74317592 0.038944229 5126694
0.024094552 0.74340439 0.03894119 5060901
0.023702398 0.74363291 0.038938165 5126694
0.022853345 0.74318403 0.039522558 5126694
0.022462606 0.74341172 0.039519519 5060901
0.022071853 0.74363941 0.039516494 5060901
0.021681115 0.7438671 0.039513469 5126694
0.021290377 0.74409479 0.039510444 5126694
0.020449802 0.74364096 0.040094897 5192487
0.020060472 0.74386781 0.040091887 5192487
0.019671142 0.74409473 0.040088862 5192485
0.019281819 0.74432158 0.040085852 5192485
0.018892489 0.74454844 0.040082827 5192485
0.018503159 0.7447753 0.040079817 5126692
0.017672442 0.74431574 0.04066436 5126692
0.01728452 0.74454176 0.04066135 5126692
0.016896605 0.74476779 0.04065834 5192485
0.016508684 0.74499387 0.040655345 5192485
0.010895163 0.74354666 0.043566674 5192485
0.010514304 0.74376857 0.043563724 5324071
0.010133438 0.74399054 0.043560773 5324071
0.0097525716 0.74421251 0.043557823 5324071
0.0093717054 0.74443442 0.043554872 5324071
0.0089908391 0.74465632 0.043551922 5389864
0.0086099729 0.74487829 0.043548971 5389864
0.0082291067 0.74510026 0.043546021 5389864
0.0078482404 0.74532217 0.043543071 5389864
0.0070556253 0.74484038 0.044127882 5324071
0.0066761672 0.74506152 0.044124946 5324071
0.0062967166 0.74528265 0.04412201 5324071
0.0059172586 0.74550378 0.04411906 5324071
-0.0102145 0.74546742 0.049903765 5258792
-0.010579847 0.74568033 0.049900934 5258792
-0.010945201 0.74589324 0.049898103 5192999
-0.011667281 0.74537033 0.050483465 5258792
-0.01203122 0.7455824 0.050480649 5258792
-0.012395158 0.74579453 0.050477833 5258792
-0.013111614 0.74526829 0.051063254 5258792
-0.013474137 0.74547958 0.051060438 5324585
-0.013836667 0.74569082 0.051057637 5324585
-0.014547467 0.74516135 0.051643103 5258792
-0.014908589 0.74537182 0.051640302 5258792
-0.015269704 0.74558222 0.051637501 5258792
-0.015974864 0.74504948 0.052222997 5258792
-0.016334571 0.74525911 0.05222021 5324585
-0.016694278 0.74546868 0.052217424 5324585
-0.017393798 0.74493265 0.05280298 5389864
-0.017752096 0.74514139 0.052800208 5389864
-0.018110387 0.74535024 0.052797422 5324073
-0.018804267 0.74481088 0.053383008 5389866
-0.01916115 0.74501884 0.053380236 5389866
-0.019518033 0.74522686 0.053377479 5455659
-0.019874915 0.74543476 0.053374708 5389866
-0.020231798 0.74564278 0.053371951 5389866
-0.020588689 0.74585074 0.053369179 5324587
-0.021272704 0.74530566 0.05395487 5324587
-0.021628179 0.74551278 0.053952113 5324587
-0.021983653 0.74571991 0.053949356 5324587
-0.022339121 0.7459271 0.053946614 5390126
-0.022694603 0.74613422 0.053943858 5258540
-0.02305007 0.74634135 0.053941101 5258540
-0.023724198 0.74579054 0.054526836 5324333
-0.024078265 0.74599683 0.054524094 5258540
-0.024432324 0.74620318 0.054521352 5258540
-0.02478639 0.74640948 0.054518595 5193001
-0.025140457 0.74661583 0.054515854 5193001
-0.025494516 0.74682212 0.054513112 5258794
-0.025848582 0.74702847 0.05451037 5258794
-0.026202649 0.74723482 0.054507628 5193001
-0.026556708 0.74744111 0.054504886 5193001
-0.026910767 0.7476474 0.054502144 5061415
-0.027264833 0.74785376 0.054499388 5061415
-0.0276189 0.74806011 0.054496646 5061415
-0.027972966 0.7482664 0.054493904 5061415
-0.028327033 0.74847269 0.054491162 4995622
-0.028681092 0.74867904 0.05448842 4995622
-0.029035151 0.74888539 0.054485679 4929829
-0.029389217 0.74909168 0.054482937 4929829
-0.029743284 0.74929798 0.054480195 4929829
-0.03009735 0.74950433 0.054477453 4864036
-0.03045141 0.74971068 0.054474697 4995622
-0.030805476 0.74991697 0.054471955 5061415
-0.031159535 0.75012326 0.054469213 5061415
-0.031513602 0.75032961 0.054466471 5193001
-0.031867668 0.75053596 0.054463729 5258794
-0.031936936 0.75151998 0.053872228 5456173
-0.032292411 0.7517271 0.053869486 5653552
-0.032647885 0.75193423 0.053866729 5916724
-0.03300336 0.75214136 0.053863972 6376761
-0.033358835 0.75234854 0.053861216 6837312
-0.033436552 0.7533375 0.053269625 7362884
-0.033793435 0.75354546 0.053266853 7691849
-0.034150317 0.75375342 0.053264096 8086607
0.024598777 0.74337345 0.039337531 5126694
0.024206623 0.74360198 0.039334491 5060901
0.02381447 0.7438305 0.039331466 5126694
0.022965014 0.74338084 0.039914444 5126694
0.022574276 0.74360859 0.039911419 5060901
0.022183537 0.74383628 0.039908379 5060901
0.021792799 0.74406397 0.039905354 5126694
0.021402061 0.74429166 0.039902329 5126694
0.020561077 0.74383712 0.040485367 5192487
0.020171747 0.74406397 0.040482357 5192487
0.019782417 0.74429083 0.040479332 5192485
0.019393086 0.74451768 0.040476322 5192485
0.019003756 0.7447446 0.040473312 5324071
0.018614426 0.74497145 0.040470287 5192485
0.017783307 0.74451113 0.041053414 5126692
0.017395392 0.74473721 0.041050404 5192485
0.01700747 0.74496323 0.041047394 5192485
0.016619556 0.74518931 0.041044399 5126692
0.011004016 0.74373853 0.043948665 5126692
0.01062315 0.7439605 0.043945715 5192485
0.010242283 0.74418241 0.043942764 5324071
0.0098614246 0.74440438 0.043939814 5324071
0.0094805583 0.74462628 0.043936849 5192485
0.0090996921 0.74484825 0.043933898 5389864
0.0087188259 0.74507016 0.043930948 5389864
0.0083379596 0.74529213 0.043927997 5389864
0.0079570934 0.74551404 0.043925047 5389864
0.007164076 0.7450316 0.044508457 5324071
0.0067846179 0.74525267 0.044505507 5324071
0.0064051673 0.7454738 0.044502571 5324071
0.0060257092 0.74569494 0.044499636 5324071
-0.01011008 0.74565148 0.0502702 5258792
-0.010475427 0.74586439 0.050267369 5258792
-0.010840781 0.7460773 0.050264537 5192999
-0.011563271 0.74555367 0.050848484 5258792
-0.011927202 0.74576581 0.050845653 5258792
-0.012291148 0.74597788 0.050842836 5258792
-0.013008006 0.74545097 0.051426843 5258792
-0.013370529 0.74566221 0.051424041 5258792
-0.013733059 0.74587345 0.051421225 5258792
-0.014444262 0.74534327 0.052005276 5258792
-0.014805384 0.74555373 0.052002475 5258792
-0.015166499 0.74576414 0.051999688 5258792
-0.015872061 0.74523067 0.052583754 5258792
-0.016231768 0.7454403 0.052580968 5455657
-0.016591474 0.74564993 0.052578181 5455657
-0.017291397 0.74511313 0.053162321 5389864
-0.017649695 0.74532193 0.05315955 5455657
-0.018007986 0.74553072 0.053156778 5389866
-0.018702269 0.74499071 0.053740948 5389866
-0.019059151 0.74519867 0.053738177 5455659
-0.019416034 0.74540663 0.053735405 5455659
-0.019772917 0.74561459 0.053732648 5389866
-0.0201298 0.74582255 0.053729877 5389866
-0.02048669 0.74603051 0.05372712 5455659
-0.021171108 0.74548471 0.05431138 5455659
-0.021526583 0.7456919 0.054308638 5324333
-0.021882057 0.74589902 0.054305881 5324333
-0.022237532 0.74610615 0.054303125 5324333
-0.022593006 0.74631333 0.054300368 5324333
-0.022948481 0.74652046 0.054297611 5193260
-0.023623005 0.74596894 0.05488193 5259053
-0.023977071 0.74617523 0.054879189 5259053
-0.024331138 0.74638152 0.054876447 5193260
-0.024685204 0.74658787 0.054873705 5127467
-0.025039263 0.74679422 0.054870963 5127467
-0.025393322 0.74700052 0.054868221 5127467
-0.025747389 0.74720681 0.054865479 5193260
-0.026101455 0.74741316 0.054862723 5127721
-0.026455522 0.74761951 0.054859981 4996135
-0.026809581 0.7478258 0.054857239 5061415
-0.027163647 0.74803209 0.054854497 5061415
-0.027517706 0.74823844 0.054851755 5061415
-0.027871773 0.7484448 0.054849014 4995622
-0.028225839 0.74865109 0.054846272 4929575
-0.028579906 0.74885738 0.054843515 4995368
-0.028933965 0.74906373 0.054840773 4929575
-0.029288031 0.74927008 0.054838032 4929575
-0.02964209 0.74947637 0.05483529 4929575
-0.029996157 0.74968272 0.054832548 4863782
-0.030350216 0.74988902 0.054829806 4995622
-0.030704282 0.75009537 0.054827064 4995622
-0.031058349 0.75030166 0.054824322 4995622
-0.031412408 0.75050801 0.054821581 5061415
-0.031766474 0.7507143 0.054818839 5258794
-0.03183534 0.75169903 0.054228753 5456173
-0.032190815 0.75190616 0.054225996 5653552
-0.032546289 0.75211334 0.054223239 5850931
-0.032901764 0.75232047 0.054220483 6245689
-0.033257239 0.75252759 0.054217726 6706240
-0.033334553 0.75351727 0.053627551 7231300
-0.033691436 0.75372529 0.053624794 7691851
-0.034048319 0.75393325 0.053622022 8086607
0.041013628 0.74258101 0.034563869 5060901
0.040608779 0.74281693 0.03456074 5060901
0.040203929 0.74305284 0.034557596 5060901
0.039799079 0.74328876 0.034554452 5060901
0.03939423 0.74352467 0.034551322 5126694
0.038989395 0.74376059 0.034548178 5060901
0.038584545 0.7439965 0.034545049 5126694
0.027534142 0.7428714 0.039164573 5061413
0.027140588 0.7431007 0.039161533 5061413
0.026747018 0.74333006 0.039158478 4995620
0.025887296 0.74288547 0.039739951 4995620
0.025495142 0.74311399 0.039736912 5192485
0.025103003 0.74334252 0.039733872 5060899
0.024710849 0.74357104 0.039730832 5126694
0.024318695 0.74379957 0.039727792 5126694
0.023926541 0.74402809 0.039724767 5192487
0.023076683 0.74357772 0.04030633 5126694
0.022685945 0.74380541 0.04030329 5126694
0.022295207 0.7440331 0.040300265 5126694
0.021904469 0.74426079 0.04029724 5126694
0.02151373 0.74448848 0.040294215 5126694
0.020672344 0.74403322 0.040875852 5324071
0.020283014 0.74426007 0.040872827 5324071
0.019893683 0.74448699 0.040869817 5192485
0.01905793 0.74402845 0.041451484 5192485
0.018670015 0.74425447 0.041448474 5324071
0.018282093 0.74448055 0.041445479 5192485
0.017894171 0.74470657 0.041442469 5126692
0.017506257 0.74493265 0.041439459 5192485
0.017118335 0.74515867 0.041436464 5192485
0.01673042 0.74538469 0.041433454 5192485
0.01344952 0.74351436 0.043760598 5192485
0.013067238 0.7437371 0.043757632 5324071
0.012684964 0.7439599 0.043754667 5324071
0.011874601 0.74348652 0.044336542 5324071
0.011493735 0.74370849 0.044333592 5192485
0.011112869 0.7439304 0.044330642 5192485
0.010732003 0.74415237 0.044327691 5192485
0.010351136 0.74437428 0.044324741 5324071
0.0099702701 0.74459624 0.04432179 5324071
0.0095894039 0.74481815 0.04431884 5324071
0.0092085451 0.74504012 0.044315889 5389864
0.0084108859 0.74455941 0.044897839 5389864
0.0080314353 0.74478048 0.044894904 5389864
0.0076519772 0.74500161 0.044891953 5389864
0.0072725192 0.74522275 0.044889018 5324071
0.0068930686 0.74544382 0.044886082 5324071
0.0065136105 0.74566495 0.044883132 5192485
0.0061341599 0.74588609 0.044880196 5324071
0.0018580854 0.74365002 0.047787815 5258792
0.001485683 0.74386704 0.047784939 5192999
0.0011132807 0.74408406 0.047782049 5192999
0.00074087828 0.74430108 0.047779158 5192999
-0.0041424856 0.74336445 0.050093889 5193001
-0.0045092478 0.7435782 0.050091058 5193001
-0.0048760027 0.74379194 0.050088212 5193001
-0.0052427649 0.74400568 0.050085366 5193001
-0.0056095272 0.74421936 0.05008252 5193001
-0.0059762821 0.7444331 0.050079688 5193001
-0.0063430443 0.74464679 0.050076842 5324585
-0.0067097992 0.74486053 0.050073996 5324585
-0.0070765615 0.74507427 0.05007115 5192999
-0.0078135729 0.74455816 0.050653607 5192999
-0.0081789196 0.74477106 0.050650775 5258792
-0.0085442662 0.74498397 0.050647944 5192999
-0.0089096203 0.74519682 0.050645113 5258792
-0.010005668 0.74583554 0.050636619 5258792
-0.010371014 0.74604845 0.050633788 5192999
-0.010736361 0.74626136 0.050630957 5192999
-0.011459261 0.74573708 0.051213488 5389864
-0.011823192 0.74594915 0.051210657 5389864
-0.012187131 0.74616122 0.05120784 5389864
-0.012904391 0.7456336 0.051790431 5389864
-0.013266921 0.74584484 0.05178763 5389864
-0.013629451 0.74605608 0.051784813 5389864
-0.014341056 0.74552524 0.052367449 5258792
-0.014702171 0.74573565 0.052364647 5258792
-0.015063293 0.74594605 0.052361861 5258792
-0.016114108 0.74466729 0.053530008 5258792
-0.016472407 0.74487609 0.053527221 5324585
-0.016830698 0.74508488 0.053524449 5324585
-0.017529614 0.74454659 0.054107174 5389864
-0.017886497 0.74475455 0.054104403 5455657
-0.01824338 0.74496251 0.054101631 5455659
-0.018936664 0.74442095 0.05468443 5389866
-0.019292139 0.74462807 0.054681674 5324587
-0.019647613 0.74483526 0.054678917 5324587
-0.020003088 0.74504238 0.054676175 5258794
-0.020358562 0.74524951 0.054673418 5258794
-0.020714037 0.7454567 0.054670662 5324587
-0.021397434 0.74490935 0.055253506 5258794
-0.021751501 0.74511564 0.055250749 5324587
-0.02210556 0.74532199 0.055248007 5324587
-0.022459626 0.74552834 0.055245265 5324333
-0.022813693 0.74573463 0.055242524 5324333
-0.023167752 0.74594092 0.055239782 5193260
-0.023841284 0.74538785 0.055822715 5259053
-0.024193943 0.74559337 0.055819988 5193260
-0.024546593 0.74579883 0.055817246 5193260
-0.024899244 0.74600434 0.05581452 5127467
-0.025251895 0.74620986 0.055811778 5127467
-0.025604546 0.74641538 0.055809051 5127467
-0.025957204 0.74662089 0.055806309 5193260
-0.026309855 0.74682635 0.055803582 5127721
-0.026662514 0.74703187 0.055800855 4996135
-0.027015164 0.74723732 0.055798113 4996135
-0.027367815 0.74744284 0.055795386 4996135
-0.027720466 0.74764836 0.05579266 4930342
-0.028073125 0.74785388 0.055789918 4930342
-0.028425775 0.74805939 0.055787191 4864549
-0.028778434 0.74826485 0.055784464 4864549
-0.029131085 0.74847037 0.055781722 4798502
-0.029483736 0.74867582 0.055778995 4864295
-0.029836386 0.74888134 0.055776253 4864295
-0.030189037 0.74908686 0.055773526 4732709
-0.030541696 0.74929237 0.055770785 4864295
-0.030894347 0.74949789 0.055768058 4864295
-0.030957155 0.75048006 0.055179417 4929575
-0.031311214 0.75068635 0.055176675 5061161
-0.03166528 0.7508927 0.055173934 5258794
-0.032019347 0.75109899 0.055171192 5390380
-0.032373413 0.75130534 0.05516845 5521966
-0.032727472 0.75151163 0.055165708 5850931
-0.032800168 0.75249958 0.054577008 6245689
-0.033155642 0.75270671 0.054574251 6640447
-0.033511117 0.75291383 0.054571494 7231300
-0.033866592 0.75312102 0.054568738 7691851
-0.034222066 0.75332814 0.054565981 8086607
0.041129321 0.74278498 0.034969911 5060901
0.040724486 0.74302089 0.034966767 5126694
0.040319636 0.74325681 0.034963638 5126694
0.039914787 0.74349272 0.034960493 5060901
0.039509937 0.74372864 0.034957349 5126694
0.039105102 0.74396455 0.03495422 5126694
0.038700253 0.74420047 0.034951091 5126694
0.027646631 0.74306965 0.039559305 5061413
0.027253062 0.74329901 0.03955625 5061413
0.026859507 0.74352831 0.039553195 4995620
0.025999382 0.74308306 0.040133253 4995620
0.025607228 0.74331152 0.040130213 5192485
0.025215074 0.74354005 0.040127173 5126692
0.024822921 0.74376857 0.040124148 5126692
0.024430782 0.7439971 0.040121108 5192485
0.024038628 0.74422562 0.040118068 5192487
0.023188367 0.74377453 0.040698215 5126694
0.022797614 0.74400222 0.04069519 5060901
0.022406876 0.74422997 0.040692151 5060901
0.022016138 0.74445766 0.040689126 5126694
0.0216254 0.74468535 0.040686101 5192487
0.020783618 0.74422938 0.041266322 5324071
0.020394288 0.74445623 0.041263297 5192485
0.020004958 0.74468315 0.041260287 5192485
0.019168802 0.74422383 0.041840538 5192485
0.01878088 0.74444991 0.041837543 5454887
0.018392958 0.74467599 0.041834533 5323301
0.018005043 0.74490201 0.041831523 5257508
0.013558768 0.74370694 0.044144005 5192485
0.013176493 0.74392974 0.044141039 5324071
0.012794219 0.74415249 0.044138074 5324071
0.011983454 0.74367839 0.044718534 5324071
0.011602588 0.74390036 0.044715583 5192485
0.011221722 0.74412227 0.044712633 5324071
0.010840856 0.74434423 0.044709682 5324071
0.010459989 0.7445662 0.044706732 5324071
0.010079123 0.74478811 0.044703782 5324071
0.0096982569 0.74501002 0.044700831 5192485
0.0093173906 0.74523199 0.044697881 5389864
0.0085193366 0.74475056 0.045278415 5389864
0.0081398785 0.74497163 0.045275465 5389864
0.0077604279 0.74519277 0.045272529 5324071
0.0073809698 0.7454139 0.045269594 5324071
0.0070015192 0.74563503 0.045266643 5192485
0.0066220611 0.74585617 0.045263708 5192485
0.0062426031 0.74607724 0.045260772 5324071
0.0019645169 0.74383765 0.048161313 5258792
0.0015921146 0.74405468 0.048158437 5192999
0.0012197196 0.74427164 0.048155546 5258792
0.00084730983 0.74448866 0.048152655 5258792
-0.0040376633 0.74354923 0.050461724 5193001
-0.0044044256 0.74376297 0.050458893 5258794
-0.0047711879 0.74397671 0.050456047 5258794
-0.0051379427 0.74419045 0.050453201 5193001
-0.005504705 0.74440414 0.050450355 5193001
-0.0058714598 0.74461788 0.050447524 5258794
-0.0062382221 0.74483156 0.050444677 5324587
-0.0066049844 0.7450453 0.050441831 5324587
-0.0069717392 0.74525905 0.050439 5193001
-0.0077091604 0.74474221 0.051020026 5193001
-0.0080745071 0.74495512 0.051017195 5258792
-0.0084398538 0.74516803 0.051014364 5192999
-0.0088052005 0.74538088 0.051011533 5258792
-0.016011707 0.74484777 0.053889349 5258792
-0.016369998 0.74505657 0.053886577 5324585
-0.016728297 0.74526536 0.053883791 5324585
-0.017427616 0.74472636 0.0544651 5258792
-0.017784499 0.74493432 0.054462343 5324585
-0.018141381 0.74514234 0.054459572 5324585
-0.018835068 0.74460006 0.055040956 5258792
-0.019190542 0.74480718 0.055038199 5324587
-0.019546017 0.74501431 0.055035442 5324587
-0.019901492 0.7452215 0.055032685 5258794
-0.020256966 0.74542862 0.055029929 5258794
-0.020612441 0.74563575 0.055027187 5324587
-0.02129624 0.74508774 0.0556086 5258794
-0.021650307 0.74529403 0.055605859 5324587
-0.022004366 0.74550039 0.055603117 5324587
-0.022358432 0.74570668 0.055600375 5259053
-0.022712499 0.74591303 0.055597633 5259053
-0.023066558 0.74611932 0.055594891 5193260
-0.0237405 0.74556553 0.056176409 5259053
-0.024093151 0.74577105 0.056173667 5259053
-0.024445802 0.74597651 0.05617094 5193260
-0.024798453 0.74618202 0.056168199 4995881
-0.025151111 0.74638754 0.056165472 4995881
-0.025503762 0.746593 0.056162745 5127467
-0.025856413 0.74679852 0.056160003 5127467
-0.026209071 0.74700403 0.056157276 5127467
-0.026561722 0.74720955 0.056154549 4930088
-0.026914373 0.74741501 0.056151807 4930088
-0.027267031 0.74762052 0.05614908 4930088
-0.027619682 0.74782604 0.056146339 4864295
-0.027972333 0.7480315 0.056143612 4798502
-0.028324991 0.74823701 0.056140885 4798502
-0.028677642 0.74844253 0.056138143 4798502
-0.029030293 0.74864805 0.056135416 4666916
-0.029382944 0.7488535 0.056132674 4666916
-0.029735602 0.74905902 0.056129947 4732711
-0.030088253 0.74926454 0.05612722 4666918
-0.030440904 0.74947 0.056124479 4798502
-0.030793563 0.74967551 0.056121752 4798502
-0.030855969 0.75065839 0.055534527 4864295
-0.031210028 0.75086474 0.055531785 4930088
-0.031564094 0.7510711 0.055529043 5127467
-0.031918153 0.75127739 0.055526301 5324846
-0.03227222 0.75148368 0.055523545 5456173
-0.032626286 0.75169003 0.055520803 5850931
-0.032698572 0.75267863 0.054933518 6179896
-0.033054046 0.75288582 0.054930776 6640447
-0.033409521 0.75309294 0.05492802 7165507
-0.033764996 0.75330007 0.054925263 7626058
-0.03412047 0.75350726 0.054922506 8020814
0.041245028 0.74298894 0.035375938 5126694
0.040840194 0.74322486 0.035372809 5126694
0.040435344 0.74346077 0.035369664 5126694
0.040030494 0.74369669 0.035366535 5060901
0.039625645 0.7439326 0.035363391 5126694
0.03922081 0.74416852 0.035360247 5126694
0.03881596 0.74440444 0.035357118 5257510
0.027759105 0.74326789 0.039954007 5061413
0.027365535 0.74349725 0.039950967 5061413
0.026971981 0.74372661 0.039947912 5061413
0.026111454 0.74328059 0.040526554 4995620
0.0257193 0.74350911 0.040523514 5192485
0.025327146 0.74373764 0.040520474 5126692
0.024935007 0.74396616 0.040517449 5192485
0.024542853 0.74419469 0.04051441 5192485
0.024150699 0.74442315 0.04051137 5192485
0.023300037 0.74397141 0.041090101 5126692
0.022909299 0.7441991 0.041087076 5126692
0.02251856 0.74442679 0.041084051 5126692
0.022127807 0.74465454 0.041081011 5126692
0.021737069 0.74488223 0.041077986 5192485
0.020894885 0.74442554 0.041656792 5324071
0.020505555 0.74465239 0.041653767 5192485
0.020116225 0.74487925 0.041650757 5192485
0.019279666 0.74441928 0.042229608 5192485
0.018891744 0.74464536 0.042226598 5454887
0.01850383 0.74487138 0.042223588 5323301
0.018115908 0.74509746 0.042220592 5257762
0.013668023 0.74389952 0.044527397 5192485
0.013285749 0.74412233 0.044524431 5324071
0.012903474 0.74434507 0.044521466 5324071
0.0120923 0.74387026 0.04510051 5324071
0.011711441 0.74409223 0.04509756 5324071
0.011330575 0.74431419 0.045094609 5324071
0.010949709 0.7445361 0.045091659 5324071
0.010568842 0.74475801 0.045088708 5324071
0.010187976 0.74497998 0.045085758 5324071
0.0098071098 0.74520195 0.045082808 5324071
0.0094262436 0.74542385 0.045079857 5389864
0.0086277872 0.74494171 0.045658976 5389864
0.0082483292 0.74516284 0.04565604 5389864
0.0078688711 0.74538398 0.045653105 5389864
0.0074894205 0.74560505 0.045650154 5324071
0.0071099624 0.74582618 0.045647219 5192485
0.0067305118 0.74604732 0.045644283 5324071
0.0063510537 0.74626839 0.045641333 5324071
0.0020709485 0.74402523 0.048534811 5389864
0.0016985536 0.74424225 0.04853192 5324071
0.0013261512 0.74445927 0.048529044 5258792
0.00095374882 0.74467629 0.048526153 5258792
-0.0039328486 0.743734 0.05082956 5258794
-0.0042996109 0.74394774 0.050826728 5258794
-0.0046663657 0.74416149 0.050823882 5258794
-0.0050331205 0.74437517 0.050821036 5258794
-0.0053998828 0.74458891 0.050818205 5193001
-0.0057666451 0.74480259 0.050815359 5258794
-0.0061334074 0.74501634 0.050812513 5258794
-0.0065001622 0.74523008 0.050809681 5258794
-0.006866917 0.74544382 0.050806835 5258794
-0.0076047406 0.74492627 0.051386446 5258794
-0.0079700872 0.74513918 0.051383615 5258792
-0.0083354339 0.74535209 0.051380783 5192999
-0.008700788 0.74556494 0.051377952 5258792
-0.015909307 0.74502826 0.054248691 5389864
-0.016267598 0.74523711 0.054245919 5455657
-0.016625896 0.74544585 0.054243147 5455657
-0.017325617 0.74490619 0.054823041 5455657
-0.0176825 0.74511415 0.054820269 5455657
-0.018039383 0.74532211 0.054817498 5324585
-0.018733472 0.74477911 0.055397466 5258792
-0.019088954 0.74498624 0.055394709 5258792
-0.019444421 0.74519336 0.055391967 5258792
-0.019799896 0.74540055 0.055389211 5258792
-0.02015537 0.74560767 0.055386454 5258792
-0.020510845 0.7458148 0.055383697 5324587
-0.021195047 0.74526608 0.05596371 5258794
-0.021549113 0.74547243 0.055960953 5258794
-0.02190318 0.74567872 0.055958211 5258794
-0.022257239 0.74588507 0.05595547 5259053
-0.022611305 0.74609137 0.055952728 5259053
-0.022965372 0.74629772 0.055949986 5193260
-0.023639709 0.74574316 0.056530088 5193260
-0.02399236 0.74594867 0.056527361 5259053
-0.024345011 0.74615419 0.056524634 5127467
-0.024697669 0.74635971 0.056521893 4995881
-0.02505032 0.74656516 0.056519166 4995881
-0.025402978 0.74677068 0.056516424 4995881
-0.025755629 0.7469762 0.056513697 4995881
-0.02610828 0.74718165 0.056510955 4733479
-0.026460931 0.74738717 0.056508228 4667686
-0.026813582 0.74759269 0.056505501 4601893
-0.02716624 0.7477982 0.056502759 4601893
-0.027518898 0.74800372 0.056500033 4536100
-0.027871549 0.74820918 0.056497306 4536100
-0.0282242 0.7484147 0.056494564 4404514
-0.028576851 0.74862015 0.056491837 4404514
-0.028929502 0.74882567 0.05648911 4272930
-0.029282153 0.74903119 0.056486368 4338723
-0.029634811 0.7492367 0.056483641 4338723
-0.029987469 0.74944222 0.056480899 4272930
-0.03034012 0.74964768 0.056478173 4404516
-0.030692771 0.74985319 0.056475431 4536102
-0.030754775 0.75083679 0.055889636 4601895
-0.031108841 0.75104308 0.05588688 4667688
-0.031462908 0.75124943 0.055884138 4799274
-0.031816967 0.75145578 0.055881396 5128239
-0.032171026 0.75166208 0.055878654 5455919
-0.032525092 0.75186837 0.055875912 5784884
-0.032596976 0.75285774 0.055290043 6048310
-0.032952458 0.75306487 0.055287287 6508861
-0.033307925 0.75327206 0.05528453 7034689
-0.033663407 0.75347918 0.055281788 7429447
-0.034018874 0.75368631 0.055279031 8020814
0.041360736 0.74319291 0.03578198 5126694
0.040955901 0.74342883 0.035778835 5126694
0.040551037 0.74366474 0.035775706 5126694
0.040146202 0.74390066 0.035772562 5060901
0.039741352 0.74413657 0.035769433 5126694
0.039336503 0.74437249 0.035766289 5126694
0.038931668 0.7446084 0.035763144 5192487
0.027399987 0.74279261 0.040928975 5192485
0.027007833 0.74302113 0.040925935 5324071
0.026615679 0.74324965 0.040922895 5192485
0.026223525 0.74347818 0.040919855 5192485
0.025831386 0.7437067 0.040916815 5192485
0.025439233 0.74393523 0.040913776 5192485
0.024583921 0.74348521 0.041491076 5192485
0.024193183 0.7437129 0.041488051 5192485
0.023802444 0.74394059 0.041485012 5192485
0.023411706 0.74416828 0.041481987 5192485
0.023020968 0.74439597 0.041478962 5126692
0.02263023 0.74462366 0.041475937 5126692
0.021784812 0.74416792 0.042053297 5126692
0.02139549 0.74439478 0.042050272 5192485
0.021006159 0.74462163 0.042047262 5324071
0.020616829 0.74484855 0.042044252 5324071
0.020227499 0.7450754 0.042041227 5192485
0.019390531 0.74461472 0.042618662 5192485
0.019002616 0.74484074 0.042615652 5324325
0.018614694 0.74506682 0.042612642 5324325
0.018226773 0.7452929 0.042609647 5126946
0.013343751 0.74339634 0.045491353 5324071
0.012962885 0.74361825 0.045488402 5324071
0.012582019 0.74384022 0.045485452 5324071
0.012201153 0.74406219 0.045482501 5324071
0.011820287 0.74428409 0.045479551 5324071
0.01143942 0.74450606 0.045476601 5324071
0.011058554 0.74472797 0.04547365 5324071
0.010677695 0.74494994 0.045470685 5389864
0.0098745972 0.74446952 0.046048373 5389864
0.0094951391 0.74469066 0.046045423 5324071
0.0091156885 0.74491179 0.046042487 5389864
0.0083182231 0.74442804 0.04662025 5389864
0.0079401731 0.74464834 0.046617314 5389864
0.0075621307 0.74486864 0.046614379 5390118
0.0071840882 0.74508893 0.046611458 5324325
0.0068060458 0.74530923 0.046608523 5324325
0.0064279959 0.74552953 0.046605587 5324325
0.0060499534 0.74574983 0.046602666 5324071
0.0021773875 0.74421287 0.048908308 5389864
0.0018049777 0.74442989 0.048905417 5324071
0.0014325827 0.74464691 0.048902541 5258792
0.0010601804 0.74486387 0.048899651 5324585
-0.0023393705 0.74399972 0.050625026 5324587
-0.002707541 0.7442143 0.050622165 5258794
-0.0030757114 0.74442881 0.050619319 5258794
-0.0038280264 0.74391878 0.05119741 5258794
-0.0041947886 0.74413252 0.051194564 5258794
-0.0045615435 0.74434626 0.051191717 5258794
-0.0049283057 0.74455994 0.051188871 5258794
-0.005295068 0.74477369 0.05118604 5193001
-0.0056618229 0.74498737 0.051183194 5258794
-0.0064042807 0.74447167 0.051761359 5324587
-0.0067696273 0.74468452 0.051758528 5258794
-0.007134974 0.74489743 0.051755697 5324587
-0.0075003207 0.74511033 0.051752865 5324587
-0.0078656673 0.74532324 0.051750034 5324587
-0.0082310215 0.74553615 0.051747203 5258794
-0.0085963681 0.745749 0.051744372 5193001
-0.01365713 0.74395609 0.054624707 5389864
-0.014015429 0.74416482 0.054621935 5324071
-0.01437372 0.74437368 0.054619148 5324071
-0.014732018 0.74458241 0.054616377 5389864
