# .PCD v0.7 - Point Cloud Data file format
VERSION 0.7
FIELDS x y z rgb
SIZE 4 4 4 4
TYPE F F F U
COUNT 1 1 1 1
WIDTH 1077
HEIGHT 1
VIEWPOINT 0 0 0 1 0 0 0
POINTS 1077
DATA ascii
-0.031059667 0.78833437 0.02485925 10387816
-0.031249866 0.78876442 0.024856508 10387816
-0.0307592 0.78963184 0.024237752 10518632
-0.030950069 0.79006332 0.024234995 10518632
-0.030461356 0.79093522 0.023616195 10387046
-0.030652881 0.79136825 0.023613423 10518632
-0.030844405 0.79180121 0.023610666 10387046
-0.031035915 0.79223424 0.02360791 10321253
-0.031227425 0.79266727 0.023605138 10321253
-0.031418934 0.79310024 0.023602366 10321253
-0.030934885 0.79398263 0.022983521 10255460
-0.031127065 0.79441708 0.02298075 10321253
-0.031319246 0.7948516 0.022977978 10321253
-0.029684782 0.79708654 0.02112402 10387300
-0.029878944 0.79752553 0.021121219 10387300
-0.030073091 0.79796451 0.021118417 10387300
-0.030267254 0.7984035 0.021115616 10518886
-0.027422205 0.74705142 0.035931855 5193253
-0.027601182 0.74745601 0.035929278 5193253
-0.027780145 0.74786067 0.035926685 5193253
-0.027959123 0.74826533 0.035924107 5193253
-0.028138086 0.74866992 0.035921529 5193253
-0.028317049 0.74907458 0.035918936 5259046
-0.028496027 0.74947923 0.035916358 5259046
-0.02867499 0.74988383 0.03591378 5390632
-0.028853968 0.75028849 0.035911188 5587497
-0.029032931 0.75069314 0.03590861 5784876
-0.029211894 0.75109774 0.035906032 6113071
-0.029390872 0.75150239 0.035903439 6442036
-0.029569834 0.75190705 0.035900861 6901300
-0.029748812 0.75231165 0.035898283 7296058
-0.029927775 0.7527163 0.03589569 7690816
-0.030106738 0.75312096 0.035893112 7888195
-0.030285716 0.75352556 0.035890535 8217414
-0.030464679 0.75393021 0.035887942 8612172
-0.030643657 0.75433487 0.035885364 8809297
-0.03082262 0.75473946 0.035882786 9006676
-0.031001583 0.75514412 0.035880193 9204055
-0.031180561 0.75554878 0.035877615 9269848
-0.031359524 0.75595337 0.035875037 9598300
-0.031538501 0.75635803 0.035872445 9598300
-0.030994922 0.75710785 0.035255864 9664347
-0.031174555 0.75751394 0.035253271 9730140
-0.031354189 0.75792009 0.035250679 9795933
-0.031533808 0.75832623 0.035248086 9795933
-0.031713441 0.75873232 0.035245493 9927519
-0.031893075 0.75913846 0.0352429 9927519
-0.031354129 0.75989872 0.034626245 9927519
-0.031534418 0.76030636 0.034623638 9993312
-0.031714708 0.76071393 0.034621045 9993312
-0.031894997 0.76112157 0.034618437 9993312
-0.032075286 0.76152921 0.034615844 10058851
-0.032255575 0.76193684 0.034613237 10058851
-0.031721219 0.76270753 0.033996493 10124644
-0.031902164 0.76311666 0.033993885 10124644
-0.03136982 0.76389182 0.033377141 10124644
-0.031551436 0.76430243 0.033374518 10124644
-0.031733036 0.76471305 0.033371896 10124644
-0.031914651 0.76512367 0.033369273 10190437
-0.032096267 0.76553428 0.03336665 10256230
-0.032277867 0.76594484 0.033364028 10256230
-0.031040788 0.76710552 0.032132998 10256230
-0.031223729 0.76751912 0.032130361 10256230
-0.031406656 0.76793271 0.032127723 10256230
-0.03088221 0.76872581 0.03151083 10387816
-0.031065792 0.7691409 0.031508178 10387816
-0.031249389 0.76955599 0.031505525 10387816
-0.031432986 0.76997107 0.031502873 10387816
-0.031616569 0.77038616 0.03150022 10387816
-0.031096116 0.77118826 0.030883312 10387816
-0.031280369 0.77160478 0.030880645 10453609
-0.031464621 0.77202141 0.030877993 10387816
-0.030946806 0.77282941 0.030261025 10256230
-0.031131715 0.77324748 0.030258358 10387816
-0.031316623 0.77366555 0.03025569 10256230
-0.03080143 0.77447957 0.029638678 10453609
-0.030986995 0.77489913 0.029635996 10453609
-0.031172574 0.77531874 0.029633313 10387816
-0.031358138 0.7757383 0.029630631 10453609
-0.031543717 0.77615786 0.029627964 10453609
-0.031032503 0.77698082 0.029010907 10453609
-0.031218737 0.77740186 0.029008225 10387816
-0.031404972 0.77782291 0.029005527 10256230
-0.030896366 0.77865183 0.028388426 10387818
-0.031083271 0.77907443 0.028385729 10387818
-0.031270161 0.77949697 0.028383031 10453611
-0.030764237 0.78033185 0.0277659 10453611
-0.030951783 0.78075594 0.027763188 10453611
-0.031139344 0.78117996 0.027760476 10387818
-0.030636027 0.78202087 0.0271433 10387818
-0.030824229 0.78244638 0.027140588 10387818
-0.030322924 0.78329176 0.026523367 10387816
-0.030511811 0.78371876 0.02652064 10387816
-0.030700684 0.78414583 0.026517913 10256230
-0.030202016 0.78499711 0.025900677 10387816
-0.030391559 0.78542566 0.02589795 10453609
-0.030581087 0.78585422 0.025895208 10387816
-0.030770615 0.78628272 0.025892466 10387816
-0.030960158 0.78671122 0.025889739 10387816
-0.0311497 0.78713977 0.025887012 10453609
-0.030655622 0.78800154 0.025269687 10453609
-0.030845821 0.78843158 0.025266945 10387816
-0.031036019 0.78886157 0.025264189 10387816
-0.030544609 0.78972936 0.024646848 10387816
-0.030735463 0.79016089 0.024644107 10387816
-0.030246019 0.79103309 0.024026707 10256230
-0.030437544 0.79146612 0.02402395 10387816
-0.030629054 0.79189909 0.024021178 10256230
-0.030820563 0.79233211 0.024018422 10256230
-0.031012088 0.79276514 0.02401565 10321253
-0.031203613 0.79319811 0.024012893 10387046
-0.030718818 0.79408079 0.023395449 10255460
-0.030910984 0.79451531 0.023392677 10321253
-0.031103164 0.79494977 0.023389906 10321253
-0.029466465 0.79718578 0.021540195 10387300
-0.029660627 0.79762471 0.021537393 10387300
-0.029854789 0.7980637 0.021534592 10387300
-0.030048952 0.79850268 0.02153179 10387300
-0.027220979 0.74714285 0.036315471 5193253
-0.027399942 0.74754751 0.036312893 5193253
-0.02757892 0.7479521 0.036310315 5193253
-0.028495073 0.74804258 0.03692013 5193253
-0.028673381 0.74844575 0.036917567 5193253
-0.028851688 0.74884892 0.036914989 5259046
-0.029029995 0.74925202 0.036912411 5324839
-0.029208302 0.74965519 0.036909834 5390632
-0.02938661 0.75005829 0.036907271 5653290
-0.029564917 0.75046146 0.036904693 5784876
-0.029743224 0.75086462 0.036902115 6113071
-0.029921532 0.75126773 0.036899552 6442036
-0.030099839 0.7516709 0.036896974 6901302
-0.030278161 0.752074 0.036894396 7361853
-0.030456468 0.75247717 0.036891818 7691070
-0.030634776 0.75288033 0.036889255 7888449
-0.030813083 0.75328344 0.036886677 8217414
-0.03099139 0.75368661 0.036884099 8612172
-0.031169698 0.75408977 0.036881536 8809297
-0.031348005 0.75449288 0.036878958 9006676
-0.031526312 0.75489604 0.03687638 9138262
-0.03170462 0.75529921 0.036873817 9269848
-0.031158298 0.75604486 0.036258653 9533274
-0.031337276 0.75644946 0.036256075 9533274
-0.031516239 0.75685412 0.036253482 9664347
-0.031695202 0.75725877 0.036250904 9730140
-0.03187418 0.75766337 0.036248326 9795933
-0.031331837 0.75841796 0.035633117 9795933
-0.031511471 0.75882411 0.035630524 9795933
-0.031691104 0.75923026 0.035627931 9927519
-0.031870723 0.7596364 0.035625339 9927519
-0.032050356 0.76004249 0.035622746 9993312
-0.03222999 0.76044863 0.035620153 10059105
-0.032409623 0.76085478 0.03561756 9993312
-0.032589242 0.76126087 0.035614967 10058851
-0.032768875 0.76166701 0.035612375 10058851
-0.032233149 0.76243657 0.034997076 10190437
-0.032413438 0.7628442 0.034994483 10190437
-0.031879663 0.76361823 0.03437914 10124644
-0.032060608 0.76402736 0.034376532 10124644
-0.032241568 0.76443648 0.034373909 10190437
-0.031710461 0.76521647 0.033758551 10256230
-0.031892061 0.76562703 0.033755928 10256230
-0.032073677 0.76603764 0.033753306 10256230
-0.031545177 0.76682365 0.033137888 10256230
-0.031727448 0.76723576 0.033135265 10256230
-0.031909719 0.76764786 0.033132643 10256230
-0.031383902 0.76843977 0.032517195 10387816
-0.031566828 0.76885337 0.032514557 10387816
-0.031749755 0.76926696 0.03251192 10256230
-0.031932697 0.76968056 0.032509267 10256230
-0.032115623 0.77009416 0.03250663 10387816
-0.03159374 0.77089506 0.031891108 10256230
-0.031777322 0.77131015 0.031888455 10387816
-0.031960919 0.77172524 0.031885803 10387816
-0.031441703 0.77253211 0.031270266 10387816
-0.031625956 0.77294868 0.031267613 10387816
-0.031810209 0.77336526 0.031264961 10387816
-0.031293616 0.77417815 0.030649379 10453609
-0.031478539 0.77459621 0.030646712 10453609
-0.031663448 0.77501428 0.030644044 10387816
-0.031848356 0.77543235 0.030641377 10387816
-0.03203328 0.77585042 0.03063871 10453609
-0.031520635 0.77667224 0.030023053 10453609
-0.031706199 0.7770918 0.030020386 10387816
-0.031891778 0.77751136 0.030017704 10256230
-0.031381801 0.77833915 0.029402032 10387818
-0.031568035 0.77876019 0.029399335 10453611
-0.03175427 0.77918124 0.029396653 10453611
-0.031246915 0.78001499 0.028780937 10453611
-0.031433806 0.78043759 0.02877824 10387818
-0.031620696 0.78086013 0.028775543 10387818
-0.031116009 0.78169984 0.028159797 10387818
-0.03130357 0.78212392 0.028157085 10256232
-0.031491116 0.78254795 0.028154373 10387816
-0.030989036 0.78339362 0.027538583 10387816
-0.031177253 0.7838192 0.027535871 10387816
-0.030677184 0.78466934 0.026920035 10387816
-0.030866057 0.78509641 0.026917309 10453609
-0.031054929 0.78552341 0.026914582 10387816
-0.030557513 0.78637958 0.026298746 10387816
-0.030747041 0.78680807 0.026296005 10387816
-0.030936584 0.78723663 0.026293278 10453609
-0.031126112 0.78766513 0.026290536 10453609
-0.031315655 0.78809369 0.026287794 10387816
-0.031505182 0.78852218 0.026285067 10387816
-0.031012356 0.78938878 0.025669128 10387816
-0.031202555 0.78981882 0.025666386 10387816
-0.030711725 0.79068989 0.025050446 10256232
-0.030902579 0.79112142 0.02504769 10387818
-0.031093433 0.7915529 0.025044933 10256232
-0.030605242 0.79242998 0.024428934 10256232
-0.030796751 0.79286301 0.024426162 10387046
-0.030988261 0.79329598 0.024423406 10387046
-0.031179786 0.79372901 0.024420634 10387046
-0.031371295 0.79416198 0.024417877 10321253
-0.03156282 0.794595 0.024415106 10387046
-0.031079248 0.79548252 0.023799062 10387046
-0.031271443 0.79591703 0.02379629 10387300
-0.031463608 0.79635149 0.023793519 10387300
-0.030982673 0.79724497 0.023177415 10518886
-0.031175509 0.79768097 0.023174629 10387300
-0.030696571 0.79857892 0.022558495 10518886
-0.030890062 0.79901642 0.022555709 10518886
-0.031083569 0.79945385 0.022552907 10387298
-0.031277061 0.79989135 0.022550121 10387298
-0.031470552 0.80032885 0.022547334 10387300
-0.031664059 0.80076635 0.022544533 10518886
-0.028048068 0.80447578 0.018858492 10518886
-0.029578537 0.80397445 0.020082489 10387300
-0.029774681 0.80441791 0.020079657 10518886
-0.02997081 0.80486137 0.020076826 10518632
-0.028837904 0.8062616 0.018847108 10518632
-0.029035375 0.80670804 0.018844247 10518632
-0.02923283 0.80715448 0.018841401 10518632
-0.028294578 0.74813372 0.03730233 5193253
-0.028472885 0.74853688 0.037299767 5193253
-0.028651193 0.74893999 0.037297189 5259046
-0.0288295 0.74934316 0.037294611 5324839
-0.029007807 0.74974632 0.037292033 5390632
-0.029186115 0.75014943 0.03728947 5653290
-0.029364437 0.75055259 0.037286893 5784876
-0.029542744 0.7509557 0.037284315 6113071
-0.029721051 0.75135887 0.037281752 6442036
-0.029899359 0.75176203 0.037279174 6901302
-0.030077666 0.75216514 0.037276596 7361853
-0.030255973 0.7525683 0.037274033 7691070
-0.030434281 0.75297141 0.037271455 7888449
-0.030612588 0.75337458 0.037268877 8348487
-0.030790895 0.75377774 0.037266314 8677452
-0.030969203 0.75418085 0.037263736 8809297
-0.031147525 0.75458401 0.037261158 9006676
-0.031325832 0.75498712 0.037258595 9204055
-0.031504139 0.75539029 0.037256017 9269848
-0.030957073 0.7561363 0.036642268 9533274
-0.031136036 0.75654095 0.03663969 9599067
-0.031315014 0.75694555 0.036637098 9664347
-0.031493977 0.75735021 0.03663452 9730140
-0.03167294 0.75775486 0.036631942 9795933
-0.031129867 0.75850976 0.036018148 9795933
-0.0313095 0.7589159 0.036015555 9927519
-0.031489119 0.75932205 0.036012962 9927519
-0.031668752 0.75972819 0.03601037 9927519
-0.031848386 0.76013428 0.036007777 9993312
-0.032028005 0.76054043 0.036005184 10059105
-0.032207638 0.76094657 0.036002591 9993312
-0.032387272 0.76135266 0.036000013 10124644
-0.032566905 0.7617588 0.035997421 10058851
-0.032030433 0.76252872 0.035383537 10190437
-0.032210723 0.76293629 0.03538093 10190437
-0.031676203 0.76371068 0.034767002 10190437
-0.031857148 0.7641198 0.034764394 10124644
-0.032038108 0.76452893 0.034761786 10190437
-0.031506255 0.76530927 0.034147829 10190437
-0.031687856 0.76571989 0.034145206 10256230
-0.031869471 0.76613045 0.034142584 10256230
-0.031340241 0.76691681 0.033528596 10190437
-0.031522512 0.76732886 0.033525959 10190437
-0.031704783 0.76774096 0.033523321 10256230
-0.031178221 0.76853329 0.032909304 10387816
-0.031361148 0.76894689 0.032906666 10387816
-0.031544074 0.76936042 0.032904029 10256230
-0.031727001 0.76977408 0.032901376 10256230
-0.031909943 0.77018762 0.032898739 10256230
-0.031387314 0.77098888 0.032284632 10387816
-0.031570897 0.77140397 0.03228198 10453609
-0.031754494 0.77181906 0.032279328 10453609
-0.031234533 0.77262628 0.031665206 10387816
-0.031418785 0.77304286 0.031662554 10584425
-0.031603023 0.77345943 0.031659901 10518632
-0.031085715 0.77427262 0.031045735 10584425
-0.031270623 0.77469069 0.031043068 10584425
-0.031455532 0.77510875 0.0310404 10387816
-0.031640455 0.77552682 0.031037733 10387816
-0.031825364 0.77594489 0.031035066 10387816
-0.031311974 0.77676708 0.030420825 10387816
-0.031497553 0.77718663 0.030418158 10387816
-0.031683117 0.77760619 0.030415475 10256230
-0.03117241 0.77843428 0.02980122 10387816
-0.031358644 0.77885538 0.029798537 10387816
-0.031544879 0.77927643 0.029795855 10453609
-0.031036764 0.78011054 0.02918154 10453609
-0.03122367 0.78053308 0.029178843 10387818
-0.03141056 0.78095561 0.029176146 10256232
-0.030905128 0.78179568 0.028561816 10387816
-0.031092674 0.78221977 0.028559119 10256230
-0.031280234 0.7826438 0.028556406 10387816
-0.03077741 0.78348982 0.027942017 10387816
-0.030965626 0.78391534 0.027939305 10256230
-0.030464813 0.78476584 0.027324885 10387816
-0.0306537 0.78519291 0.027322173 10453609
-0.030842572 0.78561991 0.027319431 10387816
-0.030344397 0.78647643 0.026705012 10453609
-0.030533925 0.78690493 0.02670227 10387816
-0.030723467 0.78733349 0.026699543 10453609
-0.03091301 0.78776199 0.026696801 10453609
-0.031102538 0.78819054 0.026694059 10387818
-0.031292066 0.78861904 0.026691332 10453611
-0.03079851 0.78948599 0.026076823 10387818
-0.030988693 0.78991604 0.026074067 10387818
-0.030497134 0.79078746 0.025459543 10453611
-0.030687988 0.79121894 0.025456786 10387818
-0.030878842 0.79165041 0.025454029 10256232
-0.03038989 0.79252785 0.024839446 10256232
-0.030581415 0.79296082 0.024836689 10256230
-0.030772924 0.79339385 0.024833918 10256230
-0.030964449 0.79382682 0.024831146 10387816
-0.031155959 0.79425985 0.024828389 10256230
-0.031347468 0.79469287 0.024825633 10518632
-0.030863181 0.79558069 0.024210989 10518632
-0.031055346 0.7960152 0.024208218 10387300
-0.031247541 0.79644966 0.024205446 10387300
-0.030765846 0.79734349 0.023590758 10518886
-0.030958682 0.7977795 0.023587972 10387300
-0.030478999 0.7986778 0.022973254 10518886
-0.030672505 0.7991153 0.022970468 10518886
-0.030865997 0.7995528 0.022967666 10387298
-0.031059489 0.79999024 0.02296488 10321505
-0.031252995 0.80042773 0.022962093 10387300
-0.031446502 0.80086523 0.022959292 10518886
-0.029358 0.80407465 0.02050291 10518886
-0.029554144 0.8045181 0.020500079 10518886
-0.029750273 0.80496156 0.020497248 10387048
-0.028615892 0.80636251 0.01927036 10518634
-0.028813347 0.80680895 0.019267499 10518632
-0.029010817 0.80725539 0.019264653 10518632
-0.028545007 0.80818504 0.018649757 10518632
-0.028743133 0.80863297 0.018646896 10518632
-0.028941244 0.8090809 0.018644035 10584425
-0.028094098 0.74822485 0.03768453 5259046
-0.028272405 0.74862796 0.037681967 5259046
-0.028450713 0.74903113 0.037679389 5259046
-0.02862902 0.74943423 0.037676811 5324839
-0.028807327 0.7498374 0.037674248 5390632
-0.028985634 0.75024056 0.03767167 5653290
-0.029163942 0.75064367 0.037669092 5784876
-0.029342249 0.75104684 0.037666529 6244144
-0.029520556 0.75145 0.037663952 6573109
-0.029698864 0.75185311 0.037661374 6901302
-0.029877171 0.75225627 0.037658811 7296060
-0.030055478 0.75265944 0.037656233 7756096
-0.0302338 0.75306255 0.037653655 7953475
-0.030412108 0.75346571 0.037651077 8282694
-0.030590415 0.75386882 0.037648514 8611659
-0.030768722 0.75427198 0.037645936 8809297
-0.03094703 0.75467515 0.037643358 9072469
-0.031125337 0.75507826 0.037640795 9204055
-0.031303644 0.75548142 0.037638217 9269848
-0.030755833 0.75622773 0.037025884 9598554
-0.030934811 0.75663239 0.037023306 9598554
-0.031113774 0.75703704 0.037020728 9664347
-0.031292737 0.75744164 0.037018135 9730140
-0.031471714 0.7578463 0.037015557 9795933
-0.030927896 0.75860155 0.036403179 9795933
-0.03110753 0.75900769 0.036400586 9927519
-0.031287149 0.75941384 0.036398008 9927519
-0.031466782 0.75981998 0.036395416 9927519
-0.031646416 0.76022607 0.036392823 9993312
-0.031826034 0.76063222 0.03639023 10059105
-0.032005668 0.76103836 0.036387637 9993312
-0.032185301 0.76144445 0.036385044 10124644
-0.03236492 0.7618506 0.036382452 10058851
-0.031827718 0.76262081 0.035769984 10124644
-0.032008007 0.76302844 0.035767376 10124644
-0.031472743 0.76380312 0.035154864 10190437
-0.031653687 0.76421225 0.035152256 10190437
-0.031834647 0.76462138 0.035149649 10124644
-0.03130205 0.76540208 0.034537107 10124644
-0.031483665 0.76581264 0.034534499 10387816
-0.03166528 0.76622325 0.034531876 10256230
-0.031135291 0.76700991 0.033919275 10190437
-0.031317562 0.76742202 0.033916652 10256230
-0.031499833 0.76783413 0.03391403 10387816
-0.030972525 0.76862675 0.033301413 10453609
-0.031155452 0.76904035 0.033298776 10190439
-0.031338394 0.76945394 0.033296138 10124646
-0.03152132 0.76986754 0.033293501 10386534
-0.031704247 0.77028114 0.033290863 10518120
-0.031180874 0.7710827 0.032678157 10714984
-0.031364471 0.77149779 0.032675505 10714984
-0.031548068 0.77191287 0.032672852 10715497
-0.031027362 0.77272046 0.032060161 10649704
-0.031211615 0.77313703 0.032057494 10715497
-0.031395867 0.77355361 0.032054842 10715497
-0.030877799 0.77436709 0.031442091 10584425
-0.031062707 0.77478516 0.031439424 10584425
-0.031247631 0.77520323 0.031436756 10518632
-0.031432539 0.77562129 0.031434089 10518632
-0.031617448 0.77603942 0.031431422 10518632
-0.031103328 0.77686191 0.030818611 10518632
-0.031288892 0.77728146 0.030815929 10387816
-0.031474471 0.77770102 0.030813247 10190437
-0.030963004 0.77852947 0.030200422 10256230
-0.031149238 0.77895051 0.030197725 10387816
-0.031335473 0.77937162 0.030195042 10387816
-0.030826628 0.78020602 0.029582143 10387816
-0.031013519 0.78062856 0.029579446 10387816
-0.031200424 0.78105116 0.029576749 10256230
-0.030694246 0.78189152 0.028963834 10387816
-0.030881792 0.78231561 0.028961122 10256230
-0.031069353 0.78273964 0.028958425 10387816
-0.030565783 0.78358603 0.028345451 10453609
-0.030754 0.78401154 0.028342739 10453609
-0.030252442 0.7848624 0.02772975 10453609
-0.030441329 0.78528941 0.027727023 10519402
-0.030630201 0.78571641 0.027724296 10453609
-0.030131295 0.78657329 0.027111277 10453609
-0.030320823 0.78700179 0.027108535 10453609
-0.030510351 0.78743029 0.027105808 10453609
-0.030699894 0.78785884 0.027103066 10453609
-0.030889437 0.7882874 0.027100325 10387816
-0.031078964 0.7887159 0.027097598 10387816
-0.030584648 0.78958321 0.026484489 10387816
-0.030774847 0.79001319 0.026481748 10519402
-0.030282542 0.79088497 0.025868639 10519402
-0.030473396 0.79131645 0.025865883 10453609
-0.03066425 0.79174799 0.025863126 10256230
-0.030174553 0.79262567 0.025249958 10256230
-0.030366078 0.79305869 0.025247201 10256230
-0.030557588 0.79349172 0.02524443 10256230
-0.030749097 0.79392469 0.025241673 10387046
-0.030940622 0.79435772 0.025238901 10387046
-0.031132132 0.79479074 0.025236145 10518632
-0.030647084 0.79567891 0.024622917 10387046
-0.030839279 0.79611337 0.024620146 10321507
-0.031031445 0.79654789 0.024617374 10387300
-0.03054902 0.79744208 0.024004102 10387300
-0.030741856 0.79787803 0.024001315 10387300
-0.030261442 0.79877669 0.023388028 10387300
-0.030454934 0.79921412 0.023385227 10518886
-0.030648425 0.79965162 0.02338244 10387298
-0.030841932 0.80008912 0.023379639 10321505
-0.031035423 0.80052662 0.023376852 10387298
-0.031228915 0.80096412 0.023374051 10518884
-0.029137462 0.8041749 0.020923331 10388070
-0.029333606 0.80461836 0.0209205 10388070
-0.029529735 0.80506182 0.020917669 10256232
-0.02839388 0.80646336 0.019693613 10387818
-0.028591335 0.80690986 0.019690752 10387818
-0.02878879 0.8073563 0.019687906 10387818
-0.028322235 0.80828625 0.019074425 10584425
-0.028520361 0.80873418 0.019071564 10518632
-0.028718486 0.80918217 0.019068703 10650218
-0.027893603 0.74831593 0.038066745 5259046
-0.02807191 0.7487191 0.038064167 5259046
-0.028250217 0.74912226 0.038061589 5324839
-0.028428525 0.74952537 0.038059026 5324839
-0.028606832 0.74992853 0.038056448 5390632
-0.028785139 0.75033164 0.03805387 5653290
-0.029698864 0.75041068 0.038659513 5850669
-0.029876515 0.75081235 0.03865695 6244144
-0.030054167 0.75121403 0.038654387 6573109
-0.030231819 0.75161564 0.038651824 6901302
-0.03040947 0.75201732 0.038649261 7230267
-0.030587107 0.75241894 0.038646698 7690303
-0.030764759 0.75282061 0.038644135 7887682
-0.03094241 0.75322223 0.038641572 8282694
-0.031120047 0.7536239 0.038639009 8611659
-0.031297699 0.75402558 0.038636446 8743758
-0.030746534 0.75476623 0.038025573 9072723
-0.030924842 0.75516939 0.038022995 9204309
-0.031103149 0.7555725 0.038020417 9270102
-0.031281456 0.75597566 0.038017854 9532761
-0.031459779 0.75637883 0.038015276 9598554
-0.031638086 0.75678194 0.038012698 9664347
-0.031816393 0.7571851 0.03801012 9664347
-0.0319947 0.75758827 0.038007557 9730140
-0.031449452 0.75834239 0.037396595 9795933
-0.031628415 0.75874704 0.037394017 9795933
-0.031807378 0.75915164 0.037391424 9927519
-0.031986356 0.75955629 0.037388846 9927519
-0.032165319 0.75996095 0.037386268 9993312
-0.032344297 0.76036555 0.037383676 9993058
-0.031803697 0.76113015 0.036772668 9993058
-0.031983331 0.76153624 0.036770076 10124644
-0.032162949 0.76194239 0.036767483 10058851
-0.032342583 0.76234853 0.03676489 10058851
-0.032522216 0.76275468 0.036762297 10124644
-0.032701835 0.76316077 0.036759704 10190437
-0.03216587 0.7639358 0.036148623 10190437
-0.032346159 0.76434344 0.03614603 10190437
-0.031812131 0.76512295 0.035534903 10256230
-0.031993076 0.76553208 0.035532296 10256230
-0.032174036 0.7659412 0.035529673 10387816
-0.031642675 0.76672667 0.034918532 10190437
-0.031824291 0.76713729 0.034915909 10256230
-0.032005891 0.76754791 0.034913301 10453611
-0.032187507 0.76795852 0.034910679 10519404
-0.032369122 0.76836914 0.034908056 10122849
-0.032550737 0.76877975 0.034905434 9859677
-0.032023981 0.76957566 0.034294203 10514527
-0.032206252 0.76998776 0.034291565 10646113
-0.031681493 0.77078819 0.033680335 10778464
-0.03186442 0.77120179 0.033677697 11041636
-0.032047361 0.77161539 0.033675045 11107943
-0.031525224 0.77242178 0.03306374 11042150
-0.031708822 0.77283686 0.033061087 10846054
-0.031892404 0.77325195 0.033058435 10714468
-0.031372935 0.7740643 0.032447129 10649704
-0.031557187 0.77448088 0.032444462 10715497
-0.03174144 0.77489746 0.03244181 10649704
-0.031925693 0.77531409 0.032439142 10649704
-0.032109946 0.77573067 0.03243649 10518632
-0.032294199 0.77614725 0.032433838 10518632
-0.031779364 0.77697003 0.031822443 10518632
-0.031964272 0.7773881 0.031819776 10321253
-0.031451374 0.77821541 0.031208351 10387046
-0.031636953 0.77863497 0.031205669 10518632
-0.031822518 0.77905452 0.031202987 10518632
-0.031312302 0.7798878 0.030591547 10518632
-0.031498536 0.7803089 0.03058885 10518632
-0.031684771 0.78072995 0.030586168 10518632
-0.031177163 0.78156918 0.029974654 10584425
-0.031364068 0.78199172 0.029971957 10518632
-0.031550959 0.78241432 0.02996926 10387046
-0.031046018 0.78325951 0.029357746 10584425
-0.031233564 0.78368354 0.029355034 10453609
-0.03073059 0.78453326 0.028743461 10453609
-0.030918807 0.78495878 0.028740749 10519402
-0.031107023 0.78538436 0.028738022 10453609
-0.030606702 0.78623998 0.028126419 10453609
-0.030795574 0.78666705 0.028123692 10453609
-0.030984446 0.78709406 0.028120965 10453609
-0.030486777 0.7879557 0.027509332 10453609
-0.03067632 0.7883842 0.027506605 10387816
-0.030865848 0.78881276 0.027503878 10387816
-0.031055376 0.78924131 0.027501136 10387816
-0.031244919 0.78966981 0.027498394 10519402
-0.031434461 0.79009831 0.027495667 10519402
-0.030941382 0.79097044 0.026883945 10387816
-0.03113158 0.79140043 0.026881203 10256230
-0.030640498 0.79227698 0.026269481 10256230
-0.030831352 0.79270852 0.026266724 10256230
-0.031022206 0.79314005 0.026263967 10387816
-0.031213075 0.79357153 0.02626121 10518632
-0.031403929 0.79400307 0.026258454 10518632
-0.031594783 0.79443455 0.026255697 10518886
-0.031108305 0.79532158 0.025643885 10387300
-0.031299829 0.79575461 0.025641128 10256484
-0.031491354 0.79618764 0.025638372 10256484
-0.031007543 0.79708064 0.02502653 10388070
-0.031199709 0.79751509 0.025023758 10256484
-0.031391904 0.79794961 0.025020987 10256484
-0.031584069 0.79838407 0.025018215 10388070
-0.031776249 0.79881859 0.025015444 10256482
-0.03062436 0.800188 0.023794413 10256482
-0.030817851 0.8006255 0.023791611 10256482
-0.031011358 0.80106294 0.023788825 10388068
-0.030534819 0.80197239 0.023176879 10388070
-0.030728981 0.80241138 0.023174077 10388070
-0.030923143 0.80285037 0.023171276 10387816
-0.029781148 0.80424213 0.021950126 10387816
-0.029976621 0.8046841 0.021947294 10256232
-0.03017211 0.80512607 0.021944478 10387818
-0.029701486 0.80604899 0.021332443 10387816
-0.029897615 0.80649239 0.021329612 10453609
-0.029429004 0.80741972 0.020717561 10453609
-0.029625818 0.80786467 0.020714715 10387816
-0.029822603 0.80830967 0.020711869 10650218
-0.029356614 0.80924296 0.020099759 10584425
-0.029554069 0.8096894 0.020096913 10584425
-0.029751524 0.81013584 0.020094067 10584425
-0.029288188 0.81107509 0.019481942 10518632
-0.029486313 0.81152308 0.019479081 10387046
-0.029684439 0.81197101 0.01947622 10387300
-0.029223725 0.81291628 0.018864036 10518886
-0.029422507 0.8133657 0.01886116 10518886
-0.027693108 0.74840707 0.038448945 5193253
-0.027871415 0.74881023 0.038446367 5324837
-0.028049722 0.74921334 0.038443804 5324837
-0.028228045 0.7496165 0.038441226 5390630
-0.028406352 0.75001967 0.038438648 5456423
-0.028584659 0.75042278 0.038436085 5653804
-0.029499128 0.75050145 0.039040297 5785390
-0.02967678 0.75090313 0.039037734 6178351
-0.029854417 0.75130475 0.039035171 6573109
-0.030032068 0.75170642 0.039032608 6967095
-0.03020972 0.7521081 0.039030045 7230267
-0.030387357 0.75250971 0.039027482 7690303
-0.030565009 0.75291139 0.039024919 7887682
-0.03074266 0.753313 0.039022356 8348487
-0.030920312 0.75371468 0.039019793 8611659
-0.031097963 0.7541163 0.03901723 8743758
-0.030546054 0.75485736 0.038407773 9006930
-0.030724362 0.75526047 0.038405195 9269589
-0.030902669 0.75566363 0.038402617 9335382
-0.031080976 0.7560668 0.038400054 9532761
-0.031259283 0.75646991 0.038397476 9598554
-0.031437591 0.75687307 0.038394898 9664347
-0.031615898 0.75727618 0.038392335 9664347
-0.031794205 0.75767934 0.038389757 9730140
-0.031248212 0.75843382 0.03778021 9795933
-0.03142719 0.75883847 0.037777632 9927519
-0.031606153 0.75924313 0.03777504 9993312
-0.031785131 0.75964773 0.037772462 9993312
-0.031964093 0.76005238 0.037769884 9993312
-0.032143056 0.76045704 0.037767291 10058851
-0.031601727 0.76122195 0.037157699 9993058
-0.031781346 0.76162803 0.037155107 10058851
-0.031960979 0.76203418 0.037152514 10058851
-0.032140613 0.76244032 0.037149921 10058851
-0.032320246 0.76284647 0.037147328 10124644
-0.032499865 0.76325256 0.037144735 10190437
-0.031963155 0.76402795 0.036535084 10190437
-0.032143444 0.76443559 0.036532477 10256230
-0.031608671 0.76521546 0.035922766 10256230
-0.031789616 0.76562452 0.035920158 10256230
-0.031970575 0.76603365 0.03591755 10387816
-0.031438485 0.76681948 0.035307825 10256230
-0.031620085 0.76723009 0.035305202 10387816
-0.031801701 0.76764071 0.035302579 10453611
-0.031983316 0.76805133 0.035299957 10519404
-0.032164916 0.76846194 0.035297334 9989210
-0.032346532 0.7688725 0.035294712 10120796
-0.031819031 0.76966882 0.034684896 10710873
-0.032001302 0.77008092 0.034682259 10710873
-0.031475812 0.77088165 0.034072444 10579800
-0.031658739 0.77129525 0.034069806 10316628
-0.031841666 0.77170885 0.034067154 10448214
-0.031318799 0.77251559 0.033457264 10908765
-0.031502381 0.77293068 0.033454612 10844255
-0.031685978 0.77334577 0.033451974 11173220
-0.031165764 0.77415848 0.03284207 10715238
-0.031350017 0.77457505 0.032839403 10781031
-0.031534269 0.77499163 0.03283675 10518632
-0.031718522 0.77540821 0.032834083 10518632
-0.031902775 0.77582479 0.03283143 10584425
-0.032087028 0.77624136 0.032828778 10584425
-0.031571448 0.77706456 0.032218799 10518632
-0.031756356 0.77748263 0.032216132 10387046
-0.031242728 0.77831024 0.031606123 10387046
-0.031428292 0.7787298 0.031603441 10518632
-0.031613871 0.77914941 0.031600773 10387046
-0.031102911 0.77998298 0.030990735 10518632
-0.031289145 0.78040403 0.030988038 10518632
-0.03147538 0.78082514 0.030985355 10584425
-0.030967027 0.78166467 0.030375272 10584425
-0.031153917 0.78208727 0.030372575 10518632
-0.031340808 0.7825098 0.030369878 10518632
-0.030835137 0.78335536 0.029759765 10584425
-0.031022683 0.78377938 0.029757053 10584425
-0.030518964 0.78462946 0.029146895 10584425
-0.030707166 0.78505498 0.029144183 10650218
-0.030895382 0.7854805 0.029141471 10518632
-0.030394331 0.78633654 0.028531268 10387816
-0.030583203 0.78676355 0.028528541 10453609
-0.030772075 0.78719056 0.028525829 10453609
-0.030273661 0.78805256 0.027915612 10453609
-0.030463204 0.78848106 0.02791287 10453609
-0.030652747 0.78890961 0.027910143 10453609
-0.030842274 0.78933811 0.027907401 10387816
-0.031031802 0.78976667 0.02790466 10453609
-0.031221345 0.79019517 0.027901933 10519402
-0.030727521 0.7910676 0.027291626 10453609
-0.030917719 0.79149765 0.027288884 10387816
-0.030425906 0.79237455 0.026678577 10387816
-0.03061676 0.79280603 0.02667582 10387816
-0.030807629 0.79323757 0.026673064 10387816
-0.030998483 0.7936691 0.026670307 10518632
-0.031189337 0.79410058 0.026667565 10584425
-0.031380191 0.79453206 0.026664793 10518886
-0.030892968 0.79541945 0.026054412 10387300
-0.031084493 0.79585248 0.026051641 10388070
-0.031276003 0.79628551 0.026048884 10256484
-0.030791461 0.7971788 0.025438458 10256484
-0.030983642 0.79761326 0.025435686 10256484
-0.031175807 0.79804778 0.025432914 10256484
-0.031367987 0.7984823 0.025430143 10388070
-0.031560168 0.79891682 0.025427371 10256482
-0.030406788 0.80028689 0.024209172 10256482
-0.030600294 0.80072439 0.02420637 10256482
-0.030793786 0.80116189 0.024203584 10388068
-0.030316502 0.80207157 0.023593068 10388070
-0.030510664 0.80251056 0.023590267 10388070
-0.030704826 0.80294955 0.023587465 10387816
-0.029561356 0.80434203 0.022369131 10387816
-0.029756829 0.804784 0.022366315 10256232
-0.029952303 0.80522597 0.022363484 10387818
-0.029480949 0.80614918 0.021752864 10453609
-0.029677078 0.80659264 0.021750033 10453609
-0.029207721 0.80752027 0.021139398 10584425
-0.029404536 0.80796528 0.021136552 10518632
-0.029601321 0.80841017 0.021133721 10650218
-0.029134586 0.80934387 0.020523012 10584425
-0.029332042 0.80979031 0.020520166 10715497
-0.029529497 0.81023675 0.020517319 10715497
-0.02906543 0.81117636 0.01990661 10518632
-0.029263541 0.81162429 0.019903749 10518632
-0.029461667 0.81207222 0.019900888 10518886
-0.029000208 0.81301785 0.019290119 10518886
-0.029198989 0.81346726 0.019287243 10518886
-0.027492628 0.7484982 0.038831145 5193253
-0.027670935 0.74890131 0.038828582 5324837
-0.027849242 0.74930447 0.038826004 5324837
-0.028027549 0.74970758 0.038823426 5455909
-0.028205857 0.75011075 0.038820848 5587495
-0.028384164 0.75051391 0.038818285 5784876
-0.029299378 0.75059223 0.039421096 5916462
-0.02947703 0.75099391 0.039418533 6178351
-0.029654667 0.75139558 0.039415956 6573109
-0.029832318 0.7517972 0.039413393 6967095
-0.03000997 0.75219887 0.03941083 7230267
-0.030187622 0.75260049 0.039408267 7625025
-0.030365273 0.75300217 0.039405704 7888197
-0.03054291 0.75340378 0.039403141 8282953
-0.030720562 0.75380546 0.039400578 8611918
-0.030898213 0.75420707 0.039398015 8743504
-0.030345559 0.7549485 0.038789973 9006676
-0.030523866 0.7553516 0.038787395 9203796
-0.030702174 0.75575477 0.038784832 9269589
-0.030880496 0.75615788 0.038782254 9466968
-0.031058803 0.75656104 0.038779676 9664347
-0.03123711 0.75696421 0.038777113 9664347
-0.031415418 0.75736731 0.038774535 9664347
-0.031593725 0.75777048 0.038771957 9730140
-0.031046987 0.75852525 0.038163826 9795933
-0.03122595 0.75892991 0.038161248 9927519
-0.031404927 0.75933456 0.03815867 9993312
-0.03158389 0.75973916 0.038156077 9993312
-0.031762853 0.76014382 0.038153499 9993312
-0.031941831 0.76054847 0.038150921 9993312
-0.031399742 0.76131374 0.037542731 9993312
-0.031579375 0.76171982 0.037540138 10058851
-0.031759009 0.76212597 0.037537545 10058851
-0.031938627 0.76253211 0.037534952 10058851
-0.032118261 0.76293826 0.037532359 10124644
-0.032297894 0.76334435 0.037529767 10190437
-0.031760439 0.7641201 0.036921531 10190437
-0.031940714 0.76452768 0.036918923 10256230
-0.03140521 0.7653079 0.036310628 10256230
-0.03158617 0.76571703 0.03630802 10256230
-0.031767115 0.76612616 0.036305413 10387816
-0.031234279 0.76691228 0.035697103 10190950
-0.031415895 0.7673229 0.03569448 10322536
-0.031597495 0.76773351 0.035691857 10388331
-0.03177911 0.76814413 0.035689235 10454124
-0.031960711 0.76855475 0.035686612 10054741
-0.032142326 0.76896536 0.03568399 9923155
-0.03161408 0.76976198 0.03507559 10708558
-0.031796351 0.77017403 0.035072967 10971730
-0.031270117 0.77097517 0.034464553 10776148
-0.031453058 0.77138877 0.034461915 11434078
-0.031635985 0.77180231 0.034459278 10579539
-0.031112358 0.77260941 0.033850789 10513746
-0.031295955 0.7730245 0.033848137 10382162
-0.031479552 0.77343959 0.033845499 10382162
-0.030958593 0.77425265 0.03323701 10649704
-0.031142846 0.77466923 0.033234358 10715497
-0.031327099 0.77508581 0.033231691 10387816
-0.031511351 0.77550238 0.033229038 10387816
-0.031695604 0.77591896 0.033226371 10453609
-0.031879857 0.77633554 0.033223718 10453609
-0.031363532 0.77715904 0.03261517 10453609
-0.03154844 0.7775771 0.032612503 10256230
-0.031034067 0.77840507 0.032003894 10256230
-0.031219646 0.77882463 0.032001212 10387816
-0.03140521 0.77924418 0.031998545 10256230
-0.030893505 0.78007817 0.031389922 10387816
-0.031079739 0.78049922 0.03138724 10387816
-0.031265974 0.78092027 0.031384543 10453609
-0.030756876 0.78176022 0.030775875 10453609
-0.030943781 0.78218275 0.030773178 10256230
-0.031130672 0.78260529 0.030770481 10518632
-0.030624256 0.7834512 0.030161783 10518632
-0.030811802 0.78387523 0.030159071 10584425
-0.030307338 0.78472561 0.029550329 10584425
-0.030495554 0.78515112 0.029547617 10584425
-0.030683771 0.7855767 0.029544905 10518632
-0.030181959 0.78643304 0.028936118 10518632
-0.030370846 0.78686005 0.028933406 10518632
-0.030559719 0.78728712 0.028930679 10453611
-0.03006056 0.78814942 0.028321877 10519404
-0.030250087 0.78857791 0.028319135 10453611
-0.03043963 0.78900647 0.028316408 10453611
-0.030629158 0.78943497 0.028313667 10387818
-0.030818701 0.78986353 0.028310925 10453611
-0.031008229 0.79029202 0.028308198 10453609
-0.030513674 0.79116482 0.027699307 10453609
-0.030703858 0.7915948 0.027696565 10387816
-0.030211315 0.79247206 0.027087674 10256230
-0.030402169 0.79290354 0.027084917 10387816
-0.030593023 0.79333508 0.02708216 10387816
-0.030783877 0.79376662 0.027079403 10387816
-0.030974731 0.7941981 0.027076662 10387816
-0.031165585 0.79462963 0.027073905 10388070
-0.030677631 0.79551733 0.026464924 10388070
-0.030869156 0.79595035 0.026462153 10388070
-0.031060666 0.79638332 0.026459396 10256484
-0.03057538 0.79727697 0.0258504 10256484
-0.030767545 0.79771149 0.025847614 10256484
-0.03095974 0.79814601 0.025844842 10256484
-0.031151906 0.79858053 0.025842071 10388070
-0.031344086 0.79901499 0.025839299 10256484
-0.030189231 0.80038577 0.02462393 10190691
-0.030382723 0.80082321 0.024621129 10256484
-0.030576214 0.80126071 0.024618343 10256484
-0.0300982 0.80217081 0.024009243 10388070
-0.030292347 0.8026098 0.024006426 10388070
-0.030486509 0.80304879 0.024003625 10388070
-0.029341564 0.80444193 0.022788137 10388070
-0.029537037 0.8048839 0.022785306 10387816
-0.02973251 0.80532587 0.02278249 10453609
-0.029260412 0.80624938 0.022173285 10453609
-0.029456541 0.80669284 0.022170454 10519402
-0.028986439 0.80762088 0.021561235 10584425
-0.029183254 0.80806583 0.021558389 10518632
-0.029380038 0.80851078 0.021555543 10650218
-0.028912559 0.80944479 0.020946279 10584425
-0.029110029 0.80989122 0.020943433 10649704
-0.029307485 0.81033766 0.020940572 10649704
-0.028842673 0.81127763 0.020331278 10649704
-0.029040784 0.8117255 0.020328417 10649704
-0.029238909 0.81217349 0.020325556 10649958
-0.028776705 0.81311941 0.019716203 10715751
-0.028975487 0.81356883 0.019713327 10715751
-0.027856305 0.8150202 0.018497467 10649958
-0.028056413 0.8154726 0.018494576 10649958
-0.028256521 0.81592506 0.0184917 10715751
-0.028456613 0.81637746 0.018488809 10781544
-0.028656721 0.81682986 0.018485919 10781544
-0.028856829 0.81728232 0.018483028 10715751
-0.028033748 0.74827313 0.039817259 5259044
-0.028211385 0.74867475 0.039814696 5324837
-0.028389037 0.74907643 0.039812133 5324837
-0.028566688 0.7494781 0.03980957 5455909
-0.02874434 0.74987972 0.039807007 5587495
-0.028921977 0.75028139 0.039804444 5784874
-0.02983731 0.75035787 0.040405855 5916460
-0.030014291 0.75075805 0.040403292 6244142
-0.030191287 0.75115824 0.040400743 6573107
-0.030368268 0.75155836 0.04039818 7098681
-0.03054525 0.75195849 0.040395632 7296060
-0.030722246 0.75235868 0.040393084 7625025
-0.030899227 0.75275886 0.040390521 7888197
-0.031076223 0.75315899 0.040387973 8282953
-0.031253204 0.75355911 0.04038541 8546125
-0.0314302 0.7539593 0.040382862 8743504
-0.030876115 0.75469953 0.039776236 9006676
-0.031053767 0.7551012 0.039773673 9203542
-0.031231418 0.75550282 0.03977111 9269335
-0.031409055 0.7559045 0.039768547 9466968
-0.031586707 0.75630611 0.039765984 9664347
-0.031764358 0.75670779 0.039763421 9664347
-0.031214923 0.75745845 0.039156735 9664347
-0.03139323 0.75786161 0.039154172 9730140
-0.031571537 0.75826472 0.039151594 9795933
-0.031749845 0.75866789 0.039149016 9927519
-0.031928152 0.75907099 0.039146453 9927519
-0.032106474 0.75947416 0.039143875 9993312
-0.032284781 0.75987732 0.039141297 9993312
-0.032463089 0.76028043 0.039138719 9993312
-0.031919569 0.76104456 0.038531959 9993312
-0.032098547 0.76144922 0.038529366 10058851
-0.03227751 0.76185381 0.038526788 10058851
-0.031736657 0.76262391 0.037919998 10058851
-0.031916291 0.76303005 0.037917405 10190437
-0.032095924 0.76343614 0.037914813 10124644
-0.032275543 0.76384228 0.03791222 10190437
-0.032455176 0.76424843 0.037909627 10256230
-0.031918302 0.76502746 0.037302777 10190437
-0.032098591 0.7654351 0.037300169 10256230
-0.03227888 0.76584268 0.037297577 10387816
-0.031744614 0.76662773 0.036690667 10190950
-0.031925559 0.7670368 0.03668806 10322536
-0.032106504 0.76744592 0.036685437 10388331
-0.031574905 0.76823694 0.036078513 10388331
-0.03175652 0.76864755 0.03607589 10118990
-0.031938121 0.76905811 0.036073267 10053197
-0.032119736 0.76946872 0.036070645 10773320
-0.032301351 0.76987934 0.036068022 10839113
-0.032482967 0.77028996 0.0360654 10051650
-0.031955957 0.7710914 0.035458401 12025440
-0.032138228 0.77150351 0.035455763 10776148
-0.031613231 0.77230942 0.03484875 10710355
-0.031796157 0.77272302 0.034846112 10578255
-0.031979099 0.77313662 0.03484346 10117704
-0.031456709 0.77394849 0.034236372 10714984
-0.031640306 0.77436358 0.034233719 10780777
-0.031823888 0.77477866 0.034231067 10387816
-0.032007486 0.77519375 0.034228429 10387816
-0.032191083 0.77560884 0.034225777 10453609
-0.032374665 0.77602392 0.034223124 10453609
-0.031856939 0.77684629 0.033616006 10453609
-0.032041192 0.77726287 0.033613339 10256230
-0.031525448 0.77808964 0.033006176 10387816
-0.031710356 0.77850771 0.033003509 10387816
-0.031895265 0.77892578 0.033000842 10256230
-0.031382129 0.77975857 0.032393634 10387816
-0.031567708 0.78017819 0.032390952 10256230
-0.031753272 0.78059775 0.032388285 10387816
-0.031242803 0.7814365 0.031781048 10453609
-0.031429037 0.78185755 0.031778365 10387816
-0.031615272 0.7822786 0.031775668 10387816
-0.031107426 0.78312337 0.031168386 10387816
-0.031294316 0.78354591 0.031165689 10387816
-0.031481206 0.78396845 0.031162992 10453609
-0.030976027 0.78481919 0.03055568 10453609
-0.031163588 0.78524321 0.030552983 10387816
-0.030660346 0.78609842 0.029945627 10387816
-0.030848563 0.78652394 0.0299429 10387816
-0.031036779 0.78694952 0.029940188 10453611
-0.030536219 0.78781062 0.029332802 10519404
-0.030725092 0.78823769 0.029330075 10519404
-0.030913964 0.7886647 0.029327348 10453611
-0.030416057 0.78953183 0.028719932 10387818
-0.030605584 0.78996038 0.02871719 10453611
-0.030795127 0.79038888 0.028714463 10453609
-0.030984655 0.79081738 0.028711721 10453609
-0.031174198 0.79124594 0.028708994 10387816
-0.030680209 0.79212201 0.028101504 10256230
-0.030870408 0.79255205 0.028098762 10387816
-0.031060591 0.7929821 0.02809602 10387816
-0.030569285 0.79386413 0.0274885 10387816
-0.030760139 0.79429567 0.027485758 10387816
-0.030950993 0.79472715 0.027483001 10256484
-0.030462295 0.7956152 0.026875436 10388070
-0.030653819 0.79604816 0.026872665 10453863
-0.030845329 0.79648119 0.026869908 10256484
-0.031036839 0.79691422 0.026867151 10256230
-0.031228364 0.79734719 0.02686438 10387816
-0.031419873 0.79778022 0.026861608 10388070
-0.030935824 0.7986787 0.026253998 10388070
-0.031128004 0.79911321 0.026251227 10256484
-0.030645907 0.80001616 0.025643572 10256484
-0.030838743 0.80045217 0.025640786 10256484
-0.031031579 0.80088818 0.025637999 10256484
-0.030552149 0.80179709 0.025030315 10518886
-0.03074564 0.80223459 0.025027514 10518886
-0.030939147 0.80267203 0.025024727 10518886
-0.029792055 0.80406439 0.023812056 10518886
-0.029986873 0.80450487 0.023809254 10518632
-0.030181691 0.80494535 0.023806438 10584425
-0.029708207 0.80586773 0.023198679 10584425
-0.02990368 0.8063097 0.023195863 10650218
-0.029432148 0.80723655 0.022588044 10584425
-0.029628292 0.80768001 0.022585213 10584425
-0.029824421 0.80812347 0.022582382 10781290
-0.029355571 0.80905628 0.021974549 10715497
-0.02955237 0.80950123 0.021971703 10715497
-0.02974917 0.80994618 0.021968871 10715497
-0.029282913 0.81088495 0.021360978 10649704
-0.029480383 0.81133145 0.021358132 10715497
-0.029677838 0.81177789 0.021355286 10715751
-0.029214263 0.81272262 0.020747378 10715751
-0.029412374 0.81317055 0.020744517 10715751
-0.028950766 0.81411982 0.020136535 10715751
-0.029149547 0.81456923 0.020133674 10649958
-0.029348329 0.81501871 0.020130813 10715751
-0.028889373 0.81597394 0.019522831 10781290
-0.02908881 0.81642485 0.019519955 10781290
-0.029288247 0.81687576 0.019517079 10715497
-0.028831929 0.81783694 0.018909067 10715497
-0.029032037 0.8182894 0.018906176 10781290
-0.029232129 0.8187418 0.018903285 10715497
-0.027833998 0.74836391 0.040198058 5259046
-0.02801165 0.74876559 0.040195495 5324837
-0.028189287 0.7491672 0.040192932 5324837
-0.028366938 0.74956888 0.040190354 5521702
-0.02854459 0.7499705 0.040187791 5587495
-0.028722242 0.75037217 0.040185228 5784874
-0.029638305 0.75044835 0.040785223 5916460
-0.029815286 0.75084847 0.040782675 6244142
-0.029992282 0.75124866 0.040780112 6573107
-0.030169263 0.75164878 0.040777564 6967095
-0.030346259 0.75204897 0.040775001 7296060
-0.030523241 0.7524491 0.040772453 7625025
-0.030700222 0.75284928 0.040769905 7888197
-0.030877218 0.75324941 0.040767342 8282955
-0.031054199 0.75364959 0.040764794 8480334
-0.031231195 0.75404972 0.040762231 8743504
-0.030676365 0.75479031 0.040157035 9006676
-0.030854017 0.75519192 0.040154472 9138262
-0.031031668 0.7555936 0.040151909 9204055
-0.031209305 0.75599527 0.040149331 9401688
-0.031386957 0.75639689 0.040146768 9533274
-0.031564608 0.75679857 0.040144205 9599067
-0.031014428 0.75754952 0.03953895 9599067
-0.031192735 0.75795269 0.039536372 9730140
-0.031371057 0.75835586 0.039533794 9795933
-0.031549364 0.75875896 0.039531216 9795933
-0.031727672 0.75916213 0.039528653 9927519
-0.031905979 0.75956523 0.039526075 9993312
-0.032084286 0.7599684 0.039523497 9993312
-0.032262594 0.76037157 0.039520934 9993312
-0.031718343 0.761136 0.038915575 9993312
-0.031897306 0.76154065 0.038912982 10058851
-0.032076284 0.76194525 0.038910404 10058851
-0.031534687 0.7627157 0.038305029 10058851
-0.03171432 0.76312184 0.038302436 10190437
-0.031893954 0.76352793 0.038299844 10124644
-0.032073572 0.76393408 0.038297251 10190437
-0.032253206 0.76434022 0.038294658 10256230
-0.031715587 0.76511955 0.037689224 10256230
-0.031895876 0.76552719 0.037686616 10256230
-0.032076165 0.76593482 0.037684023 10256230
-0.031541154 0.76672018 0.03707853 10256230
-0.031722099 0.7671293 0.037075922 10387816
-0.031903043 0.76753843 0.037073314 10387816
-0.031370699 0.76832974 0.036467791 10519402
-0.031552315 0.7687403 0.036465168 10184011
-0.03173393 0.76915091 0.03646256 10052425
-0.031915531 0.76956153 0.036459938 10774088
-0.032097146 0.76997215 0.036457315 11103053
-0.032278761 0.77038276 0.036454692 10577994
-0.031751007 0.77118456 0.035849094 11564889
-0.031933278 0.77159667 0.035846472 10775632
-0.03140755 0.77240288 0.035240859 10512460
-0.031590477 0.77281648 0.035238221 10840144
-0.031773403 0.77323008 0.035235584 10182214
-0.031250283 0.77404231 0.034629896 10780777
-0.031433865 0.7744574 0.034627259 10780777
-0.031617463 0.77487248 0.034624606 10387818
-0.03180106 0.77528757 0.034621954 10387818
-0.031984642 0.77570266 0.034619302 10453611
-0.032168239 0.77611774 0.034616649 10453611
-0.031649768 0.77694041 0.034010947 10453609
-0.031834021 0.77735698 0.034008279 10256230
-0.031317532 0.77818418 0.033402547 10387816
-0.031502441 0.77860224 0.03339988 10387816
-0.031687349 0.77902031 0.033397198 10256230
-0.031173468 0.77985346 0.032791406 10387816
-0.031359047 0.78027302 0.032788739 10190950
-0.031544611 0.78069258 0.032786056 10322536
-0.031033412 0.78153169 0.032180235 10322536
-0.031219646 0.78195274 0.032177553 10322536
-0.031405881 0.78237379 0.03217487 10387816
-0.030897275 0.78321886 0.031568989 10387816
-0.03108418 0.7836414 0.031566292 10387816
-0.03127107 0.78406394 0.031563595 10453609
-0.030765146 0.78491503 0.030957699 10453609
-0.030952692 0.78533906 0.030955002 10387816
-0.03044872 0.78619456 0.030349061 10387816
-0.030636936 0.78662014 0.030346334 10387816
-0.030825153 0.78704566 0.030343622 10453611
-0.030323848 0.78790712 0.029737651 10453611
-0.03051272 0.78833419 0.029734924 10453611
-0.030701593 0.7887612 0.029732198 10453611
-0.03020294 0.78962868 0.029126197 10387818
-0.030392468 0.79005718 0.02912347 10387818
-0.030582011 0.79048574 0.029120728 10387816
-0.030771539 0.7909143 0.029118001 10387816
-0.030961081 0.79134279 0.02911526 10387816
-0.030466348 0.79221922 0.028509185 10256230
-0.030656546 0.79264927 0.028506443 10387816
-0.030846745 0.79307926 0.028503701 10387816
-0.030354679 0.79396164 0.027897611 10388070
-0.030545548 0.79439318 0.027894855 10388070
-0.030736402 0.79482466 0.027892098 10256484
-0.030246958 0.79571307 0.027285948 10388070
-0.030438468 0.79614604 0.027283192 10518886
-0.030629978 0.79657906 0.02728042 10518886
-0.030821502 0.79701209 0.027277663 10518632
-0.031013027 0.79744506 0.027274892 10518632
-0.031204537 0.79787809 0.027272135 10518886
-0.030719742 0.79877687 0.026665926 10518886
-0.030911922 0.79921138 0.026663154 10256484
-0.03042908 0.80011475 0.026056916 10256484
-0.030621916 0.8005507 0.026054129 10388070
-0.030814752 0.80098671 0.026051342 10388070
