# .PCD v0.7 - Point Cloud Data file format
VERSION 0.7
FIELDS x y z rgb
SIZE 4 4 4 4
TYPE F F F U
COUNT 1 1 1 1
WIDTH 1080
HEIGHT 1
VIEWPOINT 0 0 0 1 0 0 0
POINTS 1080
DATA ascii
0.028793961 0.83017796 0.032618806 14734026
0.029254943 0.83012807 0.032616019 14799819
0.029715918 0.83007818 0.032613233 14865099
0.0301769 0.8300283 0.032610446 14667720
0.030637883 0.82997847 0.03260766 14602440
0.031098858 0.82992852 0.032604873 14602440
0.03155984 0.82987869 0.032602087 14734028
0.032020822 0.82982874 0.0325993 14602442
0.032481804 0.82977891 0.032596514 14667720
0.032942787 0.82972902 0.032593727 14799306
0.033403762 0.82967913 0.032590941 14667720
0.033864751 0.82962924 0.032588154 14667720
0.034325734 0.82957935 0.032585368 14667720
0.034786709 0.82952946 0.032582581 14667720
0.035247691 0.82947958 0.032579795 14799306
0.035566479 0.8302604 0.033174455 14865099
0.036025837 0.83021069 0.033171684 14865099
0.036485195 0.83016098 0.033168897 14799306
0.036944546 0.83011127 0.033166125 14667720
0.037403904 0.83006155 0.033163354 14667720
0.037863262 0.83001184 0.033160567 14667720
0.03832262 0.82996213 0.033157796 14799306
0.038781978 0.82991242 0.033155024 14667720
0.039241336 0.82986271 0.033152238 14667720
0.039700694 0.829813 0.033149466 14667720
0.040160045 0.82976329 0.033146694 14601927
0.040619411 0.82971358 0.033143908 14667720
0.041078761 0.82966387 0.033141136 14601927
0.041538127 0.82961416 0.033138365 14470856
0.041997477 0.82956445 0.033135578 14536649
0.042456843 0.82951474 0.033132806 14602442
0.042916194 0.82946503 0.03313002 14536649
0.043375544 0.82941532 0.033127248 14536649
0.04383491 0.82936561 0.033124477 14536649
0.04429426 0.8293159 0.033121705 14602442
0.044753626 0.82926619 0.033118919 14536649
0.045212977 0.82921648 0.033116147 14536649
0.045672342 0.82916677 0.03311336 14602442
0.046131693 0.82911706 0.033110589 14536649
0.046591058 0.82906735 0.033107817 14536649
0.047050409 0.82901764 0.033105046 14601929
0.047509767 0.82896793 0.033102259 14601929
0.047969125 0.82891822 0.033099487 14536134
0.048428483 0.82886851 0.033096701 14536134
0.048887834 0.8288188 0.033093929 14536134
0.049347192 0.82876909 0.033091158 14470341
0.049806543 0.82871938 0.033088371 14470343
0.050265908 0.82866967 0.0330856 14470343
0.050725266 0.82861996 0.033082828 14405063
0.051184624 0.82857025 0.033080041 14273477
0.051643983 0.82852054 0.03307727 14141891
0.052303962 0.8276338 0.032476693 14076098
0.052764952 0.82758391 0.032473907 14076098
0.05322592 0.82753402 0.03247112 14010305
0.053686909 0.82748413 0.032468334 13812926
0.054147877 0.82743424 0.032465547 13615547
0.054608867 0.82738435 0.032462761 13418938
0.055069841 0.82733452 0.032459974 13287352
0.055530824 0.82728457 0.032457188 13024178
0.056205418 0.82639629 0.031856477 12892592
0.056668025 0.82634622 0.031853676 12761006
0.057130631 0.82629615 0.031850889 12300455
-0.027557675 0.83032995 0.029194802 14932175
-0.02708533 0.83027881 0.029191941 15129808
-0.02661299 0.83022773 0.029189095 15261394
-0.026140645 0.83017659 0.029186234 15392210
-0.025668304 0.83012545 0.029183388 15392210
-0.02519596 0.83007437 0.029180527 15326163
-0.024654724 0.83083189 0.029772431 15326163
-0.024184003 0.83078098 0.029769585 15326163
-0.023713283 0.83073002 0.029766738 15260370
-0.023242563 0.83067906 0.029763892 15194577
-0.022771847 0.83062816 0.029761046 15062991
-0.022301126 0.83057719 0.0297582 15062993
-0.021771245 0.83133602 0.030350208 14997200
-0.021302149 0.83128524 0.030347377 14931407
-0.020833053 0.83123446 0.030344546 14931407
-0.020363957 0.83118373 0.0303417 14997200
-0.019894861 0.83113295 0.030338868 14931407
-0.019425765 0.83108222 0.030336037 14800591
-0.018956669 0.83103144 0.030333191 14734798
-0.018487571 0.83098066 0.03033036 14734798
-0.018018473 0.83092988 0.030327529 14734798
-0.017549379 0.83087915 0.030324697 14734798
-0.017080281 0.83082837 0.030321851 14800591
-0.016611185 0.83077765 0.03031902 14734798
-0.016102411 0.83153868 0.030911118 14669005
-0.015634939 0.83148807 0.030908301 14734796
-0.015167465 0.83143747 0.03090547 14800589
-0.014699993 0.83138692 0.030902654 14734796
-0.014232519 0.83133632 0.030899823 14734796
-0.013765045 0.83128572 0.030896991 14865612
-0.013297572 0.83123517 0.030894175 14865612
-0.0128301 0.83118457 0.030891344 14799819
-0.012362626 0.83113396 0.030888513 14799819
-0.011895153 0.83108336 0.030885696 14799819
-0.011427679 0.83103275 0.030882865 14799819
-0.010960207 0.83098221 0.030880034 14799819
-0.010492734 0.8309316 0.030877218 14799819
-0.010025262 0.830881 0.030874386 14799819
-0.0095577901 0.83083045 0.03087157 14734026
-0.0090903146 0.83077985 0.030868739 14734026
-0.008622841 0.83072925 0.030865908 14734026
-0.0081432788 0.8314935 0.031458214 14799819
-0.0076774294 0.83144307 0.031455398 14799819
-0.0072115818 0.83139271 0.031452581 14799819
-0.0067457324 0.83134228 0.031449765 14799819
-0.0062798811 0.83129185 0.031446949 14603210
-0.0058140317 0.83124143 0.031444132 14603210
-0.0053481823 0.83119106 0.031441316 14669003
-0.004882331 0.83114064 0.0314385 14669003
-0.0044164797 0.83109021 0.031435683 14669003
-0.0039506322 0.83103979 0.031432867 14669003
-0.0034847828 0.83098936 0.031430051 14669003
-0.0030189315 0.83093894 0.031427234 14669003
-0.0025530821 0.83088857 0.031424418 14669003
-0.0020872327 0.83083814 0.031421602 14669003
-0.0016213814 0.83078772 0.031418785 14734796
-0.001155532 0.83073735 0.031415969 14669003
-0.00068968255 0.83068693 0.031413153 14669003
-0.00022383127 0.8306365 0.031410336 14603210
0.00024202 0.83058608 0.03140752 14603210
0.00070786756 0.83053565 0.031404704 14603210
0.0011737188 0.83048522 0.031401888 14603210
0.0016395664 0.83043486 0.031399071 14603210
0.0021054177 0.83038443 0.031396255 14603210
0.0025712652 0.83033401 0.031393439 14603210
0.0030371165 0.83028364 0.031390622 14734796
0.0035029678 0.83023322 0.031387806 14734796
0.0039387019 0.83100218 0.031980366 14669005
0.0044029253 0.83095193 0.031977564 14669005
0.0048671523 0.83090168 0.031974763 14603212
0.0053313794 0.83085144 0.031971946 14669005
0.0057956064 0.83080125 0.031969145 14603212
0.0062598335 0.83075094 0.031966344 14669005
0.0067240605 0.83070076 0.031963527 14669005
0.0071882876 0.83065051 0.031960726 14603212
0.0076525146 0.83060026 0.031957924 14603212
0.0081167379 0.83055001 0.031955123 14669005
0.008580965 0.83049977 0.031952307 14669005
0.0090451958 0.83044958 0.031949505 14669005
0.0095094191 0.83039933 0.031946689 14669005
0.0099736461 0.83034909 0.031943887 14603212
0.010437869 0.83029884 0.031941086 14734028
0.010902097 0.83024859 0.031938285 14734028
0.011366331 0.83019835 0.031935468 14471626
0.011830558 0.8301481 0.031932667 14669005
0.012294781 0.83009791 0.031929865 14669005
0.012759008 0.83004767 0.031927049 14603212
0.013160658 0.83082032 0.032519802 14669005
0.013623261 0.83077025 0.032517001 14669005
0.014085864 0.83072019 0.032514215 14669005
0.014548467 0.83067012 0.032511413 14603212
0.015011073 0.83062005 0.032508612 14603212
0.015473672 0.83056998 0.032505825 14471626
0.015936274 0.83051997 0.032503024 14471626
0.016398881 0.83046991 0.032500222 14471626
0.01686148 0.83041984 0.032497436 14669005
0.017324086 0.83036977 0.032494634 14603212
0.017786689 0.8303197 0.032491833 14734026
0.018249299 0.83026963 0.032489046 14734026
0.018711898 0.83021963 0.032486245 14734026
0.019174501 0.83016956 0.032483444 14734026
0.019637108 0.83011949 0.032480657 14799819
0.020099711 0.83006942 0.032477856 14734026
0.020562313 0.83001935 0.032475054 14603212
0.021024916 0.82996929 0.032472268 14603212
0.021395724 0.83074534 0.03306523 14603212
0.021856703 0.83069539 0.033062443 14603212
0.022317685 0.83064556 0.033059657 14603212
0.022778664 0.83059561 0.03305687 14669005
0.023239642 0.83054578 0.033054084 14603212
0.023700625 0.83049589 0.033051297 14603212
0.024161603 0.830446 0.033048511 14669005
0.024622586 0.83039612 0.033045724 14734798
0.025083564 0.83034623 0.033042938 14669003
0.02554455 0.83029634 0.033040151 14669003
0.026005529 0.83024645 0.033037364 14734796
0.026466507 0.83019656 0.033034578 14800589
0.026927486 0.83014667 0.033031791 14799819
0.027388468 0.83009678 0.033029005 14734026
0.027849443 0.83004689 0.033026218 14865099
0.028310426 0.829997 0.033023432 14865099
0.028771408 0.82994711 0.033020645 14799306
0.02923239 0.82989722 0.033017859 14865099
0.029693365 0.82984734 0.033015072 14865099
0.030154347 0.82979751 0.033012286 14799306
0.03061533 0.82974756 0.033009499 14602440
0.031076305 0.82969773 0.033006713 14602440
0.031537287 0.82964784 0.033003926 14602442
0.031998269 0.82959795 0.03300114 14602442
0.032459252 0.82954806 0.032998353 14602440
0.032920234 0.82949817 0.032995567 14734026
0.033381209 0.82944828 0.03299278 14602440
0.033842199 0.82939839 0.032989994 14799819
0.034303181 0.8293485 0.032987207 14667720
0.034764156 0.82929862 0.032984421 14667720
0.035225138 0.82924873 0.032981634 14601927
0.035544008 0.83003032 0.033574894 14799306
0.036003366 0.82998061 0.033572108 14865099
0.036462724 0.8299309 0.033569336 14865099
0.036922075 0.82988119 0.033566564 14799306
0.037381433 0.82983148 0.033563778 14667720
0.037840791 0.82978177 0.033561006 14667720
0.038300149 0.82973206 0.033558235 14799306
0.038759507 0.82968235 0.033555448 14601927
0.039218865 0.82963264 0.033552676 14601927
0.039678223 0.82958293 0.033549905 14667720
0.040137574 0.82953322 0.033547118 14601927
0.04059694 0.82948351 0.033544347 14667720
0.04105629 0.8294338 0.03354156 14601927
0.041515656 0.82938409 0.033538789 14536134
0.041975006 0.82933438 0.033536017 14601927
0.042434372 0.82928467 0.033533245 14536649
0.042893723 0.82923496 0.033530459 14536649
0.043353073 0.82918525 0.033527687 14536649
0.043812439 0.82913554 0.033524901 14536649
0.044271789 0.82908583 0.033522129 14470856
0.044731155 0.82903612 0.033519357 14602442
0.045190506 0.82898641 0.033516586 14536649
0.045649871 0.8289367 0.033513799 14602442
0.046109222 0.82888699 0.033511028 14602442
0.046568587 0.82883728 0.033508241 14470856
0.047027938 0.82878757 0.03350547 14536136
0.047487296 0.82873785 0.033502698 14601929
0.047946654 0.82868814 0.033499911 14667720
0.048406012 0.82863843 0.03349714 14601927
0.048865363 0.82858872 0.033494368 14536134
0.049324721 0.82853901 0.033491582 14536134
0.049784072 0.8284893 0.03348881 14470341
0.050243437 0.82843959 0.033486038 14470341
0.050702795 0.82838988 0.033483252 14404548
0.051162153 0.82834017 0.03348048 14404548
0.051621512 0.82829046 0.033477709 14273475
0.05228141 0.82740295 0.032878533 14273475
0.052742399 0.82735306 0.032875746 14076096
0.053203367 0.82730317 0.03287296 14076096
0.053664356 0.82725334 0.032870173 13682108
0.054125324 0.82720339 0.032867387 13550522
0.054586314 0.82715356 0.0328646 13353143
0.055047289 0.82710361 0.032861814 13287350
0.055508271 0.82705379 0.032859027 13089971
0.056182791 0.8261646 0.032259747 12958385
0.056645397 0.82611454 0.032256946 12761006
0.057108004 0.82606447 0.032254145 12366248
-0.027502067 0.83090186 0.030199841 14801103
-0.027031347 0.8308509 0.030196995 14998482
-0.026560631 0.83079994 0.030194148 15130068
-0.02608991 0.83074903 0.030191302 15261140
-0.02561919 0.83069807 0.030188456 15195347
-0.02514847 0.83064711 0.03018561 15261140
-0.024608772 0.8314057 0.030776143 15195347
-0.024139676 0.83135492 0.030773312 15195347
-0.02367058 0.83130419 0.030770481 15129554
-0.023201484 0.83125341 0.030767635 15063761
-0.022732388 0.83120263 0.030764803 15063761
-0.022263292 0.83115184 0.030761972 14932177
-0.021794192 0.83110112 0.030759126 14866384
-0.021325096 0.83105034 0.030756295 14800591
-0.020856 0.83099961 0.030753464 14800591
-0.020332538 0.83175987 0.031344056 14800591
-0.019865066 0.83170927 0.03134124 14800591
-0.019397594 0.83165872 0.031338409 14800591
-0.018930119 0.83160812 0.031335592 14734798
-0.018462647 0.83155751 0.031332761 14669005
-0.017995175 0.83150697 0.03132993 14734798
-0.017527699 0.83145636 0.031327114 14734798
-0.017060228 0.83140576 0.031324282 14800591
-0.016592752 0.83135515 0.031321451 14734796
-0.016085517 0.83211726 0.031912178 14669003
-0.01561967 0.83206683 0.031909361 14734796
-0.015153819 0.83201641 0.031906545 14800589
-0.014687967 0.83196604 0.031903729 14734796
-0.014222118 0.83191562 0.031900913 14734796
-0.013756271 0.83186519 0.031898096 14734796
-0.013290419 0.83181477 0.03189528 14734796
-0.01282457 0.83176434 0.031892464 14799819
-0.012358719 0.83171391 0.031889647 14799819
-0.011892869 0.83166355 0.031886831 14931405
-0.011427018 0.83161312 0.031884015 14799819
-0.010961168 0.8315627 0.031881198 14799819
-0.010495321 0.83151233 0.031878382 14865612
-0.010029471 0.83146191 0.031875566 14799819
-0.0095636202 0.83141148 0.031872749 14799819
-0.0090977708 0.83136106 0.031869933 14734028
-0.0086319195 0.83131063 0.031867117 14734028
-0.0081539052 0.83207583 0.032458007 14734028
-0.0076896781 0.83202565 0.032455206 14799821
-0.0072254511 0.8319754 0.03245239 14799819
-0.0067612259 0.83192515 0.032449588 14799819
-0.0062969988 0.83187491 0.032446772 14799819
-0.0058327718 0.83182466 0.03244397 14799819
-0.0053685466 0.83177441 0.032441169 14669003
-0.0049043177 0.83172417 0.032438368 14669003
-0.0044400906 0.83167398 0.032435551 14669003
-0.0039758636 0.83162373 0.03243275 14669003
-0.0035116384 0.83157349 0.032429948 14669003
-0.0030474113 0.83152324 0.032427132 14669003
-0.0025831843 0.83147299 0.032424331 14669003
-0.0021189591 0.83142281 0.032421529 14669003
-0.0016547283 0.8313725 0.032418713 14669003
-0.0011905031 0.83132231 0.032415912 14669003
-0.00072627794 0.83127207 0.03241311 14669003
-0.00026205089 0.83122182 0.032410294 14603210
0.00020217616 0.83117157 0.032407492 14603210
0.00066640321 0.83112133 0.032404691 14603210
0.0011306265 0.83107114 0.03240189 14603210
0.0015948573 0.83102089 0.032399073 14603210
0.0020590844 0.83097064 0.032396272 14603210
0.0025233114 0.8309204 0.032393456 14669003
0.0029875347 0.83087015 0.032390654 14734796
0.0034517618 0.83081996 0.032387853 14734796
0.0038859555 0.83158988 0.032978997 14669005
0.0043485546 0.83153987 0.032976195 14669005
0.0048111575 0.8314898 0.032973394 14603212
0.005273764 0.83143973 0.032970607 14669005
0.0057363706 0.83138967 0.032967806 14669005
0.0061989697 0.8313396 0.032965004 14669005
0.0066615762 0.83128953 0.032962218 14734798
0.007124179 0.83123946 0.032959417 14603212
0.0075867819 0.83118939 0.032956615 14669005
0.0080493847 0.83113933 0.032953829 14669005
0.0085119875 0.83108926 0.032951027 14603212
0.0089745903 0.83103919 0.032948226 14603212
0.0094371969 0.83098918 0.032945439 14799821
0.009899796 0.83093911 0.032942638 14734028
0.010362403 0.83088905 0.032939836 14734028
0.010825005 0.83083898 0.03293705 14734028
0.011287616 0.83078891 0.032934248 14734028
0.011750215 0.83073884 0.032931447 14734028
0.012212818 0.83068877 0.032928661 14669005
0.012675424 0.83063877 0.032925859 14603212
0.013075526 0.83141243 0.033517241 14603212
0.013536508 0.83136249 0.033514455 14734798
0.013997487 0.83131266 0.033511668 14669005
0.014458469 0.83126271 0.033508882 14603212
0.014919448 0.83121288 0.033506095 14603212
0.015380426 0.83116299 0.033503309 14471626
0.01584141 0.8311131 0.033500522 14471626
0.016302388 0.83106321 0.033497736 14471626
0.016763367 0.83101332 0.033494949 14603212
0.017224349 0.83096343 0.033492163 14603212
0.017685331 0.83091354 0.033489376 14734026
0.018146314 0.83086365 0.03348659 14734026
0.018607292 0.83081377 0.033483803 14734026
0.019068275 0.83076388 0.033481017 14734026
0.019529253 0.83071399 0.03347823 14799819
0.019990232 0.8306641 0.033475444 14734026
0.02045121 0.83061421 0.033472657 14734028
0.020912196 0.83056438 0.033469871 14734028
0.021373175 0.83051443 0.033467084 14603212
0.021834154 0.8304646 0.033464298 14471626
0.022295136 0.83041465 0.033461511 14603212
0.022756115 0.83036482 0.033458725 14669005
0.023217093 0.83031493 0.033455938 14603210
0.023578241 0.83109277 0.034047514 14603210
0.0240376 0.83104306 0.034044743 14669003
0.024496958 0.83099335 0.034041956 14669003
0.024956312 0.83094364 0.034039184 14734796
0.025415674 0.83089393 0.034036413 14669003
0.025875032 0.83084422 0.034033626 14800589
0.026334386 0.83079451 0.034030855 14800589
0.026793741 0.8307448 0.034028083 14799819
0.027253099 0.83069509 0.034025297 14799819
0.027712457 0.83064538 0.034022525 14865614
0.028171815 0.83059567 0.034019753 14865614
0.028631173 0.83054596 0.034016967 14799308
0.029090531 0.83049625 0.034014195 14865101
0.029549882 0.83044654 0.034011424 14930894
0.03000924 0.83039683 0.034008637 14865101
0.030468598 0.83034712 0.034005865 14734028
0.030927964 0.83029741 0.034003094 14536649
0.031387314 0.8302477 0.034000307 14602442
0.031846672 0.83019799 0.033997536 14602442
0.032306038 0.83014828 0.033994764 14602440
0.032765396 0.83009857 0.033991978 14865612
0.033224754 0.83004886 0.033989206 14865099
0.033684105 0.82999915 0.033986419 14930892
0.034143463 0.82994944 0.033983648 14799306
0.034602821 0.82989973 0.033980876 14667720
0.035062179 0.82985002 0.033978105 14667720
0.035379495 0.83063269 0.034569979 14865099
0.035837222 0.8305831 0.034567207 14799306
0.036294956 0.83053356 0.034564435 14799306
0.03675269 0.83048403 0.034561679 14667720
0.037210431 0.8304345 0.034558907 14667720
0.037668165 0.83038497 0.034556136 14667720
0.038125891 0.83033544 0.034553379 14799306
0.038583625 0.83028591 0.034550607 14667720
0.039041359 0.83023638 0.034547836 14601927
0.0394991 0.83018684 0.034545079 14667720
0.039956827 0.83013731 0.034542307 14667720
0.040414568 0.83008778 0.034539536 14667720
0.040872294 0.83003825 0.034536779 14667720
0.041330028 0.82998872 0.034534007 14601927
0.04178777 0.82993919 0.034531236 14601927
0.042245504 0.82988966 0.034528464 14536649
0.042703237 0.82984012 0.034525707 14536649
0.043160971 0.82979059 0.034522936 14470856
0.043618705 0.829741 0.034520179 14536649
0.044076439 0.82969153 0.034517407 14536649
0.044534173 0.82964194 0.034514636 14536649
0.044991907 0.82959247 0.034511864 14470856
0.045449641 0.82954288 0.034509107 14536649
0.045907367 0.82949334 0.034506336 14602442
0.046365116 0.82944381 0.034503564 14470856
0.046822842 0.82939428 0.034500808 14536136
0.047280576 0.82934475 0.034498036 14601929
0.047738302 0.82929522 0.034495264 14601927
0.048196044 0.82924569 0.034492508 14601927
0.048653778 0.82919616 0.034489736 14536134
0.049111512 0.82914662 0.034486964 14536134
0.049569245 0.82909709 0.034484208 14536134
0.050026979 0.82904756 0.034481436 14470341
0.050484713 0.82899803 0.034478664 14470341
0.050942454 0.8289485 0.034475893 14404548
0.051400188 0.82889897 0.034473136 14273475
0.051857915 0.82884943 0.034470364 14273475
0.052315649 0.8287999 0.034467608 14076096
0.052773383 0.82875037 0.034464836 14076096
0.053436473 0.82786161 0.033867031 13747901
0.053895824 0.8278119 0.03386426 13682108
0.054355189 0.82776219 0.033861473 13484729
0.054814532 0.82771248 0.033858702 13353143
0.055273898 0.82766277 0.033855915 13089971
0.055733249 0.82761306 0.033853143 12958385
0.056407683 0.82672316 0.033255309 12761260
0.056868657 0.82667327 0.033252522 12432295
0.05732964 0.82662338 0.033249736 12037537
0.05779063 0.82657349 0.033246949 11445400
0.058251597 0.8265236 0.033244163 11311759
-0.027525097 0.83066612 0.030610174 14735310
-0.027054377 0.83061516 0.030607328 14998482
-0.026583657 0.83056426 0.030604482 15130068
-0.026112936 0.8305133 0.030601636 15064275
-0.025642216 0.83046234 0.030598789 15064275
-0.0251715 0.83041143 0.030595958 15130068
-0.02463172 0.8311708 0.031185076 15064275
-0.024162624 0.83112001 0.03118223 15195347
-0.023693528 0.83106923 0.031179398 15195347
-0.023224432 0.83101851 0.031176567 15063761
-0.022755336 0.83096772 0.031173736 15063761
-0.02228624 0.830917 0.03117089 15063761
-0.021817144 0.83086622 0.031168059 14866382
-0.021348044 0.83081543 0.031165227 14866382
-0.020878952 0.83076465 0.031162381 14800589
-0.020355407 0.8315258 0.031751573 14800591
-0.019887935 0.8314752 0.031748742 14800591
-0.019420464 0.83142459 0.031745911 14669519
-0.018952988 0.83137405 0.031743094 14669519
-0.018485516 0.83132344 0.031740263 14603726
-0.018018045 0.83127284 0.031737447 14603726
-0.017550569 0.83122224 0.031734616 14734798
-0.017083097 0.83117163 0.031731784 14866384
-0.016615622 0.83112109 0.031728968 14734796
-0.016108308 0.83188397 0.032318264 14800589
-0.01564246 0.83183354 0.032315448 14734796
-0.015176608 0.83178318 0.032312632 14800589
-0.014710757 0.83173275 0.032309815 14734796
-0.014244908 0.83168232 0.032306999 14734796
-0.01377906 0.8316319 0.032304183 14603210
-0.013313209 0.83158147 0.032301366 14800589
-0.012847359 0.83153105 0.03229855 14734796
-0.012381508 0.83148068 0.032295734 14603210
-0.011915659 0.83143026 0.032292917 14734796
-0.011449807 0.83137983 0.032290101 14669003
-0.010983958 0.83132941 0.032287285 14669003
-0.01051811 0.83127904 0.032284468 14669003
-0.010052261 0.83122861 0.032281652 14603210
-0.0095864097 0.83117819 0.032278836 14603210
-0.0091205603 0.83112776 0.032276019 14603212
-0.008654709 0.83107734 0.032273203 14603212
-0.0081766164 0.83184338 0.032862678 14799821
-0.0077123893 0.83179313 0.032859877 14799821
-0.0072481623 0.83174288 0.032857075 14865612
-0.0067839371 0.8316927 0.032854259 14799819
-0.0063197101 0.83164245 0.032851458 14799819
-0.005855483 0.8315922 0.032848656 14865612
-0.0053912578 0.83154196 0.032845855 14799819
-0.0049270289 0.83149171 0.032843038 14799819
-0.0044628019 0.83144152 0.032840237 14669003
-0.0039985748 0.83139122 0.032837436 14734796
-0.0035343496 0.83134103 0.032834619 14669003
-0.0030701226 0.83129078 0.032831818 14669003
-0.0026058955 0.83124053 0.032829016 14734796
-0.0021416703 0.83119029 0.0328262 14669003
-0.0016774395 0.83114004 0.032823399 14669003
-0.0012132144 0.83108985 0.032820597 14669003
-0.00074898731 0.83103961 0.032817781 14603210
-0.00028476026 0.83098936 0.03281498 14669003
0.00017946679 0.83093911 0.032812178 14669003
0.00064369384 0.83088887 0.032809362 14603210
0.0011079172 0.83083868 0.03280656 14603210
0.0015721479 0.83078837 0.032803759 14603210
0.002036375 0.83073819 0.032800943 14669003
0.002500602 0.83068794 0.032798141 14734796
0.0029648254 0.83063769 0.03279534 14734796
0.0034290524 0.83058745 0.032792538 14734796
0.0038633244 0.83135825 0.033382252 14669005
0.0043259235 0.83130819 0.033379465 14603212
0.0047885263 0.83125812 0.033376664 14669005
0.0052511329 0.83120805 0.033373863 14669005
0.0057137394 0.83115798 0.033371076 14669005
0.0061763385 0.83110791 0.033368275 14669005
0.0066389451 0.83105791 0.033365473 14669005
0.0071015479 0.83100784 0.033362687 14669005
0.0075641507 0.83095777 0.033359885 14603212
0.0080267536 0.8309077 0.033357084 14669005
0.0084893564 0.83085763 0.033354297 14603212
0.0089519592 0.83080757 0.033351496 14603212
0.0094145657 0.8307575 0.033348694 14669005
0.0098771648 0.83070743 0.033345908 14603212
0.010339771 0.83065736 0.033343107 14734028
0.010802374 0.8306073 0.033340305 14602442
0.011264984 0.83055723 0.033337519 14603212
0.011727584 0.83050722 0.033334717 14603212
0.012190186 0.83045715 0.033331916 14603212
0.012652793 0.83040708 0.033329129 14603212
0.013052973 0.83118153 0.033919081 14669005
0.013513955 0.8311317 0.033916295 14669005
0.013974934 0.83108181 0.033913508 14669005
0.014435916 0.83103192 0.033910722 14603212
0.014896895 0.83098203 0.033907935 14669005
0.015357873 0.83093214 0.033905149 14603212
0.015818857 0.83088225 0.033902362 14471626
0.016279835 0.83083236 0.033899575 14471626
0.016740814 0.83078247 0.033896789 14603212
0.017201796 0.83073258 0.033894002 14603212
0.017662778 0.83068269 0.033891216 14734028
0.018123761 0.83063281 0.033888429 14734028
0.018584739 0.83058292 0.033885643 14799819
0.019045722 0.83053303 0.033882856 14734026
0.0195067 0.83048314 0.03388007 14734026
0.019967679 0.83043325 0.033877283 14734026
0.020428658 0.83038342 0.033874497 14734028
0.020889644 0.83033347 0.03387171 14734028
0.021350622 0.83028364 0.033868924 14603212
0.021811601 0.83023369 0.033866137 14603212
0.022272583 0.83018386 0.033863351 14669005
0.022733562 0.83013397 0.033860564 14669005
0.02319454 0.83008409 0.033857778 14603210
0.023555771 0.83086276 0.034447953 14603210
0.024015129 0.83081305 0.034445167 14669003
0.024474487 0.83076334 0.034442395 14669003
0.024933841 0.83071363 0.034439623 14734796
0.025393203 0.83066392 0.034436837 14669003
0.025852561 0.83061421 0.034434065 14734796
0.026311915 0.8305645 0.034431294 14734796
0.02677127 0.83051479 0.034428507 14669005
0.027230628 0.83046508 0.034425735 14669005
0.027689986 0.83041537 0.034422964 14865614
0.028149344 0.83036566 0.034420177 14865614
0.028608702 0.83031595 0.034417406 14799821
0.02906806 0.83026624 0.034414634 14799821
0.029527411 0.83021653 0.034411848 14865614
0.029986769 0.83016682 0.034409076 14931407
0.030446127 0.83011711 0.034406304 14734028
0.030905485 0.8300674 0.034403518 14602442
0.031364843 0.83001769 0.034400746 14734028
0.031824201 0.82996798 0.034397975 14602442
0.032283559 0.82991827 0.034395188 14667722
0.032742918 0.82986856 0.034392416 14930894
0.033202276 0.82981884 0.034389645 14865099
0.033661626 0.82976913 0.034386858 14930892
0.034120984 0.82971942 0.034384087 14865099
0.034580342 0.82966971 0.034381315 14667720
0.035039701 0.82962 0.034378529 14799306
0.035357106 0.83040345 0.034969002 14865099
0.035814833 0.83035392 0.03496623 14799306
0.036272567 0.83030438 0.034963459 14799306
0.036730301 0.83025485 0.034960687 14799306
0.037188042 0.83020532 0.03495793 14799306
0.037645776 0.83015573 0.034955159 14799306
0.038103502 0.83010626 0.034952387 14799306
0.038561236 0.83005667 0.03494963 14799306
0.03901897 0.8300072 0.034946859 14799306
0.039476711 0.8299576 0.034944087 14667720
0.039934438 0.82990807 0.034941331 14667720
0.040392179 0.82985854 0.034938559 14667720
0.040849905 0.82980901 0.034935787 14799306
0.041307639 0.82975948 0.034933031 14601927
0.041765381 0.82970995 0.034930259 14601927
0.042223115 0.82966042 0.034927487 14601929
0.042680848 0.82961088 0.034924731 14601929
0.043138582 0.82956135 0.034921959 14536649
0.043596316 0.82951182 0.034919187 14602442
0.04405405 0.82946229 0.034916431 14536649
0.044511784 0.82941276 0.034913659 14536649
0.044969518 0.82936323 0.034910887 14536649
0.045427252 0.8293137 0.034908116 14536649
0.045884978 0.82926416 0.034905359 14536649
0.046342727 0.82921457 0.034902588 14470856
0.046800453 0.8291651 0.034899831 14470856
0.047258187 0.82911551 0.034897059 14470856
0.047715914 0.82906604 0.034894288 14601927
0.048173655 0.82901645 0.034891516 14601927
0.048631389 0.82896698 0.034888759 14536134
0.049089123 0.82891738 0.034885988 14470341
0.049546856 0.82886785 0.034883216 14405061
0.05000459 0.82881832 0.034880459 14405061
0.050462324 0.82876879 0.034877688 14470854
0.050920065 0.82871926 0.034874916 14339268
0.051377799 0.82866973 0.034872159 14273475
0.051835526 0.8286202 0.034869388 14273475
0.05229326 0.82857066 0.034866616 14076096
0.052750994 0.82852113 0.034863859 14076096
0.053413995 0.82763159 0.034267455 13813694
0.053873345 0.82758188 0.034264684 13682108
0.054332711 0.82753217 0.034261912 13484729
0.054792054 0.82748246 0.03425914 13353143
0.05525142 0.82743275 0.034256354 13089971
0.05571077 0.82738304 0.034253582 12958385
0.05638513 0.82649231 0.033657148 12761260
0.056846105 0.82644242 0.033654362 12432295
0.057307087 0.82639253 0.033651575 12103330
0.057768077 0.82634264 0.033648789 11708572
0.058229044 0.82629275 0.033646002 11443345
-0.027548123 0.83043039 0.031020522 14735310
-0.027077403 0.83037949 0.031017676 14932689
-0.026606686 0.83032852 0.03101483 15064275
-0.026135966 0.83027756 0.031011984 15064275
-0.025665246 0.83022666 0.031009138 15064275
-0.025194526 0.8301757 0.031006292 15130068
-0.024654668 0.8309359 0.031593993 15130068
-0.024185572 0.83088511 0.031591162 15064275
-0.023716476 0.83083439 0.031588316 15064275
-0.02324738 0.83078361 0.031585485 15129554
-0.022778284 0.83073282 0.031582654 15129554
-0.022309188 0.83068204 0.031579822 15063761
-0.021840092 0.83063132 0.031576976 14866382
-0.021370996 0.83058053 0.031574145 14932175
-0.0209019 0.83052975 0.031571314 14866382
-0.020378277 0.83129168 0.032159075 14800589
-0.019910805 0.83124113 0.032156259 14800589
-0.019443331 0.83119053 0.032153428 14669519
-0.018975858 0.83113992 0.032150596 14735312
-0.018508384 0.83108932 0.03214778 14603726
-0.018040912 0.83103871 0.032144949 14603726
-0.017573439 0.83098817 0.032142118 14603726
-0.017105965 0.83093756 0.032139301 14735312
-0.016638491 0.83088696 0.03213647 14800589
-0.016131099 0.83165067 0.032724351 14800589
-0.015665248 0.83160025 0.032721549 14800589
-0.015199398 0.83154988 0.032718718 14800589
-0.014733548 0.83149946 0.032715917 14734796
-0.014267699 0.83144903 0.032713085 14669003
-0.013801851 0.83139861 0.032710284 14734796
-0.013336 0.83134818 0.032707468 14800589
-0.012870151 0.83129781 0.032704651 14734796
-0.012404299 0.83124739 0.032701835 14734796
-0.01193845 0.83119696 0.032699019 14669003
-0.011472599 0.83114654 0.032696202 14669003
-0.011006749 0.83109617 0.032693386 14669003
-0.010540902 0.83104575 0.03269057 14669003
-0.010075052 0.83099532 0.032687753 14669003
-0.009609201 0.8309449 0.032684937 14603210
-0.0091433516 0.83089447 0.032682121 14603212
-0.0086775003 0.83084404 0.032679304 14603212
-0.0081993276 0.83161092 0.033267364 14669005
-0.0077351006 0.83156067 0.033264548 14669005
-0.0072708735 0.83151042 0.033261746 14799821
-0.0068066483 0.83146024 0.033258945 14799821
-0.0063424213 0.83140999 0.033256143 14865614
-0.0058781942 0.83135974 0.033253327 14865614
-0.005413969 0.8313095 0.033250526 14799819
-0.0049497401 0.83125925 0.033247724 14799819
-0.0044855131 0.831209 0.033244908 14734796
-0.004021286 0.83115876 0.033242106 14800589
-0.0035570608 0.83110857 0.033239305 14669003
-0.0030928338 0.83105832 0.033236489 14669003
-0.0026286067 0.83100808 0.033233687 14734796
-0.0021643816 0.83095783 0.033230886 14734796
-0.0017001508 0.83090758 0.03322807 14734796
-0.0012359256 0.8308574 0.033225268 14669003
-0.0007717004 0.83080709 0.033222467 14669003
-0.00030746963 0.8307569 0.03321965 14669003
0.0001567537 0.83070666 0.033216849 14669003
0.00062098075 0.83065641 0.033214048 14603210
0.0010852041 0.83060616 0.033211231 14669003
0.0015494348 0.83055592 0.03320843 14669003
0.0020136619 0.83050573 0.033205628 14734796
0.0024778889 0.83045548 0.033202827 14734796
0.0029421123 0.83040524 0.033200011 14734796
0.0034063393 0.83035499 0.033197209 14669003
0.0038406933 0.83112657 0.033785522 14669003
0.0043032924 0.8310765 0.033782721 14669003
0.0047658952 0.83102643 0.033779919 14603210
0.0052285017 0.83097637 0.033777133 14669003
0.0056911083 0.83092636 0.033774331 14603212
0.0061537074 0.83087629 0.033771545 14669005
0.0066163139 0.83082622 0.033768743 14669005
0.0070789168 0.83077615 0.033765942 14669005
0.0075415196 0.83072609 0.03376314 14669005
0.0080041224 0.83067602 0.033760354 14669005
0.0084667252 0.83062595 0.033757553 14669005
0.0089293281 0.83057594 0.033754766 14669005
0.0093919346 0.83052588 0.033751965 14799821
0.0098545337 0.83047581 0.033749163 14799821
0.01031714 0.83042574 0.033746362 14734028
0.010779743 0.83037567 0.033743575 14734028
0.011242353 0.8303256 0.033740774 14471626
0.011704952 0.83027554 0.033737987 14603212
0.012167555 0.83022547 0.033735186 14603212
0.012630162 0.8301754 0.033732384 14603212
0.01303042 0.83095074 0.034320936 14734798
0.013491402 0.83090085 0.034318149 14669005
0.013952381 0.83085096 0.034315363 14669005
0.014413363 0.83080107 0.034312576 14603212
0.014874342 0.83075118 0.03430979 14603212
0.01533532 0.83070129 0.034307003 14603212
0.015796304 0.8306514 0.034304217 14603212
0.016257282 0.83060151 0.03430143 14471626
0.016718261 0.83055162 0.034298643 14603212
0.017179243 0.83050174 0.034295857 14669005
0.017640226 0.83045185 0.03429307 14799821
0.018101208 0.83040196 0.034290284 14799821
0.018562187 0.83035207 0.034287497 14799821
0.019023169 0.83030224 0.034284711 14734028
0.019484147 0.83025229 0.034281924 14734028
0.019945126 0.83020246 0.034279138 14734028
0.020406105 0.83015251 0.034276351 14799821
0.020867091 0.83010268 0.034273565 14799821
0.021328069 0.83005279 0.034270778 14799821
0.021789048 0.8300029 0.034267992 14799821
0.02225003 0.82995301 0.034265205 14799821
0.022711009 0.82990313 0.034262419 14799821
0.023171987 0.82985324 0.034259632 14799821
0.023533296 0.83063269 0.034848377 14865614
0.023992654 0.83058298 0.034845605 14865614
0.024452012 0.83053327 0.034842834 14799821
0.024911366 0.83048356 0.034840047 14669005
0.025370728 0.83043385 0.034837276 14669005
0.025830086 0.83038414 0.034834504 14669005
0.026289441 0.83033442 0.034831718 14669005
0.026748799 0.83028471 0.034828946 14669005
0.027208157 0.830235 0.034826159 14669005
0.027667515 0.83018529 0.034823388 14734798
0.028126873 0.83013558 0.034820616 14734798
0.028586224 0.83008587 0.034817845 14865614
0.029045582 0.83003616 0.034815058 14931407
0.02950494 0.82998645 0.034812286 14865614
0.029964298 0.82993674 0.0348095 14865614
0.030423656 0.82988703 0.034806728 14931407
0.030883014 0.82983732 0.034803957 14931407
0.031342372 0.82978761 0.034801185 14865614
0.03180173 0.8297379 0.034798399 14799821
0.032261088 0.82968819 0.034795627 14799308
0.032720447 0.82963848 0.03479284 14865101
0.033179805 0.82958877 0.034790069 14799306
0.033639155 0.82953906 0.034787297 14865099
0.034098513 0.82948935 0.034784511 14799306
0.034557872 0.82943964 0.034781739 14799306
0.03501723 0.82938993 0.034778967 14799306
0.03533471 0.83017421 0.03536801 14799306
0.035792436 0.83012468 0.035365254 14865099
0.03625017 0.83007514 0.035362482 14865099
0.036707904 0.83002561 0.03535971 14865099
0.037165646 0.82997608 0.035356939 14865099
0.037623379 0.82992655 0.035354182 14865099
0.038081106 0.82987702 0.035351411 14930892
0.03853884 0.82982749 0.035348639 14799306
0.038996574 0.82977796 0.035345882 14799306
0.039454315 0.82972842 0.035343111 14799306
0.039912041 0.82967889 0.035340339 14667720
0.040369783 0.82962936 0.035337582 14667720
0.040827509 0.82957983 0.035334811 14667720
0.041285243 0.82953024 0.035332039 14601927
0.041742984 0.82948077 0.035329282 14601927
0.042200718 0.82943118 0.035326511 14667720
0.042658452 0.8293817 0.035323739 14799306
0.043116186 0.82933211 0.035320967 14602440
0.04357392 0.82928258 0.035318211 14536647
0.044031654 0.82923305 0.035315439 14536647
0.044489387 0.82918352 0.035312682 14536647
0.044947121 0.82913399 0.035309911 14536647
0.045404855 0.82908446 0.035307139 14536647
0.045862582 0.82903492 0.035304368 14536647
0.04632033 0.82898539 0.035301611 14470854
0.046778057 0.82893586 0.035298839 14470856
0.047235791 0.82888633 0.035296068 14470856
0.047693517 0.8288368 0.035293311 14536647
0.048151258 0.82878727 0.035290539 14536647
0.048608992 0.82873774 0.035287768 14470854
0.049066726 0.8286882 0.035285011 14405061
0.04952446 0.82863867 0.035282239 14405061
0.049982194 0.82858908 0.035279468 14405061
0.050439928 0.82853961 0.035276711 14470854
0.050897669 0.82849002 0.035273939 14339268
0.051355403 0.82844055 0.035271168 14339268
0.051813129 0.82839096 0.035268396 14339268
0.052270863 0.82834148 0.035265639 14141889
0.052728597 0.82829189 0.035262868 14141889
0.053391524 0.82740158 0.034667894 13813694
0.053850874 0.82735187 0.034665123 13747901
0.05431024 0.82730216 0.034662336 13682108
0.054769583 0.82725245 0.034659564 13353143
0.055228949 0.82720274 0.034656793 13221557
0.055688299 0.82715303 0.034654006 12958385
0.056362577 0.82626146 0.034059003 12761260
0.056823552 0.82621157 0.034056216 12432295
0.057284534 0.82616168 0.03405343 12169123
0.057745524 0.82611179 0.034050643 11840158
0.058206491 0.8260619 0.034047857 11574931
-0.027492195 0.83100557 0.032019928 14669517
-0.027023099 0.83095479 0.032017097 14932689
-0.026554003 0.83090401 0.032014251 15064275
-0.026084907 0.83085328 0.03201142 15064275
-0.025615811 0.8308025 0.032008588 15064275
-0.025146715 0.83075178 0.032005757 15195861
-0.024608403 0.83151287 0.032592013 15130068
-0.024140932 0.83146226 0.032589197 15064275
-0.02367346 0.83141172 0.032586366 15064275
-0.023205984 0.83136111 0.032583535 15261140
-0.022738513 0.83131051 0.032580718 15129554
-0.022271041 0.83125997 0.032577887 15063761
-0.021803565 0.83120936 0.032575056 14932175
-0.021336094 0.83115876 0.03257224 14932175
-0.020868622 0.83110821 0.032569408 14932175
-0.020346537 0.83187115 0.033155799 14866382
-0.019880688 0.83182073 0.033152983 14866382
-0.019414838 0.8317703 0.033150166 14866382
-0.018948989 0.83171988 0.03314735 14866382
-0.018483138 0.83166945 0.033144534 14603724
-0.018017288 0.83161902 0.033141717 14603724
-0.017551439 0.83156866 0.033138901 14669517
-0.017085588 0.83151823 0.033136085 14669517
-0.016619738 0.83146781 0.033133268 14669517
-0.016153887 0.83141738 0.033130452 14669517
-0.015688039 0.83136702 0.033127636 14800589
-0.015222189 0.83131659 0.033124819 14734796
-0.014721212 0.83208179 0.033711329 14669003
-0.014256985 0.83203155 0.033708513 14669003
-0.013792758 0.8319813 0.033705711 14800589
-0.013328531 0.83193105 0.03370291 14866382
-0.012864306 0.83188081 0.033700094 14800589
-0.012400077 0.83183062 0.033697292 14734796
-0.011935852 0.83178031 0.033694491 14669003
-0.011471623 0.83173013 0.033691674 14734796
-0.011007397 0.83167988 0.033688873 14734798
-0.010543172 0.83162963 0.033686072 14734798
-0.010078943 0.83157939 0.03368327 14669005
-0.0096147181 0.83152914 0.033680454 14669005
-0.009150493 0.83147895 0.033677652 14669005
-0.0086862622 0.83142871 0.033674836 14669005
-0.0082096336 0.83219653 0.03426148 14669005
-0.0077470308 0.83214647 0.034258693 14669005
-0.0072844261 0.8320964 0.034255892 14799821
-0.0068218233 0.83204633 0.034253091 14799821
-0.0063592186 0.83199626 0.034250304 14865614
-0.0058966177 0.83194625 0.034247503 14865614
-0.005434013 0.83189619 0.034244701 14799821
-0.0049714083 0.83184612 0.034241915 14799821
-0.0045088036 0.83179605 0.034239113 14734796
-0.0040462008 0.83174598 0.034236312 14800589
-0.003583598 0.83169591 0.034233525 14669003
-0.0031209951 0.83164585 0.034230724 14669003
-0.0026583904 0.83159578 0.034227923 14734796
-0.0021957876 0.83154571 0.034225136 14669003
-0.0017331811 0.83149564 0.034222335 14734796
-0.0012705801 0.83144557 0.034219533 14734796
-0.00080797356 0.83139557 0.034216747 14669003
-0.00034537073 0.8313455 0.034213945 14669003
0.00011723209 0.83129543 0.034211144 14669003
0.00057983492 0.83124536 0.034208357 14669003
0.0010424377 0.83119529 0.034205556 14669005
0.0015050406 0.83114523 0.034202754 14669005
0.0019676471 0.83109516 0.034199968 14669005
0.0024302462 0.83104515 0.034197167 14669005
0.0028928528 0.83099508 0.034194365 14669003
0.0033554556 0.83094501 0.034191579 14669003
0.0037882617 0.83171761 0.034778506 14669003
0.004249244 0.83166772 0.034775719 14734796
0.0047102226 0.83161783 0.034772933 14603210
0.0051712049 0.83156794 0.034770146 14603210
0.0056321835 0.83151805 0.034767359 14603212
0.0060931658 0.83146816 0.034764573 14669005
0.0065541482 0.83141828 0.034761786 14669005
0.0070151268 0.83136839 0.034759 14669005
0.0074761054 0.8313185 0.034756213 14734798
0.0079370877 0.83126861 0.034753427 14800591
0.0083980663 0.83121872 0.03475064 14865614
0.0088590449 0.83116883 0.034747854 14734028
0.0093200235 0.83111894 0.034745067 14734028
0.0097810095 0.83106911 0.034742281 14734028
0.010241988 0.83101916 0.034739494 14734028
0.010702967 0.83096933 0.034736708 14734028
0.011163953 0.83091938 0.034733921 14734028
0.011624931 0.83086956 0.034731135 14734028
0.01208591 0.83081967 0.034728348 14603212
0.012546889 0.83076978 0.034725562 14603212
0.013007871 0.83071989 0.034722775 14734798
0.013468853 0.83067 0.034719989 14669005
0.013929832 0.83062011 0.034717202 14734028
0.014390814 0.83057022 0.034714416 14734028
0.014851793 0.83052033 0.034711629 14734028
0.015312771 0.83047044 0.034708843 14799821
0.015701752 0.83124775 0.035296023 14734028
0.01616111 0.83119804 0.035293236 14734028
0.016620468 0.83114833 0.035290465 14734028
0.017079826 0.83109862 0.035287693 14799821
0.017539181 0.83104891 0.035284907 14799821
0.017998543 0.8309992 0.035282135 14799821
0.018457897 0.83094949 0.035279363 14799821
0.018917255 0.83089978 0.035276577 14799821
0.019376613 0.83085006 0.035273805 14734028
0.019835971 0.83080035 0.035271034 14734028
0.020295326 0.83075064 0.035268247 14799821
0.020754684 0.83070093 0.035265476 14799821
0.021214042 0.83065122 0.035262704 14799821
0.021673396 0.83060151 0.035259917 14865614
0.022132754 0.8305518 0.035257146 14865614
0.022592112 0.83050209 0.035254374 14865614
0.023051471 0.83045238 0.035251588 14865614
0.023510825 0.83040267 0.035248816 14799821
0.023970183 0.83035296 0.035246044 14865614
0.024429541 0.83030325 0.035243258 14799821
0.024784431 0.83108431 0.035830662 14799821
0.025242165 0.83103478 0.035827905 14799821
0.025699899 0.83098519 0.035825133 14669005
0.026157632 0.83093572 0.035822362 14669005
0.026615366 0.83088613 0.035819605 14669005
0.0270731 0.83083665 0.035816833 14669005
0.027530834 0.83078706 0.035814062 14734798
0.027988568 0.83073753 0.035811305 14800591
0.028446302 0.830688 0.035808533 14865614
0.028904036 0.83063847 0.035805762 14931407
0.02936177 0.83058894 0.03580299 14865614
0.029819503 0.83053941 0.035800233 14865614
0.030277237 0.83048987 0.035797462 14996689
0.030734975 0.83044034 0.035794705 14930896
0.031192709 0.83039081 0.035791934 14996687
0.031650435 0.83034128 0.035789162 14865101
0.032108176 0.83029175 0.03578639 14799308
0.032565918 0.83024222 0.035783634 14799308
0.033023652 0.83019269 0.035780862 14799306
0.033481378 0.83014315 0.03577809 14865099
0.033939112 0.83009362 0.035775334 14799306
0.034396846 0.83004409 0.035772562 14865099
0.034854587 0.82999456 0.03576979 14865099
0.035312321 0.82994497 0.035767034 14865099
0.035770047 0.8298955 0.035764262 14865099
0.036227781 0.82984591 0.03576149 14865099
0.036538847 0.83063167 0.036349133 14930892
0.036994964 0.83058232 0.036346376 14865099
0.037451066 0.83053297 0.036343619 14865099
0.037907183 0.83048362 0.036340863 14865099
0.038363293 0.83043426 0.036338106 14865099
0.038819402 0.83038491 0.036335349 14799306
0.039275512 0.83033556 0.036332592 14799306
0.039731629 0.83028615 0.036329836 14799306
0.040187739 0.83023679 0.036327079 14667720
0.040643848 0.83018744 0.036324322 14667720
0.041099958 0.83013809 0.036321566 14601929
0.041556068 0.83008873 0.036318809 14601929
0.042012177 0.83003938 0.036316052 14799308
0.042468302 0.82999003 0.036313295 14799308
0.042924404 0.82994068 0.036310539 14667722
0.043380514 0.82989132 0.036307782 14601929
0.043836623 0.82984197 0.036305025 14536647
0.044292733 0.82979262 0.036302269 14470854
0.044748843 0.82974327 0.036299512 14470854
0.04520496 0.82969385 0.036296755 14536647
0.045661069 0.8296445 0.036293998 14536647
0.046117179 0.82959515 0.036291242 14536647
0.046573289 0.8295458 0.036288485 14470856
0.047029398 0.82949644 0.036285728 14405063
0.047485508 0.82944709 0.036282972 14602440
0.047941618 0.82939774 0.036280215 14536647
0.048397735 0.82934833 0.036277443 14405061
0.048853844 0.82929897 0.036274701 14405061
0.049309954 0.82924962 0.03627193 14405061
0.049766064 0.82920027 0.036269188 14405061
0.050222181 0.82915092 0.036266416 14470854
0.050678283 0.82910156 0.03626366 14339268
0.051134408 0.82905221 0.036260903 14405061
0.05179074 0.82816178 0.035667419 14405061
0.052248474 0.82811224 0.035664648 14141889
0.052706208 0.82806271 0.035661891 14141889
0.053163949 0.82801318 0.035659119 13813694
0.053621676 0.82796365 0.035656348 13747901
0.054079417 0.82791412 0.035653591 13682108
0.054537144 0.82786453 0.03565082 13418936
0.054994877 0.82781506 0.035648048 13156278
0.055452611 0.82776546 0.035645291 12893106
0.056125194 0.8268733 0.035051674 12761260
0.056584544 0.82682359 0.035048887 12498088
0.057043903 0.82677388 0.035046116 12299939
0.057503268 0.82672417 0.035043344 12036767
0.057962619 0.82667446 0.035040557 11706517
-0.027515143 0.83077067 0.032428846 14801103
-0.027046047 0.83071989 0.032426015 14932689
-0.026576951 0.83066911 0.032423183 14998482
-0.026107855 0.83061838 0.032420337 15064275
-0.025638759 0.8305676 0.032417506 15130068
-0.025169663 0.83051682 0.032414675 15195861
-0.024631273 0.8312788 0.03299953 15195861
-0.024163801 0.8312282 0.032996699 15261140
-0.023696329 0.83117759 0.032993868 15261140
-0.023228854 0.83112705 0.032991052 15261140
-0.022761382 0.83107644 0.03298822 15129554
-0.02229391 0.83102584 0.032985389 15063761
-0.021826435 0.83097529 0.032982573 14932175
-0.021358963 0.83092469 0.032979742 14932175
-0.020891491 0.83087409 0.032976925 14932175
-0.020369329 0.83163786 0.033561885 14866382
-0.019903477 0.83158743 0.033559069 14932175
-0.01943763 0.83153701 0.033556253 14932175
-0.018971778 0.83148658 0.033553436 14866382
-0.018505927 0.83143616 0.03355062 14735310
-0.01804008 0.83138579 0.033547804 14669517
-0.017574228 0.83133537 0.033544987 14735310
-0.017108377 0.83128494 0.033542171 14801103
-0.01664253 0.83123451 0.033539355 14735310
-0.016176678 0.83118415 0.033536538 14669517
-0.015710831 0.83113372 0.033533722 14800589
-0.015244978 0.8310833 0.033530906 14734796
-0.014743923 0.83184928 0.034116 14669003
-0.014279696 0.83179903 0.034113199 14669003
-0.013815469 0.83174884 0.034110397 14669517
-0.013351242 0.8316986 0.034107581 14735310
-0.012887017 0.83164835 0.034104779 14669517
-0.012422788 0.8315981 0.034101963 14603724
-0.011958563 0.83154786 0.034099162 14603726
-0.011494334 0.83149767 0.03409636 14537933
-0.011030109 0.83144742 0.034093559 14603726
-0.010565883 0.83139718 0.034090742 14603726
-0.010101655 0.83134693 0.034087941 14603726
-0.0096374294 0.83129668 0.03408514 14537933
-0.0091732042 0.83124644 0.034082323 14669005
-0.0087089734 0.83119619 0.034079522 14669005
-0.0082322648 0.83196485 0.03466475 14669005
-0.007769662 0.83191478 0.034661949 14734798
-0.0073070573 0.83186471 0.034659147 14669005
-0.0068444544 0.83181471 0.034656361 14669005
-0.0063818498 0.83176464 0.034653559 14734798
-0.0059192488 0.83171457 0.034650773 14669005
-0.0054566441 0.8316645 0.034647971 14669005
-0.0049940394 0.83161443 0.03464517 14669005
-0.0045314347 0.83156437 0.034642383 14734796
-0.0040688319 0.8315143 0.034639582 14734796
-0.0036062291 0.83146429 0.034636781 14669003
-0.0031436263 0.83141422 0.034633994 14734796
-0.0026810216 0.83136415 0.034631193 14734796
-0.0022184188 0.83131409 0.034628391 14669003
-0.0017558122 0.83126402 0.034625605 14734796
-0.0012932112 0.83121395 0.034622803 14734796
-0.00083060469 0.83116388 0.034620002 14669003
-0.00036800187 0.83111382 0.034617215 14734796
9.4600953e-05 0.83106375 0.034614414 14669003
0.00055720378 0.83101368 0.034611613 14669003
0.0010198066 0.83096361 0.034608826 14669005
0.0014824094 0.8309136 0.034606025 14669005
0.001945016 0.83086354 0.034603223 14669005
0.0024076151 0.83081347 0.034600437 14734798
0.0028702216 0.8307634 0.034597635 14669005
0.0033328244 0.83071333 0.034594834 14669005
0.0037657088 0.83148676 0.03518036 14669005
0.0042266911 0.83143687 0.035177574 14734798
0.0046876697 0.83138698 0.035174787 14669005
0.005148652 0.83133709 0.035172001 14603212
0.0056096306 0.83128721 0.035169214 14603212
0.0060706129 0.83123732 0.035166427 14669005
0.0065315953 0.83118743 0.035163641 14669005
0.0069925738 0.83113754 0.035160854 14669005
0.0074535524 0.83108765 0.035158068 14734798
0.0079145348 0.83103776 0.035155281 14800591
0.0083755134 0.83098787 0.035152495 14997200
0.008836492 0.83093798 0.035149708 14931407
0.0092974706 0.83088815 0.035146922 14734028
0.0097584566 0.8308382 0.035144135 14734028
0.010219435 0.83078837 0.035141349 14734028
0.010680414 0.83073843 0.035138562 14799821
0.0111414 0.8306886 0.035135776 14799821
0.011602378 0.83063871 0.035132989 14799821
0.012063357 0.83058882 0.035130203 14799821
0.012524336 0.83053893 0.035127416 14799821
0.012985318 0.83048904 0.03512463 14799821
0.0134463 0.83043915 0.035121843 14799821
0.013907279 0.83038926 0.035119057 14734028
0.014368261 0.83033937 0.03511627 14799821
