# .PCD v0.7 - Point Cloud Data file format
VERSION 0.7
FIELDS x y z rgb
SIZE 4 4 4 4
TYPE F F F U
COUNT 1 1 1 1
WIDTH 1043
HEIGHT 1
VIEWPOINT 0 0 0 1 0 0 0
POINTS 1043
DATA ascii
0.44636971 -0.01451375 0.42611206 4282661152
0.44636482 -0.013945565 0.42591077 4282727969
0.44635993 -0.013378419 0.42570955 4282859555
0.44635743 -0.012801692 0.42560828 4282859301
0.44635493 -0.012225481 0.42550701 4283384623
0.44635007 -0.011660922 0.42530578 4283384623
0.44634518 -0.011097401 0.42510456 4283844913
0.44634029 -0.010534918 0.4249033 4284239673
0.44633541 -0.0099734683 0.42470205 4284305466
0.4463329 -0.0094008874 0.42460081 4284305466
0.44632804 -0.0088412501 0.42439958 4284173110
0.44632554 -0.0082699638 0.42429835 4283384875
0.44632065 -0.0077121444 0.42409712 4283187498
0.44631577 -0.0071553588 0.4238959 4283187498
0.44631565 -0.0065726787 0.42389461 4282792236
0.44631791 -0.0059762765 0.42399329 4282726443
0.44631779 -0.0053933375 0.42399204 4282660904
0.44631767 -0.0048104003 0.42399076 4282659621
0.44631994 -0.0042129569 0.42408943 4282659621
0.44632459 -0.0036002435 0.42428809 4282988582
0.44632921 -0.0029864907 0.42448676 4283186465
0.44633624 -0.0023564175 0.42478538 4283055649
0.44634324 -0.001724802 0.42508402 4283055649
0.44635263 -0.0010758229 0.4254826 4283121955
0.44636443 -0.00040872023 0.42598116 4283122727
0.44637144 0.00022834539 0.42627975 4283385907
0.44637844 0.00086696446 0.42657837 4283846458
0.4463926 0.0015576333 0.42717686 4285095241
0.44640198 0.0022172369 0.42757544 4285753425
0.44641376 0.0028962493 0.42807394 4286016597
0.44642317 0.0035602562 0.42847252 4285950550
0.44643018 0.0042084567 0.42877108 4285687378
0.44716433 0.025288843 0.45972547 4281022517
0.44703853 -0.078327902 0.48485222 4284177219
0.44703627 -0.077573448 0.4847506 4284112196
0.44703186 -0.076805502 0.4845489 4283783485
0.44702959 -0.076052345 0.48444724 4283716407
0.44702518 -0.07528621 0.48424557 4283847993
0.44701865 -0.074507907 0.48394388 4284833859
0.44701001 -0.07371819 0.48354214 4285030724
0.44700348 -0.072943255 0.48324046 4284899398
0.4469927 -0.07214497 0.4827387 4284570948
0.44698402 -0.071361482 0.48233697 4284570948
0.44697112 -0.070556194 0.4817352 4284570948
0.44694549 -0.069684036 0.48053327 4284307776
0.44681326 -0.066821739 0.47432688 4284634942
0.4467876 -0.065981187 0.47312504 4284569151
0.44676834 -0.065177962 0.47222328 4284438597
0.44675332 -0.064399615 0.47152159 4284307011
0.44674891 -0.063674167 0.47131997 4284307522
0.44674453 -0.062949762 0.47111839 4283913018
0.446738 -0.062217049 0.47081679 4283847225
0.44673362 -0.061494969 0.47061521 4283846971
0.4467271 -0.06076511 0.47031361 4283912764
0.44672695 -0.060062476 0.47031206 4283781432
0.4467268 -0.059359841 0.47031054 4283649846
0.44672242 -0.058641128 0.47010896 4283584051
0.44672015 -0.057931229 0.47000739 4282991655
0.44646648 -0.052979261 0.45809639 4281873701
0.44645783 -0.052284367 0.45769486 4282202666
0.44644707 -0.051585846 0.45719332 4282137640
0.4464342 -0.050884459 0.45659176 4281939748
0.4464277 -0.050201751 0.45629027 4282005541
0.44641906 -0.049515668 0.45588875 4282334504
0.44641042 -0.048831657 0.45548725 4282400297
0.44639754 -0.048140898 0.45488572 4282334504
0.44638467 -0.047453247 0.45428422 4282663217
0.44637391 -0.046772595 0.45378274 4283254586
0.44636104 -0.046090901 0.45318121 4283517758
0.44634816 -0.045412317 0.45257971 4283978309
0.44633529 -0.044736844 0.45197824 4284044100
0.44632241 -0.044064477 0.45137674 4284110147
0.44631165 -0.043397818 0.45087528 4284044350
0.44630301 -0.042736087 0.45047382 4284307522
0.44629014 -0.042072274 0.44987234 4284241729
0.44627941 -0.041413385 0.44937092 4284110397
0.44626865 -0.04075709 0.44886947 4284241983
0.44625789 -0.040103383 0.44836801 4284110397
0.44624713 -0.03945227 0.44786662 4284110395
0.4462364 -0.038803749 0.44736516 4284241981
0.44622564 -0.038157817 0.44686377 4284110395
0.44621277 -0.037514206 0.44626236 4284044602
0.44619989 -0.036873709 0.44566095 4283978809
0.44618705 -0.03623632 0.44505954 4283781430
0.44617841 -0.035601016 0.44465816 4283847993
0.44616556 -0.034969326 0.44405675 4284044602
0.44615269 -0.034340747 0.44345534 4283978809
0.4461377 -0.033716559 0.44275397 4284043577
0.44612482 -0.033094458 0.44215262 4284896831
0.44610983 -0.032477267 0.44145125 4284832575
0.4460991 -0.031859577 0.44094989 4284767552
0.446082 -0.031251445 0.44014856 4284768066
0.44606912 -0.030642297 0.43954718 4284767812
0.44605413 -0.030039098 0.43884587 4284767812
0.44604129 -0.029436426 0.43824455 4284768579
0.4460263 -0.028840221 0.43754321 4284505403
0.4460113 -0.028247647 0.43684191 4284834107
0.44599843 -0.027654821 0.43624061 4284768314
0.44598559 -0.0270651 0.43563932 4284505142
0.44597274 -0.026478492 0.43503803 4284505142
0.44595987 -0.02589499 0.43443674 4284439351
0.44595125 -0.025304768 0.43403545 4284307765
0.44594052 -0.024721794 0.43353415 4284175411
0.44593191 -0.024135977 0.43313289 4284174130
0.44592118 -0.023557924 0.43263161 4283647534
0.44591045 -0.022982463 0.43213034 4283713327
0.44590184 -0.022403382 0.43172905 4283385129
0.44588897 -0.021839313 0.43112782 4283122727
0.44588035 -0.021264896 0.43072653 4283122727
0.44586962 -0.020699538 0.43022531 4283188520
0.44586101 -0.020129524 0.42982405 4282728483
0.44585028 -0.01956909 0.42932281 4282596897
0.44584167 -0.019003481 0.42892155 4282530850
0.44583094 -0.018447965 0.42842036 4282399518
0.44582447 -0.01787848 0.42811909 4282267930
0.44581375 -0.017327633 0.42761791 4282267932
0.44580725 -0.016761772 0.42731664 4282399266
0.44580078 -0.016197462 0.42701542 4282399266
0.44579428 -0.01563471 0.42671418 4282201887
0.44578993 -0.015063936 0.4265129 4282398752
0.44578344 -0.014504034 0.42621168 4282596131
0.44577909 -0.01393559 0.42601043 4282399266
0.4457747 -0.013368182 0.4258092 4282465059
0.44577035 -0.012801813 0.42560795 4282399266
0.44576597 -0.012236478 0.42540669 4282662184
0.44576374 -0.011661045 0.42530546 4282662184
0.44575939 -0.011097522 0.4251042 4282662438
0.44575503 -0.010535039 0.42490298 4282530602
0.44575065 -0.0099735893 0.42470175 4282267430
0.4457463 -0.009413179 0.4245005 4282661674
0.44574195 -0.0088538006 0.4242993 4282660902
0.44573757 -0.0082954597 0.42409807 4282726184
0.44573534 -0.0077252109 0.42399681 4282660904
0.4457331 -0.0071554799 0.42389554 4282463525
0.44573087 -0.006586263 0.4237943 4282660904
0.44573075 -0.0060038455 0.42379302 4282661674
0.44573274 -0.0054074414 0.42389172 4282726697
0.44573262 -0.004824765 0.42389047 4282594598
0.44573462 -0.0042275786 0.42398915 4282528805
0.44573662 -0.0036298819 0.42408782 4282923561
0.44574073 -0.0030166507 0.42428651 4283055397
0.44574699 -0.002387099 0.4245851 4283318053
0.44575533 -0.0017404594 0.42498374 4283186467
0.44576582 -0.0010759458 0.42548227 4283187235
0.44577205 -0.00044095144 0.42578089 4283188520
0.44577831 0.00019559637 0.42607951 4283583026
0.44578665 0.00085027143 0.42647809 4284569151
0.44579926 0.0015406758 0.42707658 4285753425
0.44580972 0.002217114 0.42757511 4285687632
0.44581598 0.002861429 0.4278737 4286082138
0.44582433 0.0035249181 0.42827225 4285818964
0.44629818 -0.07758785 0.4848502 4284243012
0.44629616 -0.07683365 0.48474854 4283848254
0.44629601 -0.076093718 0.48474693 4283716409
0.44629213 -0.0753268 0.48454526 4283847995
0.44629011 -0.074574158 0.48444358 4284702532
0.44628435 -0.073796108 0.48414189 4284964677
0.44627675 -0.073006913 0.48374018 4284965193
0.44626912 -0.072219789 0.48333845 4284635974
0.44625965 -0.071422547 0.48283669 4284504388
0.44625202 -0.070639826 0.48243496 4284438597
0.44610587 -0.066854559 0.47462657 4284504128
0.44608518 -0.066023849 0.47352475 4284504128
0.44606638 -0.065209217 0.47252291 4284438597
0.44605502 -0.064440213 0.47192127 4284372804
0.44605115 -0.063713729 0.47171968 4284307013
0.44604728 -0.062988281 0.4715181 4283912766
0.44604152 -0.062254533 0.4712165 4283781182
0.44603953 -0.061540492 0.4711149 4283781182
0.44603565 -0.060818151 0.47091332 4283649596
0.44603363 -0.060105406 0.47081175 4283123250
0.44602975 -0.059384879 0.47061017 4282596904
0.44602963 -0.058681466 0.47060865 4282531365
0.44602573 -0.057962496 0.47040707 4281873435
0.44578412 -0.052272573 0.45749444 4280032530
0.44577652 -0.051580273 0.45709291 4280558102
0.44576705 -0.050884597 0.4565914 4280295700
0.4457576 -0.05019151 0.45608988 4280690458
0.44575188 -0.049510874 0.45578834 4280756251
0.44574428 -0.048827127 0.45538688 4281216286
0.44573295 -0.048136622 0.45478535 4281348124
0.44572347 -0.047453381 0.45428383 4282137386
0.44571587 -0.046776626 0.45388237 4282135853
0.4457083 -0.046101943 0.45348087 4282464818
0.4456951 -0.045419205 0.45277935 4283320129
0.44568565 -0.044746328 0.4522779 4283518276
0.44567433 -0.044073183 0.4516764 4283650114
0.44566673 -0.043408345 0.45127496 4283913284
0.44566101 -0.042747919 0.45097348 4283913538
0.44565156 -0.042084888 0.45047203 4283979331
0.44564208 -0.041424446 0.44997057 4283847743
0.44563076 -0.040765032 0.44936913 4283913534
0.44562131 -0.040110033 0.44886768 4283913788
0.44561186 -0.039457623 0.44836625 4283979579
0.44560242 -0.038807806 0.44786483 4284308028
0.44559109 -0.038160052 0.44726342 4284242235
0.44557977 -0.037515406 0.44666198 4283979579
0.44556847 -0.03687387 0.4460606 4283913788
0.44555715 -0.036235444 0.44545919 4283782202
0.4455477 -0.035599615 0.44495779 4284111165
0.44553825 -0.034966379 0.4444564 4284110649
0.44552693 -0.034336761 0.44385499 4283979063
0.44551563 -0.033710252 0.44325361 4283977012
0.44550431 -0.033086851 0.44265223 4284633913
0.44549114 -0.032468367 0.44195089 4284700476
0.44548169 -0.031849377 0.44144952 4284766782
0.44546479 -0.031242279 0.44054818 4284767552
0.44545346 -0.030632094 0.43994683 4284767552
0.44544029 -0.030027857 0.43924552 4284571200
0.445429 -0.02942415 0.43864417 4284768325
0.4454177 -0.028823547 0.43804285 4284571200
0.44540453 -0.028229676 0.43734154 4284768577
0.4453932 -0.027635552 0.43674022 4284702784
0.44538376 -0.0270404 0.43623891 4284636476
0.44537246 -0.026452236 0.43563762 4284636476
0.44536301 -0.025862522 0.43513632 4284636476
0.4453536 -0.025275404 0.43463504 4284504890
0.44534415 -0.024690874 0.43413377 4284570423
0.4453347 -0.024108935 0.43363249 4284437813
0.44532526 -0.023529587 0.43313122 4283977266
0.44531584 -0.02295283 0.43262994 4284108852
0.44530639 -0.022378664 0.43212867 4283780403
0.4452951 -0.02181356 0.43152741 4283188520
0.44528565 -0.021244833 0.43102616 4283188520
0.44527623 -0.020678695 0.43052495 4283517485
0.44526678 -0.020115154 0.43002367 4283122727
0.44525734 -0.0195542 0.42952245 4283122727
0.44524792 -0.018995838 0.42902121 4282991401
0.44523847 -0.018440066 0.42852002 4282794789
0.44523278 -0.017870318 0.42821875 4282794787
0.44522521 -0.017310668 0.42781752 4282465824
0.44521949 -0.01674429 0.42751628 4282399266
0.44521192 -0.016188525 0.42711502 4282399266
0.44520622 -0.015625514 0.42681381 4282201885
0.4452005 -0.015064057 0.4265126 4282136094
0.44519666 -0.014494319 0.42631131 4282201887
0.44519281 -0.013925614 0.42611009 4282201887
0.44519085 -0.013347592 0.42600882 4282399266
0.44518697 -0.012780702 0.42580757 4282202400
0.44518316 -0.012214851 0.42560631 4282333732
0.44518116 -0.011638898 0.42550504 4282465318
0.44517732 -0.01107486 0.42530382 4282596131
0.44517347 -0.010511857 0.42510259 4282201121
0.44516963 -0.009949889 0.42490137 4282266914
0.44516394 -0.0094011277 0.42460015 4282398500
0.44516194 -0.0088290647 0.42449889 4282529316
0.44515625 -0.0082828924 0.4241977 4282463271
0.44515425 -0.0077123847 0.42409647 4282397480
0.44515041 -0.0071556009 0.42389524 4282331687
0.44514844 -0.006586384 0.42379397 4282398248
0.44514644 -0.0060176905 0.42369273 4282529834
0.4451482 -0.0054215454 0.42379141 4282266916
0.44514808 -0.0048391297 0.42379016 4282595881
0.44515169 -0.0042277016 0.42398882 4282595881
0.44515342 -0.0036300048 0.42408752 4282924074
0.44515517 -0.0030317903 0.4241862 4282990119
0.44516248 -0.0023872182 0.42458481 4283186983
0.44516981 -0.0017405823 0.42498338 4283252776
0.44517341 -0.0011234507 0.42518204 4283648047
0.44518259 -0.00045713037 0.42568058 4283583024
0.44518805 0.00017915666 0.4259792 4283846198
0.44519725 0.0008501485 0.42647773 4285621837
0.44520456 0.0015068911 0.42687631 4286082388
0.44521189 0.0021657161 0.42727488 4285951574
0.44521919 0.0028266013 0.42767346 4285951320
0.44556442 -0.077645034 0.48524991 4284374600
0.44556588 -0.076917797 0.48534831 4284111428
0.44556251 -0.076148823 0.48514661 4283848256
0.44556236 -0.075407833 0.485145 4283848256
0.4455606 -0.07465364 0.48504335 4284439878
0.44555563 -0.073874034 0.48474166 4284833353
0.44555387 -0.073121384 0.48464 4284833353
0.44554728 -0.072331928 0.48423827 4284833355
0.4455407 -0.071544543 0.48383659 4284635976
0.44537908 -0.066055886 0.47382441 4284373056
0.44536448 -0.065250844 0.47292262 4284372802
0.44535306 -0.064470693 0.47222093 4284372802
0.44535133 -0.063753285 0.47211939 4284110147
0.44534636 -0.063017204 0.47181773 4283978559
0.44534299 -0.06229201 0.47161615 4283781182
0.44533965 -0.061567865 0.4714146 4283583803
0.44533628 -0.060844745 0.47121301 4283254838
0.44533613 -0.060139779 0.47121146 4282794285
0.44533277 -0.059418216 0.47100988 4282136355
0.44533104 -0.058705729 0.47090828 4281544990
0.44532767 -0.057985976 0.47070673 4281281818
0.4450967 -0.050873838 0.45639098 4279835406
0.44508854 -0.05018127 0.45588946 4280098580
0.44508359 -0.049501151 0.45558798 4280164373
0.44507864 -0.048822589 0.45528647 4280295702
0.44507048 -0.04813676 0.45478496 4280427286
0.44506392 -0.047457673 0.45438346 4280822044
0.44505733 -0.046780657 0.453982 4281412900
0.44505239 -0.046109349 0.45368052 4281478693
0.44504583 -0.045436218 0.45327902 4281939244
0.44503766 -0.044762045 0.45277753 4283123518
0.44503111 -0.044093322 0.45237607 4283123768
0.44502294 -0.04342407 0.45187461 4283452987
0.44501638 -0.04275975 0.45147315 4283781952
0.44500825 -0.042095423 0.45097169 4283847745
0.44500008 -0.041433685 0.45047024 4283847743
0.44499192 -0.040774539 0.44996879 4283913534
0.44498214 -0.040116683 0.44936734 4283847995
0.44497401 -0.039462976 0.44886592 4284044602
0.44496423 -0.038811076 0.44826448 4284307774
0.44495606 -0.038162813 0.44776306 4284241981
0.44494471 -0.037516605 0.44706163 4284110395
0.44493493 -0.036874034 0.44646022 4284044604
0.44492519 -0.036234569 0.44585884 4283847995
0.44491702 -0.035597704 0.44535744 4283979579
0.44490728 -0.0349642 0.44475603 4284175929
0.44490072 -0.034331746 0.44435465 4284044343
0.44489095 -0.033703942 0.44375324 4284239925
0.4448812 -0.033079248 0.44315189 4284437304
0.44486985 -0.032459468 0.44245052 4284634683
0.44486007 -0.031841248 0.44184914 4284766782
0.44485354 -0.03122149 0.44144779 4284701757
0.44483736 -0.030619305 0.44044644 4284635964
0.44482762 -0.030010931 0.43984514 4284373306
0.44481626 -0.029408768 0.43914381 4284505407
0.44480649 -0.028806873 0.43854249 4284570687
0.44479355 -0.028215325 0.43774116 4284570685
0.44478378 -0.027620167 0.43713987 4284636478
0.44477725 -0.027019836 0.43673855 4284768064
0.44476908 -0.026425982 0.43623722 4284833857
0.44476095 -0.025834715 0.43573594 4284636478
0.44475281 -0.025246039 0.43523461 4284636476
0.44474465 -0.024659954 0.43473333 4284570683
0.44473651 -0.024076462 0.43423206 4284570169
0.44472837 -0.023495559 0.43373078 4284109620
0.44471863 -0.022923198 0.43312955 4284241206
0.44470888 -0.022353947 0.43252826 4283846196
0.44470075 -0.021781333 0.43202701 4283319852
0.444691 -0.021218041 0.43142578 4283320106
0.44467965 -0.020664847 0.43072456 4283583278
0.44467312 -0.020093534 0.4303233 4283254313
0.44466338 -0.01953931 0.42972207 4283254313
0.44465363 -0.018988196 0.42912084 4283188528
0.44464549 -0.018432163 0.42861965 4283057196
0.44464055 -0.017862158 0.42831838 4282991653
0.44463563 -0.017293707 0.42801714 4282597408
0.44462907 -0.016735611 0.42761594 4282596897
0.44462255 -0.016179588 0.42721468 4282531104
0.44461924 -0.015606996 0.42701346 4282399264
0.44461429 -0.015045023 0.42671221 4282136092
0.44461095 -0.014474764 0.42651096 4282004508
0.44460765 -0.013905544 0.4263097 4282136094
0.44460431 -0.013337357 0.42610848 4282201887
0.44460258 -0.012759594 0.42600721 4282070560
0.44459927 -0.012193223 0.42580596 4282004769
0.44459593 -0.011627886 0.4256047 4282070562
0.4445942 -0.011052195 0.42550343 4282397730
0.4445909 -0.010488674 0.42530221 4282266144
0.44458595 -0.0099380985 0.42500103 4282331937
0.44458425 -0.0093647409 0.42489976 4282463523
0.4445793 -0.0088167563 0.42459854 4282397730
0.444576 -0.0082576368 0.42439732 4282266146
0.44457105 -0.0077125058 0.42409611 4282331685
0.44456935 -0.007142514 0.42399487 4282331685
0.44456762 -0.00657304 0.42389363 4282332455
0.44456589 -0.0060040858 0.42379236 4282398248
0.44456577 -0.0054216646 0.42379111 4282201123
0.44456565 -0.004839249 0.42378983 4282660904
0.44456714 -0.0042423233 0.4238885 4282529318
0.44457021 -0.003630124 0.42408717 4282858281
0.4445717 -0.0030319132 0.42418587 4282924326
0.44457799 -0.0023873374 0.42458445 4283187496
0.44458109 -0.0017717741 0.42478311 4283319082
0.44458896 -0.0011077747 0.4252817 4283779633
0.44459206 -0.00048936531 0.42548031 4284109370
0.44459835 0.00016272441 0.42587891 4284174909
0.44460461 0.00081687421 0.42627746 4285884498
0.44461089 0.0014731027 0.42667603 4286147670
0.44461879 0.0021484978 0.42717457 4285951572
0.44500712 0.01809895 0.45153993 4280227079
0.44501498 0.018863473 0.45203829 4279701260
0.44502446 0.019652851 0.45263654 4279439112
0.44483382 -0.077015929 0.4860481 4284504905
0.44483232 -0.076258883 0.48594648 4284439112
0.44483218 -0.075515829 0.48594484 4284110917
0.44483066 -0.074759558 0.48584318 4284504901
0.44482782 -0.073990837 0.48564151 4284898632
0.44482496 -0.073223166 0.48543984 4285161806
0.44482347 -0.072468966 0.48533815 4284898634
0.44482061 -0.071703099 0.48513648 4284767562
0.44466048 -0.065292478 0.47332233 4284175163
0.44465226 -0.064521402 0.47272062 4284306749
0.4446494 -0.06379284 0.47251901 4283978298
0.44464657 -0.06306532 0.47231749 4283912505
0.44464239 -0.062329497 0.47201586 4283714872
0.44463953 -0.061604306 0.47181424 4282729264
0.44463536 -0.06087134 0.47151265 4282466092
0.44463387 -0.060157038 0.47141111 4281281827
0.44463101 -0.059434958 0.47120953 4280623899
0.44462818 -0.058713913 0.47100794 4280557593
0.44441903 -0.049501289 0.4555876 4279375126
0.44441217 -0.048813384 0.45508608 4279440398
0.44440934 -0.048141308 0.45488459 4279769360
0.4444038 -0.04746196 0.45448312 4279703822
0.44439963 -0.046788577 0.45418161 4279835151
0.44439679 -0.04612039 0.45398018 4279900944
0.44439128 -0.045446482 0.45357871 4280295704
0.44438711 -0.044777766 0.4532772 4280952860
0.44438025 -0.044104885 0.45277575 4281742365
0.44437471 -0.043437198 0.45237428 4282729514
0.44436786 -0.042769242 0.4518728 4283254834
0.44436234 -0.042105958 0.45147133 4283452213
0.44435546 -0.041442927 0.45096987 4283452467
0.4443486 -0.040782485 0.45046845 4283847223
0.44433904 -0.040122028 0.44976699 4283979063
0.44433084 -0.03946624 0.44916552 4283847993
0.44432262 -0.038813565 0.44856411 4284111167
0.44431442 -0.038163997 0.4479627 4284111167
0.44430622 -0.037517536 0.44736129 4283913016
0.444298 -0.036874186 0.44675985 4283978809
0.4442898 -0.036233947 0.44615847 4283978809
0.44428429 -0.035595793 0.44575703 4284242235
0.44427744 -0.034960482 0.44525567 4284438587
0.44427058 -0.034327764 0.44475424 4284175415
0.44426507 -0.033696346 0.44435287 4284371507
0.44425818 -0.033068549 0.4438515 4284503093
0.44424596 -0.032450568 0.44295013 4284437815
0.44423911 -0.031828988 0.44244877 4284635196
0.44423091 -0.031212322 0.44184741 4284766780
0.44422269 -0.030598767 0.44124606 4284766780
0.44421449 -0.029988322 0.44064471 4284438585
0.44420362 -0.029387187 0.43984342 4284373558
0.44419408 -0.028786838 0.43914211 4284373558
0.44418585 -0.028186496 0.43854076 4284110386
0.44417363 -0.027600899 0.43763947 4284570423
0.44416678 -0.027003415 0.43713814 4284702009
0.44416127 -0.026404124 0.43673682 4284768062
0.44415441 -0.025811562 0.43623555 4284570685
0.44414893 -0.025216676 0.43583423 4284439099
0.44414207 -0.024629038 0.43533295 4284307513
0.44413388 -0.02404942 0.43473166 4284439099
0.44412836 -0.02346153 0.43433037 4284307513
0.44411883 -0.022893567 0.43362913 4284373821
0.44411197 -0.02231681 0.43312788 4283781430
0.44410381 -0.021749111 0.43252659 4283715124
0.44409427 -0.021191252 0.43182537 4283780403
0.44408473 -0.020637019 0.43112415 4283649069
0.44407788 -0.020071918 0.43062294 4283451690
0.44406834 -0.019524423 0.42992169 4283583276
0.44406149 -0.018965023 0.42942047 4283517233
0.44405466 -0.018408217 0.42891926 4283057194
0.44404781 -0.017853998 0.42841804 4283057448
0.44404367 -0.017285287 0.4281168 4283123241
0.44403949 -0.016718131 0.42781556 4283123241
0.44403535 -0.016152529 0.42751431 4283057448
0.44402987 -0.0155978 0.42711309 4283122725
0.44402838 -0.015016409 0.42701182 4282924578
0.44402424 -0.01445521 0.42671061 4282267164
0.44402143 -0.013885472 0.42650932 4282136094
0.44401997 -0.013306413 0.42640805 4282201887
0.44401851 -0.012727872 0.42630678 4282135840
0.44401568 -0.01216072 0.42610556 4282004256
0.44401422 -0.011583477 0.42600429 4282135330
0.44401142 -0.01101814 0.42580307 4281475347
0.44400862 -0.010453843 0.42560181 4281212175
0.44400582 -0.0098905787 0.42540056 4281146898
0.44400164 -0.0093405228 0.42509937 4282068000
0.44399884 -0.0087795928 0.42489815 4282134043
0.4439947 -0.0082323849 0.42459694 4282265629
0.4439919 -0.0076737851 0.42439571 4282265631
0.44398776 -0.0071294289 0.4240945 4282265631
0.44398627 -0.0065596942 0.42399326 4282397730
0.44398481 -0.0059904847 0.42389202 4282397730
0.44398469 -0.0054078028 0.42389074 4282331937
0.44398457 -0.0048251264 0.42388946 4282463523
0.44398579 -0.00422794 0.42398816 4282397730
0.44398701 -0.0036302432 0.42408687 4282792740
0.44398826 -0.0030320324 0.42418554 4282924324
0.44399083 -0.0024180152 0.42438421 4283385127
0.44399741 -0.0017563589 0.42488277 4283582506
0.44399863 -0.001155287 0.42498145 4283911471
0.44400388 -0.00050554425 0.42538002 4284898884
0.44401047 0.00016260147 0.42587858 4285162310
0.44401303 0.00078361109 0.42607722 4286344531
0.44401962 0.0014561526 0.42657575 4286278738
0.44435415 0.017465867 0.45164096 4280227854
0.44435805 0.018185843 0.45193937 4279833096
0.44436193 0.018907361 0.45223778 4279373832
0.44436985 0.019697264 0.45283607 4279373832
0.44409907 -0.076382697 0.48684633 4284439112
0.44409674 -0.07561034 0.48664463 4284241733
0.44409767 -0.0748787 0.48674303 4284635974
0.44409534 -0.074107654 0.48654136 4284898886
0.44409409 -0.073350348 0.48643968 4285161804
0.44409394 -0.072605997 0.48643807 4284898632
0.44409379 -0.071861655 0.48643643 4284964425
0.44408712 -0.071045741 0.48583463 4284438597
0.44394776 -0.064561993 0.47312033 4284240956
0.44394433 -0.063822545 0.4728187 4284109622
0.44394094 -0.063084655 0.47251707 4283846710
0.44393861 -0.062357649 0.47231552 4283386422
0.44393629 -0.061631683 0.47211394 4281939494
0.44393286 -0.060897935 0.47181231 4281347357
0.44393274 -0.060191415 0.47181076 4280690208
0.44392931 -0.059459999 0.47150916 4280361245
0.44392917 -0.058754254 0.47150761 4280426266
0.44374892 -0.048813522 0.45508569 4279112975
0.4437466 -0.048141442 0.45488423 4279506191
0.44374427 -0.047470406 0.45468277 4279703824
0.44374198 -0.046800397 0.4544813 4279769358
0.44373965 -0.046131428 0.45427984 4279703565
0.44373626 -0.04546012 0.45397836 4279769617
0.44373178 -0.04478725 0.45357689 4280294932
0.44372839 -0.04411931 0.45327541 4280821780
0.44372281 -0.043447725 0.45277393 4281742365
0.44371724 -0.042778734 0.45227247 4281742365
0.44371277 -0.042114414 0.45187101 4282794537
0.4437072 -0.041450344 0.45136955 4282991916
0.44370052 -0.040787306 0.45076808 4283517745
0.44369388 -0.040127374 0.45016664 4283912503
0.44368613 -0.039469507 0.44946522 4283649846
0.44368055 -0.038816839 0.44896376 4283847225
0.44367391 -0.038166232 0.44836235 4283847743
0.44366726 -0.037518736 0.44776091 4283978557
0.44366169 -0.036874358 0.44725949 4283913018
0.44365504 -0.036232822 0.44665807 4283979063
0.44364947 -0.035593882 0.44615668 4284308028
0.4436439 -0.034957536 0.44565529 4284308028
0.44363835 -0.034323782 0.44515389 4284175929
0.44363385 -0.033691328 0.44475251 4284175411
0.44363049 -0.0330594 0.44445115 4284437813
0.44362491 -0.032432638 0.44394976 4284437817
0.44361609 -0.031814661 0.44314837 4284569403
0.44360837 -0.031198509 0.44244704 4284635196
0.44360387 -0.030578231 0.44204569 4284766782
0.44359615 -0.029968554 0.44134432 4284306997
0.44358733 -0.029365607 0.440543 4284570675
0.44357961 -0.028763443 0.43984169 4284439603
0.44357187 -0.028164906 0.43914038 4284044591
0.44356522 -0.02756612 0.43853906 4284438835
0.4435575 -0.026974577 0.43783775 4284636214
0.44355085 -0.026382267 0.43723643 4284636476
0.44354638 -0.025783755 0.43683511 4284504892
0.44354084 -0.025192227 0.43633384 4284307513
0.44353637 -0.02459812 0.43593252 4283715376
0.44353083 -0.024011515 0.43543124 4284307511
0.44352525 -0.023427501 0.43492997 4284307511
0.44351861 -0.022852033 0.43432868 4284505405
0.44351199 -0.022279672 0.43372744 4283848247
0.44350535 -0.021710418 0.43312621 4284044343
0.44349763 -0.021151006 0.43242496 4284175415
0.44348881 -0.020602206 0.43162376 4283845930
0.44348109 -0.0200503 0.43092251 4283583274
0.44347447 -0.019494522 0.43032131 4283649067
0.44346783 -0.018941853 0.4297201 4283649071
0.44346118 -0.018392291 0.42911887 4283320106
0.44345564 -0.017837552 0.42861769 4283320106
0.4434512 -0.017276868 0.42821646 4283320104
0.4434489 -0.01670065 0.42801517 4283320102
0.4434455 -0.01613453 0.42771393 4283320102
0.44344214 -0.015569964 0.42741269 4283385125
0.44343877 -0.015006952 0.42711145 4283187748
0.44343755 -0.01442582 0.42701018 4282661154
0.44343635 -0.013845207 0.42690891 4282266912
0.44343406 -0.013275467 0.42670768 4282332705
0.44343176 -0.012706764 0.4265064 4282070047
0.44343057 -0.012128223 0.42640513 4282135328
0.44342935 -0.011550199 0.42630386 4282397730
0.44342709 -0.010984084 0.42610264 4280686862
0.44342479 -0.010419009 0.42590141 4280423690
0.4434225 -0.0098549686 0.42570019 4280358413
0.44341913 -0.009304136 0.42539895 4281739550
0.44341576 -0.0087548569 0.42509776 4281937431
0.44341236 -0.0082071293 0.42479655 4282134297
0.443409 -0.0076609608 0.42449534 4282134043
0.4434067 -0.0071031377 0.42429411 4282265629
0.44340444 -0.0065463502 0.42409289 4282397215
0.44340321 -0.0059768781 0.42399168 4282266142
0.4434031 -0.005393941 0.42399037 4282397730
0.44340298 -0.0048110038 0.42398912 4282463523
0.44340286 -0.0042280629 0.42398784 4282397730
0.44340384 -0.0036303625 0.42408651 4282792740
0.44340587 -0.0030171312 0.42428517 4282924324
0.443409 -0.0023875795 0.42458379 4283450920
0.44340998 -0.0017875545 0.4246825 4283714092
0.44341418 -0.0011396147 0.42508107 4283977262
0.44341838 -0.00048960745 0.42547965 4284043575
0.44342044 0.00012985244 0.42567831 4285622859
0.44342467 0.00078349188 0.42607689 4286279506
0.44370067 0.016832266 0.45174196 4280425502
0.44370377 0.01755172 0.4520404 4279636750
0.4437069 0.018272724 0.45233881 4279439371
0.44370893 0.018973276 0.4525373 4279242764
0.4437142 0.019741677 0.45303562 4279308557
0.44371837 0.02049014 0.45343399 4280953906
0.44336033 -0.076492757 0.48764613 4284308044
0.44335935 -0.075731814 0.48754448 4284110663
0.44336003 -0.074997842 0.48764285 4284372804
0.44335905 -0.074237421 0.48754123 4284767300
0.44335887 -0.073490232 0.48753959 4285030472
0.44335872 -0.072743028 0.48753795 4284898886
0.4433594 -0.072008021 0.48763633 4284964679
0.44335592 -0.071212865 0.48723459 4284701507
0.44323674 -0.06313277 0.4730168 4282795307
0.44323161 -0.062367126 0.47241512 4281544738
0.44323066 -0.061649982 0.47231358 4280952347
0.44322884 -0.060924534 0.472112 4280886554
0.44322786 -0.060208675 0.4720104 4280690465
0.4432269 -0.059493341 0.47190884 4280297249
0.44308898 -0.048832342 0.45548537 4278982686
0.44308716 -0.048159231 0.45528388 4279243538
0.44308537 -0.047487151 0.45508242 4280100633
0.44308358 -0.046816107 0.45488095 4280363803
0.4430818 -0.046146102 0.45467949 4279574287
0.44307917 -0.045473762 0.45437801 4279440400
0.44307655 -0.044802971 0.45407656 4279505936
0.44307309 -0.044130877 0.45367506 4279702797
0.44306967 -0.043460853 0.45327359 4280031758
0.44306538 -0.042790569 0.45277211 4280031758
0.44306111 -0.042122871 0.45227066 4280887573
0.44305682 -0.041457765 0.4517692 4281216286
0.44305173 -0.040793687 0.45116773 4282530602
0.44304663 -0.04013272 0.45056626 4282859049
0.44304153 -0.03947486 0.44996485 4282859565
0.44303644 -0.03882011 0.44936341 4282925358
0.44303131 -0.038168468 0.448762 4283123252
0.44302621 -0.037519936 0.44816056 4283387194
0.44302195 -0.036874522 0.44765913 4283716670
0.44301686 -0.03623195 0.44705772 4283781948
0.4430126 -0.035591975 0.44655633 4284241981
0.4430083 -0.034954589 0.44605494 4284307774
0.44300404 -0.034319796 0.44555354 4284110136
0.44300061 -0.033686306 0.44515216 4284241206
0.44299635 -0.033056438 0.44465077 4284438837
0.44299373 -0.032425545 0.44434938 4284306999
0.44298947 -0.031800337 0.44384801 4284437817
0.4429827 -0.031184694 0.44304663 4284372024
0.44297761 -0.03056803 0.44244528 4284700989
0.44297335 -0.02995163 0.44194394 4284569403
0.44296908 -0.029337823 0.44144261 4284438585
0.44296068 -0.028743409 0.44044128 4284438837
0.44295642 -0.028136078 0.43993998 4284307249
0.44294968 -0.027542977 0.43913865 4284570423
0.44294459 -0.026945744 0.43853736 4284504630
0.44294032 -0.02634722 0.43803602 4284570171
0.44293442 -0.025760602 0.43733475 4284438847
0.442931 -0.025162864 0.43693343 4284307776
0.44292673 -0.024572376 0.43643212 4283648817
0.44292247 -0.023984477 0.43593085 4284175411
0.44291821 -0.023399167 0.43542954 4284306997
0.44291395 -0.022816449 0.4349283 4284439610
0.44290888 -0.022242535 0.43432701 4284439612
0.44290379 -0.021671727 0.43372577 4284439097
0.44289789 -0.021110758 0.43302453 4284569651
0.44289115 -0.020560404 0.43222332 4284109352
0.44288275 -0.020028688 0.43122214 4284240938
0.44287685 -0.019479632 0.43052095 4283978538
0.44287258 -0.018918682 0.43001971 4283978284
0.44286835 -0.018360317 0.42951846 4283846700
0.44286409 -0.017804546 0.42901725 4283780655
0.44285983 -0.017251363 0.42851606 4283648299
0.44285724 -0.016683169 0.42821479 4283582504
0.44285548 -0.016107472 0.42801353 4283648297
0.44285285 -0.015542127 0.42771232 4283648551
0.44285026 -0.014978338 0.42741108 4283582506
0.4428485 -0.014406268 0.42720979 4283450418
0.44284755 -0.013825137 0.42710853 4282595877
0.44284579 -0.013254877 0.4269073 4282398498
0.44284484 -0.012675041 0.42680603 4282135328
0.44284388 -0.012095721 0.42670476 4282266912
0.44284293 -0.011516923 0.4266035 4280555274
0.44284117 -0.010950031 0.42640224 4279569674
0.44283938 -0.010384176 0.42620099 4279569674
0.44283763 -0.0098193604 0.42599976 4279505166
0.44283503 -0.0092677493 0.42569855 4280557593
0.44283161 -0.0087301172 0.42529738 4281740052
0.44282901 -0.0081818756 0.42499617 4282068504
0.44282725 -0.0076222401 0.42479494 4282266142
0.44282383 -0.0070900507 0.42439377 4282266142
0.44282287 -0.0065195411 0.4242925 4282331935
0.44282112 -0.0059632771 0.42409131 4282135326
0.442821 -0.0053800792 0.42409003 4282398500
0.44282088 -0.0047968812 0.42408875 4282398502
0.44282076 -0.0042136796 0.42408746 4282595881
0.44282144 -0.0036157258 0.42418617 4282727213
0.44282216 -0.0030172542 0.42428488 4283187246
0.44282451 -0.0023877025 0.42458349 4283779374
0.44282687 -0.0017565973 0.42488211 4284042546
0.44282839 -0.0011397339 0.42508078 4284766528
0.44283074 -0.00050578266 0.42537937 4285491285
0.4428331 0.00012972951 0.42567798 4285754455
0.44283628 0.00078336895 0.42607656 4285951574
0.44304898 0.01691708 0.4521414 4280162334
0.4430505 0.017616075 0.45233989 4279440143
0.44305202 0.018316101 0.45253837 4279308557
0.44305351 0.019017167 0.45273682 4279242768
0.44305751 0.019786093 0.45323515 4279637779
0.44305983 0.020512536 0.45353356 4281019953
0.44261786 -0.075866774 0.48854434 4284176456
0.44261655 -0.075090542 0.48834264 4284307524
0.4426164 -0.074341267 0.488341 4284767562
0.44261682 -0.073604703 0.48843941 4284899146
0.44261724 -0.072867617 0.48853779 4284833353
0.44261652 -0.072105646 0.48843613 4284635974
0.44252497 -0.060977578 0.47271165 4281018655
0.44242695 -0.048851166 0.45588505 4279114784
0.44242567 -0.048177015 0.45568356 4279112724
0.44242555 -0.047512207 0.4556821 4280363292
0.44242427 -0.04683961 0.45548064 4280955429
0.44242242 -0.046164416 0.45517915 4279507211
0.44242057 -0.045490775 0.45487767 4279636491
0.44241872 -0.044818688 0.45457619 4279505936
0.44241631 -0.044145301 0.45417473 4279440395
0.44241333 -0.043471385 0.45367324 4279702797
0.44241092 -0.042802401 0.45327178 4279834383
0.44240737 -0.042131327 0.45267031 4280097551
0.44240382 -0.041463364 0.45206884 4280426516
0.44240084 -0.040800072 0.45156738 4280821015
0.4423973 -0.040138066 0.45096591 4281740832
0.44239375 -0.03947917 0.4503645 4282069545
0.44238964 -0.038822599 0.44966301 4282201131
0.44238609 -0.038170181 0.44906163 4282333482
0.44238254 -0.037520871 0.44846019 4282400299
0.44237956 -0.036874678 0.44795877 4282730295
0.44237605 -0.036231328 0.44735736 4282993719
0.44237307 -0.035590574 0.44685596 4283846973
0.44237009 -0.034952413 0.44635457 4283978559
0.44236711 -0.034316842 0.44585317 4283912505
0.44236469 -0.033682577 0.4454518 4284175161
0.44236174 -0.033051927 0.4449504 4284306997
0.44235989 -0.032420259 0.44464904 4284175413
0.44235691 -0.031794272 0.44414765 4284306231
0.44235453 -0.031168556 0.44374627 4284306231
0.44235098 -0.030550078 0.44314492 4284569403
0.44234744 -0.029934708 0.44254357 4284438333
0.44234392 -0.029322447 0.44194221 4284438333
0.44234094 -0.028709935 0.44144088 4284438585
0.4423357 -0.028114492 0.44053954 4284438583
0.44233161 -0.027515955 0.43983823 4284438583
0.4423275 -0.026921045 0.43913695 4284439097
0.44232395 -0.026325364 0.43853563 4284439099
0.442321 -0.025728138 0.43803433 4284570687
0.44231802 -0.025133502 0.43753302 4284110397
0.44231507 -0.024541458 0.43703172 4283583540
0.44231153 -0.023957439 0.43643045 4283715126
0.44230857 -0.023370834 0.43592912 4284175415
0.44230676 -0.02277492 0.43562785 4284504380
0.44230264 -0.022205397 0.4349266 4284504380
0.44229913 -0.021633038 0.43432534 4284635964
0.44229501 -0.021070512 0.43362409 4284439097
0.44229206 -0.020497641 0.43312287 4284438837
0.44228047 -0.019434722 0.43112051 4284175411
0.44227639 -0.018887745 0.43041933 4284109618
0.44227287 -0.018336369 0.42981809 4284109872
0.44226989 -0.017779822 0.42931688 4283846448
0.44226751 -0.017217319 0.42891562 4283780403
0.44226512 -0.016656891 0.42851442 4283714610
0.44226331 -0.016089473 0.42821318 4283977782
0.44226205 -0.01551429 0.42801189 4283779885
0.44226024 -0.014949726 0.42771068 4283779120
0.44225895 -0.014376877 0.42750943 4283648315
0.44225827 -0.01379497 0.42740816 4283188018
0.44225702 -0.013223933 0.42720687 4282530088
0.44225633 -0.012643319 0.42710561 4281937951
0.44225508 -0.012074096 0.42690438 4282002457
0.44225439 -0.011494778 0.42680311 4279963139
0.44225371 -0.010915976 0.42670184 4279241481
0.44225189 -0.010360999 0.4264006 4279241481
0.44225064 -0.009795662 0.42619938 4279307274
0.44224826 -0.0092557017 0.42579818 4280622614
0.44224644 -0.0087053832 0.425497 4281805845
0.44224462 -0.00815662 0.42519578 4282265883
0.4422428 -0.0076094158 0.42489457 4282463523
0.44224098 -0.0070637632 0.42459339 4282266144
0.44223973 -0.0065061953 0.42439216 4282266914
0.44223905 -0.0059359483 0.42429093 4282266914
0.44223836 -0.0053662136 0.42418969 4282530086
0.44223824 -0.0047827624 0.42418838 4282858029
0.44223869 -0.0041848011 0.42428708 4282792236
0.4422397 -0.0035715699 0.42448574 4282858031
0.44224015 -0.0029723197 0.42458442 4283580719
0.44224003 -0.0023878217 0.42458314 4284238388
0.44224218 -0.0017411858 0.42498174 4284698939
0.44224373 -0.001108259 0.42528036 4285556564
0.44224474 -0.0004898496 0.42547899 4285359701
0.44224632 0.00014592707 0.42577761 4285491287
0.44239044 0.01550135 0.45164415 4282396965
0.44239312 0.016260948 0.45214248 4281477925
0.44239354 0.01693818 0.45224097 4279702030
0.44239512 0.01765893 0.45253944 4279308557
0.44239554 0.018337719 0.45263794 4279242764
0.44239709 0.019061062 0.45293638 4279374354
0.44239923 0.019808222 0.45333472 4280757028
0.44186994 -0.075947806 0.48914412 4284307524
0.44186947 -0.075183243 0.48904246 4284307524
0.44186932 -0.074432164 0.48904082 4284768075
0.44186917 -0.073681079 0.48903918 4284899661
0.44186965 -0.072954878 0.48923755 4284899659
0.44187072 -0.07225202 0.48963603 4284702280
0.44176349 -0.048879333 0.45648474 4279443747
0.44176272 -0.048203625 0.45628327 4279309584
0.44176197 -0.04752896 0.45608178 4280884757
0.44176152 -0.046859216 0.4559803 4285161302
0.44176045 -0.046182729 0.45567882 4287068520
0.44175938 -0.045507792 0.45537737 4286278734
0.44175833 -0.044834409 0.45507586 4284502845
0.44175664 -0.044156868 0.45457438 4279569924
0.44175494 -0.043481916 0.45407289 4279570959
0.44175357 -0.042811893 0.45367143 4279899924
0.44175157 -0.042139787 0.45306998 4279703572
0.44174957 -0.041470785 0.45246848 4279637779
0.44174761 -0.040804893 0.45186701 4279769358
0.44174561 -0.040142111 0.45126557 4280426005
0.44174361 -0.039482437 0.45066413 4281214236
0.44174162 -0.038825873 0.45006269 4281608994
0.44173932 -0.038171891 0.44936123 4282004519
0.44173762 -0.03752207 0.44885984 4282202666
0.44173566 -0.036874834 0.4482584 4282269747
0.44173396 -0.036230456 0.44775701 4282533171
0.44173199 -0.035589177 0.44715559 4283319604
0.44173062 -0.034949467 0.44675419 4283714362
0.44172892 -0.034312859 0.44625279 4283977014
0.44172725 -0.033678845 0.44575143 4284240184
0.44172588 -0.033045873 0.44535005 4284240436
0.44172421 -0.03241678 0.44484866 4284240434
0.44172314 -0.031786144 0.44454727 4284174391
0.44172147 -0.031161716 0.4440459 4284174391
0.4417198 -0.030539874 0.44354454 4284240954
0.44171751 -0.029926311 0.4428432 4284306749
0.44171584 -0.029310172 0.44234183 4284438333
0.44171417 -0.028696623 0.44184047 4284175929
0.4417125 -0.028085668 0.44133914 4284439101
0.44170928 -0.027496692 0.44033784 4284439101
0.44170728 -0.026896348 0.43973655 4284439101
0.44170532 -0.026299112 0.43913525 4284439101
0.44170332 -0.025704987 0.43853393 4284701759
0.44170165 -0.025109056 0.43803263 4284307261
0.44169968 -0.024520891 0.43743134 4283912505
0.44169801 -0.023930401 0.43693003 4284044091
0.44169605 -0.023348194 0.43632877 4283978296
0.44169497 -0.022751242 0.43602744 4284569149
0.44169363 -0.022162054 0.43562615 4284306747
0.44169134 -0.021594349 0.4349249 4284635966
0.44168907 -0.021030268 0.43422365 4284570687
0.44168678 -0.020469816 0.43352246 4284570687
0.44167811 -0.01885681 0.43081892 4284044343
0.44167674 -0.01828835 0.43041766 4284175927
0.44167477 -0.017738527 0.42981642 4284110134
0.44167343 -0.017174732 0.42941523 4283912757
0.44167176 -0.016621809 0.42891398 4283715378
0.44167072 -0.016053354 0.42861277 4284043575
0.44166967 -0.015486456 0.42831153 4283714094
0.44166863 -0.014921112 0.42801028 4283845167
0.44166788 -0.014347486 0.42780903 4283779381
0.44166714 -0.013774898 0.42760777 4283451188
0.44166642 -0.013203343 0.42740649 4283056430
0.44166628 -0.012611596 0.42740524 4282002457
0.44166556 -0.012041597 0.42720395 4282067480
0.44166481 -0.011472635 0.42700273 4280226309
0.4416644 -0.010893315 0.42690146 4279307526
0.44166335 -0.010337817 0.42660022 4279307526
0.44166231 -0.0097838733 0.42629904 4279307526
0.44166127 -0.0092314854 0.42599779 4282201121
0.44166023 -0.0086806472 0.42569661 4282069787
0.44165888 -0.0081440546 0.42529541 4282266142
0.44165784 -0.0075965878 0.42499423 4282331935
0.4416571 -0.0070374701 0.424793 4282266144
0.44165635 -0.00647939 0.42459178 4282463523
0.44165593 -0.0059086233 0.42449051 4282397730
0.44165552 -0.0053383708 0.4243893 4282726695
0.4416554 -0.0047543943 0.42438799 4282858283
0.44165558 -0.004155919 0.4244867 4282792490
0.44165608 -0.0035421699 0.42468536 4282923822
0.44165656 -0.0029273778 0.42488402 4283580721
0.44165674 -0.0023268275 0.4249827 4284304442
0.44165754 -0.0016946904 0.42528132 4285225544
0.44165805 -0.0010767914 0.42547995 4285491287
0.44165885 -0.0004418008 0.42577857 4285228113
0.44173634 0.015542656 0.45184368 4282067482
0.44173712 0.01626081 0.45214212 4280162065
0.44173759 0.016959284 0.45234057 4279570444
0.44173807 0.017658792 0.45253906 4279177226
0.44173855 0.018359341 0.45273754 4279177226
0.44173965 0.01910495 0.45313588 4280031510
0.44111878 -0.07527595 0.48974225 4284504390
0.44111857 -0.074510083 0.48964053 4284767562
0.44111845 -0.073770158 0.48973894 4284964941
0.44111842 -0.073042147 0.48993737 4284965452
0.44111821 -0.072276548 0.48983565 4284702534
0.44109657 -0.048221413 0.45668292 4279572754
0.44109634 -0.047545709 0.45648146 4285688662
0.4410961 -0.046871036 0.45627996 4287596659
0.44109586 -0.046197407 0.4560785 4286805598
0.44109556 -0.045521431 0.45577699 4287922532
0.44109526 -0.044847015 0.45547551 4287661674
0.44109485 -0.044165578 0.45487401 4285293654
0.44109449 -0.043492448 0.45447257 4279241481
0.44109416 -0.042821389 0.45407107 4279965204
0.44109371 -0.042148244 0.4534696 4280165410
0.44109327 -0.041478205 0.45286816 4279179279
0.44109282 -0.040811278 0.45226666 4279506186
0.4410924 -0.040147461 0.45166522 4279440143
0.44109195 -0.039486751 0.45106378 4279835153
0.44109151 -0.038829148 0.45046231 4279900946
0.44109103 -0.03817413 0.44976088 4280755735
0.44109058 -0.037523005 0.44915944 4281413415
0.44109017 -0.036874991 0.44855803 4281544999
0.44108978 -0.036229834 0.44805664 4282005037
0.44108939 -0.035587266 0.44755524 4282726961
0.441089 -0.034947291 0.44705382 4282990133
0.44108862 -0.034309909 0.44655243 4283647545
0.44108829 -0.033673827 0.44615102 4283780151
0.4410879 -0.033041365 0.44564965 4283846198
0.44108751 -0.032411493 0.44514829 4283977784
0.44108719 -0.031782147 0.44474691 4284043577
0.44108686 -0.031154875 0.44434553 4284175163
0.4410865 -0.030532258 0.44384414 4284109370
0.44108611 -0.029912231 0.4433428 4284175163
0.44108567 -0.029297898 0.44274145 4284109370
0.44108531 -0.028683312 0.44224012 4284175675
0.44108492 -0.028071318 0.44173875 4284373308
0.44108444 -0.027469672 0.44103745 4284373308
0.44108397 -0.026871651 0.44033611 4284307261
0.44108355 -0.026272861 0.43973482 4284240956
0.44108313 -0.025677182 0.43913352 4284700224
0.44108269 -0.025084611 0.43853223 4284569151
0.44108233 -0.024489975 0.4380309 4284175161
0.44108191 -0.023903362 0.43742964 4284306747
0.44108146 -0.023319859 0.43682835 4284109368
0.44108117 -0.022727564 0.43642706 4284437817
0.44108087 -0.02213113 0.43612576 4284372024
0.44108051 -0.021549189 0.43562448 4284240184
0.44108003 -0.020983296 0.43492323 4284504126
0.44107959 -0.02042103 0.43422198 4284701505
0.44107905 -0.019869637 0.43342078 4284373054
0.44107848 -0.019329894 0.43251961 4284175675
0.44107807 -0.018771522 0.43191838 4284175929
0.4410775 -0.018240333 0.43101722 4284307515
0.44107708 -0.017688954 0.43041599 4284373821
0.44107673 -0.017132146 0.42991477 4284308028
0.4410764 -0.016569126 0.42951354 4284110649
0.44107601 -0.016026299 0.42891234 4283781684
0.44107574 -0.015458621 0.42861113 4283912757
0.44107547 -0.014892502 0.42830989 4283978034
0.44107524 -0.014318097 0.42810863 4283714610
0.44107503 -0.013744731 0.42790738 4283978550
0.44107476 -0.013182756 0.42760614 4283912757
0.44107458 -0.012601104 0.42750487 4283517483
0.44107443 -0.012019973 0.42740357 4282725916
0.44107419 -0.011450492 0.42720234 4281608205
0.44107398 -0.010882044 0.42700112 4280754179
0.44107378 -0.010314636 0.42679983 4280491008
0.44107351 -0.009760173 0.42649865 4282003222
0.44107324 -0.0092072673 0.42619744 4282727195
0.44107297 -0.0086559113 0.42589623 4282399004
0.44107267 -0.0081188008 0.42549503 4282201373
0.44107243 -0.007557869 0.4252938 4282267166
0.4410722 -0.0070111826 0.42499262 4282397728
0.44107196 -0.0064525791 0.4247914 4282463521
0.44107181 -0.0058812965 0.42469013 4282463521
0.44107163 -0.0053105243 0.42458886 4282791973
0.44107157 -0.0047117956 0.42468756 4282857766
0.44107154 -0.0040980354 0.42488623 4282989865
0.44107145 -0.0034980141 0.42498493 4283188018
0.44107142 -0.0028824434 0.42518359 4283515700
0.44107142 -0.0022658408 0.4253822 4284897349
0.44107142 -0.0016326644 0.42568085 4285423693
0.44107139 -0.0010137297 0.42587948 4285490771
0.44108111 0.015542522 0.45184332 4280555528
0.44108108 0.016239699 0.4520418 4279833100
0.44108108 0.016959149 0.45234022 4279373578
0.44108105 0.017658658 0.4525387 4279046412
0.44108099 0.018359207 0.45273715 4279177998
0.44036442 -0.075368658 0.49044201 4284504903
0.44036448 -0.07460098 0.49034032 4284702282
0.44036433 -0.073846526 0.49033868 4284833868
0.44036394 -0.073104523 0.49043706 4284899659
0.44036379 -0.072349817 0.49043542 4284768073
0.44036365 -0.071595103 0.49043375 4284505153
0.44036391 -0.070817053 0.49023205 4284307774
0.44042799 -0.049590863 0.45738557 4281679164
0.44042805 -0.048916977 0.45728406 4281285689
0.44042856 -0.048234787 0.45698258 4279638799
0.44042882 -0.047558304 0.45678109 4286346844
0.44042888 -0.04688675 0.45667961 4287333739
0.44042918 -0.046212085 0.45647815 4284831292
0.44042966 -0.045535073 0.45617664 4285683004
0.44043034 -0.044856504 0.45577517 4287989102
0.44043106 -0.044180002 0.4553737 4287333750
0.44043216 -0.043500379 0.4547722 4279832587
0.44043288 -0.042828545 0.45437071 4280095759
0.44043377 -0.0421567 0.45386925 4280362789
0.44043487 -0.041485626 0.45326778 4279641115
0.44043621 -0.040816098 0.4525663 4279440652
0.44043732 -0.040151503 0.45196486 4279243021
0.44043845 -0.039490018 0.45136341 4279440652
0.44043955 -0.038831636 0.45076194 4279506445
0.44044048 -0.038176894 0.45026052 4279835149
0.44044179 -0.037524208 0.44955909 4280755231
0.44044292 -0.036875155 0.44895768 4281018655
0.44044402 -0.036229212 0.44835627 4281807658
0.44044495 -0.035585869 0.44785488 4282266924
0.44044584 -0.034945115 0.44735348 4282398510
0.44044676 -0.034306955 0.44685206 4282990901
0.44044769 -0.033671383 0.44635066 4283451702
0.44044858 -0.033038404 0.4458493 4283583540
0.4404493 -0.032406207 0.44544792 4283715126
0.44045022 -0.031778149 0.44494653 4283846712
0.4404507 -0.031148035 0.44464517 4283978298
0.44045162 -0.030524639 0.44414377 4283978298
0.44045255 -0.029903837 0.44364244 4284043837
0.44045344 -0.029285625 0.44314104 4283912505
0.44045457 -0.028673362 0.44253972 4284175675
0.4404555 -0.028060589 0.44203839 4284044089
0.44045621 -0.027446531 0.44163704 4284175929
0.44045734 -0.026842818 0.44103572 4284175675
0.44045869 -0.026246611 0.44033438 4284240954
0.44045958 -0.02564472 0.4398331 4284502843
0.44046071 -0.025050336 0.43923181 4284634429
0.44046205 -0.024464235 0.4385305 4284371770
0.44046298 -0.023870893 0.43802923 4284437563
0.44046411 -0.023285834 0.43742794 4284175161
0.44046503 -0.022697935 0.43692663 4284569403
0.44046575 -0.022106417 0.43652534 4284503095
0.44046625 -0.0215105 0.43622404 4284305718
0.44046697 -0.020922866 0.43582276 4284438333
0.4404681 -0.020351281 0.43522149 4284569919
0.44047007 -0.019811792 0.43422031 4284438333
0.44047165 -0.01926247 0.43341911 4284307261
0.44047299 -0.018709529 0.43271792 4284373308
0.44047433 -0.018160218 0.4320167 4284439101
0.44047588 -0.017622817 0.43121552 4284768579
0.44047725 -0.017081015 0.43051434 4284505407
0.44047818 -0.016525244 0.43001312 4284373821
0.4404791 -0.015972061 0.4295119 4284044856
0.44048002 -0.015421467 0.42901069 4284110647
0.44048074 -0.014863888 0.42860949 4284175927
0.44048104 -0.014288707 0.42840821 4283715378
0.44048157 -0.013724662 0.42810696 4284044343
0.44048166 -0.013141455 0.4280057 4283847475
0.44048217 -0.012579998 0.42770448 4283517995
0.44048247 -0.01200922 0.42750323 4283385127
0.44048256 -0.011428349 0.42740196 4283516202
0.44048285 -0.010859383 0.4272007 4281937168
0.44048336 -0.010303104 0.42689949 4282331926
0.44048387 -0.0097483862 0.42659828 4282528535
0.44048437 -0.0091952197 0.42629707 4282727195
0.44048491 -0.0086436048 0.42599586 4282596379
