# .PCD v0.7 - Point Cloud Data file format
VERSION 0.7
FIELDS x y z rgb
SIZE 4 4 4 4
TYPE F F F U
COUNT 1 1 1 1
WIDTH 1076
HEIGHT 1
VIEWPOINT 0 0 0 1 0 0 0
POINTS 1076
DATA ascii
-0.023928642 0.83640689 0.060305223 12040365
-0.028604344 0.74889845 0.052887529 7625795
-0.028505087 0.74935806 0.052884817 8151369
-0.028405815 0.74981761 0.05288209 8611920
-0.029126763 0.75053006 0.053397939 9006678
-0.029027849 0.75098813 0.053395227 9401436
-0.028928936 0.75144613 0.053392515 9730401
-0.02965124 0.75215214 0.053908363 9927780
-0.029552668 0.7526086 0.053905651 10059366
-0.029454097 0.75306499 0.053902954 10322538
-0.030177787 0.75376463 0.054418847 10519917
-0.030079558 0.75421947 0.05441615 10585710
-0.02998133 0.75467432 0.054413453 10651501
-0.030706421 0.75536758 0.05492942 10783087
-0.030608535 0.75582081 0.054926723 10848880
-0.030510649 0.75627404 0.054924041 10914673
-0.030412763 0.75672728 0.054921359 11045746
-0.030314893 0.75718045 0.054918677 11045746
-0.030217007 0.75763369 0.054915994 10979953
-0.030944481 0.7583158 0.055431977 11111539
-0.030846938 0.75876743 0.05542931 11177586
-0.03074941 0.75921905 0.055426642 11309172
-0.031478286 0.75989485 0.055942699 11309172
-0.0313811 0.76034486 0.055940032 11374965
-0.0312839 0.76079488 0.055937365 11309431
-0.0311867 0.76124489 0.055934697 11309431
-0.031089514 0.76169491 0.05593203 11309431
-0.030992314 0.76214498 0.055929363 11375224
-0.030895114 0.762595 0.05592671 11309431
-0.030797929 0.76304501 0.055924043 11309431
-0.030700728 0.76349509 0.055921376 11374711
-0.030603528 0.7639451 0.055918708 11440504
-0.030506343 0.76439512 0.055916041 11440504
-0.030409142 0.76484513 0.055913374 11506297
-0.030311942 0.76529521 0.055910707 11506297
-0.030214757 0.76574522 0.055908039 11506297
-0.030948788 0.766397 0.056424215 11506297
-0.03085193 0.76684546 0.056421563 11572090
-0.030755073 0.76729387 0.056418911 11572090
-0.03065823 0.76774234 0.056416258 11572090
-0.030561373 0.76819074 0.056413591 11572090
-0.03046453 0.76863921 0.056410939 11572090
-0.030367672 0.76908761 0.056408286 11637883
-0.03027083 0.76953608 0.056405634 11572090
-0.030173972 0.76998448 0.056402966 11637883
-0.03007713 0.77043295 0.056400314 11572090
-0.029980272 0.77088135 0.056397662 11703676
-0.029883429 0.77132982 0.056395009 11703676
-0.030621961 0.77196085 0.056911334 11637883
-0.030525461 0.77240771 0.056908682 11572090
-0.030428946 0.77285451 0.05690603 11637883
-0.031168833 0.77347922 0.05742237 11637883
-0.031072676 0.77392447 0.057419732 11703676
-0.030976519 0.77436972 0.057417095 11703676
-0.030880362 0.7748149 0.057414457 11637883
-0.03078419 0.77526015 0.05741182 11637883
-0.030688033 0.7757054 0.057409182 11637883
-0.030591875 0.77615064 0.057406545 11703676
-0.030495703 0.77659589 0.057403907 11637883
-0.030399546 0.77704114 0.05740127 11572090
-0.03114289 0.77764988 0.057917714 11572090
-0.031047061 0.77809352 0.057915092 11572090
-0.030951247 0.77853715 0.057912454 11572090
-0.030855432 0.77898079 0.057909831 11572090
-0.030759618 0.77942443 0.057907209 11637883
-0.030663803 0.77986807 0.057904571 11637883
-0.030567989 0.78031176 0.057901949 11572344
-0.030472159 0.7807554 0.057899326 11572344
-0.030376345 0.78119904 0.057896689 11572344
-0.03028053 0.78164268 0.057894066 11572344
-0.030184716 0.78208631 0.057891443 11572344
-0.030932218 0.78267586 0.058407992 11572344
-0.030836746 0.78311795 0.058405384 11572344
-0.030741274 0.78355998 0.058402762 11572344
-0.030645803 0.78400207 0.058400139 11506810
-0.030550331 0.78444409 0.058397517 11506810
-0.030454859 0.78488612 0.058394909 11506810
-0.030359387 0.78532821 0.058392286 11506810
-0.030263916 0.78577024 0.058389664 11506810
-0.030168444 0.78621233 0.058387056 11506810
-0.030072972 0.78665435 0.058384433 11506810
-0.0299775 0.78709638 0.058381811 11506810
-0.029882029 0.78753847 0.058379203 11506297
-0.030633971 0.78810728 0.058895871 11572090
-0.030538842 0.78854775 0.058893263 11572090
-0.030443728 0.78898817 0.058890656 11572090
-0.030348599 0.78942865 0.058888048 11572090
-0.03025347 0.78986907 0.05888544 11506297
-0.030158341 0.79030955 0.058882833 11506297
-0.030063212 0.79075003 0.058880225 11572090
-0.029968083 0.79119045 0.058877617 11506297
-0.029872954 0.79163092 0.058875009 11440504
-0.029777825 0.79207134 0.058872402 11506297
-0.029682696 0.79251182 0.058869794 11506297
-0.029587567 0.7929523 0.058867186 11441017
-0.029492453 0.79339272 0.058864579 11243638
-0.029397324 0.7938332 0.058861956 11243638
-0.029302195 0.79427367 0.058859348 11309431
-0.029207066 0.79471409 0.058856741 11309431
-0.029111937 0.79515457 0.058854133 11243638
-0.029016808 0.79559499 0.058851525 11112052
-0.028921679 0.79603547 0.058848917 11243638
-0.02882655 0.79647595 0.05884631 11112052
-0.029585764 0.79701126 0.059363186 11243638
-0.029490978 0.79745007 0.059360594 11046261
-0.029396191 0.79788893 0.059357986 11243640
-0.029301405 0.7983278 0.059355393 10980466
-0.029206634 0.79876667 0.059352785 11046259
-0.029111847 0.79920554 0.059350193 11046259
-0.029017061 0.79964441 0.0593476 10980466
-0.028922275 0.80008328 0.059344992 10980466
-0.028827503 0.80052209 0.059342399 10914673
-0.028732717 0.80096096 0.059339792 10914673
-0.028637931 0.80139983 0.059337199 10651501
-0.028543144 0.8018387 0.059334591 10585710
-0.029306814 0.80235326 0.059851602 11046261
-0.029212385 0.80279052 0.059849009 10585710
-0.029117942 0.80322778 0.059846416 10322538
-0.029023498 0.80366504 0.059843823 10125159
-0.02892907 0.8041023 0.059841231 10059366
-0.028834626 0.80453956 0.059838653 9664608
-0.028740183 0.80497682 0.05983606 9598815
-0.028645754 0.80541408 0.059833467 9402206
-0.029412553 0.80591428 0.060350552 8678483
-0.029318467 0.80634993 0.060347974 8086346
-0.029224366 0.80678564 0.060345396 7757381
-0.02913028 0.80722129 0.060342818 7889482
-0.029036179 0.80765694 0.060340241 7955275
-0.028942093 0.80809259 0.060337648 8086607
-0.029711276 0.80858165 0.060854807 7889228
-0.029617518 0.80901569 0.06085223 7297861
-0.029523775 0.80944979 0.060849667 7495240
-0.029430032 0.80988383 0.060847089 7890512
-0.029336274 0.81031793 0.060844526 7890512
-0.02924253 0.81075203 0.060841948 8417371
-0.029148787 0.81118608 0.060839385 9075301
-0.029055029 0.81162018 0.060836807 8879205
-0.028961286 0.81205422 0.060834244 9208170
-0.028867528 0.81248832 0.060831666 9603698
-0.028773785 0.81292236 0.060829103 9932663
-0.028680041 0.81335646 0.060826525 10066046
-0.02945371 0.81382471 0.061343789 10197632
-0.029360294 0.8142572 0.061341226 10263684
-0.029266894 0.8146897 0.061338663 10329477
-0.029173493 0.81512213 0.0613361 10000512
-0.029080093 0.81555462 0.061333537 10066305
-0.028986678 0.81598711 0.061330974 10132100
-0.02976279 0.81644422 0.061848328 10066307
-0.029669732 0.8168751 0.061845779 10000514
-0.029576674 0.81730598 0.061843231 10066307
-0.029483616 0.81773686 0.061840683 10263171
-0.029390559 0.81816775 0.06183812 10131585
-0.029297501 0.81859863 0.061835572 10131585
-0.029204428 0.81902951 0.061833024 10131585
-0.02911137 0.81946039 0.061830476 10197378
-0.029018313 0.81989127 0.061827913 10065792
-0.029797837 0.82033241 0.062345341 9868413
-0.029705122 0.82076168 0.062342793 9934206
-0.029612407 0.82119095 0.06234026 10261888
-0.029519692 0.82162023 0.062337711 9603958
-0.029426977 0.82204956 0.062335163 10129270
-0.029334262 0.82247883 0.06233263 10195063
-0.029241547 0.8229081 0.062330082 10195317
-0.029148832 0.82333738 0.062327534 10261110
-0.029056117 0.82376665 0.062325001 10260595
-0.028963402 0.82419598 0.062322453 10194802
-0.028870687 0.82462525 0.062319919 10325620
-0.028777972 0.82505453 0.062317371 10457206
-0.028685257 0.8254838 0.062314823 10325620
-0.028592542 0.82591307 0.06231229 10391413
-0.028499827 0.8263424 0.062309742 10522486
-0.028407112 0.82677168 0.062307194 10390900
-0.028314397 0.82720095 0.062304661 10588279
-0.028221682 0.82763022 0.062302113 10917244
-0.027250186 0.82807797 0.061779425 11508867
-0.027157128 0.82850885 0.061776876 11706246
-0.02706407 0.82893974 0.061774328 12297613
-0.026971012 0.82937062 0.06177178 12494992
-0.02687794 0.8298015 0.061769217 12692887
-0.026784882 0.83023238 0.061766669 13285024
-0.026691824 0.83066326 0.061764121 13417124
-0.026598766 0.83109415 0.061761573 13746089
-0.026505709 0.83152503 0.06175901 14074802
-0.026412651 0.83195591 0.061756462 14272181
-0.026319593 0.83238679 0.061753914 14666425
-0.026226535 0.83281767 0.061751366 14732218
-0.026133463 0.83324856 0.061748803 14732732
-0.026040405 0.83367944 0.061746255 14337974
-0.025063708 0.83415109 0.061223403 13614251
-0.024970308 0.83458358 0.06122084 11903633
-0.024876893 0.83501607 0.061218277 10851460
-0.024783492 0.83544856 0.061215714 11312011
-0.024690092 0.83588099 0.061213151 13354940
-0.024596691 0.83631349 0.061210588 14736593
-0.028374285 0.74885118 0.05329524 7625795
-0.028275013 0.74931073 0.053292513 8151369
-0.028175756 0.74977034 0.053289786 8611920
-0.028897494 0.75048298 0.053804219 9071958
-0.02879858 0.75094098 0.053801507 9466716
-0.028699666 0.75139898 0.053798795 9795681
-0.029422775 0.75210524 0.054313228 9993060
-0.029324204 0.75256163 0.05431053 10190439
-0.029225618 0.75301802 0.054307818 10387818
-0.029950112 0.7537179 0.054822296 10519402
-0.029851884 0.75417268 0.054819599 10585195
-0.029753655 0.75462753 0.054816902 10651501
-0.03047955 0.75532097 0.055331454 10848880
-0.030381665 0.7557742 0.055328771 10848880
-0.030283779 0.75622743 0.055326074 10914673
-0.030185893 0.75668061 0.055323392 10979953
-0.030088007 0.75713384 0.05532071 10979953
-0.029990122 0.75758708 0.055318028 10980207
-0.030718401 0.75826937 0.05583261 11111793
-0.030620873 0.75872099 0.055829927 11177586
-0.03052333 0.75917262 0.05582726 11309172
-0.03125301 0.75984854 0.056341901 11309172
-0.031155825 0.76029855 0.056339234 11374965
-0.031058624 0.76074857 0.056336567 11309431
-0.030961424 0.76119864 0.056333899 11243638
-0.030864239 0.76164865 0.056331232 11309431
-0.030767038 0.76209867 0.05632858 11375224
-0.030669838 0.76254869 0.056325912 11375224
-0.030572653 0.76299876 0.056323245 11309431
-0.030475453 0.76344877 0.056320578 11309431
-0.030378252 0.76389879 0.056317911 11375224
-0.030281067 0.76434886 0.056315243 11506297
-0.030183867 0.76479888 0.056312576 11506297
-0.030086666 0.76524889 0.056309924 11506297
-0.029989481 0.76569891 0.056307256 11506297
-0.030724302 0.76635087 0.056822002 11506297
-0.030627459 0.76679933 0.05681935 11506297
-0.030530602 0.76724774 0.056816697 11572090
-0.030433744 0.7676962 0.056814045 11572090
-0.030336902 0.76814461 0.056811377 11572090
-0.030240044 0.76859307 0.056808725 11572090
-0.030143201 0.76904148 0.056806073 11572090
-0.030046344 0.76948994 0.05680342 11572090
-0.029949501 0.76993835 0.056800768 11572090
-0.029852644 0.77038682 0.0567981 11506297
-0.029755801 0.77083522 0.056795448 11637883
-0.029658943 0.77128369 0.056792796 11703676
-0.030398279 0.7719149 0.057307705 11637883
-0.03030178 0.77236176 0.057305053 11572090
-0.030205265 0.77280855 0.057302415 11572090
-0.030945957 0.77343339 0.057817325 11637883
-0.0308498 0.77387863 0.057814687 11703676
-0.030753642 0.77432388 0.05781205 11703676
-0.03065747 0.77476913 0.057809412 11637883
-0.030561313 0.77521437 0.057806775 11572090
-0.030465156 0.77565962 0.057804137 11637883
-0.030368984 0.77610487 0.0578015 11637883
-0.030272827 0.77655011 0.057798862 11572090
-0.030176669 0.77699536 0.057796225 11572090
-0.030920804 0.77760422 0.058311254 11506297
-0.030824989 0.77804786 0.058308631 11572090
-0.030729175 0.7784915 0.058306009 11572090
-0.030633345 0.77893513 0.058303371 11572090
-0.030537531 0.77937883 0.058300748 11572090
-0.030441716 0.77982247 0.058298126 11572090
-0.030345902 0.78026611 0.058295488 11572344
-0.030250087 0.78070974 0.058292866 11638137
-0.030154273 0.78115338 0.058290243 11572344
-0.030058444 0.78159702 0.058287606 11572344
-0.029962629 0.78204072 0.058284983 11572344
-0.030710936 0.78263044 0.058800116 11572344
-0.030615464 0.78307247 0.058797508 11441271
-0.030519992 0.7835145 0.058794886 11441271
-0.03042452 0.78395659 0.058792263 11441017
-0.030329049 0.78439862 0.058789656 11441017
-0.030233577 0.7848407 0.058787033 11506810
-0.030138105 0.78528273 0.05878441 11441017
-0.030042633 0.78572476 0.058781803 11441017
-0.029947162 0.78616685 0.05877918 11441017
-0.02985169 0.78660887 0.058776557 11441017
-0.029756218 0.78705096 0.058773935 11375224
-0.029660746 0.78749299 0.058771327 11375224
-0.030413494 0.78806198 0.059286579 11375224
-0.030318365 0.7885024 0.059283972 11375224
-0.030223235 0.78894287 0.059281364 11441017
-0.030128106 0.78938335 0.059278756 11309431
-0.030032977 0.78982377 0.059276149 11243638
-0.029937848 0.79026425 0.059273541 11243638
-0.029842734 0.79070473 0.059270933 11243638
-0.029747605 0.79114515 0.059268326 11243638
-0.029652476 0.79158562 0.059265718 11243638
-0.029557347 0.79202604 0.05926311 11309431
-0.029462218 0.79246652 0.059260502 11309431
-0.029367089 0.792907 0.059257895 11243638
-0.02927196 0.79334742 0.059255287 11112052
-0.029176831 0.7937879 0.059252679 10849650
-0.029081702 0.79422832 0.059250072 10849650
-0.028986573 0.79466879 0.059247449 10783087
-0.028891444 0.79510927 0.059244841 10848880
-0.02879633 0.79554969 0.059242234 10783087
-0.028701201 0.79599017 0.059239626 11046259
-0.028606072 0.79643065 0.059237018 10914675
-0.029366076 0.79696608 0.059752479 10783089
-0.02927129 0.79740494 0.059749886 10257515
-0.029176503 0.79784381 0.059747279 10389101
-0.029081732 0.79828268 0.059744686 10323306
-0.028986946 0.79872155 0.059742093 9994341
-0.028892159 0.79916036 0.059739485 9599583
-0.028797373 0.79959923 0.059736893 9270618
-0.028702587 0.8000381 0.059734285 8876373
-0.028607816 0.80047697 0.059731692 8810580
-0.028513029 0.80091584 0.059729084 8481617
-0.028418243 0.80135471 0.059726492 8350031
-0.028323457 0.80179358 0.059723899 8086859
-0.029087931 0.80230826 0.060239479 7823687
-0.028993487 0.80274552 0.060236886 7758666
-0.028899059 0.80318278 0.060234293 7495494
-0.028804615 0.80362004 0.060231701 7429963
-0.028710186 0.8040573 0.060229123 7627342
-0.028615743 0.80449456 0.06022653 7627855
-0.028521299 0.80493188 0.060223937 7693648
-0.028426871 0.80536914 0.060221344 7825234
-0.029194474 0.80586946 0.060737014 8088406
-0.029100373 0.80630517 0.060734436 8747619
-0.029006287 0.80674082 0.060731858 8944998
-0.028912187 0.80717647 0.06072928 9208686
-0.028818101 0.80761212 0.060726702 9603444
-0.028724 0.80804783 0.060724124 10063995
-0.029493988 0.80853701 0.061239854 10392960
-0.029400229 0.80897105 0.061237276 10261888
-0.029306486 0.80940515 0.061234713 10261888
-0.029212743 0.80983919 0.061232135 10459267
-0.029118985 0.81027329 0.061229572 10393474
-0.029025242 0.81070733 0.061226994 10261888
-0.028931499 0.81114143 0.061224431 10327681
-0.02883774 0.81157547 0.061221853 10327681
-0.028743997 0.81200957 0.06121929 10393474
-0.028650239 0.81244367 0.061216712 10393474
-0.028556496 0.81287771 0.061214149 10327681
-0.028462753 0.81331182 0.061211571 10065022
-0.029237211 0.81378025 0.061727419 9933436
-0.02914381 0.81421268 0.061724856 9933436
-0.02905041 0.81464517 0.061722293 9867643
-0.028956994 0.81507766 0.06171973 9933436
-0.028863594 0.81551015 0.061717167 9867643
-0.028770193 0.81594265 0.061714604 9867130
-0.029547095 0.81639987 0.062230557 9801337
-0.029454038 0.81683075 0.062227994 9932409
-0.02936098 0.81726164 0.062225446 9998202
-0.029267922 0.81769252 0.062222898 10194552
-0.029174864 0.8181234 0.06222035 10194552
-0.029081807 0.81855428 0.062217787 10194550
-0.028988749 0.81898516 0.062215239 10128757
-0.028895676 0.81941605 0.062212691 10194550
-0.028802618 0.81984693 0.062210128 10194550
-0.029582947 0.82028824 0.06272614 10260343
-0.029490232 0.82071751 0.062723592 10260343
-0.029397517 0.82114679 0.062721059 10588538
-0.029304802 0.82157612 0.062718511 10720124
-0.029212087 0.82200539 0.062715963 10785142
-0.029119372 0.82243466 0.062713429 10785142
-0.029026657 0.82286394 0.062710881 11113337
-0.028933942 0.82329321 0.062708348 11113337
-0.028841227 0.82372248 0.0627058 11244408
-0.028748512 0.82415181 0.062703252 11244408
-0.028655797 0.82458109 0.062700719 11244921
-0.028563082 0.82501036 0.062698171 11179128
-0.028470367 0.82543963 0.062695622 11179128
-0.028377652 0.82586896 0.062693089 11113335
-0.028284937 0.82629824 0.062690541 11244921
-0.028192222 0.82672751 0.062688008 11047542
-0.028099507 0.82715678 0.06268546 11244921
-0.028006792 0.82758605 0.062682912 11376507
-0.027034491 0.82803369 0.062161654 11771267
-0.026941434 0.82846457 0.062159091 12034439
-0.026848376 0.82889545 0.062156543 12231818
-0.026755318 0.82932627 0.062153995 12560783
-0.02666226 0.82975721 0.062151447 12955543
-0.026569188 0.83018804 0.062148884 13284508
-0.02647613 0.83061892 0.062146336 13482403
-0.026383072 0.8310498 0.062143788 13877161
-0.026290014 0.83148068 0.062141225 14205874
-0.026196957 0.83191156 0.062138677 14403253
-0.026103899 0.83234245 0.062136129 14665655
-0.026010841 0.83277333 0.06213358 14928827
-0.025917783 0.83320421 0.062131017 15126206
-0.025824726 0.83363509 0.062128469 15849929
-0.024847209 0.83410662 0.061607033 16112842
-0.024753809 0.83453912 0.06160447 16112842
-0.024660408 0.83497155 0.061601907 14928827
-0.024567008 0.83540404 0.061599344 11310212
-0.024473593 0.83583653 0.061596781 9864567
-0.024380192 0.83626902 0.061594218 12496287
-0.028144211 0.74880385 0.053702936 7625797
-0.028044939 0.74926347 0.053700209 8151369
-0.027945682 0.74972308 0.053697482 8611920
-0.028668225 0.75043583 0.054210499 9071958
-0.028569311 0.75089389 0.054207787 9466716
-0.028470382 0.75135189 0.054205075 9795681
-0.029194295 0.75205827 0.054718092 9993060
-0.029095724 0.75251466 0.054715395 10190439
-0.028997153 0.75297111 0.054712683 10387818
-0.029722437 0.75367111 0.055225745 10453609
-0.029624209 0.75412589 0.055223048 10585195
-0.02952598 0.75458074 0.055220366 10651501
-0.03025268 0.75527436 0.055733487 10848880
-0.030154794 0.75572759 0.055730805 10914673
-0.030056909 0.75618082 0.055728123 10914673
-0.029959023 0.756634 0.055725425 10914673
-0.029861137 0.75708723 0.055722743 10914673
-0.029763252 0.75754046 0.055720061 11046000
-0.030492336 0.75822294 0.056233227 11111793
-0.030394793 0.75867456 0.056230545 11177586
-0.03029725 0.75912619 0.056227878 11177586
-0.031027734 0.75980222 0.056741104 11309172
-0.030930549 0.76025224 0.056738436 11309172
-0.030833349 0.76070231 0.056735769 11309431
-0.030736148 0.76115233 0.056733117 11243638
-0.030638963 0.76160234 0.056730449 11243638
-0.030541763 0.76205242 0.056727782 11375224
-0.030444562 0.76250243 0.056725115 11441017
-0.030347362 0.76295245 0.056722447 11309431
-0.030250177 0.76340246 0.05671978 11309431
-0.030152977 0.76385254 0.056717113 11375224
-0.030055776 0.76430255 0.056714445 11375224
-0.029958591 0.76475257 0.056711793 11441017
-0.029861391 0.76520258 0.056709126 11441017
-0.02976419 0.76565266 0.056706458 11506810
-0.030499831 0.76630473 0.057219803 11440504
-0.030402973 0.7667532 0.057217136 11506297
-0.030306116 0.7672016 0.057214484 11506297
-0.030209273 0.76765007 0.057211831 11572090
-0.030112416 0.76809847 0.057209179 11572090
-0.030015573 0.76854694 0.057206511 11506297
-0.029918715 0.76899534 0.057203859 11572090
-0.029821873 0.76944381 0.057201207 11572090
-0.029725015 0.76989222 0.057198554 11506810
-0.029628173 0.77034068 0.057195887 11506810
-0.029531315 0.77078909 0.057193235 11572603
-0.029434457 0.77123755 0.057190582 11572603
-0.030174598 0.77186894 0.057704076 11506810
-0.030078098 0.77231574 0.057701424 11506810
-0.029981583 0.7727626 0.057698786 11506810
-0.03072308 0.77338761 0.05821228 11506810
-0.030626923 0.77383286 0.058209643 11572605
-0.030530751 0.7742781 0.058207005 11572605
-0.030434594 0.77472335 0.058204368 11506810
-0.030338436 0.7751686 0.05820173 11506810
-0.030242264 0.77561384 0.058199093 11572090
-0.030146107 0.77605909 0.058196455 11572090
-0.03004995 0.77650428 0.058193818 11572090
-0.029953793 0.77694952 0.058191195 11572090
-0.030698717 0.77755857 0.058704793 11506297
-0.030602902 0.77800226 0.058702171 11506297
-0.030507088 0.7784459 0.058699548 11441017
-0.030411273 0.77888954 0.058696911 11441017
-0.030315459 0.77933317 0.058694288 11441017
-0.030219629 0.77977681 0.058691666 11441017
-0.030123815 0.78022045 0.058689028 11507064
-0.030028 0.78066409 0.058686405 11507064
-0.029932186 0.78110778 0.058683783 11441271
-0.029836372 0.78155142 0.058681145 11441271
-0.029740557 0.78199506 0.058678523 11375478
-0.030489653 0.78258497 0.059192255 11441271
-0.030394182 0.78302699 0.059189633 11309431
-0.03029871 0.78346908 0.05918701 11375224
-0.030203238 0.78391111 0.059184387 11178615
-0.030107766 0.78435314 0.05918178 11178615
-0.030012295 0.78479522 0.059179157 11244408
-0.029916823 0.78523725 0.059176534 11178615
-0.029821351 0.78567934 0.059173927 11178615
-0.029725879 0.78612137 0.059171304 11112822
-0.029630408 0.7865634 0.059168682 11112824
-0.029534936 0.78700548 0.059166074 10981238
-0.029439464 0.78744751 0.059163451 10915445
-0.030193001 0.78801668 0.059677303 10981238
-0.030097887 0.7884571 0.059674695 10981238
-0.030002758 0.78889757 0.059672073 10849652
-0.029907629 0.78933805 0.059669465 10783857
-0.0298125 0.78977847 0.059666857 10849650
-0.029717371 0.79021895 0.059664249 10849650
-0.029622242 0.79065943 0.059661642 10783857
-0.029527113 0.79109985 0.059659034 10981236
-0.029431984 0.79154032 0.059656426 10454892
-0.029336855 0.79198074 0.059653819 10060134
-0.029241726 0.79242122 0.059651211 10323306
-0.029146612 0.7928617 0.059648603 9862755
-0.029051483 0.79330212 0.059645995 10257513
-0.028956354 0.7937426 0.059643388 9599583
-0.028861225 0.79418302 0.05964078 9336411
-0.028766096 0.79462349 0.059638172 9269848
-0.028670967 0.79506397 0.059635565 9006676
-0.028575838 0.79550439 0.059632957 8743504
-0.028480709 0.79594487 0.059630334 8677711
-0.02838558 0.79638529 0.059627727 8415309
-0.029146388 0.79692096 0.060141787 8349516
-0.029051602 0.79735982 0.060139179 8021838
-0.028956831 0.79779869 0.060136586 7298115
-0.028862044 0.79823756 0.060133979 6969662
-0.028767258 0.79867637 0.060131386 7430213
-0.028672472 0.79911524 0.060128778 7299140
-0.028577685 0.79955411 0.060126185 7496519
-0.028482914 0.79999298 0.060123578 7497804
-0.028388128 0.80043185 0.060120985 8024148
-0.028293341 0.80087072 0.060118392 8353631
-0.028198555 0.80130953 0.060115784 8616803
-0.028103784 0.80174839 0.060113192 8748649
-0.028869048 0.80226326 0.060627356 9077614
-0.028774604 0.80270058 0.060624763 9800823
-0.028680176 0.80313784 0.060622171 9998202
-0.028585732 0.8035751 0.060619593 9669753
-0.028491288 0.80401236 0.060617 9801339
-0.02839686 0.80444962 0.060614407 9999229
-0.028302416 0.80488688 0.060611814 9999229
-0.028207973 0.80532414 0.060609221 10065022
-0.028976381 0.80582464 0.061123475 10262401
-0.028882295 0.80626035 0.061120898 9999229
-0.028788194 0.806696 0.06111832 10065022
-0.028694093 0.80713165 0.061115742 10459780
-0.028600007 0.80756736 0.061113164 10196608
-0.028505906 0.80800301 0.061110586 10261888
-0.029276699 0.80849236 0.0616249 10064509
-0.029182941 0.8089264 0.061622337 10130302
-0.029089198 0.8093605 0.061619759 9998716
-0.028995454 0.80979455 0.061617196 10129788
-0.028901696 0.81022865 0.061614618 10129788
-0.028807953 0.81066269 0.061612055 10260091
-0.02871421 0.81109679 0.061609477 10128505
-0.028620452 0.81153083 0.061606899 10194298
-0.028526708 0.81196493 0.061604336 10194298
-0.02843295 0.81239903 0.061601758 10194298
-0.028339207 0.81283307 0.061599195 9996919
-0.028245464 0.81326717 0.061596617 9931380
-0.029020727 0.81373572 0.06211105 9997173
-0.028927326 0.81416821 0.062108487 9865587
-0.028833911 0.81460071 0.062105924 9799794
-0.02874051 0.8150332 0.062103361 10325366
-0.02864711 0.81546563 0.062100798 10456952
-0.028553694 0.81589812 0.06209825 10653818
-0.029331416 0.81635559 0.062612772 10785404
-0.029238343 0.81678647 0.062610209 10587511
-0.029145285 0.81721735 0.062607661 10784890
-0.029052228 0.81764823 0.062605113 11179132
-0.02895917 0.81807911 0.062602565 11047546
-0.028866112 0.81850994 0.062600002 11244923
-0.028773054 0.81894088 0.062597454 11179130
-0.028679997 0.81937176 0.062594905 11114107
-0.028586939 0.81980264 0.062592357 11179900
-0.029368058 0.82024407 0.063106939 11114107
-0.029275343 0.82067335 0.063104406 11114107
-0.029182628 0.82110268 0.063101858 11310716
-0.029089913 0.82153195 0.06309931 11310716
-0.028997198 0.82196122 0.063096777 11310201
-0.028904483 0.8223905 0.063094229 11310201
-0.028811768 0.82281977 0.06309168 11638396
-0.028719053 0.8232491 0.063089147 11572603
-0.028626338 0.82367837 0.063086599 11507064
-0.028533623 0.82410765 0.063084051 11507064
-0.028440908 0.82453692 0.063081518 11572857
-0.028348193 0.82496619 0.06307897 11507064
-0.028255478 0.82539546 0.063076437 11375478
-0.028162763 0.8258248 0.063073888 11375478
-0.028070047 0.82625407 0.06307134 11507064
-0.027977332 0.82668334 0.063068807 11441271
-0.027884617 0.82711262 0.063066259 11310455
-0.027791902 0.82754195 0.063063726 11639420
-0.026818797 0.82798934 0.062543869 11836545
-0.026725739 0.82842022 0.062541306 12165510
-0.026632681 0.8288511 0.062538758 12297096
-0.026539624 0.82928199 0.06253621 12691854
-0.026446566 0.82971287 0.062533662 12955543
-0.026353508 0.83014375 0.062531099 13152922
-0.02626045 0.83057463 0.062528551 13482403
-0.026167378 0.83100551 0.062526003 13811368
-0.02607432 0.8314364 0.062523454 14008495
-0.025981262 0.83186728 0.062520891 14337460
-0.025888205 0.83229816 0.062518343 14665655
-0.025795147 0.83272904 0.062515795 14928827
-0.025702089 0.83315992 0.062513247 15519681
-0.025609031 0.83359081 0.062510684 15782853
-0.024630725 0.83406216 0.061990663 16046279
-0.024537325 0.83449459 0.0619881 15980486
-0.024443924 0.83492708 0.061985537 16771029
-0.024350509 0.83535957 0.061982974 15454912
-0.024257109 0.83579206 0.061980411 12101012
-0.024163708 0.8362245 0.061977863 10587773
-0.027914137 0.74875659 0.054110631 7691590
-0.027814865 0.7492162 0.054107904 8217162
-0.027715608 0.74967581 0.054105192 8611920
-0.030084133 0.75089538 0.055645362 9071958
-0.029985905 0.75135022 0.055642664 9532509
-0.029887676 0.75180507 0.055639967 9795681
-0.029789448 0.75225985 0.055637285 9993060
-0.029691219 0.75271469 0.055634588 10190439
-0.029592991 0.75316948 0.055631891 10387818
-0.030319452 0.75386804 0.056143567 10453611
-0.030221567 0.75432128 0.056140885 10585197
-0.030123681 0.75477451 0.056138203 10650988
-0.030851498 0.7554667 0.056649894 10848367
-0.030753955 0.75591832 0.056647226 10914160
-0.030656412 0.75636995 0.056644544 10979953
-0.03138563 0.75705576 0.057156309 11045746
-0.031288445 0.75750577 0.057153642 11045746
-0.031191245 0.75795585 0.057150975 11111539
-0.031094044 0.75840586 0.057148308 11111539
-0.030996859 0.75885588 0.05714564 11177332
-0.030899659 0.75930589 0.057142973 11177332
-0.030802459 0.75975597 0.057140306 11243638
-0.030705258 0.76020598 0.057137638 11243638
-0.030608073 0.760656 0.057134986 11243640
-0.031340703 0.76132584 0.057646796 11112054
-0.031243861 0.7617743 0.057644144 11243640
-0.031147003 0.76222271 0.057641491 11375226
-0.031050146 0.76267117 0.057638839 11375226
-0.030953303 0.76311958 0.057636172 11309433
-0.030856445 0.76356804 0.057633519 11309431
-0.030759603 0.76401645 0.057630867 11309431
-0.030662745 0.76446491 0.057628214 11375224
-0.030565903 0.76491332 0.057625547 11441017
-0.030469045 0.76536179 0.057622895 11441017
-0.030372202 0.76581019 0.057620242 11441017
-0.031109005 0.7664609 0.058132201 11375224
-0.03101249 0.76690775 0.058129564 11309431
-0.03091599 0.76735461 0.058126912 11441017
-0.030819476 0.7678014 0.058124274 11375224
-0.030722976 0.76824826 0.058121622 11441019
-0.030626461 0.76869512 0.058118969 11441019
-0.031365648 0.76933461 0.058630973 11441019
-0.031269491 0.76977986 0.058628336 11441019
-0.031173334 0.77022511 0.058625698 11441017
-0.031077161 0.77067035 0.058623061 11441017
-0.030981004 0.7711156 0.058620423 11441017
-0.030884847 0.77156085 0.058617786 11441017
-0.030788675 0.77200609 0.058615148 11441019
-0.030692518 0.77245134 0.058612511 11441019
-0.030596361 0.77289659 0.058609873 11441019
-0.03133899 0.77352011 0.059121996 11441019
-0.031243175 0.77396375 0.059119359 11506812
-0.031147361 0.77440745 0.059116736 11506812
-0.031051546 0.77485108 0.059114113 11506814
-0.030955717 0.77529472 0.059111476 11441021
-0.030859903 0.77573836 0.059108853 11375228
-0.030764088 0.776182 0.059106231 11441021
-0.030668274 0.77662563 0.059103593 11441021
-0.030572459 0.77706933 0.059100971 11441021
-0.03131856 0.77767694 0.059613168 11375226
-0.031223089 0.77811897 0.059610561 11375226
-0.031127617 0.778561 0.059607938 11244410
-0.031032145 0.77900308 0.059605315 11244410
-0.030936673 0.77944511 0.059602708 11178615
-0.030841202 0.7798872 0.059600085 11244408
-0.03074573 0.78032923 0.059597462 11178615
-0.030650258 0.78077126 0.059594855 11244408
-0.030554786 0.78121334 0.059592232 11112822
-0.030459315 0.78165537 0.05958961 11178615
-0.030363843 0.78209746 0.059586987 10981236
-0.030268371 0.78253949 0.059584379 10915443
-0.030172899 0.78298151 0.059581757 10981238
-0.030077428 0.7834236 0.059579134 10981238
-0.03082867 0.78400725 0.060091481 10849652
-0.030733541 0.78444773 0.060088873 10915445
-0.030638412 0.78488815 0.060086265 10981238
-0.030543283 0.78532863 0.060083658 10849652
-0.030448169 0.7857691 0.06008105 10652273
-0.03035304 0.78620952 0.060078442 10520687
-0.03025791 0.78665 0.060075834 10652273
-0.030162781 0.78709042 0.060073227 10323308
-0.030067652 0.7875309 0.060070619 10060136
-0.029972523 0.78797138 0.060068011 10323308
-0.029877394 0.7884118 0.060065404 9599585
-0.029782265 0.78885227 0.060062796 9139034
-0.029687136 0.78929269 0.060060188 8942168
-0.029592007 0.78973317 0.06005758 8942168
-0.029496878 0.79017365 0.060054958 8810580
-0.030253664 0.79073179 0.060567468 8415822
-0.030158877 0.79117066 0.060564861 8284236
-0.030064091 0.79160947 0.060562268 8415822
-0.02996932 0.79204834 0.06055966 8021836
-0.029874533 0.7924872 0.060557067 8021836
-0.029779747 0.79292607 0.060554475 7758666
-0.029684961 0.79336494 0.060551867 7429701
-0.029590189 0.79380381 0.060549274 7561801
-0.029495403 0.79424268 0.060546666 7759180
-0.029400617 0.79468149 0.060544074 8088145
-0.029305831 0.79512036 0.060541466 8219731
-0.029211044 0.79555923 0.060538873 8088658
-0.029116273 0.7959981 0.06053628 8483416
-0.029021487 0.79643697 0.060533673 8879973
-0.0289267 0.79687583 0.06053108 9143145
-0.028831914 0.79731464 0.060528472 9013358
-0.028737143 0.79775351 0.060525879 9342323
-0.029500097 0.79828292 0.061038539 9802874
-0.029405668 0.79872018 0.061035961 9802874
-0.029311225 0.79915744 0.061033368 9737081
-0.029216796 0.7995947 0.061030775 9868667
-0.029122353 0.80003202 0.061028183 9934460
-0.029027909 0.80046928 0.06102559 9934460
-0.02893348 0.80090654 0.061023012 9605241
-0.028839037 0.8013438 0.061020419 9934206
-0.028744593 0.80178106 0.061017826 9934206
-0.028650165 0.80221832 0.061015233 9868413
-0.028555721 0.80265558 0.061012641 9867643
-0.028461277 0.80309284 0.061010063 9867643
-0.029228762 0.8036015 0.061522856 9932923
-0.029134661 0.80403715 0.061520264 9801337
-0.029040575 0.80447286 0.061517686 9932923
-0.028946474 0.80490851 0.061515108 9867130
-0.028852388 0.80534416 0.06151253 9998456
-0.029621899 0.80584329 0.062025368 9998456
-0.029528156 0.80627733 0.062022805 10063479
-0.029434398 0.80671144 0.062020227 9800307
-0.029340655 0.80714548 0.062017664 9734514
-0.029246911 0.80757958 0.062015086 9866100
-0.029153153 0.80801362 0.062012523 9997173
-0.02905941 0.80844772 0.062009946 10194552
-0.028965652 0.80888176 0.062007383 10522747
-0.028871909 0.80931586 0.062004805 10259575
-0.029644877 0.80979896 0.062517732 10390646
-0.029551461 0.81023145 0.062515169 10522232
-0.029458061 0.81066394 0.062512606 10784890
-0.02936466 0.81109643 0.062510058 10784890
-0.02927126 0.81152886 0.062507495 10915706
-0.029177845 0.81196135 0.062504932 10915706
-0.029084444 0.81239384 0.062502369 10915706
-0.028991044 0.81282634 0.062499806 11047292
-0.028897643 0.81325877 0.062497243 11113085
-0.029674083 0.81372595 0.06301029 11244671
-0.02958101 0.81415683 0.063007742 11310718
-0.029487953 0.81458771 0.063005194 11310718
-0.029394895 0.81501859 0.063002646 11376511
-0.029301837 0.81544948 0.063000083 11442304
-0.029208779 0.81588036 0.062997535 11507584
-0.029115722 0.81631124 0.062994987 11441791
-0.029022664 0.81674212 0.062992439 11375996
-0.028929606 0.817173 0.062989876 11375996
-0.029709458 0.81762421 0.063502997 11375994
-0.029616743 0.81805348 0.063500449 11507580
-0.029524028 0.81848276 0.063497916 11638396
-0.029431313 0.81891209 0.063495368 11638396
-0.029338598 0.81934136 0.063492835 11639166
-0.029245883 0.81977063 0.063490286 11639166
-0.029153168 0.82019991 0.063487738 11507580
-0.029060453 0.82062924 0.063485205 11441787
-0.028967738 0.82105851 0.063482657 11441787
-0.028875023 0.82148778 0.063480109 11507580
-0.028782308 0.82191706 0.063477576 11506810
-0.028689593 0.82234633 0.063475028 11506810
-0.028596878 0.8227756 0.063472494 11703930
-0.028504163 0.82320493 0.063469946 11703930
-0.028411448 0.82363421 0.063467398 11638137
-0.028318733 0.82406348 0.063464865 11638137
-0.028226018 0.82449275 0.063462317 11638137
-0.028133303 0.82492208 0.063459769 11572344
-0.028040588 0.82535136 0.063457236 11440758
-0.027947873 0.82578063 0.063454688 11440758
-0.027855158 0.8262099 0.063452154 11572344
-0.027762443 0.82663918 0.063449606 11572344
-0.027669728 0.82706851 0.063447058 11572344
-0.027577013 0.82749778 0.063444525 11901309
-0.027484298 0.82792705 0.063441977 11967615
-0.027391583 0.82835633 0.063439429 12296580
-0.027298868 0.8287856 0.063436896 12427912
-0.027206153 0.82921493 0.063434348 12756877
-0.027113438 0.8296442 0.063431814 12955543
-0.027020723 0.83007348 0.063429266 13152922
-0.026928008 0.83050275 0.063426718 13482405
-0.026835293 0.83093202 0.063424185 13745577
-0.026742578 0.83136129 0.063421637 13876909
-0.026649863 0.83179063 0.063419089 14271667
-0.026557148 0.8322199 0.063416556 14665142
-0.026464432 0.83264917 0.063414007 14994107
-0.026371717 0.83307844 0.063411474 15454142
-0.026279002 0.83350778 0.063408926 15717314
-0.025300279 0.83397734 0.062890351 16111559
-0.025207222 0.83440822 0.062887803 16045766
-0.025114164 0.83483911 0.062885255 16308936
-0.025021106 0.83526999 0.062882692 16177350
-0.024928033 0.83570087 0.062880144 16112842
-0.024834976 0.83613175 0.062877595 14731189
-0.029856473 0.75084865 0.05604881 9137749
-0.029758245 0.75130343 0.056046113 9532507
-0.029660001 0.75175828 0.056043431 9729886
-0.029561773 0.75221306 0.056040734 9993058
-0.029463544 0.7526679 0.056038037 10190437
-0.029365316 0.75312269 0.05603534 10387816
-0.030092582 0.75382143 0.056545615 10519402
-0.029994696 0.75427467 0.056542918 10650988
-0.029896811 0.7547279 0.056540236 10716781
-0.030625418 0.75542027 0.057050511 10848367
-0.030527875 0.75587189 0.057047844 10914160
-0.030430332 0.75632352 0.057045162 10979953
-0.031160355 0.75700951 0.057555512 11045746
-0.031063154 0.75745952 0.057552844 11045746
-0.030965969 0.75790954 0.057550177 11045746
-0.030868769 0.75835955 0.05754751 11045746
-0.030771568 0.75880957 0.057544842 11111539
-0.030674383 0.75925964 0.057542175 11177332
-0.030577183 0.75970966 0.057539508 11308918
-0.030479982 0.76015967 0.057536855 11308918
-0.030382797 0.76060975 0.057534188 11243640
-0.031116232 0.7612797 0.058044598 11112054
-0.031019375 0.76172817 0.05804193 11243640
-0.030922532 0.76217657 0.058039278 11309433
-0.030825675 0.76262504 0.058036625 11309433
-0.030728817 0.76307344 0.058033973 11309433
-0.030631974 0.76352191 0.058031306 11243640
-0.030535117 0.76397032 0.058028653 11309433
-0.030438274 0.76441878 0.058026001 11309431
-0.030341417 0.76486719 0.058023348 11441017
-0.030244574 0.76531565 0.058020681 11375224
-0.030147716 0.76576406 0.058018029 11309431
-0.030885324 0.76641494 0.058528587 11309431
-0.030788809 0.7668618 0.058525935 11243638
-0.030692309 0.76730859 0.058523282 11375226
-0.030595794 0.76775545 0.058520645 11375226
-0.030499294 0.7682023 0.058517992 11375226
-0.03040278 0.7686491 0.058515355 11441019
-0.031142771 0.76928884 0.059025928 11375226
-0.031046614 0.76973408 0.059023291 11375226
-0.030950442 0.77017933 0.059020653 11309433
-0.030854285 0.77062458 0.059018016 11309433
-0.030758128 0.77106977 0.059015378 11244410
-0.030661955 0.77151501 0.059012756 11178617
-0.030565798 0.77196026 0.059010118 11178617
-0.030469641 0.77240551 0.059007481 11178617
-0.030373484 0.77285075 0.059004843 11178619
-0.031116903 0.77347451 0.059515536 11112826
-0.031021088 0.77391815 0.059512898 10915960
-0.030925274 0.77436179 0.059510276 11113339
-0.030829459 0.77480543 0.059507653 11113339
-0.030733645 0.77524906 0.059505016 11113339
-0.03063783 0.7756927 0.059502393 10915960
-0.030542001 0.7761364 0.05949977 11047546
-0.030446187 0.77658004 0.059497133 11179132
-0.030350372 0.77702367 0.05949451 10784374
-0.031097278 0.77763146 0.060005307 10784374
-0.031001806 0.77807349 0.060002685 10915960
-0.030906335 0.77851558 0.060000062 10850167
-0.030810863 0.77895761 0.059997454 10586995
-0.030715391 0.77939963 0.059994832 10849652
-0.030619919 0.77984172 0.059992209 10849652
-0.030524448 0.78028375 0.059989586 10784372
-0.030428976 0.78072584 0.059986979 10323821
-0.030333504 0.78116786 0.059984356 10258028
-0.030238032 0.78160989 0.059981734 10258028
-0.030142561 0.78205198 0.059979126 9928548
-0.030047089 0.78249401 0.059976503 9994341
-0.029951617 0.7829361 0.059973881 9994341
-0.029856145 0.78337812 0.059971273 9467997
-0.030608192 0.78396195 0.060482204 9336411
-0.030513063 0.78440243 0.060479596 9007446
-0.030417934 0.78484285 0.060476974 8217930
-0.030322805 0.78528333 0.060474366 8217930
-0.030227676 0.78572375 0.060471758 8086859
-0.030132547 0.78616422 0.060469151 7889480
-0.030037418 0.7866047 0.060466543 7626308
-0.029942289 0.78704512 0.060463935 7560515
-0.02984716 0.7874856 0.060461327 7561287
-0.029752046 0.78792608 0.06045872 7824459
-0.029656917 0.7883665 0.060456112 7561547
-0.029561788 0.78880697 0.060453504 7429961
-0.029466659 0.78924739 0.060450897 7628107
-0.02937153 0.78968787 0.060448289 7957072
-0.029276401 0.79012835 0.060445681 7957072
-0.030033976 0.79068661 0.060956761 8220244
-0.02993919 0.79112548 0.060954154 8812897
-0.029844418 0.79156435 0.060951561 9273448
-0.029749632 0.79200321 0.060948968 9405549
-0.029654846 0.79244208 0.06094636 9734514
-0.029560059 0.79288095 0.060943767 9669751
-0.029465273 0.79331982 0.06094116 9998716
-0.029370502 0.79375863 0.060938567 10196608
-0.029275715 0.7941975 0.060935959 9933436
-0.029180929 0.79463637 0.060933366 9736057
-0.029086143 0.79507524 0.060930774 9867643
-0.028991371 0.79551411 0.060928166 9933690
-0.028896585 0.79595298 0.060925573 9802104
-0.028801799 0.79639179 0.060922965 9473139
-0.028707013 0.79683065 0.060920373 9473139
-0.028612241 0.79726952 0.060917765 9473139
-0.028517455 0.79770839 0.060915172 9604725
-0.029281214 0.79823798 0.061426431 9736309
-0.029186785 0.79867524 0.061423838 9802102
-0.029092342 0.7991125 0.061421245 9736309
-0.028997898 0.79954976 0.061418653 9736309
-0.028903469 0.79998702 0.06141606 9867382
-0.028809026 0.80042428 0.061413482 9867382
-0.028714582 0.80086154 0.061410889 9801075
-0.028620154 0.8012988 0.061408296 9735282
-0.02852571 0.80173606 0.061405703 9931378
-0.028431267 0.80217332 0.061403111 9997171
-0.028336838 0.80261058 0.061400533 10194550
-0.028242394 0.80304784 0.06139794 10194550
-0.029010668 0.80355668 0.061909318 10194804
-0.028916582 0.80399239 0.061906725 10194804
-0.028822482 0.80442804 0.061904147 10456693
-0.028728396 0.80486369 0.061901569 10456693
-0.028634295 0.80529934 0.061898991 10587765
-0.02940461 0.80579865 0.062410429 10719351
-0.029310867 0.80623269 0.062407851 10653556
-0.029217109 0.80666679 0.062405288 10719349
-0.029123366 0.80710083 0.06240271 10785142
-0.029029608 0.80753493 0.062400147 10785142
-0.028935865 0.80796897 0.062397569 10982521
-0.028842121 0.80840307 0.062394992 10785142
-0.028748363 0.80883712 0.062392429 10982521
-0.02865462 0.80927122 0.062389851 11048314
-0.029428378 0.80975449 0.062901363 11441789
-0.029334977 0.81018698 0.0628988 11310203
-0.029241577 0.81061947 0.062896252 11375996
-0.029148161 0.81105191 0.062893689 11375996
-0.029054761 0.8114844 0.062891126 11310203
-0.02896136 0.81191689 0.062888563 11310203
-0.02886796 0.81234932 0.062886 11310203
-0.028774545 0.81278181 0.062883437 11441789
-0.028681144 0.8132143 0.062880874 11441787
-0.029458389 0.81368166 0.06339252 11507580
-0.029365331 0.81411254 0.063389957 11507580
-0.029272258 0.81454343 0.063387409 11507580
-0.029179201 0.81497431 0.063384861 11507580
-0.029086143 0.81540513 0.063382313 11704959
-0.028993085 0.81583607 0.06337975 11704959
-0.028900027 0.81626689 0.063377202 11639166
-0.02880697 0.81669784 0.063374653 11638396
-0.028713912 0.81712866 0.063372105 11638396
-0.029494554 0.81758004 0.063883796 11638396
-0.029401839 0.81800932 0.063881263 11638396
-0.029309124 0.81843865 0.063878715 11770236
-0.029216409 0.81886792 0.063876167 11770236
-0.029123694 0.81929719 0.063873634 11836029
-0.029030979 0.81972647 0.063871086 11836029
-0.028938279 0.82015574 0.063868538 11770236
-0.028845549 0.82058507 0.063866004 11638650
-0.028752849 0.82101434 0.063863456 11638650
-0.028660133 0.82144362 0.063860923 11638650
-0.028567418 0.82187289 0.063858375 11638137
-0.028474703 0.82230222 0.063855827 11572344
-0.028381988 0.82273149 0.063853294 11703928
-0.028289273 0.82316077 0.063850746 11638135
-0.028196558 0.82359004 0.063848197 11638135
-0.028103843 0.82401931 0.063845664 11638135
-0.028011128 0.82444859 0.063843116 11638137
-0.027918413 0.82487792 0.063840583 11506551
-0.027825698 0.82530719 0.063838035 11440758
-0.027732983 0.82573646 0.063835487 11440758
-0.027640268 0.82616574 0.063832954 11572344
-0.027547553 0.82659507 0.063830405 11572344
-0.027454838 0.82702434 0.063827857 11572344
-0.027362123 0.82745361 0.063825324 11835516
-0.027269408 0.82788289 0.063822776 12032895
-0.027176693 0.82831216 0.063820243 12361860
-0.027083978 0.82874149 0.063817695 12493705
-0.026991263 0.82917076 0.063815147 12756877
-0.026898548 0.82960004 0.063812613 12823957
-0.026805833 0.83002931 0.063810065 13218715
-0.026713118 0.83045858 0.063807517 13416612
-0.026620403 0.83088791 0.063804984 13613991
-0.026527688 0.83131719 0.063802436 13745323
-0.026434973 0.83174646 0.063799903 14271667
-0.026342258 0.83217573 0.063797355 14599349
-0.026249543 0.832605 0.063794807 14928314
-0.026156828 0.83303434 0.063792273 15454142
-0.026064113 0.83346361 0.063789725 15717314
-0.025084585 0.833933 0.063272566 16111559
-0.024991527 0.83436394 0.063270018 16045766
-0.024898469 0.83479476 0.063267469 16243143
-0.024805412 0.83522564 0.063264921 16308936
-0.024712354 0.83565652 0.063262358 16177350
-0.024619281 0.83608741 0.06325981 16572108
-0.029628798 0.75080186 0.056452259 9137749
-0.02953057 0.75125664 0.056449577 9532507
-0.029432327 0.75171149 0.05644688 9795679
-0.029334098 0.75216627 0.056444183 9993058
-0.02923587 0.75262111 0.056441486 10190437
-0.029137641 0.75307596 0.056438789 10387816
-0.029865697 0.75377482 0.056947649 10519402
-0.029767811 0.75422806 0.056944966 10585195
-0.02966994 0.75468129 0.056942284 10716781
-0.030399337 0.75537378 0.057451129 10848367
-0.030301809 0.7558254 0.057448462 10914160
-0.030204266 0.75627702 0.057445779 10914160
-0.030935079 0.75696319 0.057954714 10979955
-0.030837879 0.75741321 0.057952046 11045748
-0.030740693 0.75786322 0.057949379 11045746
-0.030643493 0.7583133 0.057946712 10979953
-0.030546293 0.75876331 0.057944044 11111539
-0.030449107 0.75921333 0.057941392 11177332
-0.030351907 0.75966334 0.057938725 11308920
-0.030254707 0.76011342 0.057936057 11177334
-0.030157506 0.76056343 0.05793339 11112054
-0.030891746 0.76123357 0.058442384 11112054
-0.030794904 0.76168203 0.058439717 11243640
-0.030698046 0.7621305 0.058437064 11243640
-0.030601189 0.7625789 0.058434412 11243640
-0.030504346 0.76302731 0.058431759 11243640
-0.030407488 0.76347578 0.058429092 11243640
-0.030310646 0.76392418 0.05842644 11243640
-0.030213788 0.76437265 0.058423787 11243640
-0.030116946 0.76482105 0.058421135 11309433
-0.030020088 0.76526952 0.058418483 11375224
-0.029923245 0.76571792 0.058415815 11243638
-0.030661643 0.76636899 0.058924958 11243638
-0.030565128 0.76681584 0.058922306 11112052
-0.030468628 0.76726264 0.058919653 11112824
-0.030372113 0.76770949 0.058917016 11112824
-0.030275613 0.76815635 0.058914363 11178619
-0.030179113 0.76860315 0.058911726 11112826
-0.030919895 0.769243 0.059420899 11112826
-0.030823722 0.76968825 0.059418261 10981240
-0.030727565 0.7701335 0.059415624 10981240
-0.030631408 0.77057874 0.059412986 11112826
-0.030535236 0.77102399 0.059410349 10981240
-0.030439079 0.77146924 0.059407711 10981240
-0.030342922 0.77191448 0.059405074 10980986
-0.030246764 0.77235973 0.059402436 11112572
-0.030150592 0.77280498 0.059399799 10652534
-0.030894831 0.77342886 0.059909075 10652534
-0.030799001 0.77387249 0.059906453 10784374
-0.030703187 0.77431613 0.059903815 10784374
-0.030607373 0.77475983 0.059901193 10586995
-0.030511558 0.77520347 0.05989857 10652788
-0.030415744 0.7756471 0.059895933 10258800
-0.030319929 0.77609074 0.05989331 9798249
-0.030224115 0.77653438 0.059890687 9535077
-0.030128285 0.77697802 0.05988805 9666663
-0.030875996 0.77758598 0.060397431 9468514
-0.030780524 0.77802801 0.060394809 9271135
-0.030685052 0.7784701 0.060392186 9073756
-0.030589581 0.77891213 0.060389578 8810584
-0.030494109 0.77935421 0.060386956 8547412
-0.030398637 0.77979624 0.060384333 8350033
-0.030303165 0.78023827 0.060381725 7758664
-0.030207694 0.78068036 0.060379103 7824457
-0.030112222 0.78112239 0.06037648 7824457
-0.03001675 0.78156441 0.060373858 7890250
-0.029921278 0.7820065 0.06037125 8285522
-0.029825807 0.78244853 0.060368627 7890764
-0.029730335 0.78289062 0.060366005 7824971
-0.029634863 0.78333265 0.060363397 8022350
-0.0303877 0.78391665 0.060872912 8088143
-0.030292571 0.78435707 0.060870305 8285522
-0.030197442 0.78479755 0.060867697 8549207
-0.030102313 0.78523803 0.060865089 8746586
-0.030007198 0.78567845 0.060862467 8813664
-0.029912069 0.78611892 0.060859859 9405801
-0.02981694 0.7865594 0.060857251 9209192
-0.029721811 0.78699982 0.060854644 9340778
-0.029626682 0.7874403 0.060852036 9407346
-0.029531553 0.78788078 0.060849428 9538932
-0.029436424 0.7883212 0.06084682 9801850
-0.029341295 0.78876168 0.060844213 9933436
-0.029246166 0.78920209 0.060841605 9736311
-0.029151037 0.78964257 0.060838997 9538932
-0.029055923 0.79008305 0.06083639 9736309
-0.029814288 0.79064149 0.061346054 9604723
-0.029719502 0.79108036 0.061343461 9604210
-0.02962473 0.79151922 0.061340854 9472624
-0.029529944 0.79195809 0.061338261 9538165
-0.029435158 0.7923969 0.061335653 9669751
-0.029340371 0.79283577 0.06133306 9801591
-0.0292456 0.79327464 0.061330453 9801591
-0.029150814 0.79371351 0.06132786 9932661
-0.029056028 0.79415238 0.061325267 9801075
-0.028961241 0.79459125 0.061322659 9669489
-0.02886647 0.79503012 0.061320066 9669489
-0.028771684 0.79546893 0.061317459 9735282
-0.028676897 0.7959078 0.061314866 9669489
-0.028582111 0.79634666 0.061312258 9734766
-0.028487325 0.79678553 0.061309665 9734766
-0.028392553 0.7972244 0.061307073 9734253
-0.028297767 0.79766327 0.061304465 9800046
-0.029062331 0.79819298 0.061814308 9997423
-0.028967887 0.79863024 0.061811715 10129009
-0.028873459 0.7990675 0.061809123 10259825
-0.028779015 0.79950476 0.06180653 10259825
-0.028684571 0.79994202 0.061803952 10390898
-0.028590143 0.80037928 0.061801359 10522484
-0.028495699 0.8008166 0.061798766 10653556
-0.028401256 0.80125386 0.061796173 10587763
-0.028306827 0.80169111 0.061793581 11047796
-0.028212383 0.80212837 0.061791003 11245175
-0.028117955 0.80256563 0.06178841 11112822
