# .PCD v0.7 - Point Cloud Data file format
VERSION 0.7
FIELDS x y z rgb
SIZE 4 4 4 4
TYPE F F F U
COUNT 1 1 1 1
WIDTH 1096
HEIGHT 1
VIEWPOINT 0 0 0 1 0 0 0
POINTS 1096
DATA ascii
0.057976365 0.80252719 0.049023241 11240549
0.058061823 0.80211973 0.049020767 11372135
0.058147296 0.80171227 0.049018294 11372135
0.058232754 0.80130482 0.04901582 11372135
0.057562724 0.80056149 0.048412323 11240549
0.057648525 0.80015242 0.048409835 11240549
0.057734326 0.79974341 0.048407361 11437928
0.057820126 0.79933435 0.048404872 11372135
0.057905927 0.79892528 0.048402384 11372135
0.057991728 0.79851621 0.04839991 11240549
0.058077514 0.79810715 0.048397437 11372135
0.058163315 0.79769808 0.048394948 11372135
0.057496294 0.79694039 0.047791347 11240551
0.057582423 0.79652977 0.047788858 11372137
0.057668567 0.79611909 0.04778637 11240549
0.057754695 0.79570842 0.047783881 11240549
0.057840824 0.7952978 0.047781393 11240549
0.057926968 0.79488713 0.04777889 11372135
0.057262287 0.79411823 0.047175214 11372135
0.057348758 0.793706 0.04717271 11372135
0.057435229 0.79329371 0.047170222 11372135
0.057521701 0.79288149 0.047167718 11372135
0.057608172 0.7924692 0.047165215 11372135
0.056945503 0.79169077 0.046561494 11372135
0.057032317 0.79127693 0.046558991 11372135
0.057119116 0.79086304 0.046556473 11437928
0.05720593 0.7904492 0.046553954 11372135
0.05729273 0.79003537 0.046551451 11240549
0.057379529 0.78962147 0.046548948 11174756
0.056719199 0.78883183 0.045945138 11240549
0.056806341 0.78841639 0.045942619 11372135
0.056893483 0.78800094 0.045940101 11240549
0.056980625 0.7875855 0.045937583 11240549
0.057067752 0.78717005 0.04593505 11174756
0.057154894 0.78675461 0.045932531 11174756
0.057242036 0.78633916 0.045930013 11174756
0.057329178 0.78592372 0.045927495 11372135
0.056671888 0.78511965 0.045323625 11240549
0.056759357 0.7847026 0.045321092 11174756
0.056846827 0.78428555 0.045318559 11108963
0.056934312 0.78386855 0.045316026 11174754
0.057021782 0.7834515 0.045313492 11174754
0.057109267 0.78303444 0.045310974 11240547
0.057196736 0.78261739 0.045308441 11174754
0.057284206 0.78220034 0.045305908 11108961
0.057371691 0.78178328 0.045303375 11108961
0.056717724 0.7809633 0.044699386 11173984
0.056805521 0.78054464 0.044696853 11173984
0.056893349 0.78012598 0.044694304 11239777
0.056981146 0.77970731 0.044691771 11173984
0.057068959 0.77928871 0.044689223 10977377
0.057156771 0.77887005 0.04468669 11043170
0.056505173 0.77803886 0.044082642 11043170
0.056593314 0.77761859 0.044080094 11043170
0.056681469 0.77719837 0.044077531 11108963
0.056769609 0.7767781 0.044074982 11108963
0.056857765 0.77635789 0.044072434 10977379
0.056208163 0.77551711 0.043468341 10911586
0.056296647 0.77509522 0.043465778 8608579
0.05638513 0.7746734 0.04346323 10713955
0.056473613 0.77425158 0.043460667 10911332
0.056562096 0.77382976 0.043458104 10911332
0.056650579 0.77340788 0.043455541 10779746
0.056003317 0.77255589 0.042851359 10779746
0.056092128 0.77213246 0.042848796 10780000
0.056180939 0.77170902 0.042846218 11108965
0.056269765 0.77128559 0.042843655 10977890
0.056358576 0.77086216 0.042841092 10846304
0.055713341 0.77000058 0.042236865 10977890
0.055802494 0.7695756 0.042234287 10977890
0.055891648 0.76915056 0.042231709 10847076
0.055980802 0.76872551 0.042229131 7557426
0.056069955 0.76830041 0.042226553 7753531
0.056159109 0.76787543 0.042223975 8543047
0.056248248 0.76745039 0.042221397 7754812
0.056337401 0.76702535 0.042218819 7952191
0.056426555 0.76660031 0.042216241 9729118
0.055784643 0.76572275 0.041611895 10189669
0.055874139 0.7652961 0.041609302 10321507
0.055963621 0.76486951 0.041606724 10584679
0.056053102 0.76444286 0.041604131 10912869
0.056142598 0.76401627 0.041601554 10847076
0.05623208 0.76358962 0.041598961 10912869
0.056321561 0.76316297 0.041596368 11044455
0.056411058 0.76273632 0.041593775 11109478
0.056500539 0.76230973 0.041591197 11043685
0.05586201 0.7614162 0.040986776 11109478
0.055951834 0.76098794 0.040984169 11175271
0.056041658 0.76055974 0.040981576 11240551
0.056131482 0.76013148 0.040978983 11174758
0.056221306 0.75970328 0.04097639 11174758
0.055584759 0.75880015 0.040371895 11240551
0.055674911 0.75837028 0.040369287 11305574
0.055765077 0.75794047 0.040366679 11305574
0.055855229 0.75751066 0.040364072 11239781
0.055945382 0.75708079 0.040361464 11173988
0.056035548 0.75665098 0.040358856 11239781
0.0561257 0.75622118 0.040356249 11239781
0.056215852 0.75579131 0.040353641 11108963
0.056306005 0.7553615 0.040351033 11108963
0.055672854 0.75444245 0.039746448 11108965
0.055763334 0.75401103 0.039743841 11043172
0.055853829 0.75357956 0.039741218 11043172
0.055944324 0.75314814 0.03973861 11108965
0.056034818 0.75271672 0.039735988 11109224
0.05540365 0.75178802 0.039131343 11043431
0.055494487 0.75135499 0.039128706 11043431
0.05558531 0.75092196 0.039126083 10977638
0.055676132 0.75048894 0.039123461 10977892
0.055766955 0.75005591 0.039120838 10977892
0.055857778 0.74962294 0.039118201 11043172
0.055228978 0.74868309 0.038513511 11043172
0.055320144 0.74824846 0.038510874 11043170
0.055411309 0.74781382 0.038508236 11043170
0.054783821 0.74686754 0.037903503 10977377
0.054875314 0.74643135 0.03790085 11043170
0.054966822 0.7459951 0.037898198 10911584
0.05434069 0.74504244 0.037293404 10911584
0.054432511 0.74460465 0.037290752 10911584
0.054524347 0.74416685 0.0372881 10911584
0.054616183 0.743729 0.037285447 10911584
0.054708004 0.7432912 0.03728278 10911584
0.05479984 0.7428534 0.037280127 10910816
0.054891676 0.74241555 0.037277475 10779230
0.054983512 0.74197775 0.037274823 10188376
0.056008637 0.82666183 0.051921174 13610380
0.056092769 0.82626075 0.051918745 13413001
0.056176886 0.82585967 0.051916301 13281415
0.056261003 0.82545859 0.051913872 12952450
0.056345135 0.82505751 0.051911443 12820864
0.056429252 0.82465649 0.051909015 12755073
0.056513384 0.82425541 0.051906571 12689280
0.056597501 0.82385433 0.051904142 12491901
0.056681633 0.82345325 0.051901713 12228729
0.05676575 0.82305217 0.051899269 12359032
0.056849882 0.82265115 0.05189684 12161653
0.056933999 0.82225007 0.051894411 12095858
0.057018131 0.82184899 0.051891983 12030065
0.057102248 0.82144791 0.051889539 11964785
0.057186365 0.82104683 0.05188711 11833199
0.057270497 0.82064581 0.051884681 11767406
0.057354614 0.82024473 0.051882252 11635820
0.057438746 0.81984365 0.051879808 11570027
0.057522863 0.81944257 0.051877379 11570027
0.057606995 0.81904149 0.051874951 11570027
0.057691112 0.81864047 0.051872507 11438441
0.057775229 0.81823939 0.051870078 11438441
0.057859361 0.81783831 0.051867649 11438441
0.057943478 0.81743723 0.05186522 11372648
0.05802761 0.81703615 0.051862791 11306855
0.058111727 0.81663513 0.051860347 11372135
0.058195859 0.81623405 0.051857919 11437928
0.058279976 0.81583297 0.05185549 11372135
0.058364108 0.81543189 0.051853046 11372135
0.057681203 0.81474596 0.051251307 11372135
0.057765663 0.81434327 0.051248863 11372135
0.057850122 0.81394064 0.05124642 11437928
0.057934582 0.81353796 0.051243976 11372135
0.058019042 0.81313527 0.051241532 11240549
0.058103502 0.81273264 0.051239088 11240549
0.058187962 0.81232995 0.051236644 11372135
0.058272421 0.81192732 0.051234215 11372135
0.058356881 0.81152463 0.051231772 11240547
0.057677314 0.81082267 0.050629914 11372133
0.057762116 0.81041843 0.050627455 11240547
0.057846904 0.81001413 0.050625011 11240547
0.057931691 0.80960989 0.050622553 11174754
0.058016494 0.80920565 0.050620094 11174754
0.058101282 0.80880135 0.05061765 11175008
0.057424098 0.80808818 0.050015733 11175008
0.057509214 0.80768234 0.050013274 11175008
0.057594344 0.80727649 0.050010815 11240801
0.057679474 0.80687064 0.050008357 11175008
0.057764605 0.80646479 0.050005898 11240801
0.057849735 0.80605888 0.050003424 11240547
0.057934865 0.80565304 0.050000966 11174754
0.058019996 0.80524719 0.049998507 11372133
0.057345808 0.80451965 0.0493965 11240547
0.057431266 0.8041122 0.049394026 11372133
0.057516739 0.80370474 0.049391553 11372133
0.057602197 0.80329728 0.049389079 11240549
0.05768767 0.80288982 0.049386606 11240549
0.057773128 0.80248237 0.049384132 11240549
0.057858586 0.80207491 0.049381658 11372135
0.057944059 0.80166745 0.049379185 11437928
0.058029518 0.80125999 0.049376711 11503721
0.057358697 0.80051649 0.04877463 11372135
0.057444483 0.80010748 0.048772141 11240549
0.057530284 0.79969835 0.048769668 11437928
0.057616085 0.79928935 0.048767179 11372135
0.057701886 0.79888028 0.048764706 11372135
0.057787687 0.79847121 0.048762217 11240549
0.057873487 0.79806215 0.048759744 11437928
0.057959288 0.79765308 0.048757255 11372135
0.057291463 0.79689527 0.048155084 11372137
0.057377607 0.79648459 0.048152581 11240551
0.057463735 0.79607391 0.048150092 11240549
0.057549864 0.7956633 0.048147604 11240549
0.057636008 0.79525262 0.048145115 11240549
0.057722136 0.79484195 0.048142627 11372135
0.057056665 0.79407287 0.047540352 11372135
0.057143137 0.79366064 0.047537863 11372135
0.057229608 0.79324841 0.04753536 11372135
0.057316065 0.79283613 0.047532856 11372135
0.057402536 0.7924239 0.047530353 11372135
0.056739092 0.79164523 0.046928048 11372135
0.056825891 0.79123139 0.046925545 11372137
0.05691269 0.7908175 0.046923026 11437930
0.056999505 0.79040366 0.046920523 11372135
0.057086304 0.78998983 0.046918005 11372135
0.057173103 0.78957599 0.046915501 11174756
0.056511983 0.78878617 0.046313107 11372135
0.05659911 0.78837067 0.046310589 11437928
0.056686252 0.78795522 0.04630807 11372135
0.056773394 0.78753978 0.046305552 11240549
0.056860536 0.78712434 0.046303034 11174756
0.056947678 0.78670889 0.046300516 11174756
0.05703482 0.78629345 0.046297982 11240549
0.057121962 0.785878 0.046295464 11372133
0.056463867 0.78507376 0.04569301 11240547
0.056551337 0.78465676 0.045690477 11240547
0.056638822 0.78423971 0.045687944 11174754
0.056726292 0.78382266 0.04568541 11240547
0.056813776 0.7834056 0.045682892 11240547
0.056901246 0.78298855 0.045680359 11502949
0.056988716 0.78257149 0.045677826 11371363
0.057076201 0.78215444 0.045675293 11239777
0.057163671 0.78173745 0.045672759 11239777
0.056508899 0.78091723 0.045070186 11305570
0.056596711 0.78049856 0.045067653 11305570
0.056684524 0.78007996 0.04506512 11305570
0.056772336 0.7796613 0.045062572 11305570
0.056860149 0.77924263 0.045060039 11173984
0.056947961 0.77882397 0.04505749 11305570
0.056295559 0.77799261 0.044454858 11108961
0.056383699 0.77757239 0.04445231 11108961
0.056471854 0.77715212 0.044449762 11108963
0.056559995 0.77673191 0.044447213 11108963
0.05664815 0.77631164 0.044444665 11043172
0.055997759 0.77547067 0.043841973 10911586
0.056086242 0.77504885 0.04383941 10911332
0.056174725 0.77462703 0.043836862 11042918
0.056263208 0.77420515 0.043834299 11173734
0.056351691 0.77378333 0.043831736 11239527
0.056440175 0.7733615 0.043829188 11173734
0.055792108 0.77250934 0.043226406 11173734
0.055880919 0.77208591 0.043223843 11173988
0.055969745 0.77166247 0.04322128 11305574
0.056058556 0.77123904 0.043218702 11239781
0.056147367 0.77081561 0.043216139 11108195
0.055501342 0.76995385 0.042613328 11174756
0.055590495 0.76952881 0.04261075 11108963
0.055679649 0.76910377 0.042608172 10912869
0.055768788 0.76867872 0.042605594 7689012
0.055857956 0.76825368 0.042603016 8543817
0.055947095 0.7678287 0.042600438 9596505
0.056036249 0.7674036 0.04259786 10189153
0.056125402 0.76697862 0.042595282 7886398
0.056214556 0.76655358 0.042592704 9399637
0.055571854 0.76567584 0.041989774 10452325
0.055661336 0.76524919 0.041987196 10649958
0.055750817 0.76482254 0.041984603 10847337
0.055840313 0.76439595 0.04198201 10913382
0.055929795 0.7639693 0.041979432 10847589
0.056019276 0.76354265 0.041976839 10978662
0.056108773 0.76311606 0.041974247 10978662
0.056198254 0.76268941 0.041971669 10978662
0.056287736 0.76226276 0.041969076 10978662
0.055648416 0.76136911 0.041366071 10978662
0.05573824 0.76094085 0.041363478 11044455
0.055828065 0.76051259 0.04136087 11240551
0.055917889 0.76008439 0.041358277 11174758
0.056007698 0.75965619 0.041355684 11305574
0.055370361 0.75875282 0.040752605 11371367
0.055460513 0.75832301 0.040749997 11371367
0.05555068 0.7578932 0.040747389 11239781
0.055640832 0.75746334 0.040744781 11305574
0.055730999 0.75703353 0.040742174 11239781
0.055821151 0.75660372 0.040739566 11305574
0.055911303 0.75617385 0.040736958 11305574
0.056001455 0.7557441 0.040734351 11173988
0.056091622 0.75531423 0.040731743 11239781
0.055457652 0.75439501 0.040128589 11174758
0.055548146 0.75396353 0.040125966 11108965
0.055638641 0.75353211 0.040123343 11108965
0.055729136 0.75310069 0.040120736 11174758
0.055819631 0.75266927 0.040118113 11174504
0.055187672 0.7517404 0.039514884 11108711
0.055278495 0.75130737 0.039512262 11108711
0.055369318 0.75087434 0.039509624 11042918
0.055460155 0.75044131 0.039507002 11042918
0.055550963 0.75000829 0.039504379 11042918
0.0556418 0.74957526 0.039501742 11043172
0.055012196 0.74863529 0.038898468 10977379
0.055103362 0.74820065 0.038895831 11043170
0.055194527 0.74776602 0.038893193 11043170
0.054566234 0.74681962 0.03828986 11043170
0.054657742 0.74638337 0.038287222 11043170
0.054749236 0.74594712 0.03828457 10911584
0.054122299 0.74499428 0.037681192 10779998
0.054214135 0.74455649 0.03767854 10911584
0.054305971 0.74411869 0.037675887 10911584
0.054397792 0.74368083 0.03767322 10911584
0.054489642 0.74324304 0.037670568 10911584
0.054581463 0.74280524 0.037667915 10780000
0.054673299 0.74236739 0.037665263 10648414
0.054765135 0.74192959 0.03766261 10385755
0.055808589 0.82661766 0.052276403 13610380
0.055892721 0.82621664 0.052273974 13413001
0.055976838 0.82581556 0.052271545 13281415
0.056837514 0.82565802 0.052866772 13084038
0.056921303 0.82525855 0.052864343 12886659
0.057005093 0.82485908 0.052861914 12689280
0.057088882 0.82445961 0.0528595 12623487
0.057172671 0.82406014 0.052857071 12426108
0.05725646 0.82366067 0.052854657 12228729
0.057340249 0.8232612 0.052852228 12162166
0.057424039 0.82286173 0.052849799 12096373
0.057507828 0.82246226 0.052847385 12095860
0.058365121 0.8223207 0.053442687 12030067
0.058448583 0.82192284 0.053440273 11964274
0.058532029 0.82152498 0.053437859 11898481
0.058615491 0.82112712 0.053435445 11833199
0.058698937 0.82072926 0.053433031 11635820
0.058782399 0.82033134 0.053430617 11570027
0.058865845 0.81993347 0.053428203 11570027
0.058949292 0.81953561 0.053425789 11504234
0.059032753 0.81913775 0.053423375 11438441
0.058345705 0.81846756 0.052823156 11438441
0.058429495 0.81806809 0.052820727 11438441
0.058513284 0.81766862 0.052818298 11372648
0.058597073 0.81726915 0.052815884 11306855
0.058680862 0.81686968 0.052813455 11306855
0.058764651 0.81647021 0.052811041 11372648
0.058848441 0.8160708 0.052808613 11437928
0.05893223 0.81567132 0.052806184 11437928
0.059016019 0.81527185 0.05280377 11437928
0.058332309 0.81458569 0.052203417 11437928
0.058416426 0.81418461 0.052200988 11437928
0.058500558 0.81378353 0.052198544 11372135
0.058584675 0.81338245 0.052196115 11240549
0.058668792 0.81298137 0.052193686 11174756
0.057987124 0.81228566 0.051593304 11372135
0.058071584 0.81188297 0.05159086 11372135
0.058156043 0.81148034 0.051588416 11240547
0.058240503 0.81107765 0.051585972 11372133
0.058324963 0.81067502 0.051583529 11240547
0.058409423 0.81027234 0.051581085 11372133
0.058493868 0.80986965 0.051578641 11240547
0.058578327 0.80946702 0.051576197 11240547
0.058662787 0.80906433 0.051573753 11240801
0.057984442 0.80835259 0.050973251 11240801
0.058069229 0.80794835 0.050970808 11109728
0.058154032 0.80754411 0.050968349 11175521
0.058238819 0.80713981 0.050965905 11175521
0.058323622 0.80673558 0.050963446 11307107
0.057647303 0.8060143 0.050362915 11372133
0.057732433 0.80560839 0.050360456 11240547
0.057817549 0.80520254 0.050357983 11240547
0.057902694 0.8047967 0.050355524 11240547
0.057987809 0.80439085 0.050353065 11240547
0.05807294 0.803985 0.050350606 11372133
0.05815807 0.80357909 0.050348133 11372133
0.0582432 0.80317324 0.050345674 11372133
0.058328331 0.8027674 0.050343215 11372135
0.057655364 0.80203009 0.049742565 11437928
0.057740822 0.80162263 0.049740091 11503721
0.057826281 0.80121517 0.049737617 11503721
0.057911754 0.80080771 0.049735144 11372135
0.057997212 0.80040026 0.04973267 11240549
0.05808267 0.7999928 0.049730197 11372135
0.058168143 0.79958534 0.049727723 11372135
0.058253601 0.79917789 0.049725249 11372135
0.05758366 0.79842621 0.049124524 11240549
0.057669461 0.79801714 0.04912205 11437928
0.057755262 0.79760814 0.049119562 11372135
0.057841063 0.79719907 0.049117088 11372137
0.057926863 0.79679 0.0491146 11372137
0.058012664 0.79638094 0.049112126 11240549
0.05809845 0.79597187 0.049109638 11372135
0.058184251 0.79556286 0.049107164 11240549
0.058270052 0.79515374 0.049104676 11372135
0.057603449 0.79438615 0.048503861 11372135
0.057689577 0.79397547 0.048501372 11372135
0.057775706 0.7935648 0.048498884 11372135
0.05786185 0.79315418 0.04849638 11372135
0.057947978 0.7927435 0.048493892 11437928
0.057283387 0.79196632 0.047893003 11372135
0.057369858 0.79155403 0.047890499 11372137
0.057456329 0.79114175 0.047887996 11437930
0.057542801 0.79072952 0.047885492 11372137
0.057629257 0.7903173 0.047882989 11372137
0.057715729 0.78990501 0.047880486 11240551
0.057053491 0.78911662 0.047279552 11372137
0.057140306 0.78870279 0.047277033 11372137
0.057227105 0.78828889 0.047274515 11372137
0.057313919 0.78787506 0.047272012 11240551
0.057400718 0.78746122 0.047269508 11174758
0.057487518 0.78704739 0.04726699 11240549
0.057574332 0.78663349 0.047264487 11240549
0.057661131 0.78621966 0.047261968 11437926
0.05774793 0.78580582 0.047259465 11372133
0.057089016 0.7850014 0.046658397 11371363
0.057176158 0.78458595 0.046655878 11371363
0.0572633 0.78417051 0.04665336 11371363
0.057350442 0.78375506 0.046650842 11371363
0.057437584 0.78333962 0.046648309 11502949
0.057524711 0.78292418 0.04664579 11502949
0.057611853 0.78250873 0.046643272 11305570
0.057698995 0.78209329 0.046640754 11305570
0.057043135 0.7812745 0.046039626 11305570
0.057130605 0.78085744 0.046037093 11305570
0.057218075 0.78044039 0.04603456 11305570
0.057305545 0.78002334 0.046032041 11305570
0.057393029 0.77960634 0.046029508 11305570
0.057480499 0.77918929 0.046026975 11305570
0.056826949 0.77835929 0.045425758 11174754
0.056914762 0.77794063 0.04542321 11174754
0.057002574 0.77752203 0.045420676 11174756
0.057090387 0.77710336 0.045418128 11174756
0.057178199 0.77668476 0.045415595 11043172
0.056526676 0.77584517 0.044814333 11043172
0.056614831 0.77542496 0.04481177 10977379
0.056702971 0.77500468 0.044809222 11043172
0.056791112 0.77458447 0.044806674 11043172
0.056879267 0.7741642 0.044804126 11108965
0.056967407 0.77374399 0.044801578 11173988
0.056318238 0.77289325 0.044200256 11239781
0.056406721 0.77247143 0.044197693 11239781
0.056495205 0.77204961 0.04419513 11305574
0.056583673 0.77162772 0.044192582 11305574
0.056672156 0.7712059 0.044190019 11239781
0.056760639 0.77078408 0.044187456 11305574
0.056113794 0.76992214 0.043586046 11239781
0.05620262 0.76949871 0.043583483 10977890
0.056291431 0.76907527 0.043580905 9662030
0.056380242 0.76865184 0.043578342 8610373
0.056469053 0.76822841 0.043575779 8939338
0.056557879 0.76780492 0.043573201 8412996
0.05664669 0.76738149 0.043570638 7294515
0.056735516 0.76695806 0.04356806 8478276
0.056091696 0.76608181 0.042966589 10517859
0.05618085 0.76565671 0.042964011 10781031
0.056270003 0.76523173 0.042961434 10978410
0.056359157 0.76480669 0.042958856 10978921
0.056448311 0.76438165 0.042956278 10913128
0.056537449 0.76395661 0.0429537 10978408
0.056626603 0.76353157 0.042951122 10978408
0.056715757 0.76310652 0.042948529 10978408
0.05680491 0.76268148 0.042945966 10978408
0.056164429 0.7617892 0.042344362 10978408
0.05625391 0.76136255 0.042341769 11044201
0.056343406 0.76093596 0.042339191 11240551
0.056432888 0.76050931 0.042336598 11108965
0.056522369 0.76008266 0.042334005 11108965
0.055883929 0.75918078 0.041732371 11240551
0.055973753 0.75875258 0.041729778 11371367
0.056063578 0.75832438 0.041727185 11239781
0.056153387 0.75789613 0.041724578 11305574
0.056243211 0.75746787 0.041721985 11239781
0.056333035 0.75703967 0.041719392 11371367
0.055696905 0.75612664 0.041117668 11305574
0.055787072 0.75569677 0.04111506 11239781
0.055877224 0.75526696 0.041112453 11305574
0.055967391 0.75483716 0.041109845 11305574
0.056057543 0.75440729 0.041107237 11239781
0.056147695 0.75397748 0.04110463 11108965
0.055513948 0.75305325 0.040502861 11240551
0.055604428 0.75262177 0.040500239 11240551
0.055694923 0.75219035 0.040497616 11174758
0.055785418 0.75175893 0.040495008 11174758
0.055875912 0.75132751 0.040492386 11043172
0.055244163 0.75039369 0.039890543 11043172
0.055334985 0.74996066 0.039887905 11043172
0.055425823 0.74952763 0.039885283 11108965
0.054795414 0.74858749 0.03928341 10977379
0.05488658 0.74815285 0.039280787 11108965
0.054977745 0.74771821 0.039278135 11108965
0.054348662 0.74677157 0.038676232 11108963
0.054440156 0.74633539 0.038673595 11108963
0.054531664 0.74589914 0.038670942 10977890
0.053903937 0.74494612 0.03806898 10714718
0.053995758 0.74450833 0.038066328 10779998
0.054087594 0.74407053 0.03806366 10911584
0.05417943 0.74363267 0.038061008 10911584
0.054271251 0.74319488 0.038058355 10911584
0.054363087 0.74275708 0.038055703 10780000
0.054454923 0.74231923 0.038053051 10648414
0.054546744 0.74188143 0.038050383 10450781
0.055608541 0.82657355 0.052631646 13676173
0.055692673 0.82617247 0.052629203 13544587
0.05577679 0.82577145 0.052626774 13281415
0.056638271 0.82561409 0.053220585 13149829
0.05672206 0.82521462 0.053218171 12952450
0.056805849 0.82481515 0.053215742 12755073
0.056889638 0.82441568 0.053213313 12623487
0.056973428 0.82401621 0.053210899 12360315
0.057057217 0.82361674 0.05320847 12228729
0.057141006 0.82321727 0.053206041 12162166
0.05722478 0.8228178 0.053203627 12096373
0.057308584 0.82241833 0.053201199 12095860
0.058166668 0.82227695 0.053795084 12030067
0.058250129 0.82187909 0.05379267 11964274
0.058333576 0.82148123 0.053790271 11898481
0.058417037 0.82108331 0.053787857 11833199
0.058500484 0.82068545 0.053785443 11635820
0.058583945 0.82028759 0.053783029 11570027
0.058667392 0.81988972 0.053780615 11570027
0.058750838 0.81949186 0.053778201 11504234
0.058834299 0.819094 0.053775787 11438441
0.058146462 0.81842363 0.053176969 11438441
0.058230251 0.81802416 0.05317454 11438441
0.05831404 0.81762469 0.053172126 11372648
0.05839783 0.81722522 0.053169698 11306855
0.058481619 0.81682575 0.053167269 11372135
0.058565408 0.81642628 0.053164855 11437928
0.058649197 0.81602681 0.053162426 11437928
0.058732986 0.81562734 0.053160012 11437928
0.058816776 0.81522787 0.053157583 11437928
0.058132261 0.81454158 0.052558646 11437928
0.058216378 0.8141405 0.052556217 11372135
0.05830051 0.81373942 0.052553788 11372135
0.058384627 0.81333834 0.052551359 11174756
0.058468759 0.81293726 0.052548915 11174756
0.057786271 0.81224138 0.051949948 11372135
0.057870731 0.81183869 0.051947504 11372135
0.057955191 0.81143606 0.05194506 11372133
0.05803965 0.81103337 0.051942617 11372133
0.05812411 0.81063068 0.051940188 11372133
0.05820857 0.81022805 0.051937744 11372133
0.05829303 0.80982536 0.0519353 11240547
0.058377489 0.80942273 0.051932856 11372133
0.058461949 0.80902004 0.051930413 11306853
0.057782799 0.80830812 0.051331326 11175267
0.057867587 0.80790389 0.051328868 11175267
0.057952389 0.80749965 0.051326424 11306853
0.058037177 0.80709535 0.051323965 11175267
0.058121979 0.80669111 0.051321521 11306853
0.057444856 0.8059696 0.05072239 11306853
0.057529986 0.80556375 0.050719932 11175267
0.057615116 0.8051579 0.050717458 11175267
0.057700247 0.80475205 0.050714999 11175267
0.057785377 0.8043462 0.050712541 11306853
0.057870507 0.8039403 0.050710082 11306853
0.057955638 0.80353445 0.050707623 11372133
0.058040768 0.8031286 0.05070515 11372133
0.058125898 0.80272275 0.050702691 11372135
0.057452112 0.80198526 0.050103456 11372135
0.057537585 0.80157781 0.050100982 11437928
0.057623044 0.80117035 0.050098509 11437928
0.057708517 0.80076289 0.050096035 11240549
0.057793975 0.80035543 0.050093561 11240549
0.057879448 0.79994798 0.050091088 11372135
0.057964906 0.79954052 0.050088629 11372135
0.058050364 0.79913306 0.050086156 11372135
0.057379633 0.79838121 0.049486846 11372135
0.057465434 0.7979722 0.049484357 11372135
0.05755122 0.79756314 0.049481884 11372135
0.057637021 0.79715407 0.049479395 11372135
0.057722822 0.796745 0.049476922 11372135
0.057808623 0.79633594 0.049474433 11240549
0.057894424 0.79592687 0.049471959 11372135
0.057980224 0.7955178 0.049469471 11372135
0.058066025 0.7951088 0.049466982 11372135
0.057398617 0.79434097 0.048867583 11372135
0.057484746 0.79393029 0.048865095 11372135
0.057570875 0.79351968 0.048862606 11372135
0.057657018 0.793109 0.048860118 11372135
0.057743147 0.79269838 0.048857614 11437928
0.057077765 0.79192096 0.048258141 11437928
0.057164222 0.79150867 0.048255637 11372137
0.057250693 0.79109645 0.048253134 11437930
0.057337165 0.79068416 0.04825063 11372137
0.057423636 0.79027194 0.048248127 11372137
0.057510108 0.78985965 0.048245624 11372137
0.056847066 0.78907108 0.047646105 11372137
0.05693388 0.78865725 0.047643587 11240551
0.057020679 0.78824341 0.047641084 11174758
0.057107478 0.78782952 0.047638565 11240551
0.057194293 0.78741568 0.047636062 11174758
0.057281092 0.78700185 0.047633544 11240549
0.057367906 0.78658795 0.04763104 11372135
0.057454705 0.78617412 0.047628522 11372135
0.057541519 0.78576028 0.047626019 11372135
0.0568818 0.78495574 0.047026366 11371363
0.056968942 0.7845403 0.047023848 11371363
0.057056084 0.78412485 0.047021329 11371363
0.057143226 0.78370935 0.047018811 11305570
0.057230353 0.7832939 0.047016293 11502949
0.057317495 0.78287846 0.047013775 11502949
0.057404637 0.78246301 0.047011241 11371363
0.057491779 0.78204757 0.047008723 11371363
0.056835115 0.78122866 0.046409011 11371363
0.056922585 0.78081155 0.046406478 11305570
0.057010055 0.78039455 0.046403959 11305570
0.057097539 0.7799775 0.046401426 11305570
0.057185009 0.77956045 0.046398893 11305570
0.057272494 0.77914339 0.04639636 11305570
0.056618139 0.77831328 0.045796558 11305570
0.056705952 0.77789462 0.045794025 11305570
0.056793764 0.77747595 0.045791477 11305572
0.056881577 0.77705735 0.045788944 11305572
0.056969374 0.77663869 0.045786396 11174758
0.056317076 0.77579898 0.045186535 11108965
0.056405216 0.7753787 0.045183986 11108965
0.056493357 0.77495849 0.045181438 11108965
0.056581512 0.77453822 0.04517889 11108965
0.056669652 0.77411801 0.045176342 11108965
0.056757793 0.77369773 0.045173794 11239781
0.056107834 0.77284688 0.044573888 11239781
0.056196317 0.77242506 0.044571325 11305574
0.056284785 0.77200317 0.044568762 11305574
0.056373268 0.77158135 0.044566214 11371367
0.056461751 0.77115953 0.044563651 11305574
0.056550235 0.77073765 0.044561088 11305572
0.055902585 0.76987553 0.043961093 11239779
0.055991411 0.7694521 0.04395853 11043170
0.056080222 0.76902866 0.043955952 10714205
0.056169033 0.76860523 0.043953389 10386523
0.056257859 0.7681818 0.043950826 10254937
0.05634667 0.76775837 0.043948248 9992278
0.056435481 0.76733494 0.043945685 10189657
0.056524307 0.76691151 0.043943122 10123099
0.055879697 0.76603502 0.043343052 10846822
0.055968851 0.76560998 0.043340474 10978408
0.056058004 0.76518494 0.043337896 10978408
0.056147158 0.7647599 0.043335319 10978408
0.056236297 0.76433492 0.043332741 10912615
0.056325451 0.76390988 0.043330163 10912615
0.056414604 0.76348484 0.043327585 10978408
0.056503758 0.76305979 0.043324992 11044201
0.056592911 0.76263475 0.043322429 10978408
0.055951625 0.76174229 0.04272224 11043431
0.056041121 0.76131564 0.042719647 11109224
0.056130603 0.76088905 0.042717069 11043685
0.056220084 0.7604624 0.042714477 11043685
0.056309581 0.76003575 0.042711899 11174758
0.055670336 0.7591337 0.042111665 11240551
0.055760145 0.7587055 0.042109072 11240551
0.055849969 0.75827724 0.042106479 11108965
0.055939794 0.75784904 0.042103872 11174758
0.056029618 0.75742078 0.042101279 11108965
0.056119442 0.75699258 0.042098686 11240551
0.055482522 0.75607932 0.041498378 11240551
0.055572674 0.75564951 0.04149577 11108965
0.055662841 0.7552197 0.041493163 11174758
0.055752993 0.75478983 0.041490555 11174758
0.055843145 0.75436002 0.041487947 11108965
0.055933297 0.75393021 0.041485339 11174758
0.055298746 0.75300574 0.040884987 11240551
0.055389255 0.75257432 0.040882364 11240551
0.055479735 0.75214291 0.040879741 11240551
0.05557023 0.75171149 0.040877134 11174758
0.055660725 0.75128007 0.040874511 10977379
0.05502817 0.75034606 0.040274084 11043172
0.055118993 0.74991304 0.040271446 10977379
0.055209816 0.74948001 0.040268824 11043172
0.055300653 0.74904698 0.040266201 10977379
0.055391476 0.74861395 0.040263578 11174758
0.055482298 0.74818093 0.040260941 11108965
0.054852113 0.74723577 0.039660469 11174756
0.054943278 0.74680114 0.039657816 11108963
0.055034444 0.7463665 0.039655194 11043683
0.05440557 0.74541497 0.039054662 10846304
0.054497063 0.74497873 0.039052024 10846304
0.054588571 0.74454248 0.039049372 10912097
0.054680064 0.74410629 0.039046735 10912097
0.054771557 0.74367011 0.039044082 10846304
0.05414471 0.74270892 0.038443491 10911586
0.054236546 0.74227107 0.038440838 10648414
0.054328382 0.74183327 0.038438171 10450781
0.055408508 0.82652944 0.052986875 13741966
0.055492625 0.82612836 0.052984431 13544587
0.055576742 0.82572734 0.052982002 13281415
0.056439012 0.82557017 0.053574398 13149829
0.056522802 0.8251707 0.053571984 12952450
0.056606591 0.82477123 0.053569555 12755073
0.05669038 0.82437176 0.053567126 12623487
0.056774169 0.82397228 0.053564712 12360315
0.056857958 0.82357281 0.053562284 12228729
0.056941748 0.82317334 0.05355987 12162936
0.057025537 0.82277387 0.053557441 12031350
0.057109326 0.8223744 0.053555012 11964787
0.057968214 0.8222332 0.054147497 11898994
0.058051676 0.82183534 0.054145083 11964274
0.058135122 0.82143748 0.054142669 11964274
0.058218583 0.82103956 0.054140255 11833199
0.05830203 0.8206417 0.054137841 11635820
0.058385491 0.82024384 0.054135427 11504234
0.058468938 0.81984597 0.054133013 11504234
0.058552384 0.81944811 0.054130599 11438441
0.058635846 0.81905019 0.054128185 11438441
0.057947218 0.8183797 0.053530782 11438441
0.058030993 0.81798023 0.053528368 11438441
0.058114797 0.81758076 0.05352594 11372135
0.058198571 0.81718129 0.053523511 11372135
0.05828236 0.81678182 0.053521097 11372135
0.05836615 0.81638235 0.053518668 11437928
0.058449939 0.81598288 0.053516254 11437928
0.058533728 0.81558341 0.053513825 11437928
0.058617517 0.81518394 0.053511396 11437928
0.057932213 0.81449741 0.052913889 11437928
0.05801633 0.81409639 0.052911445 11437928
0.058100462 0.81369531 0.052909017 11372135
0.058184579 0.81329423 0.052906588 11174756
0.058268696 0.81289315 0.052904159 11174756
0.057585433 0.81219709 0.052306592 11240547
0.057669893 0.8117944 0.052304164 11372133
0.057754353 0.81139177 0.05230172 11372133
0.057838812 0.81098908 0.052299276 11372133
0.057923272 0.81058645 0.052296832 11372133
0.058007732 0.81018376 0.052294388 11372133
0.058092192 0.80978107 0.052291945 11240549
0.058176637 0.80937845 0.052289501 11372135
0.058261096 0.80897576 0.052287057 11306855
0.057581156 0.80826366 0.051689386 11372648
0.057665944 0.80785942 0.051686928 11306855
0.057750747 0.80745518 0.051684484 11306855
0.057835534 0.80705088 0.051682025 11175269
0.057920337 0.80664665 0.051679581 11306855
0.057242423 0.80592501 0.051081866 11306855
0.057327554 0.8055191 0.051079407 11306855
0.057412684 0.80511326 0.051076949 11175269
0.057497814 0.80470741 0.05107449 11175269
0.057582945 0.80430156 0.051072016 11372648
0.05766806 0.80389571 0.051069558 11306855
0.057753205 0.8034898 0.051067099 11306855
0.057838321 0.80308396 0.05106464 11306855
0.057923451 0.80267811 0.051062167 11372648
0.05724889 0.80194044 0.050464347 11306855
0.057334349 0.80153298 0.050461873 11306855
0.057419807 0.80112553 0.0504594 11372648
0.05750528 0.80071807 0.050456926 11175269
0.057590738 0.80031061 0.050454453 11306855
0.057676211 0.79990315 0.050451994 11437928
0.057761669 0.7994957 0.05044952 11437928
0.057847142 0.79908824 0.050447047 11437928
0.057175592 0.79833627 0.049849153 11437928
0.057261392 0.7979272 0.049846664 11372135
0.057347193 0.79751813 0.04984419 11372135
0.057432994 0.79710907 0.049841702 11437928
0.057518795 0.7967 0.049839228 11503721
0.057604596 0.79629093 0.04983674 11437928
0.057690397 0.79588187 0.049834266 11372135
0.057776183 0.79547286 0.049831778 11240549
0.057861984 0.79506379 0.049829304 11372135
0.057193786 0.79429579 0.049231306 11437928
0.057279915 0.79388511 0.049228817 11372135
0.057366058 0.7934745 0.049226329 11437928
0.057452187 0.79306382 0.04922384 11437928
0.057538331 0.7926532 0.049221352 11437928
0.056872129 0.7918756 0.048623279 11503721
0.056958601 0.79146338 0.048620775 11372137
0.057045072 0.79105109 0.048618272 11437930
0.057131544 0.7906388 0.048615769 11240551
0.057218015 0.79022658 0.04861328 11437930
0.057304487 0.78981435 0.048610777 11372137
0.056640655 0.78902555 0.048012659 11240551
0.056727454 0.78861171 0.048010141 11240551
0.056814253 0.78819788 0.048007637 11240551
0.056901067 0.78778404 0.048005119 11240551
0.056987867 0.78737015 0.048002616 11174758
0.057074666 0.78695631 0.048000097 11372135
0.05716148 0.78654248 0.047997594 11437928
0.057248279 0.78612864 0.047995076 11372135
0.057335094 0.78571475 0.047992572 11372135
0.056674585 0.78491002 0.047394335 11502951
0.056761712 0.78449458 0.047391817 11502951
0.056848854 0.78407913 0.047389299 11371365
0.056935996 0.78366369 0.04738678 11305572
0.057023138 0.78324825 0.047384262 11502951
0.05711028 0.7828328 0.047381744 11502951
0.057197422 0.7824173 0.047379211 11371363
0.057284564 0.78200185 0.047376692 11371363
0.056627095 0.78118277 0.046778396 11371363
0.056714565 0.78076571 0.046775863 11305570
0.056802049 0.78034866 0.046773329 11305570
0.056889519 0.7799316 0.046770811 11371363
0.056977004 0.77951455 0.046768278 11305570
0.057064474 0.77909756 0.046765745 11305570
0.056409329 0.7782672 0.046167359 11371363
0.056497127 0.7778486 0.046164826 11371363
0.056584954 0.77742994 0.046162277 11371363
0.056672752 0.77701128 0.046159744 11371363
0.056760564 0.77659261 0.046157196 11305572
0.056107461 0.77575272 0.045558766 11305572
0.056195602 0.77533251 0.045556203 11239779
0.056283742 0.77491224 0.045553669 11305572
0.056371897 0.77449203 0.045551106 11305572
0.056460038 0.77407175 0.045548558 11305572
0.056548178 0.77365154 0.04554601 11305574
0.05589743 0.77280045 0.04494752 11305574
0.055985898 0.77237862 0.044944957 11305572
0.056074381 0.7719568 0.044942394 11305572
0.056162864 0.77153492 0.044939846 11371365
0.056251347 0.7711131 0.044937283 11371365
0.05633983 0.77069128 0.04493472 11305572
0.055691391 0.76982898 0.04433614 11305572
0.055780202 0.76940554 0.044333577 11239779
0.055869013 0.76898211 0.044330999 11108193
0.055957839 0.76855868 0.044328436 10911584
0.05604665 0.76813525 0.044325873 10779998
0.056135461 0.76771176 0.044323295 10846304
0.056224287 0.76728833 0.044320732 10846304
0.056313097 0.7668649 0.044318154 10977890
0.055667698 0.76598829 0.043719515 11109476
0.055756852 0.76556325 0.043716937 11044455
0.055846006 0.76513821 0.043714359 11044455
0.055935144 0.76471317 0.043711767 10978662
0.056024298 0.76428813 0.043709204 10978662
0.056113452 0.76386309 0.043706611 10978662
0.056202605 0.76343811 0.043704048 11044455
0.056291759 0.76301301 0.043701455 11175271
0.056380898 0.76258802 0.043698877 11109478
0.055738837 0.76169538 0.043100119 11109478
0.055828318 0.76126873 0.043097526 11109478
0.055917799 0.76084208 0.043094948 11175271
0.056007296 0.76041543 0.043092355 11109478
0.056096777 0.75998878 0.043089762 11109478
0.055456743 0.75908661 0.042490959 11109478
0.055546552 0.75865841 0.042488366 11175271
0.055636376 0.75823015 0.042485759 11043685
0.0557262 0.75780189 0.042483166 11109476
0.055816025 0.75737369 0.042480573 11109476
0.055905849 0.75694549 0.04247798 11240549
0.055268124 0.75603205 0.041879073 11372135
0.055358291 0.75560224 0.04187648 11174756
0.055448443 0.75517237 0.041873872 11174756
0.055538595 0.75474256 0.041871265 11174756
0.055628747 0.75431275 0.041868657 11174756
0.055718914 0.75388288 0.041866049 11174756
0.055083573 0.7529583 0.041267097 11240549
0.055174053 0.75252688 0.041264489 11175269
0.055264547 0.75209546 0.041261867 11109476
0.055355042 0.75166404 0.041259244 11109478
0.055445522 0.75123262 0.041256636 10912099
0.054812193 0.75029844 0.040657625 10977892
0.054903015 0.74986541 0.040654987 10977892
0.054993838 0.74943238 0.040652364 11043172
0.055084661 0.74899936 0.040649742 10977379
0.055175498 0.74856633 0.040647104 11108965
0.055266321 0.7481333 0.040644482 11108965
0.054635331 0.74718797 0.04004541 11108963
0.054726496 0.74675333 0.040042773 11108963
0.054817647 0.7463187 0.04004015 11043683
0.054187998 0.74536699 0.039441034 10846304
0.054279491 0.74493074 0.039438397 10846304
0.054370984 0.74449456 0.039435744 10912097
0.054462492 0.74405831 0.039433107 10912099
0.054553986 0.74362206 0.039430454 10846306
0.053926334 0.74266076 0.038831264 10911586
0.05401817 0.74222291 0.038828611 10648414
0.054109991 0.74178511 0.038825959 10516828
0.055988401 0.82672459 0.053935498 13741964
0.05607219 0.82632512 0.053933069 13544587
0.05615598 0.82592565 0.05393064 13347208
0.057018682 0.82577026 0.05452162 13215622
0.057102144 0.8253724 0.054519206 12886657
0.05718559 0.82497454 0.054516792 12755071
0.057269052 0.82457668 0.054514378 12623485
0.057352498 0.82417881 0.054511964 12294518
0.05743596 0.82378089 0.05450955 12162932
0.058296323 0.82363671 0.055100605 12162934
0.058379441 0.8232404 0.055098191 12031348
0.05846256 0.82284415 0.055095792 11898992
0.058545679 0.8224479 0.055093393 11898992
0.058628798 0.82205158 0.055090979 11833199
0.058711916 0.82165533 0.05508858 11833199
0.058795035 0.82125902 0.055086181 11898479
0.058878154 0.82086277 0.055083781 11832686
0.058961272 0.82046652 0.055081367 11635307
0.059044391 0.82007027 0.055078968 11569514
0.05912751 0.81967396 0.055076569 11503721
0.059210628 0.8192777 0.055074155 11503721
0.059293747 0.81888139 0.055071756 11503721
0.059376866 0.81848514 0.055069357 11437928
0.059459984 0.81808889 0.055066943 11372135
0.058771208 0.817415 0.054470941 11372135
0.058854669 0.81701708 0.054468527 11437928
0.058938116 0.81661922 0.054466113 11437928
0.059021562 0.81622136 0.054463699 11437926
0.059105024 0.8158235 0.054461285 11437926
0.05918847 0.81542563 0.054458871 11372133
0.058502063 0.81474054 0.053862795 11372133
0.058585852 0.81434107 0.053860366 11437926
0.058669642 0.8139416 0.053857952 11372133
0.058753431 0.81354213 0.053855523 11240547
0.058837205 0.81314266 0.053853109 11240547
0.05815278 0.81244797 0.053256959 11174754
0.058236912 0.81204689 0.05325453 11240547
0.058321029 0.81164587 0.053252086 11240547
0.058405161 0.81124479 0.053249657 11240547
0.058489278 0.81084371 0.053247228 11372133
0.058573395 0.81044269 0.053244784 11372133
0.057891339 0.80973679 0.052648589 11306855
0.057975799 0.80933416 0.052646145 11175269
0.058060259 0.80893147 0.052643701 11175269
0.058144718 0.80852878 0.052641258 11175269
0.058229178 0.80812615 0.052638814 11306855
0.058313638 0.80772346 0.05263637 11306855
0.058398098 0.80732083 0.052633941 11306855
0.058482558 0.80691814 0.052631497 11372648
0.057803482 0.80619788 0.052035198 11306855
0.057888284 0.80579364 0.052032739 11306855
0.057973072 0.8053894 0.05203028 11175269
0.058057874 0.80498511 0.052027836 11175269
0.058142662 0.80458087 0.052025378 11372648
0.05822745 0.80417657 0.052022934 11306855
0.057550758 0.80344516 0.051426575 11306855
0.057635888 0.80303931 0.051424116 11306855
0.057721019 0.80263346 0.051421657 11306855
0.057806149 0.80222762 0.051419184 11306855
0.057891279 0.80182171 0.051416725 11372648
0.05797641 0.80141586 0.051414266 11372648
0.05806154 0.80101001 0.051411808 11306855
0.05814667 0.80060416 0.051409334 11306855
0.058231801 0.80019832 0.051406875 11372648
0.057558447 0.79945087 0.050810412 11372648
0.057643905 0.79904342 0.050807938 11503721
0.057729363 0.79863596 0.050805464 11503721
0.057814837 0.7982285 0.050802991 11372135
0.057900295 0.79782104 0.050800517 11372135
0.057985753 0.79741359 0.050798059 11437928
0.058071226 0.79700613 0.050795585 11503721
0.058156684 0.79659867 0.050793111 11437928
0.057486355 0.79583693 0.050196573 11372135
0.057572156 0.79542786 0.050194085 11372135
0.057657957 0.79501879 0.050191611 11437928
0.057743758 0.79460973 0.050189123 11372135
0.057829559 0.79420066 0.050186649 11372135
0.05791536 0.79379165 0.05018416 11437930
0.057247356 0.7930187 0.049587563 11437930
0.057333499 0.79260802 0.049585074 11437930
0.057419628 0.79219735 0.049582586 11503723
0.057505757 0.79178667 0.049580082 11372137
0.0575919 0.79137605 0.049577594 11437930
0.057678029 0.79096538 0.049575105 11372137
0.057764173 0.79055476 0.049572617 11437930
0.057850301 0.79014409 0.049570128 11372137
0.057185322 0.78935671 0.048973411 11240551
0.057271793 0.78894448 0.048970908 11240551
0.057358265 0.78853226 0.048968405 11240551
0.057444736 0.78811997 0.048965916 11240551
0.057531208 0.78770775 0.048963413 11240551
0.057617679 0.78729546 0.048960909 11372135
0.056955054 0.78649694 0.048364148 11437928
0.057041854 0.7860831 0.048361644 11437928
0.057128668 0.78566927 0.048359126 11372135
0.057215467 0.78525537 0.048356608 11371365
0.057302281 0.78484154 0.048354104 11371365
0.057389081 0.7844277 0.048351601 11371365
0.05747588 0.78401387 0.048349082 11305572
0.057562694 0.78359997 0.048346579 11502951
0.057649493 0.78318614 0.048344061 11568744
0.057736307 0.7827723 0.048341557 11502951
0.057823107 0.78235847 0.048339039 11502951
0.05716449 0.78154075 0.047742143 11371365
0.057251617 0.78112531 0.047739625 11305572
0.057338759 0.78070986 0.047737107 11371363
0.057425901 0.78029442 0.047734588 11371363
0.057513043 0.77987897 0.04773207 11371363
0.057600185 0.77946353 0.047729552 11371363
0.056943923 0.77863461 0.047132596 11371363
0.057031408 0.77821755 0.047130078 11371363
0.057118878 0.7778005 0.047127545 11371365
0.057206362 0.77738345 0.047125012 11371365
0.057293832 0.77696645 0.047122478 11371365
0.056639567 0.77612793 0.046525463 11305572
0.05672738 0.77570927 0.04652293 11305572
0.056815192 0.77529067 0.046520382 11371365
0.05690299 0.774872 0.046517849 11305572
0.056990802 0.7744534 0.046515301 11371365
0.057078615 0.77403474 0.046512768 11371365
0.056426719 0.77318507 0.045915678 11371365
0.056514859 0.7727648 0.04591313 11371365
0.056603014 0.77234459 0.045910582 11305572
0.056691155 0.77192438 0.045908034 11371365
0.05677931 0.7715041 0.045905486 11371365
0.05686745 0.77108383 0.045902938 11305572
0.056217909 0.77022302 0.045305803 11371365
0.056306377 0.7698012 0.04530324 11305572
0.05639486 0.76937932 0.045300677 11305572
0.056483343 0.7689575 0.045298114 11108963
0.056571826 0.76853567 0.045295551 11108963
0.056660309 0.76811385 0.045293003 11108961
0.056748778 0.76769197 0.04529044 11108961
0.056837261 0.76727015 0.045287877 11043683
0.056190714 0.76639491 0.044690639 11109476
0.056279525 0.76597148 0.044688076 11175269
0.056368336 0.76554805 0.044685498 11175269
0.056457162 0.76512462 0.044682935 11175269
0.056545973 0.76470119 0.044680372 11109476
0.056634784 0.7642777 0.044677794 11109476
0.056723595 0.76385427 0.044675231 11175269
0.05681242 0.76343083 0.044672653 11175269
0.056901231 0.7630074 0.04467009 11175269
0.056258053 0.76211619 0.044072762 11108965
0.056347206 0.76169115 0.044070184 11240551
0.05643636 0.76126611 0.044067606 11175271
0.056525514 0.76084113 0.044065028 11175271
0.056614667 0.76041609 0.044062451 11109478
0.05597347 0.75951529 0.043465063 11043685
0.056062952 0.75908864 0.04346247 11109478
0.056152433 0.75866199 0.043459877 11043685
0.055512607 0.7577548 0.04286246 11109476
0.055602431 0.7573266 0.042859867 11109476
0.055692255 0.75689834 0.04285726 11109476
0.05578208 0.75647014 0.042854667 11306855
0.055871889 0.75604188 0.042852074 11109476
0.055961713 0.75561368 0.042849466 11109476
0.056051537 0.75518543 0.042846873 11174756
0.056141362 0.75475717 0.042844281 11240549
0.056231171 0.75432897 0.042841673 11174756
0.055594683 0.75340581 0.042244151 11240549
0.055684835 0.75297594 0.042241529 11175269
0.055774987 0.75254613 0.042238936 11109476
0.055865139 0.75211632 0.042236328 11109476
0.055955291 0.75168645 0.04223372 10977890
0.055320829 0.75075376 0.041636139 10977892
0.055411324 0.75032234 0.041633517 11043685
0.055501819 0.74989092 0.041630909 10977892
0.055592313 0.74945945 0.041628286 10912099
0.055682808 0.74902803 0.041625664 11043683
0.055773288 0.74859661 0.041623056 11043683
0.055141166 0.74765265 0.0410254 11043683
0.055231988 0.74721962 0.041022763 11043683
0.055322811 0.74678659 0.04102014 11043683
0.05469203 0.74583626 0.040422454 10912097
0.054783195 0.74540168 0.040419832 10912097
0.054874361 0.74496704 0.040417179 10912097
0.054965526 0.74453241 0.040414557 10912099
0.055056691 0.74409783 0.040411919 10846306
0.054427892 0.7431379 0.039814174 10846306
0.054519385 0.74270165 0.039811537 10583134
0.054610893 0.74226546 0.039808884 10451548
0.055789158 0.82668066 0.054289311 13872782
0.055872947 0.82628119 0.054286882 13544589
0.055956736 0.82588172 0.054284468 13347210
0.056820229 0.82572651 0.054874018 13149829
0.05690369 0.82532865 0.054871604 12820864
0.056987137 0.82493079 0.05486919 12755071
0.057070598 0.82453287 0.054866776 12623485
0.057154045 0.82413501 0.054864362 12360311
0.057237506 0.82373714 0.054861948 12228725
0.058098674 0.82359314 0.055451587 12031346
0.058181792 0.82319683 0.055449188 12031346
0.058264911 0.82280058 0.055446789 11898990
0.05834803 0.82240427 0.055444375 11898990
0.058431149 0.82200801 0.055441976 11833197
0.058514267 0.82161176 0.055439577 11833197
0.058597386 0.82121545 0.055437163 11898479
0.058680505 0.8208192 0.055434763 11832686
0.058763623 0.82042289 0.055432364 11635307
0.058846742 0.82002664 0.05542995 11569514
0.058929861 0.81963038 0.055427551 11503721
0.059012979 0.81923413 0.055425152 11503721
0.059096083 0.81883782 0.055422738 11503721
0.059179202 0.81844157 0.055420339 11437928
0.05926232 0.81804526 0.05541794 11372135
0.058572754 0.81737119 0.054823339 11372135
0.058656216 0.81697333 0.054820925 11437928
0.058739662 0.81657547 0.054818511 11437928
0.058823109 0.81617761 0.054816097 11437926
0.05890657 0.81577975 0.054813683 11437926
0.058990017 0.81538188 0.054811269 11437926
0.058302805 0.81469661 0.054216608 11437926
0.058386594 0.81429714 0.054214194 11437926
0.058470383 0.81389767 0.054211766 11372133
0.058554173 0.8134982 0.054209337 11240547
0.058637962 0.81309873 0.054206923 11240547
0.057952732 0.81240386 0.053612188 11240547
0.058036864 0.81200278 0.053609759 11240547
0.058120981 0.81160176 0.05360733 11240547
0.058205098 0.81120068 0.053604886 11240547
0.05828923 0.8107996 0.053602457 11372133
0.058373347 0.81039852 0.053600028 11372133
0.057690501 0.8096925 0.053005233 11306853
0.057774961 0.80928981 0.053002805 11306853
0.057859421 0.80888718 0.053000361 11175269
0.057943881 0.80848449 0.052997917 11175269
0.05802834 0.80808187 0.052995473 11306855
0.0581128 0.80767918 0.052993029 11306855
0.05819726 0.80727649 0.052990586 11306855
0.05828172 0.80687386 0.052988142 11372648
0.057601839 0.80615342 0.052393258 11306855
0.057686642 0.80574918 0.052390799 11306855
0.057771429 0.80534494 0.052388355 11175269
0.057856232 0.80494064 0.052385896 11306855
0.05794102 0.8045364 0.052383438 11372648
0.058025807 0.8041321 0.052380994 11306855
0.057348326 0.80340052 0.05178605 11175269
0.057433456 0.80299467 0.051783592 11175269
0.057518587 0.80258882 0.051781133 11306855
0.057603717 0.80218297 0.051778659 11306855
0.057688832 0.80177712 0.051776201 11372648
0.057773978 0.80137122 0.051773742 11372648
