# .PCD v0.7 - Point Cloud Data file format
VERSION 0.7
FIELDS x y z rgb
SIZE 4 4 4 4
TYPE F F F U
COUNT 1 1 1 1
WIDTH 1070
HEIGHT 1
VIEWPOINT 0 0 0 1 0 0 0
POINTS 1070
DATA ascii
0.035568938 0.83262503 0.058834165 13946307
0.035932779 0.83295047 0.05883123 14012100
0.036296606 0.83327597 0.058828294 14208706
-0.033193126 0.76488578 0.057454541 10655364
-0.032823205 0.76521671 0.057451561 10655364
-0.032453299 0.76554763 0.057448581 10655364
-0.032083377 0.7658785 0.057445586 10655364
-0.031713471 0.76620942 0.057442605 10655364
-0.031343549 0.76654035 0.057439625 10589573
-0.031530574 0.76755321 0.057912931 10589573
-0.031161875 0.767883 0.057909951 10589573
-0.030793175 0.7682128 0.05790697 10589573
-0.030424476 0.76854265 0.057904005 10589573
-0.031517297 0.79824841 0.070179194 10326399
-0.031180233 0.79854989 0.070176467 10392192
-0.030843168 0.79885143 0.070173755 10326399
-0.030506104 0.79915297 0.070171028 10260606
-0.030169055 0.79945445 0.070168316 10326397
-0.029831991 0.79975599 0.070165604 10326397
-0.030111477 0.80068612 0.070639625 10326397
-0.029775634 0.80098653 0.070636928 10392190
-0.029439792 0.80128694 0.070634216 10589569
-0.02910395 0.8015874 0.070631504 10392190
-0.027897075 0.80974782 0.073452473 11709338
-0.027568519 0.81004167 0.07344982 11775131
-0.027239978 0.81033558 0.073447168 11709338
-0.027553543 0.81123519 0.073921487 11709338
-0.02722621 0.81152803 0.073918849 11709338
-0.026898891 0.81182081 0.073916197 11577752
-0.027217329 0.81271613 0.07439056 11577752
-0.026891217 0.81300783 0.074387938 11577752
-0.02656512 0.81329954 0.0743853 11577752
-0.026239008 0.81359124 0.074382678 11446166
-0.025912896 0.81388301 0.07438004 11643031
-0.025586784 0.81417471 0.074377418 11708824
-0.025260672 0.81446648 0.07437478 11840410
-0.024934575 0.81475818 0.074372157 11840410
-0.024608463 0.81504989 0.07436952 11906203
-0.024939075 0.81593424 0.074843958 11906203
-0.02461417 0.81622487 0.074841335 11840410
-0.02428928 0.81651551 0.074838713 11708824
-0.02396439 0.8168062 0.07483609 11840410
-0.022977903 0.81650853 0.074356362 11840410
-0.022651806 0.81680024 0.07435374 11840410
-0.022325695 0.81709194 0.074351102 11906203
-0.021999583 0.81738365 0.07434848 11906203
-0.021673471 0.81767541 0.074345842 11840410
-0.021347359 0.81796712 0.074343219 11840410
-0.021021262 0.81825882 0.074340582 11840410
-0.02069515 0.81855059 0.074337959 11840410
-0.0099940151 0.82930344 0.074723393 11972256
-0.0096691102 0.82959408 0.07472077 11972256
-0.0093442202 0.82988471 0.074718148 12038049
-0.0090193301 0.83017534 0.074715525 12038049
-0.0079768747 0.82992774 0.07423535 12038049
-0.0076507628 0.83021945 0.074232727 12038049
-0.0066046566 0.82997513 0.073752493 12169635
-0.0062773377 0.83026791 0.073749855 12169637
-0.0059500188 0.83056074 0.073747203 12169637
-0.005622685 0.83085358 0.073744565 12038051
-0.0052953511 0.83114636 0.073741928 12038051
-0.0049680322 0.83143914 0.07373929 12169637
-0.0039134175 0.83120251 0.073258996 12169637
-0.0035848767 0.83149636 0.073256344 12169637
-0.0032563359 0.83179027 0.073253706 12301223
-0.0021968484 0.83155787 0.072773352 12301482
-0.0018670857 0.83185291 0.0727707 12564654
-0.001537323 0.83214784 0.072768033 13223358
-0.0012075603 0.83244288 0.07276538 13947081
-0.0008778125 0.83273786 0.072762713 15000280
0.00018897653 0.83251202 0.072282329 14473936
0.00051994622 0.83280814 0.072279662 14341835
0.00085093081 0.83310419 0.072276995 14012870
0.0019225776 0.8328827 0.071796566 14077893
0.0022547692 0.83317989 0.071793884 14012100
0.0025869608 0.83347702 0.071791202 14012100
0.0036634952 0.83325994 0.071310729 14012100
0.0039968938 0.83355814 0.071308047 14012100
0.0043303221 0.8338564 0.071305349 14012100
0.03536959 0.83211952 0.059260368 11908781
0.035733417 0.83244503 0.059257433 13092283
0.036097243 0.83277047 0.059254497 13816006
0.03646107 0.83309591 0.059251562 13946307
-0.033025905 0.76470274 0.057884887 10720644
-0.032655999 0.76503366 0.057881907 10654851
-0.032286078 0.76536453 0.057878926 10720644
-0.031916156 0.76569545 0.057875931 10720644
-0.03154625 0.76602638 0.057872951 10720644
-0.031176329 0.7663573 0.057869971 10589573
-0.031363904 0.7673707 0.058341861 10523780
-0.030995205 0.76770055 0.058338881 10392194
-0.030626506 0.76803041 0.0583359 10326401
-0.030257806 0.7683602 0.058332935 10195333
-0.031364933 0.79808164 0.070571318 10391677
-0.031027868 0.79838312 0.070568591 10457470
-0.030690804 0.79868466 0.070565879 10391677
-0.03035374 0.7989862 0.070563167 10325884
-0.030016676 0.79928768 0.07056044 10391677
-0.029679626 0.79958922 0.070557728 10391677
-0.029959664 0.80051988 0.071030349 10457470
-0.029623821 0.80082035 0.071027637 10457470
-0.029287979 0.80112076 0.071024925 10654849
-0.028952122 0.80142117 0.071022213 10589056
-0.027748555 0.80958521 0.073834687 11643031
-0.027419999 0.80987912 0.073832035 11708824
-0.027091458 0.81017303 0.073829398 11840410
-0.027405575 0.81107324 0.074302286 11708824
-0.027078241 0.81136602 0.074299648 11577752
-0.026750922 0.81165886 0.074297011 11577752
-0.027069911 0.81255472 0.074769944 11577750
-0.026743814 0.81284642 0.074767321 11577750
-0.026417702 0.81313819 0.074764684 11511957
-0.026091591 0.81342989 0.074762061 11446164
-0.025765479 0.81372166 0.074759424 11643029
-0.025439367 0.81401336 0.074756801 11708822
-0.025113255 0.81430507 0.074754164 11708822
-0.024787143 0.81459677 0.074751541 11840408
-0.024461046 0.81488848 0.074748904 11840408
-0.024792209 0.81577349 0.075221926 11840408
-0.024467304 0.81606412 0.075219303 11840408
-0.024142414 0.81635475 0.075216681 11708822
-0.023817524 0.81664538 0.075214058 11840408
-0.022830501 0.81634712 0.074735746 11840408
-0.022504389 0.81663883 0.074733123 11840408
-0.022178277 0.81693059 0.074730486 11840408
-0.021852165 0.8172223 0.074727863 11708824
-0.021526054 0.817514 0.074725226 11840410
-0.021199942 0.81780577 0.074722603 11840410
-0.02087383 0.81809747 0.074719965 11840410
-0.020547733 0.81838918 0.074717343 11840410
-0.0098471493 0.82914269 0.075101361 11972256
-0.0095222443 0.82943332 0.075098738 11972256
-0.0091973543 0.82972395 0.075096115 11972256
-0.0088724643 0.83001459 0.075093493 12038049
-0.0078294575 0.82976639 0.074614733 12038049
-0.0075033456 0.8300581 0.074612111 12038049
-0.006456688 0.82981312 0.074133292 12038049
-0.0061293691 0.83010596 0.074130654 12038051
-0.0058020502 0.8303988 0.074128017 12038051
-0.0054747164 0.83069158 0.074125364 12038051
-0.0051473826 0.83098435 0.074122727 12235430
-0.0048200637 0.83127719 0.074120089 12169637
-0.0037649125 0.83103991 0.073641211 12169637
-0.0034363717 0.83133376 0.073638558 12235430
-0.003107816 0.83162773 0.073635921 12235430
-0.0020477772 0.83139473 0.073156983 12301223
-0.0017180145 0.83168972 0.07315433 12301223
-0.0013882518 0.8319847 0.073151663 12498350
-0.001058504 0.83227968 0.073149011 12958901
-0.00072874129 0.83257467 0.073146343 13683139
0.00033859909 0.83234823 0.072667375 14538448
0.00066956878 0.83264434 0.072664708 14605009
0.0010005385 0.8329404 0.072662041 14539216
0.0020727366 0.83271831 0.072183028 14341837
0.0024049431 0.8330155 0.072180346 14078665
0.0027371347 0.83331263 0.072177663 14143686
0.0038142055 0.83309495 0.071698606 14077893
0.004147619 0.83339316 0.071695924 14012100
0.0044810325 0.83369142 0.071693227 14012100
0.035534054 0.83193946 0.059683636 11053725
0.035897881 0.83226496 0.0596807 10461333
0.036261722 0.8325904 0.059677765 12040365
0.036625549 0.8329159 0.059674829 13618114
-0.032858685 0.76451969 0.058315232 10786437
-0.032488778 0.76485062 0.058312252 10589058
-0.032118857 0.76518154 0.058309272 10589058
-0.031748936 0.76551241 0.058306277 10523778
-0.031379029 0.76584333 0.058303297 10523778
-0.031009108 0.76617426 0.058300316 10261378
-0.031197235 0.76718831 0.058770791 10261378
-0.030828536 0.7675181 0.05876781 10261124
-0.030459836 0.7678479 0.05876483 9800573
-0.030091137 0.76817775 0.058761865 8550254
-0.031617016 0.79637069 0.070497751 10457470
-0.031278729 0.7966733 0.070495024 10589056
-0.030940458 0.79697585 0.070492297 10589056
-0.031212553 0.7979148 0.070963442 10457470
-0.030875504 0.79821634 0.070960715 10457470
-0.03053844 0.79851782 0.070958003 10391677
-0.030201375 0.79881936 0.070955276 10391677
-0.029864311 0.7991209 0.070952564 10391677
-0.029527262 0.79942238 0.070949852 10391677
-0.029807851 0.80035371 0.071421057 10457470
-0.029471993 0.80065417 0.071418345 10457470
-0.029136151 0.80095458 0.071415633 10589056
-0.029421628 0.80188155 0.071886882 10589056
-0.029087007 0.80218089 0.071884185 10589056
-0.028752372 0.80248022 0.071881488 10654849
-0.028417751 0.80277956 0.071878791 11050120
-0.029299706 0.80553758 0.073292717 11577750
-0.028968722 0.80583364 0.07329005 11775131
-0.028637752 0.80612969 0.073287383 11840924
-0.028306767 0.80642581 0.073284715 11709338
-0.027975798 0.80672187 0.073282048 11577752
-0.027644813 0.80701792 0.073279381 11511957
-0.027949736 0.80792749 0.073750779 11577750
-0.027619988 0.80822247 0.073748112 11709336
-0.027290225 0.80851746 0.073745459 11577750
-0.027600035 0.80942261 0.074216902 11643029
-0.027271494 0.80971652 0.07421425 11643029
-0.026942953 0.81001043 0.074211612 11708822
-0.027257606 0.81091124 0.074683085 11708822
-0.026930287 0.81120408 0.074680448 11577750
-0.026602954 0.81149685 0.074677795 11577750
-0.026922494 0.81239337 0.075149328 11577750
-0.026596382 0.81268507 0.075146705 11577750
-0.026270285 0.81297684 0.075144067 11577748
-0.025944173 0.81326854 0.075141445 11511955
-0.025618061 0.81356025 0.075138807 11708820
-0.02529195 0.81385195 0.075136185 11708820
-0.024965838 0.81414366 0.075133547 11708822
-0.024639741 0.81443542 0.075130925 11840408
-0.024313629 0.81472713 0.075128287 11840408
-0.024645329 0.81561273 0.075599894 11840408
-0.024320439 0.81590337 0.075597271 11840408
-0.023995548 0.816194 0.075594649 11840408
-0.023670658 0.81648463 0.075592026 11840408
-0.022683069 0.81618577 0.075115129 11840408
-0.022356972 0.81647748 0.075112507 11840408
-0.02203086 0.81676918 0.075109869 11708822
-0.021704748 0.81706095 0.075107247 11708822
-0.021378636 0.81735265 0.075104609 11906201
-0.021052524 0.81764436 0.075101987 11840408
-0.020726427 0.81793606 0.075099349 11840408
-0.020400316 0.81822783 0.075096726 11840408
-0.0097002685 0.82898188 0.075479329 11972256
-0.0093753785 0.82927251 0.075476706 11972256
-0.0090504885 0.82956314 0.075474083 11972256
-0.0087255985 0.82985377 0.075471461 12169635
-0.0076820403 0.82960498 0.074994117 12169635
-0.0073559284 0.82989669 0.074991494 12038049
-0.0063087195 0.82965118 0.074514091 12038049
-0.0059814006 0.82994401 0.074511454 12038049
-0.0056540817 0.83023679 0.074508816 12038049
-0.0053267479 0.83052957 0.074506164 12038049
-0.0049994141 0.83082241 0.074503526 12235428
-0.0046720952 0.83111525 0.074500889 12169635
-0.0036163926 0.8308773 0.074023426 12169635
-0.0032878518 0.83117121 0.074020773 12235428
-0.0029592961 0.83146513 0.074018136 12235428
-0.001898706 0.83123153 0.073540628 12235430
-0.0015689582 0.83152652 0.073537961 12235430
-0.0012391955 0.8318215 0.073535293 12301223
-0.00090943277 0.83211648 0.073532641 12301223
-0.00057967007 0.83241153 0.073529974 12498350
0.00048820674 0.83218443 0.073052421 13090487
0.00081917644 0.83248055 0.073049754 13947079
0.001150161 0.83277661 0.073047087 14341837
0.0022229105 0.83255392 0.072569489 14736595
0.002555117 0.83285111 0.072566807 14736595
0.0028872937 0.83314824 0.072564125 14144456
0.0039649308 0.83292997 0.072086483 14144456
0.0042983443 0.83322817 0.072083801 13947077
0.0046317428 0.83352643 0.072081104 13881284
0.0064633042 0.83280027 0.071128458 14143686
0.0067991465 0.83310068 0.071125746 14077893
0.034184054 0.83158696 0.060588077 11248021
0.034546658 0.83191139 0.060585141 11447710
0.034909293 0.83223575 0.060582221 11710882
0.035271898 0.83256012 0.0605793 11251358
0.036426187 0.8324104 0.060101032 10659221
0.036790013 0.83273584 0.060098097 10921884
0.038742051 0.83211744 0.059144452 12698295
0.039108321 0.83244503 0.059141502 13552319
0.039474577 0.83277267 0.059138536 13683905
0.039840832 0.83310032 0.059135586 13880001
0.040207103 0.83342797 0.059132636 14011587
0.040573373 0.83375561 0.059129685 14274245
-0.032691464 0.76433665 0.058745578 10589060
-0.032321557 0.76466757 0.058742598 10392194
-0.031951636 0.76499844 0.058739617 10326401
-0.03158173 0.76532936 0.058736622 10195583
-0.031211808 0.76566029 0.058733642 10129790
-0.030841887 0.76599121 0.058730662 9801339
-0.031030566 0.7670058 0.059199721 9077616
-0.030661866 0.76733565 0.05919674 8418920
-0.030293167 0.76766551 0.05919376 7695197
-0.029924467 0.7679953 0.059190795 7631203
-0.0314641 0.79620326 0.070891291 10457470
-0.031125814 0.79650587 0.070888564 10457470
-0.030787542 0.79680848 0.070885837 10589056
-0.030449256 0.79711109 0.07088311 10457470
-0.030110985 0.79741371 0.070880368 10457470
-0.029772699 0.79771632 0.070877641 10391677
-0.030049011 0.79865259 0.071347415 10391677
-0.029711947 0.79895413 0.071344689 10457470
-0.029374883 0.79925561 0.071341977 10391677
-0.029656023 0.80018753 0.071811765 10457470
-0.02932018 0.80048794 0.071809053 10457470
-0.028984338 0.8007884 0.071806341 10589056
-0.029270366 0.80171597 0.072276175 10589056
-0.02893573 0.8020153 0.072273478 11181193
-0.02860111 0.80231464 0.072270781 11246986
-0.028266475 0.80261397 0.072268084 11445652
-0.029150084 0.80537379 0.073677763 11709084
-0.028819114 0.80566984 0.073675096 11840924
-0.028488129 0.8059659 0.073672429 11775131
-0.02815716 0.80626202 0.073669761 11577752
-0.027826175 0.80655807 0.073667094 11511959
-0.027495191 0.80685413 0.073664427 11446164
-0.027800679 0.80776429 0.074134409 11511957
-0.027470917 0.80805928 0.074131742 11577750
-0.027141154 0.80835426 0.07412909 11577750
-0.027451515 0.80926007 0.074599117 11511957
-0.027122974 0.80955398 0.074596465 11511957
-0.026794434 0.80984783 0.074593827 11577750
-0.026465878 0.81014174 0.074591175 11577750
-0.026137337 0.81043565 0.074588522 11577750
-0.025808796 0.81072956 0.07458587 11577750
-0.025480255 0.81102347 0.074583218 11577750
-0.025151715 0.81131732 0.074580565 11577750
-0.024823174 0.81161129 0.074577913 11577748
-0.024494633 0.81190515 0.074575275 11577748
-0.024166092 0.81219906 0.074572623 11708820
-0.023837537 0.81249297 0.07456997 11708820
-0.024163708 0.81338459 0.075040117 11708822
-0.023836374 0.81367737 0.075037479 11708822
-0.023509055 0.81397021 0.075034842 11840408
-0.023181722 0.81426299 0.075032189 11708822
-0.022854403 0.81455582 0.075029552 11840408
-0.022527069 0.81484866 0.075026914 11840408
-0.02219975 0.81514144 0.075024277 11840408
-0.021872416 0.81543422 0.075021639 11840408
-0.021545097 0.81572706 0.075018987 11840408
-0.021217763 0.81601989 0.07501635 11708822
-0.020890445 0.81631267 0.075013712 11840408
-0.020563111 0.81660551 0.075011075 11906201
-0.020235792 0.81689835 0.075008437 11840408
-0.019908458 0.81719112 0.075005785 11840408
-0.019581139 0.8174839 0.075003147 11840408
-0.0057676733 0.82865745 0.074424192 12038051
-0.0054391325 0.82895136 0.074421555 12038051
-0.0051105917 0.82924521 0.074418902 12038051
-0.0047820508 0.82953912 0.07441625 12038051
-0.0044534951 0.82983303 0.074413598 12038049
-0.0041249543 0.83012694 0.074410945 12038049
-0.0037964135 0.83042085 0.074408293 12169637
-0.0027389228 0.83018339 0.07393223 12169637
-0.0024091601 0.83047837 0.073929578 12169637
-0.0020793974 0.83077335 0.073926911 12169637
-0.0010170639 0.8305403 0.073450819 12169637
-0.00068607926 0.83083642 0.073448151 12169637
-0.00035510957 0.83113247 0.073445484 12235430
-2.412498e-05 0.83142853 0.073442817 12235430
0.00030684471 0.83172464 0.073440135 12301482
0.0013764948 0.83149803 0.072963998 12433068
0.0017087013 0.83179522 0.072961316 12433840
0.0020408779 0.8320924 0.072958633 13486528
0.0031154156 0.8318702 0.072482437 13421250
0.0034488291 0.83216846 0.07247974 14408145
0.0037822276 0.83246672 0.072477058 14211534
0.0048616081 0.83224887 0.072000846 14277327
0.0051962435 0.8325482 0.071998134 14013383
0.005530864 0.83284754 0.071995437 13881797
0.0066151321 0.83263403 0.071519166 13947077
0.0069509745 0.8329345 0.071516454 13947077
0.034347966 0.83140755 0.061009929 14209220
0.034710586 0.83173192 0.061006993 11775392
0.035073206 0.83205628 0.061004072 11314841
0.035435811 0.83238065 0.061001152 11448480
0.036590651 0.83223033 0.0605243 11448480
0.036954477 0.83255577 0.060521364 11119772
0.038907617 0.83193612 0.059570551 10198670
0.039273873 0.83226383 0.0595676 10855321
0.039640144 0.83259141 0.05956465 13355455
0.040006399 0.83291906 0.059561685 14011589
0.04037267 0.83324671 0.059558734 13880003
0.04073894 0.83357435 0.059555784 14077380
-0.032524243 0.7641536 0.059175923 10392194
-0.032154337 0.76448452 0.059172943 10129792
-0.031784415 0.76481539 0.059169963 10063999
-0.031414509 0.76514632 0.059166968 9999231
-0.031044587 0.76547724 0.059163988 9275508
-0.030674681 0.76580811 0.059161007 7828834
-0.030863896 0.76682341 0.059628651 7565662
-0.030495197 0.7671532 0.05962567 7828834
-0.030126497 0.767483 0.059622705 8026213
-0.029757798 0.76781285 0.059619725 8093037
-0.031311169 0.79603589 0.071284831 10457472
-0.030972898 0.7963385 0.071282104 10457470
-0.030634627 0.79664111 0.071279377 10457470
-0.030296341 0.79694366 0.07127665 10457470
-0.029958069 0.79724634 0.071273908 10589056
-0.029619783 0.79754889 0.071271181 10391677
-0.029896647 0.79848582 0.07173954 10457470
-0.029559582 0.7987873 0.071736813 10457470
-0.029222518 0.79908884 0.071734101 10457470
-0.02950421 0.80002135 0.072202474 10589056
-0.029168367 0.80032176 0.072199762 10457470
-0.028832525 0.80062222 0.07219705 10786948
-0.029119089 0.80155039 0.072665468 11313292
-0.028784469 0.80184972 0.072662771 11445652
-0.028449833 0.80214906 0.072660074 11379859
-0.028741255 0.80307281 0.073128507 11445912
-0.028407857 0.80337107 0.073125824 11709084
-0.028074443 0.80366933 0.073123127 11709084
-0.029000461 0.80520999 0.074062809 11709084
-0.028669491 0.80550611 0.074060142 11775131
-0.028338507 0.80580217 0.074057475 11709338
-0.028007537 0.80609822 0.074054807 11511959
-0.027676553 0.80639434 0.07405214 11511959
-0.027345583 0.80669039 0.074049473 11446166
-0.027651608 0.80760109 0.07451804 11511959
-0.027321845 0.80789608 0.074515373 11577752
-0.026992097 0.80819106 0.07451272 11577752
-0.027302995 0.80909747 0.074981332 11708822
-0.026974455 0.80939138 0.074978679 11643029
-0.026645914 0.80968529 0.074976042 11708822
-0.026317373 0.8099792 0.07497339 11708822
-0.025988832 0.81027305 0.074970737 11511957
-0.025660291 0.81056696 0.074968085 11577750
-0.025331736 0.81086087 0.074965432 11577750
-0.025003195 0.81115478 0.07496278 11577750
-0.024674654 0.81144869 0.074960127 11708822
-0.024346113 0.81174254 0.07495749 11708822
-0.024017572 0.81203651 0.074954838 11840406
-0.023689017 0.81233037 0.074952185 11840406
-0.02401574 0.81322259 0.075420916 11708820
-0.023688406 0.81351542 0.075418279 11708820
-0.023361087 0.8138082 0.075415641 11840408
-0.023033753 0.81410104 0.075412989 11708822
-0.022706434 0.81439388 0.075410351 11708822
-0.0223791 0.81468666 0.075407714 11708822
-0.022051781 0.81497943 0.075405076 11840408
-0.021724448 0.81527227 0.075402439 11840408
-0.021397129 0.81556511 0.075399786 11840408
-0.021069795 0.81585789 0.075397149 11840408
-0.020742476 0.81615072 0.075394511 11906201
-0.020415142 0.8164435 0.075391874 11906201
-0.020087823 0.81673634 0.075389236 11840408
-0.019760489 0.81702912 0.075386584 11840408
-0.019433171 0.81732196 0.075383946 11840408
-0.0056191534 0.82849485 0.074806407 12038051
-0.0052906126 0.82878876 0.07480377 12169637
-0.0049620718 0.82908267 0.074801117 12038051
-0.004633531 0.82937658 0.074798465 11972258
-0.0043049902 0.82967043 0.074795812 11972256
-0.0039764494 0.8299644 0.07479316 11972256
-0.0036478937 0.83025825 0.074790508 12169637
-0.0025898665 0.83002019 0.074315861 12169637
-0.0022601038 0.83031523 0.074313208 12169637
-0.0019303411 0.83061016 0.074310541 12169637
-0.0008674413 0.83037651 0.073835865 12169637
-0.00053647161 0.83067262 0.073833197 12038051
-0.00020548701 0.83096868 0.07383053 12169637
0.00012548268 0.83126473 0.073827863 12235430
0.00045646727 0.83156085 0.073825181 12235943
0.0015266687 0.8313337 0.073350459 12301736
0.0018588603 0.83163083 0.073347777 12630701
0.0021910518 0.83192801 0.073345095 12828080
0.0032661408 0.83170521 0.072870314 12434353
0.0035995394 0.83200347 0.072867617 13158076
0.0039329529 0.83230174 0.072864935 14079950
0.0050128847 0.83208328 0.072390139 14343122
0.0053475052 0.83238262 0.072387427 14277327
0.0056821257 0.83268195 0.07238473 14079948
0.0067669451 0.83246785 0.071909875 13816776
0.0071027875 0.83276832 0.071907163 13750983
0.034511879 0.83122814 0.06143178 14275013
0.034874499 0.83155251 0.061428845 14670284
0.035237119 0.83187687 0.061425924 13288631
0.035599723 0.83220124 0.061423004 11579294
0.03675513 0.83205032 0.060947567 11447708
0.037118956 0.83237576 0.060944632 11645087
0.039073184 0.83175492 0.05999665 11447708
0.039439455 0.83208257 0.059993699 11119515
0.03980571 0.83241022 0.059990749 9935241
0.040171966 0.8327378 0.059987783 11710117
0.040538236 0.83306551 0.059984833 13683907
0.040904507 0.8333931 0.059981883 13683135
-0.031804651 0.76327908 0.059137136 10194815
-0.031433523 0.76361108 0.059134141 10064261
-0.031062394 0.76394308 0.059131145 9208952
-0.031247288 0.76496327 0.059597313 7894373
-0.030877367 0.76529419 0.059594333 6710099
-0.03050746 0.76562512 0.059591353 8027242
-0.030137539 0.76595598 0.059588373 8027242
-0.030549914 0.79522711 0.07120879 10457472
-0.03021042 0.7955308 0.071206048 10457470
-0.029870912 0.79583448 0.071203306 10457470
-0.030143425 0.79677629 0.071670189 10589056
-0.029805154 0.79707891 0.071667463 10589056
-0.029466867 0.79738152 0.071664721 10457470
-0.029744267 0.79831898 0.072131664 10457470
-0.029407218 0.79862052 0.072128937 10589056
-0.029070154 0.79892206 0.072126225 10720642
-0.029352397 0.79985511 0.072593182 10786437
-0.029016539 0.80015558 0.07259047 11246988
-0.028680697 0.80045599 0.072587758 11248533
-0.028344855 0.80075645 0.072585046 11577498
-0.028009012 0.80105686 0.072582334 11709084
-0.02767317 0.80135727 0.072579637 11445912
-0.028590545 0.80290782 0.073516384 11511707
-0.028257132 0.80320609 0.073513702 11709086
-0.027923718 0.80350435 0.073511004 11577498
-0.028220579 0.80442441 0.073978096 11577498
-0.027888387 0.80472159 0.073975414 11709084
-0.027556196 0.80501878 0.073972732 11709084
-0.027224004 0.80531591 0.073970065 11511959
-0.026891813 0.8056131 0.073967382 11511959
-0.026559606 0.80591023 0.0739647 11446166
-0.026864991 0.80682266 0.074431837 11511959
-0.026534006 0.80711877 0.074429169 11511959
-0.026203036 0.80741483 0.074426502 11577752
-0.025872067 0.80771089 0.074423835 11708824
-0.025541082 0.808007 0.074421167 11643031
-0.025210097 0.80830306 0.074418485 11708824
-0.024879128 0.80859911 0.074415818 11708824
-0.024548158 0.80889523 0.074413151 11577750
-0.024217173 0.80919129 0.074410483 11577750
-0.024534702 0.81009281 0.074877724 11577750
-0.02420494 0.81038779 0.074875057 11577750
-0.023875177 0.81068277 0.074872404 11708822
-0.023545429 0.81097782 0.074869737 11708822
-0.023215666 0.81127274 0.074867085 11708822
-0.022885904 0.81156778 0.074864417 11840408
-0.022556141 0.81186277 0.074861765 11840408
-0.022226378 0.81215775 0.074859098 11708822
-0.021896616 0.81245273 0.074856445 11840408
-0.006013453 0.82547551 0.074263632 11972256
-0.0056824833 0.82577157 0.074260965 11972256
-0.0053514987 0.82606769 0.074258298 11972256
-0.005020529 0.82636374 0.07425563 11972256
-0.0046895444 0.8266598 0.074252948 12038049
-0.0043585747 0.82695591 0.074250281 12038049
-0.0054706484 0.8283323 0.075188637 12038051
-0.0051420927 0.82862616 0.075185984 12169637
-0.0048135519 0.82892013 0.075183332 12038051
-0.0044850111 0.82921398 0.07518068 11972258
-0.0041564703 0.82950789 0.075178027 11906465
-0.0038279295 0.8298018 0.075175375 11972258
-0.0034993738 0.83009565 0.075172722 12038051
-0.0024407953 0.82985705 0.074699491 12038051
-0.0021110326 0.83015203 0.074696839 12038051
-0.0017812699 0.83044702 0.074694172 12169637
-0.00071783364 0.83021271 0.074220911 12169637
-0.00038684905 0.83050883 0.074218243 12038051
-5.5864453e-05 0.83080488 0.074215576 12169637
0.00027510524 0.83110094 0.074212909 12169637
0.00060607493 0.83139706 0.074210241 12235430
0.0016768426 0.83116931 0.073736921 12235430
0.0020090193 0.83146644 0.073734239 12301223
0.0023412257 0.83176363 0.073731557 12235430
0.0034168512 0.83154023 0.073258191 12301736
0.0037502646 0.83183849 0.073255494 12235943
0.0040836781 0.83213675 0.073252812 12829111
0.0051641464 0.8319177 0.072779432 13421248
0.0054987818 0.83221704 0.072776735 14145743
0.0058334023 0.83251637 0.072774023 14277329
0.0069187731 0.83230168 0.072300583 14211536
0.0072546154 0.83260208 0.072297871 13882571
0.034675807 0.83104867 0.061853632 14274759
0.035038427 0.8313731 0.061850697 14340806
0.035401031 0.83169746 0.061847776 14275013
0.035763651 0.83202183 0.061844856 13947329
0.036919594 0.83187026 0.061370835 12960434
0.037283421 0.83219576 0.061367899 11446425
0.038442984 0.83204746 0.060893863 11512218
0.038808033 0.83237398 0.060890913 11513501
0.039173082 0.83270055 0.060887977 11513501
0.040337548 0.83255661 0.060413882 10658969
0.040703818 0.83288425 0.060410932 10066832
0.041070089 0.8332119 0.060407981 11579814
0.042239383 0.8330723 0.059933871 13685190
0.04260686 0.83340108 0.059930906 13881284
0.042974338 0.83372974 0.05992794 13815491
-0.031636879 0.76309544 0.059568897 9603708
-0.031265751 0.76342744 0.059565902 7828328
-0.030894622 0.76375943 0.059562907 7433570
-0.031080067 0.76478022 0.060027659 7434853
-0.030710146 0.76511115 0.060024679 7763818
-0.030340239 0.76544201 0.060021698 8224880
-0.029970318 0.76577294 0.060018718 8093294
-0.030396447 0.79505908 0.071603745 10522495
-0.030056953 0.79536283 0.071601003 10457472
-0.02971746 0.79566652 0.071598262 10457472
-0.029990509 0.79660892 0.072063729 10589056
-0.029652223 0.79691154 0.072060987 10589056
-0.029313952 0.79721415 0.07205826 10589056
-0.029591903 0.79815221 0.072523788 10654849
-0.029254839 0.79845375 0.072521061 10720646
-0.028917789 0.79875523 0.072518349 11378576
-0.029200569 0.79968894 0.072983891 11379859
-0.028864726 0.7999894 0.072981179 11643031
-0.028528884 0.80028981 0.072978467 11512472
-0.028193042 0.80059028 0.072975755 11644058
-0.027857199 0.80089068 0.072973043 11643804
-0.027521357 0.80119109 0.072970331 11446425
-0.028439835 0.80274284 0.073904261 11446425
-0.028106421 0.8030411 0.073901579 11446425
-0.027773008 0.80333936 0.073898882 11446679
-0.02807042 0.80426002 0.074364558 11446679
-0.027738228 0.8045572 0.074361876 11446679
-0.027406022 0.80485439 0.074359193 11512472
-0.02707383 0.80515152 0.074356526 11446166
-0.026741639 0.80544871 0.074353844 11446166
-0.026409447 0.80574584 0.074351162 11446166
-0.026715368 0.80665886 0.074816883 11446166
-0.026384398 0.80695498 0.074814215 11511959
-0.026053414 0.80725104 0.074811548 11511959
-0.025722444 0.80754709 0.074808881 11708824
-0.025391459 0.80784321 0.074806213 11643031
-0.02506049 0.80813926 0.074803531 11643031
-0.024729505 0.80843532 0.074800864 11708824
-0.024398535 0.80873144 0.074798197 11577752
-0.024067551 0.80902749 0.074795529 11577752
-0.024385631 0.80992961 0.075261354 11577750
-0.024055883 0.81022465 0.075258687 11511957
-0.023726121 0.81051964 0.075256035 11577750
-0.023396358 0.81081462 0.075253367 11577750
-0.023066595 0.8111096 0.075250715 11577750
-0.022736832 0.81140459 0.075248048 11577750
-0.02240707 0.81169957 0.075245395 11708822
-0.022077307 0.81199455 0.075242728 11708822
-0.021747559 0.81228954 0.075240076 11840408
-0.0058638304 0.82531172 0.074648678 11972510
-0.0055328608 0.82560778 0.074646011 11972510
-0.0052018911 0.82590389 0.074643344 11972256
-0.0048709065 0.82619995 0.074640676 11972256
-0.0045399219 0.82649601 0.074637994 11972256
-0.0042089522 0.82679212 0.074635327 11906463
-0.0038779825 0.82708818 0.07463266 12038049
-0.0035469979 0.82738423 0.074629992 11972256
-0.0032160133 0.82768035 0.074627325 11972256
-0.0028850436 0.82797641 0.074624658 11906463
-0.0025540739 0.82827246 0.074621975 11972256
-0.0022230893 0.82856858 0.074619308 11906463
-0.0018921196 0.82886463 0.074616641 11972256
-0.0015611351 0.82916069 0.074613973 12038049
-0.0012301654 0.82945681 0.074611306 12038051
-0.00089918077 0.82975286 0.074608624 12038051
0.00016602874 0.82951909 0.074136779 11972258
0.00049823523 0.82981622 0.074134097 12038051
0.00083042681 0.83011341 0.074131414 12038051
0.0011626184 0.8304106 0.074128732 11972258
0.00149481 0.83070773 0.074126065 12169637
0.002567336 0.83048046 0.07365413 12038051
0.0029007494 0.83077872 0.073651448 12169635
0.0032341629 0.83107698 0.073648751 12235428
0.0043115318 0.83085406 0.073176816 12169637
0.0046461672 0.83115339 0.073174119 12169637
0.0049807876 0.83145273 0.073171422 12235430
0.0053154081 0.83175212 0.073168725 12432809
0.0056500435 0.83205146 0.073166013 12894393
0.005984664 0.83235079 0.073163316 14012874
0.0070705861 0.8321355 0.072691292 14211536
0.0074064285 0.83243591 0.07268858 14277329
0.036356404 0.83103931 0.061799973 14275013
0.036720231 0.83136475 0.061797038 14209733
0.037084058 0.83169019 0.061794102 14407112
0.037447885 0.83201569 0.061791167 14209731
0.038608 0.8318668 0.061318547 12367527
0.038973048 0.83219337 0.061315596 11118230
0.039338112 0.83251989 0.061312661 11578781
0.0405031 0.83237535 0.060839981 11316897
0.04086937 0.83270299 0.06083703 11119518
0.041235641 0.83303064 0.06083408 10528925
0.042405501 0.83289051 0.060361385 10660511
0.042772979 0.83321917 0.06035842 12500146
0.043140456 0.83354795 0.060355455 13750213
-0.033149719 0.76022059 0.059552357 10260606
-0.032777369 0.76055366 0.059549361 10194813
-0.032405019 0.76088679 0.059546351 10194813
-0.032032669 0.76121986 0.059543356 9997952
-0.031660318 0.76155293 0.059540346 9208436
-0.031287968 0.761886 0.059537351 7960168
-0.031469122 0.7629118 0.060000658 7499617
-0.031097978 0.76324379 0.059997663 7632489
-0.03072685 0.76357579 0.059994668 7961454
-0.030912846 0.76459718 0.060458004 8027247
-0.030542925 0.7649281 0.060455024 8093040
-0.030173019 0.76525897 0.060452044 8290416
-0.029803097 0.76558989 0.060449064 8290416
-0.03024298 0.79489112 0.0719987 10391679
-0.029903486 0.7951948 0.071995959 10457472
-0.029563978 0.79549849 0.071993217 10457472
-0.029837593 0.79644156 0.072457269 10589058
-0.029499307 0.79674411 0.072454542 10720644
-0.029161036 0.79704672 0.0724518 10983816
-0.029439539 0.79798543 0.072915912 11312781
-0.029102474 0.79828691 0.072913185 11642261
-0.02876541 0.79858845 0.072910473 11971226
-0.029048756 0.79952276 0.073374599 11709338
-0.028712913 0.79982316 0.073371887 11709338
-0.028377071 0.80012363 0.073369175 11709338
-0.028041229 0.80042404 0.073366463 11709338
-0.027705371 0.80072451 0.073363751 11644058
-0.027369529 0.80102491 0.073361054 11512472
-0.028289109 0.80257785 0.074292138 11446679
-0.027955696 0.80287611 0.074289456 11446679
-0.027622283 0.80317438 0.074286759 11446679
-0.027920246 0.80409563 0.074751019 11446679
-0.027588055 0.80439281 0.074748337 11446166
-0.027255863 0.80469 0.074745655 11511959
-0.026923671 0.80498713 0.074742988 11446166
-0.026591465 0.80528432 0.074740306 11446166
-0.026259273 0.80558145 0.074737623 11446166
-0.02656576 0.80649513 0.075201929 11511959
-0.026234776 0.80679119 0.075199261 11446166
-0.025903806 0.8070873 0.075196594 11446166
-0.025572821 0.80738336 0.075193927 11577238
-0.025241852 0.80767941 0.075191259 11577238
-0.024910867 0.80797553 0.075188577 11577236
-0.024579898 0.80827159 0.07518591 11643029
-0.024248913 0.80856764 0.075183243 11577750
-0.023917943 0.80886376 0.075180575 11577750
-0.024236575 0.80976647 0.075644985 11511957
-0.023906812 0.81006145 0.075642318 11446164
-0.023577049 0.81035644 0.075639665 11446164
-0.023247287 0.81065142 0.075637013 11511957
-0.022917524 0.8109464 0.075634345 11577750
-0.022587761 0.81124139 0.075631678 11577750
-0.022257999 0.81153643 0.075629026 11577750
-0.021928251 0.81183136 0.075626358 11577750
-0.021598488 0.8121264 0.075623706 11840408
-0.0057142228 0.82514799 0.075033724 11972510
-0.0053832382 0.82544404 0.075031057 11972510
-0.0050522685 0.8257401 0.07502839 11972510
-0.0047212988 0.82603621 0.075025722 11972510
-0.0043903142 0.82633227 0.07502304 11972256
-0.0040593296 0.82662833 0.075020373 11906463
-0.0037283599 0.82692444 0.075017706 12038049
-0.0033973902 0.8272205 0.075015038 11972256
-0.0030664057 0.82751656 0.075012371 11972256
-0.0027354211 0.82781267 0.075009704 11972256
-0.0024044514 0.82810873 0.075007021 11972256
-0.0020734817 0.82840478 0.075004354 11906463
-0.0017424971 0.8287009 0.075001687 11906463
-0.0014115274 0.82899696 0.07499902 11972256
-0.0010805577 0.82929301 0.074996352 11972256
-0.00074957311 0.82958913 0.07499367 11972256
0.00031620264 0.8293547 0.07452324 11972256
0.00064839423 0.82965183 0.074520558 11972256
0.00098060071 0.82994902 0.074517876 12038049
0.0013127774 0.83024621 0.074515194 12038049
0.0016449839 0.8305434 0.074512526 12169635
0.0027180463 0.83031547 0.074042007 12038049
0.0030514747 0.83061373 0.074039325 12169635
0.0033848733 0.83091199 0.074036628 12235428
0.0044627935 0.83068848 0.073566109 12169635
0.0047974288 0.83098781 0.073563412 12038049
0.0051320642 0.83128715 0.073560715 11972256
0.0054666847 0.83158648 0.073558018 12169635
0.0058013052 0.83188587 0.073555321 12366764
0.0061359406 0.83218521 0.073552608 12695729
0.0072223991 0.83196926 0.073082 13552323
0.0075582415 0.83226973 0.073079288 14407632
0.0094026178 0.83154404 0.072140709 14671317
0.009740904 0.83184665 0.072137982 14473938
0.010079175 0.83214927 0.072135255 14407630
0.036520869 0.83085924 0.062223241 14274759
0.036884695 0.83118474 0.062220305 14275013
0.037248537 0.83151019 0.06221737 14275013
0.037612364 0.83183563 0.062214434 14407110
0.038773015 0.83168614 0.06174323 14275524
0.039138064 0.83201271 0.061740279 13617594
0.039503127 0.83233929 0.061737344 12104355
0.040668681 0.83219409 0.06126608 11250077
0.041034952 0.83252174 0.061263129 11447456
0.041401222 0.83284938 0.061260179 10792095
0.042571619 0.8327086 0.0607889 10331544
0.042939097 0.83303738 0.060785934 9936016
0.043306574 0.8333661 0.060782969 10857118
-0.032981396 0.76003635 0.059985533 10129020
-0.032609046 0.76036942 0.059982538 9932413
-0.032236695 0.76070249 0.059979528 9669241
-0.031864345 0.76103556 0.059976533 7827299
-0.03149201 0.76136869 0.059973523 7037783
-0.03111966 0.76170176 0.059970528 7369571
-0.031301349 0.7627281 0.060432419 7698536
-0.030930206 0.76306009 0.060429424 8093810
-0.030559078 0.76339209 0.060426429 8028017
-0.03018795 0.76372409 0.060423434 8027247
-0.030089512 0.79472315 0.072393656 10391679
-0.029750004 0.79502678 0.072390914 10457472
-0.029410511 0.79533052 0.072388172 10457472
-0.029684678 0.79627413 0.072850809 10589573
-0.029346392 0.79657674 0.072848082 11181710
-0.02900812 0.79687935 0.07284534 11445652
-0.028669834 0.79718196 0.072842613 11643031
-0.028331563 0.79748458 0.072839886 11709338
-0.027993277 0.79778719 0.072837159 11709338
-0.028275982 0.79872322 0.07329987 11709338
-0.027938932 0.7990247 0.073297158 11709338
-0.027601868 0.79932624 0.073294431 11709338
-0.027889401 0.80025786 0.073757172 11577752
-0.027553558 0.80055833 0.07375446 11577752
-0.027217716 0.80085874 0.073751763 11511959
-0.026881874 0.80115914 0.07374905 11577752
-0.026546031 0.80145955 0.073746338 11511959
-0.026210189 0.80176002 0.073743626 11511959
-0.02650626 0.80268407 0.074206457 11511959
-0.02617164 0.8029834 0.074203745 11446166
-0.025837004 0.80328274 0.074201047 11446166
-0.025502384 0.80358207 0.07419835 11446166
-0.025167748 0.80388141 0.074195653 11446166
-0.024833128 0.80418074 0.074192956 11380373
-0.025137693 0.80509716 0.074655816 11511959
-0.024804294 0.80539542 0.074653119 11446166
-0.024470881 0.80569369 0.074650437 11511959
-0.024780333 0.80660576 0.075113371 11577238
-0.024448141 0.80690289 0.075110689 11577238
-0.02411595 0.80720007 0.075108007 11577236
-0.023783758 0.80749726 0.075105324 11577236
-0.023451567 0.80779445 0.075102642 11511957
-0.023119375 0.80809158 0.07509996 11511957
-0.022787169 0.80838877 0.075097293 11511957
-0.022454992 0.8086859 0.07509461 11446164
-0.022122785 0.80898309 0.075091928 11446164
-0.0031326115 0.82478189 0.074478298 11972510
-0.002799198 0.82508016 0.074475616 11972510
-0.0024657995 0.82537842 0.074472919 11906717
-0.002132386 0.82567668 0.074470237 12038049
-0.0017989725 0.82597494 0.07446754 11972256
-0.001465559 0.8262732 0.074464858 11972256
-0.0011321455 0.82657146 0.07446216 11972256
-0.00079874694 0.82686973 0.074459478 11972256
-0.00046533346 0.82716799 0.074456781 11906463
-0.00013191998 0.82746619 0.074454099 11906463
0.0002014935 0.82776445 0.074451402 11906463
0.00053490698 0.82806271 0.07444872 11906463
0.00086830556 0.82836097 0.074446023 11906463
0.001201719 0.82865924 0.07444334 11972256
0.0015351325 0.8289575 0.074440643 11972256
0.0026063025 0.82872689 0.073971599 12038049
0.0029409379 0.82902622 0.073968902 12038049
0.0032755584 0.82932556 0.073966205 12169635
0.0036101788 0.82962489 0.073963508 12038049
0.0039448142 0.82992423 0.073960796 12169635
0.0042794347 0.83022356 0.073958099 12169635
0.0053591579 0.83000052 0.073488966 12169635
0.0056950003 0.83030093 0.073486254 12038049
0.0060308427 0.83060139 0.073483542 11972258
0.006366685 0.8309018 0.07348083 12038051
0.0067025274 0.83120227 0.073478118 12169637
0.0070383698 0.83150268 0.07347542 12367016
0.0081265867 0.83128726 0.073006213 12366762
0.008463636 0.8315888 0.073003501 13287864
0.0095555484 0.83137667 0.072534248 13618116
0.0098938197 0.83167922 0.072531521 14276046
0.010232106 0.83198184 0.072528794 14473936
0.036685333 0.83067918 0.062646508 14274759
0.037049159 0.83100468 0.062643573 14275013
0.037413001 0.83133018 0.062640637 14275013
0.037776828 0.83165562 0.062637702 14275526
0.038140669 0.83198106 0.062634766 14275526
0.038504496 0.83230656 0.062631831 14209731
0.038868323 0.83263201 0.062628895 14407110
0.040834248 0.83201289 0.061692178 13551549
0.041200519 0.83234048 0.061689228 11709345
0.041566789 0.83266819 0.061686277 10987929
0.042737737 0.8325268 0.061216414 11053722
0.043105215 0.83285552 0.061213449 11119772
0.043472692 0.83318424 0.061210483 10922393
-0.032813087 0.75985205 0.06041871 9471092
-0.032440737 0.76018518 0.060415715 8221541
-0.032068387 0.76051825 0.060412705 7892576
-0.031696036 0.76085132 0.06040971 7763302
-0.031323686 0.76118445 0.0604067 8026474
-0.030951336 0.76151752 0.060403705 8290673
-0.031133577 0.76254445 0.06086418 8027501
-0.030762449 0.76287645 0.060861185 8159087
-0.030391306 0.76320845 0.06085819 8422259
-0.030020177 0.76354045 0.060855195 9079162
-0.029936031 0.79455513 0.072788611 10457472
-0.029596537 0.79485881 0.072785869 10655366
-0.029257044 0.7951625 0.072783127 11510675
-0.029531762 0.7961067 0.073244348 11445912
-0.029193476 0.79640937 0.073241621 11445912
-0.02885519 0.79671192 0.073238879 11511705
-0.028516918 0.79701453 0.073236153 11577498
-0.028178647 0.79731715 0.073233426 11577752
-0.027840361 0.79761976 0.073230699 11577752
-0.028123617 0.79855639 0.073691994 11709338
-0.027786553 0.79885793 0.073689282 11577752
-0.027449504 0.79915941 0.073686555 11577752
-0.027737588 0.80009168 0.07414788 11511959
-0.027401745 0.80039209 0.074145168 11511959
-0.027065903 0.80069256 0.074142471 11511959
-0.026730061 0.80099297 0.074139759 11446166
-0.026394203 0.80129337 0.074137047 11446166
-0.026058361 0.80159384 0.074134335 11511959
-0.026354998 0.80251849 0.074595749 11446166
-0.026020363 0.80281782 0.074593037 11577238
-0.025685742 0.80311716 0.07459034 11577238
-0.025351107 0.80341649 0.074587643 11577238
-0.025016487 0.80371583 0.074584946 11577238
-0.024681851 0.80401516 0.074582249 11577238
-0.024986982 0.80493218 0.075043693 11643031
-0.024653569 0.80523044 0.075040996 11577238
-0.024320155 0.8055287 0.075038314 11577238
-0.024630174 0.80644137 0.075499833 11643031
-0.024297982 0.80673856 0.07549715 11577238
-0.023965791 0.80703568 0.075494468 11511443
-0.023633584 0.80733287 0.075491786 11577236
-0.023301393 0.80763006 0.075489104 11511957
-0.022969201 0.80792719 0.075486422 11511957
-0.02263701 0.80822438 0.075483754 11511957
-0.022304818 0.80852151 0.075481072 11446164
-0.021972626 0.8088187 0.07547839 11446164
-0.0029818863 0.82461691 0.074866176 11972510
-0.0026484877 0.82491517 0.074863493 12038303
-0.0023150742 0.82521343 0.074860796 11972510
-0.0019816607 0.82551169 0.074858114 11972510
-0.0016482621 0.82580996 0.074855417 11972510
-0.0013148487 0.82610822 0.074852735 11972510
-0.00098143518 0.82640648 0.074850038 11972510
-0.0006480217 0.82670474 0.074847355 11906463
-0.00031460822 0.827003 0.074844658 11906463
1.8790364e-05 0.8273012 0.074841976 11906463
0.00035220385 0.82759947 0.074839279 11906463
0.00068561733 0.82789773 0.074836597 11972256
0.0010190308 0.82819599 0.0748339 11906463
0.0013524443 0.82849425 0.074831218 11972256
0.0016858429 0.82879251 0.07482852 11972256
0.0027575791 0.82856125 0.074360892 11972256
0.0030921996 0.82886058 0.074358195 12038049
0.0034268349 0.82915998 0.074355498 12038049
0.0037614554 0.82945931 0.074352801 12038049
0.0040960759 0.82975864 0.074350089 12038049
0.0044307113 0.83005798 0.074347392 12169635
0.005510971 0.82983434 0.073879674 12169635
0.0058468133 0.83013475 0.073876962 12038049
0.0061826557 0.83043516 0.07387425 12038051
0.0065184981 0.83073562 0.073871538 12038051
0.0068543404 0.83103603 0.073868826 12169637
0.0071901828 0.8313365 0.073866129 12169637
0.008278951 0.83112049 0.073398337 12235430
0.0086160153 0.83142197 0.073395625 12498602
0.0097084641 0.83120924 0.072927788 12564654
0.010046735 0.83151186 0.072925061 13222584
0.010385022 0.83181447 0.072922334 13881799
0.036849812 0.83049917 0.063069776 14143686
0.037213638 0.83082461 0.06306684 14209733
0.037577465 0.83115011 0.063063905 14209733
0.037941292 0.83147556 0.063060969 14209733
0.038305134 0.83180106 0.063058034 14275526
0.03866896 0.8321265 0.063055098 14275013
0.039032802 0.83245194 0.063052163 14275013
0.040999815 0.83183163 0.062118277 14209220
0.041366085 0.83215928 0.062115327 14538185
0.041732356 0.83248693 0.062112376 13222836
0.042903855 0.83234495 0.061643928 11446425
0.043271333 0.83267367 0.061640963 11315609
0.043638811 0.83300239 0.061637998 11644574
-0.033217624 0.75796431 0.060398936 9669241
-0.032844067 0.75829846 0.060395926 9603448
-0.032470495 0.75863266 0.060392901 8353381
-0.032644764 0.75966781 0.060851887 8156002
-0.032272413 0.76000094 0.060848892 8419947
-0.031900063 0.76033401 0.060845882 8683119
-0.031527713 0.76066709 0.060842887 8618609
-0.031155363 0.76100016 0.060839877 8421230
-0.030783013 0.76133323 0.060836881 8421484
-0.030965805 0.76236081 0.061295941 8289898
-0.030594677 0.76269281 0.061292946 9538428
-0.030223548 0.76302481 0.061289951 10196358
-0.029852405 0.7633568 0.061286956 10130306
-0.030008122 0.79061216 0.071812645 10588286
-0.029664978 0.79091913 0.071809873 10522493
-0.029321834 0.79122609 0.071807101 10719872
-0.029586136 0.79218072 0.072266802 10589058
-0.029244214 0.79248655 0.072264045 10654851
-0.028902277 0.79279244 0.072261289 10852232
-0.029782563 0.7943871 0.073183566 11378576
-0.02944307 0.79469085 0.073180825 11642777
-0.029103577 0.79499453 0.073178083 11642777
-0.029378831 0.79593933 0.073637888 11642777
-0.02904056 0.79624194 0.073635161 11642777
-0.028702274 0.79654455 0.073632419 11511705
-0.028364003 0.79684716 0.073629692 11511705
-0.028025731 0.79714978 0.073626965 11511959
-0.027687445 0.79745239 0.073624238 11511959
-0.027971253 0.79838961 0.074084118 11446166
-0.027634189 0.79869115 0.074081406 11446166
-0.027297124 0.79899263 0.074078679 11511959
-0.027585775 0.79992545 0.074538589 11511959
-0.027249917 0.80022591 0.074535877 11446166
-0.026914075 0.80052638 0.074533179 11511959
-0.026578233 0.80082679 0.074530467 11380373
-0.02624239 0.8011272 0.074527755 11446166
-0.025906548 0.8014276 0.074525043 11643031
-0.026203722 0.80235291 0.074985042 11577238
-0.025869101 0.80265224 0.07498233 11577238
-0.025534466 0.80295157 0.074979633 11577238
-0.025199845 0.80325091 0.074976936 11643031
-0.02486521 0.80355024 0.074974239 11577238
-0.02453059 0.80384958 0.074971542 11577238
-0.024836257 0.80476719 0.07543157 11577238
-0.024502859 0.80506545 0.075428873 11577238
-0.024169445 0.80536371 0.075426191 11577238
-0.02448 0.80627698 0.075886294 11577238
-0.024147809 0.80657417 0.075883612 11577238
-0.023815617 0.80687129 0.07588093 11577236
-0.023483425 0.80716848 0.075878248 11577236
-0.023151234 0.80746567 0.075875565 11643029
-0.022819042 0.8077628 0.075872883 11643029
-0.022486836 0.80805999 0.075870216 11511957
-0.022154644 0.80835712 0.075867534 11446164
-0.021822453 0.80865431 0.075864851 11511957
-0.0028311759 0.82445192 0.075254053 11972256
-0.0024977624 0.82475019 0.075251371 11972256
-0.002164349 0.82504845 0.075248674 11972256
-0.0018309504 0.82534671 0.075245991 11972256
-0.0014975369 0.82564497 0.075243294 11972256
-0.0011641234 0.82594323 0.075240612 11972256
-0.00083072484 0.82624149 0.075237915 11972256
-0.00049731135 0.82653975 0.075235233 11906463
-0.00016389787 0.82683802 0.075232536 11906463
0.00016951561 0.82713628 0.075229853 11906463
0.00050292909 0.82743448 0.075227156 11906463
0.00083632767 0.82773274 0.075224474 11906463
0.0011697412 0.828031 0.075221777 11906463
0.0015031546 0.82832927 0.075219095 11906463
0.0018365681 0.82862753 0.075216398 11972256
0.0029088408 0.82839566 0.074750185 11972256
0.0032434613 0.828695 0.074747488 11972256
0.0035780966 0.82899439 0.074744791 12038049
0.0039127171 0.82929373 0.074742094 12038049
0.0042473525 0.82959306 0.074739382 12038049
0.004581973 0.8298924 0.074736685 12038049
0.005662784 0.82966816 0.074270383 12038049
0.0059986264 0.82996857 0.074267671 12038049
0.0063344687 0.83026898 0.074264959 12038051
0.0066703111 0.83056945 0.074262246 12038051
0.0070061684 0.83086985 0.074259534 12038051
0.0073420107 0.83117032 0.074256837 12169637
0.0084313154 0.83095372 0.073790461 12169637
0.0087683797 0.8312552 0.073787749 12301223
0.0098613799 0.83104187 0.073321328 12367529
0.010199651 0.83134449 0.073318601 12564908
0.010537937 0.83164704 0.073315874 12499631
0.016051456 0.83062387 0.070983484 14539214
0.016395822 0.8309319 0.070980713 14472651
0.016740188 0.83123994 0.070977926 14077893
0.017084554 0.83154804 0.070975155 13946307
0.018198192 0.83135319 0.070508584 13946307
0.018543765 0.8316623 0.070505798 14011587
0.018889353 0.83197147 0.070503011 14011587
0.020007893 0.83178097 0.070036396 13880001
0.020354673 0.83209121 0.070033595 14011587
0.020701483 0.83240139 0.070030808 13880001
0.021824852 0.83221531 0.069564164 13880001
0.022172868 0.83252662 0.069561362 14011587
0.037014276 0.83031917 0.063493043 14143686
0.037378103 0.83064461 0.063490108 14143686
0.037741944 0.83097005 0.063487172 14209479
0.038105771 0.83129555 0.063484237 14143940
0.038469598 0.83162099 0.063481301 14209733
0.038833424 0.83194649 0.063478366 14209220
0.039197251 0.83227193 0.06347543 14275013
0.041165382 0.83165038 0.062544376 14275013
0.041531652 0.83197802 0.062541425 14340806
0.041897923 0.83230567 0.062538475 14669257
0.043069974 0.8321631 0.062071443 14274499
0.043437466 0.83249182 0.062068477 12630186
0.043804929 0.83282053 0.062065512 11314326
-0.033048764 0.75777948 0.060833529 8222570
-0.032675192 0.75811362 0.060830519 7959398
-0.032301635 0.75844777 0.060827494 8091754
-0.03247644 0.75948358 0.061285064 8486512
-0.03210409 0.75981665 0.061282068 8421232
-0.03173174 0.76014972 0.061279058 8618611
-0.031359389 0.76048285 0.061276063 8421230
-0.030987039 0.76081592 0.061273053 8487023
-0.030614689 0.76114899 0.061270058 9736059
-0.030242339 0.76148212 0.061267048 10262403
-0.029853001 0.79044235 0.072211847 10457470
-0.029509857 0.79074931 0.072209075 10589056
-0.029166713 0.79105628 0.072206303 10720642
