# .PCD v0.7 - Point Cloud Data file format
VERSION 0.7
FIELDS x y z rgb
SIZE 4 4 4 4
TYPE F F F U
COUNT 1 1 1 1
WIDTH 1066
HEIGHT 1
VIEWPOINT 0 0 0 1 0 0 0
POINTS 1066
DATA ascii
-0.025552981 0.83018756 0.020987317 14734796
-0.025106929 0.83033109 0.020984933 14734796
-0.024966002 0.83120662 0.021614164 14800591
-0.024521507 0.83134967 0.021611795 14800591
-0.024077013 0.83149266 0.021609426 14866384
-0.023632519 0.83163571 0.021607056 14866384
-0.023188025 0.83177876 0.021604687 15063763
-0.022743523 0.83192176 0.021602318 14866384
-0.022299036 0.83206481 0.021599948 14866382
-0.021854542 0.8322078 0.021597579 14800589
-0.021410041 0.83235085 0.02159521 14734796
-0.020965554 0.8324939 0.021592841 14669003
-0.020200394 0.83190989 0.020958781 14669003
-0.01975435 0.83205342 0.020956397 14603210
-0.019308299 0.83219695 0.020954028 14602440
-0.018862255 0.83234048 0.020951644 14536647
-0.018416204 0.83248401 0.020949259 14470854
-0.017970152 0.83262753 0.02094689 14470854
-0.017524108 0.83277106 0.020944521 14274245
-0.017078057 0.83291459 0.020942137 14274245
-0.016298912 0.83233511 0.020307973 14274245
-0.015851304 0.83247912 0.020305589 14274245
-0.015403703 0.83262318 0.020303205 14208452
-0.014618352 0.83204567 0.019669041 14208452
-0.014169194 0.83219022 0.019666642 14208452
-0.013720043 0.83233476 0.019664243 14340038
-0.013270885 0.83247924 0.019661859 14470854
-0.012821727 0.83262378 0.01965946 14405061
-0.012372568 0.83276832 0.019657061 14405061
-0.029366285 0.82705224 0.020157039 13353397
-0.029205404 0.8279351 0.020784751 13484983
-0.028757796 0.8280791 0.020782366 13550776
-0.028310195 0.82822311 0.020779967 13813948
-0.028155543 0.82910401 0.021407723 13879741
-0.027709492 0.82924753 0.021405354 14208706
-0.027263448 0.82939106 0.02140297 14405315
-0.026817396 0.82953459 0.021400586 14471108
-0.026371352 0.82967812 0.021398216 14602694
-0.026226006 0.83055592 0.022026002 14800073
-0.02578152 0.83069897 0.022023633 14931405
-0.025337018 0.83084196 0.022021264 14997198
-0.024892531 0.83098501 0.022018895 14997200
-0.024448037 0.831128 0.022016525 14931407
-0.024003543 0.83127105 0.022014156 14997200
-0.023869075 0.83214539 0.022642002 14997200
-0.023426138 0.83228791 0.022639647 15194577
-0.022983193 0.83243048 0.022637293 14997198
-0.022540256 0.83257294 0.022634923 14866382
-0.021781065 0.83198619 0.02200231 14800589
-0.021336578 0.83212924 0.02199994 14734798
-0.020892076 0.83227229 0.021997571 14669005
-0.020447589 0.83241528 0.021995202 14669005
-0.020003088 0.83255833 0.021992832 14603212
-0.019558601 0.83270133 0.021990463 14536647
-0.019114099 0.83284438 0.021988094 14470854
-0.018669605 0.83298743 0.021985725 14470854
-0.018225111 0.83313042 0.021983355 14470854
-0.017450377 0.83254868 0.021350652 14405061
-0.017004333 0.83269221 0.021348283 14470854
-0.016558282 0.83283573 0.021345899 14274245
-0.016112231 0.83297926 0.021343514 14274245
-0.015666187 0.83312279 0.021341145 14274245
-0.01488211 0.83254403 0.020708382 14274245
-0.014434509 0.83268803 0.020705998 14274245
-0.013986908 0.8328321 0.020703599 14340038
-0.013539307 0.8329761 0.020701215 14470854
-0.013091706 0.83312011 0.02069883 14405061
-0.012644105 0.83326417 0.020696446 14339268
-0.011849172 0.83268893 0.020063639 14470854
-0.011400014 0.83283341 0.020061255 14405061
-0.010950856 0.83297795 0.020058855 14405061
-0.010149695 0.83240467 0.019426003 14405061
-0.0096989796 0.83254969 0.019423604 14339268
-0.0092482716 0.83269477 0.019421205 14339268
-0.0087975636 0.83283979 0.019418791 14339268
-0.0083468482 0.83298481 0.019416392 14273475
-0.030357189 0.82565367 0.019944519 12628643
-0.029906474 0.82579863 0.01994212 12957608
-0.029455766 0.82594371 0.019939721 13154987
-0.029005051 0.82608873 0.019937322 13483698
-0.029131413 0.82771194 0.021192297 13681077
-0.028683811 0.82785594 0.021189913 13878458
-0.02823621 0.82799995 0.021187529 14010044
-0.028081812 0.82888162 0.021813869 14142143
-0.027635761 0.82902515 0.0218115 14273729
-0.027189717 0.82916868 0.021809116 14405315
-0.026743665 0.82931221 0.021806732 14405315
-0.026297621 0.82945573 0.021804363 14602694
-0.026152544 0.83033431 0.022430733 14800073
-0.025708042 0.83047736 0.022428364 14997198
-0.025263555 0.83062035 0.022425994 14931405
-0.024819054 0.8307634 0.022423625 14931405
-0.024374567 0.83090639 0.022421256 14931405
-0.023930065 0.83104944 0.022418886 15062991
-0.023795865 0.83192456 0.023045316 15062991
-0.023352921 0.83206707 0.023042962 15194577
-0.022909977 0.83220959 0.023040593 15062991
-0.02246704 0.83235216 0.023038238 14931405
-0.021707602 0.83176458 0.02240704 14865612
-0.0212631 0.83190763 0.022404671 14865614
-0.020818613 0.83205062 0.022402301 14799821
-0.020374112 0.83219367 0.022399932 14799821
-0.019929625 0.83233666 0.022397563 14734028
-0.019485123 0.83247972 0.022395179 14536649
-0.019040637 0.83262277 0.022392824 14470856
-0.018596135 0.83276582 0.02239044 14536647
-0.018151641 0.83290881 0.022388086 14470854
-0.017376654 0.83232629 0.021756798 14405061
-0.016930602 0.83246982 0.021754429 14405061
-0.016484551 0.83261335 0.021752045 14470854
-0.016038507 0.83275688 0.02174966 14470854
-0.015592456 0.8329004 0.021747291 14340038
-0.014808126 0.83232087 0.021115944 14340038
-0.014360525 0.83246487 0.02111356 14274245
-0.013912924 0.83260894 0.021111161 14274245
-0.013465323 0.83275294 0.021108776 14470854
-0.013017721 0.83289695 0.021106392 14405061
-0.01257012 0.83304101 0.021104008 14470341
-0.011774935 0.83246493 0.020472616 14536134
-0.011325769 0.83260947 0.020470232 14470341
-0.010876618 0.83275402 0.020467833 14536134
-0.010075189 0.83217996 0.019836396 14405061
-0.0096244812 0.83232498 0.019833997 14339268
-0.0091737732 0.83247006 0.019831583 14339268
-0.0087230578 0.83261502 0.019829184 14339268
-0.0082723498 0.8327601 0.019826785 14273475
-0.030282691 0.8254289 0.020354912 12627871
-0.029831976 0.82557392 0.020352513 12826022
-0.029381268 0.825719 0.020350114 13089194
-0.028930552 0.82586402 0.0203477 13417905
-0.029057428 0.82748878 0.021599859 13615284
-0.028609827 0.82763278 0.021597475 13746872
-0.028162226 0.82777679 0.021595091 14010044
-0.028008081 0.82865918 0.022220016 14141630
-0.027562037 0.8288027 0.022217646 14339009
-0.027115993 0.82894623 0.022215262 14339522
-0.026669942 0.82908976 0.022212878 14405315
-0.02622389 0.82923329 0.022210509 14536647
-0.026079066 0.8301127 0.022835463 14799819
-0.025634572 0.83025569 0.022833094 14931405
-0.025190078 0.83039874 0.022830725 14997198
-0.024745584 0.83054173 0.022828355 14931405
-0.024301089 0.83068478 0.022825986 14931405
-0.023856595 0.83082783 0.022823617 15062991
-0.023722649 0.83170366 0.023448631 15194577
-0.023279704 0.83184624 0.023446277 15062991
-0.022836767 0.83198875 0.023443907 14997198
-0.02239383 0.83213127 0.023441553 14931405
-0.021634124 0.83154297 0.02281177 14865612
-0.02118963 0.83168602 0.022809401 14865614
-0.020745136 0.83182901 0.022807032 14734028
-0.020300642 0.83197206 0.022804663 14799821
-0.019856147 0.83211505 0.022802293 14734028
-0.019411653 0.83225811 0.022799924 14536649
-0.018967159 0.83240116 0.02279754 14536649
-0.018522665 0.83254415 0.022795185 14536647
-0.018078171 0.8326872 0.022792801 14536647
-0.017302923 0.83210391 0.022162944 14470854
-0.016856872 0.83224744 0.022160575 14470854
-0.016410828 0.83239096 0.022158191 14470854
-0.015964776 0.83253449 0.022155806 14470854
-0.015518732 0.83267802 0.022153437 14470854
-0.014734142 0.83209765 0.021523505 14470854
-0.01428654 0.83224171 0.021521106 14405061
-0.013838939 0.83238572 0.021518722 14405061
-0.013391338 0.83252978 0.021516338 14470854
-0.012943737 0.83267379 0.021513954 14470854
-0.012496136 0.83281779 0.02151157 14405061
-0.01170069 0.832241 0.020881593 14536647
-0.011251532 0.83238554 0.020879194 14470341
-0.010802373 0.83253008 0.02087681 14536134
-0.010000698 0.83195525 0.020246789 14405061
-0.0095499828 0.83210027 0.020244375 14339268
-0.0090992749 0.83224529 0.020241976 14339268
-0.0086485669 0.83239031 0.020239577 14339268
-0.0081978515 0.83253539 0.020237163 14339268
-0.0073868558 0.83196354 0.019607112 14339268
-0.0069345906 0.83210909 0.019604698 14339268
-0.0064823329 0.83225459 0.019602284 14339268
-0.030208193 0.82520419 0.020765305 12759457
-0.029757477 0.82534921 0.020762905 12826022
-0.029306769 0.82549429 0.020760491 13089194
-0.028856054 0.82563925 0.020758092 13286319
-0.029272504 0.82800621 0.022633299 13615284
-0.028826453 0.82814974 0.022630915 13878458
-0.028380401 0.82829326 0.022628546 14010044
-0.027934358 0.82843679 0.022626162 14207423
-0.027488306 0.82858032 0.022623792 14404802
-0.027042262 0.82872385 0.022621408 14405315
-0.026894584 0.82960498 0.023244932 14405315
-0.02645009 0.82974803 0.023242563 14536647
-0.026005596 0.82989109 0.023240194 14799819
-0.025864132 0.83077019 0.023863748 14865612
-0.025421195 0.83091271 0.023861393 14997198
-0.02497825 0.83105528 0.023859039 14997198
-0.024535313 0.8311978 0.02385667 14997198
-0.024092376 0.83134031 0.023854315 15062991
-0.023649432 0.83148283 0.023851946 15194577
-0.023206495 0.83162534 0.023849592 15194577
-0.02276355 0.83176792 0.023847222 14997198
-0.022320613 0.83191043 0.023844868 14997198
-0.021877669 0.83205295 0.023842499 14865612
-0.021434732 0.83219552 0.023840144 14865612
-0.020991795 0.83233804 0.023837775 14734026
-0.02054885 0.83248055 0.023835421 14799819
-0.020105913 0.83262306 0.023833051 14734026
-0.019662969 0.83276558 0.023830697 14470854
-0.019220032 0.83290815 0.023828343 14536647
-0.018777095 0.83305067 0.023825973 14602440
-0.01833415 0.83319318 0.023823604 14536647
-0.017560206 0.83260858 0.023195162 14470854
-0.017115712 0.83275163 0.023192808 14470854
-0.016671218 0.83289468 0.023190424 14470854
-0.016226724 0.83303767 0.023188055 14470854
-0.01578223 0.83318073 0.023185685 14470854
-0.01499895 0.83259916 0.022557199 14470854
-0.014552906 0.83274269 0.02255483 14470854
-0.014106855 0.83288622 0.022552446 14470854
-0.013660811 0.83302975 0.022550061 14470854
-0.01321476 0.83317327 0.022547692 14470854
-0.012768708 0.8333168 0.022545308 14470854
-0.011974551 0.8327387 0.021916747 14470854
-0.011526942 0.8328827 0.021914363 14470341
-0.011079341 0.83302677 0.021911964 14470341
-0.010278977 0.83245063 0.021283388 14536134
-0.0098298118 0.83259517 0.021280989 14470341
-0.009380661 0.83273971 0.02127859 14339268
-0.0085740611 0.8321656 0.020649955 14339268
-0.0081233531 0.83231068 0.020647556 14339268
-0.0076726377 0.83245564 0.020645157 14339268
-0.0072219297 0.83260071 0.020642757 14339268
-0.0067712143 0.83274573 0.020640358 14405061
-0.0059553161 0.83217466 0.020011678 14273475
-0.005503051 0.83232015 0.020009279 14339268
-0.0050507858 0.83246571 0.020006865 14339268
-0.0042286441 0.8318966 0.019378141 14339268
-0.0037748218 0.83204263 0.019375727 14339268
-0.0033209994 0.83218867 0.019373313 14339268
-0.029198773 0.82778382 0.023039445 13615284
-0.028752722 0.82792735 0.023037061 13746872
-0.028306678 0.82807088 0.023034692 14010044
-0.027860627 0.82821441 0.023032308 14142143
-0.027414583 0.82835793 0.023029938 14273729
-0.026968531 0.82850146 0.023027554 14471108
-0.026821114 0.82938337 0.023649678 14405315
-0.02637662 0.82952642 0.023647293 14536647
-0.025932126 0.82966942 0.023644924 14799819
-0.025790915 0.83054936 0.024267077 14865612
-0.025347978 0.83069187 0.024264708 14931405
-0.024905033 0.83083439 0.024262354 14997198
-0.024462096 0.83097696 0.024259999 15062991
-0.024019159 0.83111948 0.02425763 15194577
-0.023576215 0.83126199 0.024255261 15260370
-0.023133278 0.83140451 0.024252906 15194577
-0.022690333 0.83154702 0.024250552 14997198
-0.022247396 0.8316896 0.024248183 14997198
-0.021804459 0.83183211 0.024245813 14931405
-0.021361515 0.83197463 0.024243459 14865612
-0.02091857 0.8321172 0.024241105 14865612
-0.020475633 0.83225971 0.024238735 14865612
-0.020032696 0.83240223 0.024236381 14734026
-0.019589759 0.83254474 0.024234012 14536647
-0.019146815 0.83268726 0.024231657 14536647
-0.01870387 0.83282983 0.024229288 14734026
-0.018260933 0.83297235 0.024226934 14536647
-0.017486736 0.83238697 0.023599908 14470854
-0.017042242 0.83253002 0.023597538 14470854
-0.016597748 0.83267307 0.023595169 14470854
-0.016153254 0.83281606 0.023592785 14536647
-0.015708752 0.83295906 0.023590431 14470854
-0.014925227 0.83237672 0.022963345 14470854
-0.014479175 0.83252025 0.022960976 14536647
-0.014033131 0.83266377 0.022958592 14470854
-0.01358708 0.8328073 0.022956207 14470854
-0.013141029 0.83295083 0.022953838 14470854
-0.012694985 0.83309436 0.022951454 14470854
-0.011900559 0.83251548 0.022324309 14470854
-0.011452958 0.83265954 0.022321925 14470854
-0.011005349 0.83280355 0.02231954 14470854
-0.010204732 0.83222669 0.021692365 14470854
-0.0097555742 0.83237123 0.021689966 14470854
-0.0093064159 0.83251578 0.021687582 14339268
-0.0084995627 0.83194089 0.021060362 14339268
-0.0080488548 0.83208591 0.021057948 14405061
-0.0075981393 0.83223093 0.021055549 14339268
-0.0071474314 0.832376 0.02105315 14339268
-0.006696716 0.83252102 0.021050736 14405061
-0.005880557 0.83194911 0.020423487 14339268
-0.0054282919 0.83209467 0.020421073 14339268
-0.0049760267 0.83224022 0.020418674 14339268
-0.0041536242 0.83167028 0.019791365 14339268
-0.0036998093 0.83181632 0.019788951 14339268
-0.003245987 0.83196235 0.019786522 14405061
-0.029125042 0.82756138 0.023445591 13549493
-0.028678998 0.82770491 0.023443207 13681338
-0.028232947 0.82784843 0.023440838 13944510
-0.027786903 0.82799196 0.023438454 14076096
-0.027340852 0.82813549 0.023436084 14273475
-0.0268948 0.82827902 0.0234337 14470854
-0.026747644 0.82916176 0.024054393 14405061
-0.02630315 0.82930475 0.024052039 14405831
-0.025858656 0.82944781 0.024049655 14669003
-0.025717705 0.83032852 0.024670392 14734796
-0.025274761 0.83047104 0.024668023 14800589
-0.024831824 0.83061355 0.024665669 14866382
-0.024388887 0.83075607 0.024663314 14932175
-0.023945943 0.83089864 0.024660945 14932175
-0.023503006 0.83104116 0.024658591 15063761
-0.023060061 0.83118367 0.024656221 14932175
-0.022617124 0.83132619 0.024653867 14866382
-0.022174187 0.8314687 0.024651498 14866384
-0.021731243 0.83161128 0.024649143 14800591
-0.021288298 0.83175379 0.024646774 14734798
-0.020845361 0.83189631 0.02464442 14800591
-0.020402424 0.83203888 0.02464205 14734796
-0.019959487 0.83218139 0.024639696 14603210
-0.019516543 0.83232391 0.024637327 14602440
-0.019073598 0.83246642 0.024634972 14536647
-0.018630661 0.83260894 0.024632618 14602440
-0.018187724 0.83275151 0.024630249 14470854
-0.017413266 0.83216536 0.024004638 14470854
-0.016968764 0.83230841 0.024002269 14470854
-0.016524278 0.8324514 0.0239999 14470854
-0.016079783 0.83259445 0.02399753 14536647
-0.015635282 0.83273745 0.023995146 14470854
-0.014851496 0.83215433 0.023369491 14470854
-0.014405452 0.83229786 0.023367122 14405061
-0.0139594 0.83244139 0.023364738 14405061
-0.013513349 0.83258492 0.023362353 14405061
-0.013067298 0.83272845 0.023359984 14470854
-0.012621254 0.83287197 0.0233576 14470854
-0.011826575 0.83229232 0.02273187 14470854
-0.011378974 0.83243638 0.022729486 14405061
-0.010931365 0.83258039 0.022727087 14470854
-0.010130495 0.83200276 0.022101343 14536647
-0.0096813291 0.8321473 0.022098944 14470854
-0.0092321783 0.83229184 0.022096545 14405061
-0.0084250644 0.83171618 0.02147074 14405061
-0.007974349 0.8318612 0.021468341 14470854
-0.007523641 0.83200622 0.021465942 14405061
-0.007072933 0.83215123 0.021463543 14339268
-0.0066222176 0.83229625 0.021461144 14405061
-0.0058057979 0.83172363 0.020835295 14339268
-0.0053535327 0.83186918 0.020832881 14339268
-0.0049012676 0.83201468 0.020830482 14339268
-0.0040786117 0.83144403 0.020204589 14339268
-0.0036247969 0.83159006 0.020202175 14339268
-0.0031709746 0.83173609 0.020199746 14470854
-0.0023421124 0.83116746 0.019573852 14405061
-0.0018867478 0.83131403 0.019571424 14405061
-0.0014313683 0.83146054 0.019568995 14339268
-0.00097599626 0.8316071 0.019566566 14339268
-0.00052061677 0.83175361 0.019564137 14339268
-0.029051319 0.82733899 0.023851737 13418420
-0.028605267 0.82748252 0.023849353 13681338
-0.028159223 0.82762611 0.023846984 13944510
-0.028302126 0.82925248 0.025087878 14076096
-0.027859189 0.829395 0.025085509 14273475
-0.027416252 0.82953751 0.025083154 14470854
-0.026973307 0.82968009 0.025080785 14470854
-0.02653037 0.8298226 0.025078431 14471624
-0.026087426 0.82996511 0.025076061 14734796
-0.025948308 0.83084613 0.025695413 14800589
-0.025506921 0.83098817 0.025693059 14866382
-0.025065534 0.83113015 0.025690705 14866382
-0.024624147 0.83127218 0.02568835 14866382
-0.024182759 0.83141422 0.025685996 14866384
-0.023741372 0.83155626 0.025683641 14932177
-0.023299992 0.8316983 0.025681287 14866384
-0.022858605 0.83184034 0.025678933 14866384
-0.022417217 0.83198237 0.025676578 14866384
-0.02197583 0.83212435 0.025674224 14866384
-0.02153445 0.83226639 0.025671884 14866384
-0.021093063 0.83240843 0.02566953 14800591
-0.020651676 0.83255047 0.025667176 14734798
-0.020210288 0.8326925 0.025664821 14669005
-0.019768901 0.83283448 0.025662467 14603210
-0.019327514 0.83297658 0.025660113 14471624
-0.018886134 0.83311856 0.025657758 14471624
-0.018444747 0.8332606 0.025655404 14340038
-0.017671563 0.83267319 0.025031194 14340038
-0.017228626 0.83281571 0.02502884 14340038
-0.016785689 0.83295822 0.02502647 14340038
-0.016342744 0.8331008 0.025024116 14405831
-0.0158998 0.83324331 0.025021747 14340038
-0.015456863 0.83338583 0.025019392 14340038
-0.014672823 0.83280194 0.024395153 14274245
-0.014228337 0.83294493 0.024392769 14274245
-0.013439626 0.83236253 0.023768499 14208452
-0.012993574 0.83250606 0.023766115 14340038
-0.01254753 0.83264959 0.023763746 14340038
-0.012101479 0.83279312 0.023761377 14340038
-0.011655428 0.83293664 0.023758993 14274245
-0.011209376 0.83308017 0.023756608 14274245
-0.01040978 0.83250123 0.023132265 14340038
-0.0099621788 0.8326453 0.02312988 14340038
-0.0095145777 0.8327893 0.023127496 14340038
-0.008708775 0.83221239 0.022503138 14340038
-0.0082596168 0.83235693 0.022500739 14470854
-0.007810466 0.83250147 0.022498339 14405061
-0.0073613003 0.83264601 0.02249594 14470854
-0.0069121495 0.83279049 0.022493556 14405061
-0.0060970113 0.83221662 0.021869123 14339268
-0.0056462958 0.83236158 0.021866724 14405061
-0.0051955879 0.83250666 0.02186431 14339268
-0.0043742508 0.83193475 0.021239877 14339268
-0.0039219856 0.83208025 0.021237463 14339268
-0.0034697205 0.8322258 0.021235049 14405061
-0.0026421472 0.83165586 0.020610556 14405061
-0.0021883175 0.83180189 0.020608142 14339268
-0.0017345026 0.83194792 0.020605713 14339268
-0.0012806877 0.83209395 0.020603299 14339268
-0.00082685798 0.83223999 0.02060087 14405061
-0.00037304312 0.83238602 0.020598456 14405061
0.00046540052 0.83181965 0.019973919 14405061
0.00092077255 0.83196616 0.01997149 14405061
0.0017638728 0.83140123 0.019346938 14470341
0.0022207946 0.83154827 0.019344494 14404548
0.0026777163 0.83169532 0.01934205 14339268
-0.028228916 0.82903165 0.025491193 13945280
-0.027785979 0.82917416 0.025488824 14142659
-0.027343035 0.82931668 0.025486469 14340038
-0.026900098 0.82945919 0.0254841 14340038
-0.026457153 0.82960176 0.025481746 14603210
-0.026014216 0.82974428 0.025479376 14734796
-0.025875352 0.83062601 0.026097313 14800589
-0.025433965 0.83076811 0.026094958 14866382
-0.024992578 0.83091009 0.026092604 14866382
-0.02455119 0.83105212 0.026090249 14932175
-0.024109803 0.83119416 0.026087895 14932175
-0.023668416 0.8313362 0.026085541 14932175
-0.023227029 0.83147824 0.026083186 15063763
-0.022785649 0.83162022 0.026080832 14932177
-0.022344261 0.83176225 0.026078478 14866384
-0.021902874 0.83190429 0.026076123 14866384
-0.021461487 0.83204633 0.026073784 14734798
-0.021020107 0.83218837 0.026071429 14734798
-0.02057872 0.83233041 0.026069075 14669005
-0.020137332 0.83247244 0.02606672 14603212
-0.019695945 0.83261442 0.026064366 14471626
-0.019254558 0.83275646 0.026062012 14471626
-0.01881317 0.8328985 0.026059657 14471624
-0.018371783 0.83304054 0.026057303 14340038
-0.017598353 0.8324523 0.025434509 14340038
-0.017155416 0.83259487 0.025432155 14340038
-0.016712472 0.83273739 0.025429785 14340038
-0.016269535 0.8328799 0.025427431 14340038
-0.01582659 0.83302248 0.025425062 14340038
-0.015383653 0.83316499 0.025422707 14274245
-0.014599353 0.83258027 0.024799868 14274245
-0.014154859 0.83272332 0.024797514 14274245
-0.013365895 0.83214015 0.024174646 14274245
-0.012919851 0.83228368 0.024172261 14340038
-0.012473799 0.8324272 0.024169892 14274245
-0.012027748 0.83257073 0.024167523 14274245
-0.011581697 0.83271426 0.024165139 14274245
-0.011135653 0.83285779 0.024162754 14274245
-0.010335796 0.83227807 0.023539826 14340038
-0.0098881945 0.83242214 0.023537442 14340038
-0.0094405934 0.83256614 0.023535058 14340038
-0.00863453 0.83198845 0.0229121 14340038
-0.0081853792 0.832133 0.022909716 14405061
-0.007736221 0.83227754 0.022907317 14405061
-0.0072870627 0.83242202 0.022904918 14405061
-0.0068379119 0.83256656 0.022902533 14470854
-0.0060225129 0.83199185 0.022279516 14339268
-0.0055718049 0.83213687 0.022277102 14405061
-0.0051210895 0.83228195 0.022274703 14339268
-0.0042994991 0.83170927 0.02165167 14339268
-0.003847234 0.83185476 0.021649256 14339268
-0.0033949688 0.83200032 0.021646857 14405061
-0.0025671348 0.8314296 0.021023765 14405061
-0.002113305 0.83157563 0.021021351 14339268
-0.0016594902 0.83172166 0.021018937 14339268
-0.0012056753 0.83186769 0.021016523 14405061
-0.00075184554 0.83201373 0.021014094 14405061
-0.00029803067 0.83215976 0.02101168 14405061
0.00054066628 0.83159256 0.020388559 14405061
0.00099604577 0.83173907 0.02038613 14405061
0.0018393919 0.83117342 0.019762978 14405061
0.0022963211 0.83132041 0.019760549 14405061
0.0027532503 0.83146751 0.019758105 14339268
-0.028155699 0.82881081 0.025894508 13945280
-0.027712762 0.82895333 0.025892138 14142659
-0.027269818 0.82909584 0.025889784 14274245
-0.026826881 0.82923836 0.025887415 14340038
-0.026383944 0.82938087 0.02588506 14603210
-0.025940999 0.82952344 0.025882691 14734796
-0.025802389 0.83040595 0.026499212 14800589
-0.025361001 0.83054799 0.026496857 14866382
-0.024919622 0.83069003 0.026494503 14866382
-0.024478234 0.83083206 0.026492149 15063761
-0.024036847 0.8309741 0.026489794 15063761
-0.02359546 0.83111608 0.02648744 15063761
-0.023154072 0.83125818 0.026485085 15063761
-0.022712685 0.83140016 0.026482746 14932175
-0.022271305 0.83154219 0.026480392 14997200
-0.021829918 0.83168423 0.026478037 14997200
-0.021388531 0.83182627 0.026475683 14800591
-0.020947143 0.83196831 0.026473328 14734798
-0.020505764 0.83211029 0.026470974 14669005
-0.020064376 0.83225238 0.02646862 14603212
-0.019622989 0.83239436 0.026466265 14471626
-0.019181602 0.8325364 0.026463911 14471626
-0.018740214 0.83267844 0.026461557 14405833
-0.018298827 0.83282048 0.026459202 14340040
-0.017525136 0.83223152 0.025837824 14340038
-0.017082199 0.83237398 0.025835469 14340038
-0.016639255 0.83251655 0.0258331 14340038
-0.016196318 0.83265907 0.025830746 14340038
-0.015753374 0.83280158 0.025828376 14340038
-0.015310436 0.83294415 0.025826022 14274245
-0.014525883 0.83235866 0.025204614 14274245
-0.014081389 0.83250171 0.02520223 14274245
-0.013292171 0.83191776 0.024580792 14274245
-0.01284612 0.83206129 0.024578407 14208452
-0.012400068 0.83220482 0.024576038 14208452
-0.011954017 0.83234835 0.024573669 14274245
-0.011507973 0.83249187 0.024571285 14274245
-0.011061922 0.8326354 0.0245689 14340038
-0.010261811 0.83205491 0.023947388 14340038
-0.0098142102 0.83219892 0.023945004 14274245
-0.0093666092 0.83234298 0.023942605 14274245
-0.0085602924 0.83176452 0.023321077 14340038
-0.0081111416 0.83190906 0.023318693 14470854
-0.0076619759 0.83205354 0.023316294 14405061
-0.0072128251 0.83219808 0.023313895 14405061
-0.0067636669 0.83234262 0.023311511 14405061
-0.0059480146 0.83176714 0.022689909 14339268
-0.0054972991 0.83191216 0.022687495 14405061
-0.0050465912 0.83205724 0.022685096 14339268
-0.00422474 0.83148372 0.022063479 14339268
-0.0037724748 0.83162928 0.022061065 14405061
-0.0033202097 0.83177483 0.022058651 14405061
-0.0024921224 0.83120334 0.021436989 14405061
-0.0020382926 0.83134937 0.021434575 14339268
-0.0015844777 0.8314954 0.021432146 14405061
-0.0011306629 0.83164144 0.021429732 14405061
-0.00067683309 0.83178747 0.021427318 14405061
-0.00022301823 0.8319335 0.021424904 14405061
0.00061593205 0.83136553 0.020803198 14339268
0.0010713115 0.83151209 0.020800754 14405061
0.0019149259 0.83094561 0.020179033 14339268
0.0023718476 0.8310926 0.020176589 14405061
0.0028287694 0.83123964 0.020174161 14405061
0.0036786199 0.83067518 0.01955238 14405061
0.0041371062 0.83082271 0.019549936 14339268
0.0045955852 0.83097023 0.019547492 14339268
-0.028377749 0.82933372 0.026915237 13945534
-0.027936362 0.82947576 0.026912883 14142913
-0.027494974 0.8296178 0.026910529 14208706
-0.027053587 0.82975984 0.026908174 14340292
-0.0266122 0.82990181 0.02690582 14603464
-0.02617082 0.83004385 0.026903465 14669257
-0.026034012 0.83092666 0.027518556 14735050
-0.025594182 0.83106822 0.027516201 14866636
-0.025154345 0.83120972 0.027513862 14866382
-0.024714515 0.83135128 0.027511522 14932175
-0.024274684 0.83149278 0.027509168 15194577
-0.023834854 0.83163428 0.027506828 15260370
-0.023395024 0.83177584 0.027504489 15194577
-0.022955187 0.83191741 0.027502134 15062991
-0.022515357 0.83205891 0.027499795 15062993
-0.022075526 0.83220041 0.027497455 14997200
-0.021635696 0.83234197 0.027495101 14931407
-0.021195866 0.83248347 0.027492762 14931407
-0.020756029 0.83262503 0.027490407 14799821
-0.020316198 0.83276653 0.027488068 14734028
-0.019876368 0.83290803 0.027485713 14602442
-0.019108646 0.83231634 0.02686581 14602442
-0.018667258 0.83245838 0.026863471 14602442
-0.018225871 0.83260036 0.026861116 14470856
-0.017784484 0.83274245 0.026858762 14470856
-0.017343096 0.83288443 0.026856408 14470856
-0.016901717 0.83302647 0.026854053 14340040
-0.016123101 0.83243823 0.026234061 14340040
-0.015680157 0.83258075 0.026231691 14340040
-0.01523722 0.83272326 0.026229337 14340040
-0.014794283 0.83286583 0.026226982 14340040
-0.014351346 0.83300835 0.026224613 14340040
-0.013563424 0.83242309 0.025604591 14274247
-0.01311893 0.83256614 0.025602236 14274247
-0.012674436 0.83270913 0.025599852 14274247
-0.012229942 0.83285218 0.025597483 14274247
-0.01178544 0.83299518 0.025595114 14274245
-0.011340953 0.83313823 0.025592744 14340038
-0.010542147 0.83255649 0.024972677 14274245
-0.010096096 0.83270001 0.024970293 14274245
-0.0096500516 0.83284354 0.024967924 14274245
-0.0088450238 0.83226383 0.024347797 14274245
-0.0083974227 0.83240783 0.024345413 14274245
-0.0079498142 0.8325519 0.024343014 14274245
-0.0075022057 0.8326959 0.02434063 14405061
-0.0070546046 0.83283997 0.024338245 14339268
-0.006240271 0.83226323 0.023718089 14339268
-0.0057911128 0.83240771 0.02371569 14405061
-0.0053419545 0.83255225 0.023713306 14470854
-0.0045213848 0.83197749 0.023093089 14405061
-0.0040706769 0.83212256 0.023090675 14405061
-0.0036199614 0.83226758 0.023088276 14405061
-0.0027931854 0.83169484 0.02246806 14405061
-0.0023409203 0.8318404 0.022465646 14405061
-0.0018886551 0.83198589 0.022463232 14405061
-0.0010556504 0.83141518 0.021842957 14405061
-0.00060182065 0.83156121 0.021840543 14339268
-0.00014800578 0.83170724 0.021838114 14339268
0.00069120526 0.83113849 0.021217838 14339268
0.0011465773 0.831285 0.021215394 14405061
0.0016019568 0.83143151 0.02121298 14339268
0.0020573288 0.83157808 0.021210551 14405061
0.0025127009 0.83172458 0.021208122 14405061
0.0033612326 0.83115888 0.020587787 14405061
0.0038181618 0.83130586 0.020585343 14339268
0.0042750835 0.83145291 0.020582899 14339268
0.0051298514 0.83088917 0.019962505 14339268
0.0055883303 0.83103669 0.019960061 14339268
0.0060468093 0.83118427 0.019957617 14274245
0.0069077834 0.83062249 0.019337222 14274245
0.007367827 0.83077049 0.019334763 14142661
0.0078278631 0.83091855 0.019332305 14208454
0.0082878992 0.83106661 0.019329861 14208454
0.0087479353 0.83121461 0.019327417 14208454
-0.028304793 0.82911366 0.027317122 13945534
-0.027863406 0.8292557 0.027314767 14142913
-0.027422018 0.82939768 0.027312413 14208706
-0.026980631 0.82953978 0.027310073 14471878
-0.026539244 0.82968175 0.027307719 14669257
-0.026097864 0.82982379 0.027305365 14669257
-0.02596131 0.83070737 0.027919039 14735050
-0.02552148 0.83084893 0.027916685 14866636
-0.025081649 0.83099043 0.027914345 14866382
-0.024641819 0.83113194 0.027912006 14932175
-0.024201982 0.8312735 0.027909651 15194577
-0.023762152 0.831415 0.027907312 15326163
-0.023322321 0.83155656 0.027904972 15062991
-0.022882484 0.83169806 0.027902618 15062991
-0.022442654 0.83183962 0.027900279 15062991
-0.022002824 0.83198112 0.027897939 14997198
-0.021562994 0.83212268 0.027895585 14931407
-0.021123163 0.83226418 0.027893245 14931407
-0.020683326 0.83240569 0.027890891 14799821
-0.020243496 0.83254725 0.027888551 14734028
-0.019803666 0.83268881 0.027886197 14602442
-0.01903569 0.83209628 0.027267709 14602442
-0.018594302 0.83223832 0.027265355 14602442
-0.018152915 0.83238029 0.027263001 14536649
-0.017711528 0.83252233 0.027260646 14536649
-0.01727014 0.83266437 0.027258292 14536649
-0.016828753 0.83280641 0.027255937 14470856
-0.016049884 0.83221734 0.026637375 14339270
-0.015606947 0.83235991 0.026635006 14274247
-0.01516401 0.83250242 0.026632652 14340040
-0.014721073 0.83264494 0.026630297 14340038
-0.014278129 0.83278751 0.026627928 14340038
-0.013489954 0.83220148 0.026009336 14340038
-0.01304546 0.83234453 0.026006952 14274245
-0.012600966 0.83248752 0.026004598 14274245
-0.012156472 0.83263057 0.026002213 14274245
-0.011711977 0.83277357 0.025999844 14405061
-0.011267476 0.83291662 0.025997475 14536647
-0.010468416 0.8323341 0.025378823 14405061
-0.010022372 0.83247763 0.025376439 14405061
-0.0095763281 0.83262116 0.02537407 14405061
-0.0087710395 0.83204067 0.024755344 14405061
-0.0083234385 0.83218467 0.02475296 14405061
-0.0078758299 0.83232868 0.024750575 14405061
-0.0074282214 0.83247274 0.024748191 14405061
-0.0069806203 0.83261681 0.024745807 14339268
-0.006166026 0.83203924 0.024127066 14339268
-0.0057168677 0.83218378 0.024124667 14405061
-0.0052677169 0.83232832 0.024122268 14470854
-0.0044468865 0.83175278 0.023503467 14470854
-0.0039961711 0.83189785 0.023501068 14405061
-0.0035454631 0.83204281 0.023498669 14405061
-0.0027184263 0.8314693 0.022879854 14405061
-0.0022661611 0.83161485 0.022877455 14405061
-0.001813896 0.83176041 0.022875041 14405061
-0.00098063797 0.83118886 0.022256181 14405061
-0.0005268082 0.83133489 0.022253767 14339268
-7.2993338e-05 0.83148092 0.022251338 14339268
0.00076647848 0.8309114 0.021632463 14405061
0.0012218505 0.83105797 0.021630034 14405061
0.0016772225 0.83120447 0.021627605 14405061
0.002132602 0.83135104 0.021625176 14405061
0.0025879666 0.83149755 0.021622762 14405061
0.0034367517 0.83093107 0.021003827 14339268
0.0038936809 0.83107805 0.021001384 14339268
0.0043506101 0.8312251 0.020998955 14339268
0.0052056387 0.83066058 0.020379975 14339268
0.0056641176 0.8308081 0.020377532 14339268
0.0061225966 0.83095562 0.020375088 14405061
0.0069838241 0.83039314 0.019756094 14339268
0.0074438602 0.83054113 0.01975365 14273475
0.0079039037 0.83068919 0.019751191 14273475
0.0083639398 0.83083725 0.019748732 14339268
0.0088239759 0.83098525 0.019746289 14339268
0.0096945316 0.83042574 0.019127235 14339268
0.010156117 0.83057427 0.019124761 14273475
0.010617711 0.83072281 0.019122303 14339268
0.011079304 0.83087134 0.019119844 14339268
0.01154089 0.83101988 0.019117385 14273475
0.012002483 0.83116835 0.019114926 14273475
-0.028231837 0.82889354 0.027719036 14011327
-0.02779045 0.82903564 0.027716681 14142913
-0.027349062 0.82917762 0.027714327 14274499
-0.026907675 0.82931966 0.027711973 14406085
-0.026466288 0.82946169 0.027709618 14471878
-0.0260249 0.82960373 0.027707264 14669257
-0.025888607 0.83048809 0.028319523 14734796
-0.025448777 0.83062959 0.028317168 14866382
-0.025008947 0.83077115 0.028314829 14932175
-0.024569117 0.83091265 0.028312489 14932175
-0.024129279 0.83105421 0.028310135 15194577
-0.023689449 0.83119571 0.028307796 15326163
-0.023249619 0.83133721 0.028305456 15194577
-0.022809789 0.83147877 0.028303102 15062991
-0.022369958 0.83162034 0.028300762 15194577
-0.021930121 0.83176184 0.028298423 14997198
-0.021490291 0.83190334 0.028296068 14930892
-0.021050461 0.8320449 0.028293729 14865099
-0.020610631 0.8321864 0.028291374 14734026
-0.0201708 0.83232796 0.028289035 14602440
-0.019730963 0.83246946 0.028286681 14602442
-0.018962726 0.83187616 0.027669609 14602442
-0.018521346 0.8320182 0.027667269 14602442
-0.018079959 0.83216023 0.027664915 14602442
-0.017638572 0.83230227 0.02766256 14602442
-0.017197184 0.83244431 0.027660206 14536649
-0.016755797 0.83258635 0.027657852 14470856
-0.015976675 0.83199656 0.02704069 14405063
-0.01553373 0.83213907 0.027038321 14470856
-0.015090793 0.83228159 0.027035967 14470856
-0.014647856 0.8324241 0.027033612 14470856
-0.014204912 0.83256662 0.027031243 14536649
-0.013416477 0.83197987 0.026414052 14536647
-0.01297199 0.83212286 0.026411682 14470854
-0.012527496 0.83226591 0.026409313 14405061
-0.012083001 0.83240891 0.026406944 14405061
-0.0116385 0.83255196 0.026404575 14405061
-0.011194013 0.83269501 0.026402205 14470854
-0.010394692 0.83211172 0.025784969 14405061
-0.0099486411 0.83225524 0.025782585 14405061
-0.0095025972 0.83239877 0.025780216 14405061
-0.0086970478 0.83181751 0.02516292 14405061
-0.0082494467 0.83196151 0.025160521 14405061
-0.0078018457 0.83210552 0.025158137 14470854
-0.0073542371 0.83224958 0.025155753 14405061
-0.0069066361 0.83239359 0.025153369 14339268
-0.006091781 0.8318153 0.024536043 14405061
-0.0056426302 0.83195984 0.024533644 14470854
-0.0051934719 0.83210438 0.024531245 14470854
-0.0043723807 0.83152807 0.023913875 14470854
-0.0039216727 0.83167309 0.023911461 14405061
-0.0034709647 0.8318181 0.023909062 14405061
-0.0026436746 0.83124387 0.023291662 14405061
-0.0021914095 0.83138937 0.023289263 14405061
-0.0017391443 0.83153486 0.023286849 14405061
-0.00090562552 0.8309626 0.022669405 14405061
-0.00045179576 0.83110863 0.022666976 14339268
2.0191073e-06 0.83125466 0.022664562 14339268
0.00084174424 0.83068436 0.022047102 14339268
0.0012971237 0.83083093 0.022044674 14405061
0.0017524883 0.83097744 0.022042245 14339268
0.0022078678 0.83112395 0.022039816 14339268
0.0026632324 0.83127052 0.022037387 14339268
0.0035122856 0.8307032 0.021419883 14405061
0.0039692149 0.83085024 0.021417439 14405061
0.0044261366 0.83099729 0.02141501 14405061
0.0052814186 0.83043194 0.020797446 14339268
0.0057399049 0.83057952 0.020795003 14339268
0.0061983839 0.83072704 0.020792559 14470854
0.0070598647 0.83016372 0.02017498 14405061
0.0075199008 0.83031178 0.020172521 14339268
0.0079799443 0.83045983 0.020170078 14339268
0.0084399804 0.83060783 0.020167619 14339268
0.0089000165 0.83075589 0.020165175 14339268
0.0097708255 0.83019555 0.019547522 14339268
0.010232411 0.83034408 0.019545063 14339268
0.010694005 0.83049262 0.019542605 14339268
0.011155598 0.83064115 0.019540146 14273475
0.011617184 0.83078969 0.019537687 14141889
0.012078777 0.83093822 0.019535229 14339268
-0.0284549 0.82941961 0.028734073 14011327
-0.02801507 0.82956111 0.028731734 14142913
-0.027575232 0.82970268 0.028729379 14274499
-0.027135402 0.82984418 0.02872704 14340292
-0.026695572 0.82998574 0.0287247 14603210
-0.026255742 0.83012724 0.028722346 14800589
-0.026121259 0.83101189 0.029333219 14800589
-0.025682978 0.83115292 0.029330879 14866382
-0.025244705 0.83129394 0.02932854 14932175
-0.024806425 0.83143497 0.029326215 15063761
-0.024368152 0.83157599 0.029323876 15063761
-0.023929872 0.83171701 0.029321536 15195347
-0.023491599 0.83185804 0.029319197 15129554
-0.023053318 0.83199906 0.029316857 14932175
-0.022615038 0.83214009 0.029314533 15260370
-0.021857418 0.83154255 0.028698906 14931405
-0.021417595 0.83168405 0.028696552 14865612
-0.020977758 0.83182561 0.028694212 14799819
-0.020537928 0.83196712 0.028691873 14734026
-0.020098098 0.83210862 0.028689519 14602440
-0.01965826 0.83225018 0.028687179 14602442
-0.01921843 0.83239174 0.02868484 14602442
-0.0187786 0.83253324 0.028682485 14602442
-0.01833877 0.83267474 0.028680146 14602442
-0.01789894 0.8328163 0.028677791 14602442
-0.017459102 0.8329578 0.028675452 14470856
-0.017019272 0.83309937 0.028673097 14470856
-0.016241454 0.83250827 0.028057396 14536649
-0.015800066 0.8326503 0.028055042 14470856
-0.015358679 0.83279234 0.028052688 14470856
-0.014917299 0.83293438 0.028050333 14470856
-0.014475912 0.83307642 0.028047979 14470856
-0.014034525 0.83321846 0.028045624 14536647
-0.013245821 0.83263087 0.027429834 14470854
-0.012802877 0.83277339 0.02742748 14405061
-0.01235994 0.8329159 0.02742511 14405061
-0.011917002 0.83305848 0.027422756 14405061
-0.011474058 0.83320093 0.027420387 14470854
-0.010676049 0.83261639 0.026804566 14405061
-0.010231547 0.83275944 0.026802197 14405061
-0.0097870529 0.83290243 0.026799828 14405061
-0.0089828148 0.83231992 0.026183978 14405061
-0.0085367635 0.83246344 0.026181594 14405061
-0.0080907196 0.83260697 0.026179224 14536647
-0.0076446757 0.8327505 0.02617684 14470854
-0.0071986243 0.83289403 0.026174471 14405061
-0.006752573 0.83303756 0.026172087 14405061
-0.0059374496 0.8324585 0.025556147 14339268
-0.0054898486 0.8326025 0.025553763 14339268
-0.0046700761 0.83202493 0.024937823 14405061
-0.0042209178 0.83216947 0.024935439 14405061
-0.0037717596 0.83231401 0.02493304 14405061
-0.002945751 0.83173847 0.024317041 14405061
-0.002495043 0.83188343 0.024314642 14339268
-0.0020443276 0.83202851 0.024312243 14405061
-0.0015936196 0.83217353 0.024309844 14339268
-0.0011429042 0.83231854 0.024307445 14339268
-0.00069219619 0.83246356 0.024305031 14339268
0.00014467537 0.83189154 0.023689002 14339268
0.00059694052 0.83203703 0.023686603 14339268
0.0010491982 0.83218259 0.023684189 14405061
0.0018923059 0.83161247 0.0230681 14339268
0.0023461208 0.8317585 0.023065686 14273475
0.0031938776 0.83118999 0.022449598 14405061
0.0036492571 0.8313365 0.022447169 14405061
0.0041046292 0.83148301 0.02244474 14405061
0.0049585924 0.83091646 0.021828622 14405061
0.0054155216 0.83106351 0.021826193 14339268
0.0058724508 0.83121055 0.021823749 14470854
0.0063293725 0.8313576 0.021821305 14405061
0.0067862943 0.83150458 0.021818876 14405061
0.0072432309 0.83165163 0.021816447 14339268
0.0081080943 0.83108854 0.021200255 14339268
0.0085665733 0.83123612 0.021197811 14339268
0.0090250596 0.83138359 0.021195367 14339268
0.0094835386 0.83153117 0.021192923 14405061
0.0099420175 0.83167869 0.021190464 14273475
0.010816194 0.83111858 0.020574242 14339268
0.011276238 0.83126664 0.020571783 14273475
0.011736266 0.8314147 0.020569339 14339268
0.012196302 0.8315627 0.020566881 14339268
0.012656339 0.83171076 0.020564422 14339268
0.013116367 0.83185875 0.020561978 14339268
0.014001437 0.83130217 0.019945666 14339268
0.014463015 0.8314507 0.019943208 14405061
0.014924623 0.83159924 0.019940749 14339268
0.015815891 0.83104473 0.019324437 14339268
0.016279034 0.83119375 0.019321963 14141889
0.016742177 0.83134282 0.01931949 14339268
-0.028382197 0.82920033 0.029134557 14011327
-0.027942367 0.82934183 0.029132217 14142913
-0.027502537 0.82948339 0.029129863 14274499
-0.027062707 0.82962489 0.029127523 14340292
-0.026622877 0.82976639 0.029125184 14603464
-0.026183039 0.82990795 0.029122829 14735050
-0.026048817 0.83079338 0.029732287 14800589
-0.025610536 0.83093441 0.029729947 14866382
-0.025172263 0.83107543 0.029727608 14932175
-0.024733983 0.83121645 0.029725268 15063761
-0.024295703 0.83135748 0.029722944 15063761
-0.02385743 0.8314985 0.029720604 15129554
-0.023419149 0.83163953 0.029718265 15129554
-0.022980869 0.83178055 0.029715925 15063761
-0.022542596 0.83192158 0.029713586 15194577
-0.021784723 0.83132327 0.02909939 14931405
-0.021344893 0.83146477 0.029097036 14931405
-0.020905055 0.83160627 0.029094696 14799819
-0.020465232 0.83174783 0.029092357 14734026
-0.020025395 0.83188939 0.029090002 14602440
-0.019585565 0.83203089 0.029087663 14602442
-0.019145735 0.83217239 0.029085323 14602442
-0.018705897 0.83231395 0.029082969 14602442
-0.018266067 0.83245546 0.029080629 14602442
-0.017826237 0.83259702 0.029078275 14536649
-0.017386399 0.83273852 0.029075935 14470856
-0.016946577 0.83288002 0.029073581 14470856
-0.016168498 0.83228821 0.028459296 14536649
-0.01572711 0.83243024 0.028456941 14536649
-0.015285723 0.83257228 0.028454587 14470856
-0.014844343 0.83271432 0.028452232 14470856
-0.014402956 0.8328563 0.028449878 14470856
-0.013961568 0.83299839 0.028447524 14470856
-0.013172604 0.83240998 0.027833149 14405063
-0.012729667 0.83255255 0.027830794 14470854
-0.01228673 0.83269507 0.027828425 14470854
-0.011843786 0.83283758 0.027826056 14405061
-0.011400849 0.83298016 0.027823702 14405061
-0.010602571 0.83239478 0.027209297 14470854
-0.010158077 0.83253783 0.027206928 14405061
-0.0097135827 0.83268082 0.027204558 14470854
-0.0089090839 0.83209753 0.026590124 14405061
-0.00846304 0.83224106 0.02658774 14470854
-0.0080169961 0.83238459 0.026585355 14536647
-0.0075709447 0.83252811 0.026582986 14405061
-0.0071248934 0.83267164 0.026580602 14405061
-0.006678842 0.83281517 0.026578233 14405061
-0.0058634654 0.83223534 0.025963709 14405061
-0.0054158643 0.83237934 0.025961325 14405061
-0.004595831 0.831801 0.025346801 14405061
-0.0041466728 0.83194554 0.025344416 14405061
-0.003697522 0.83209008 0.025342017 14405061
-0.0028712526 0.8315137 0.024727434 14339268
-0.0024205446 0.83165872 0.024725035 14339268
-0.0019698367 0.8318038 0.024722636 14339268
-0.0015191212 0.83194882 0.024720237 14273475
-0.0010684058 0.83209383 0.024717823 14339268
-0.00061769783 0.83223885 0.024715424 14339268
0.00021942705 0.83166599 0.02410081 14339268
0.00067169219 0.83181155 0.024098396 14339268
0.0011239573 0.8319571 0.024095997 14405061
0.0019673184 0.83138621 0.023481324 14339268
0.0024211332 0.83153224 0.02347891 14273475
0.0032691509 0.83096296 0.022864237 14339268
0.0037245229 0.83110946 0.022861809 14405061
0.0041799024 0.83125603 0.02285938 14470854
0.0050341114 0.83068866 0.022244677 14405061
0.0054910406 0.8308357 0.022242233 14339268
0.0059479699 0.83098269 0.022239804 14405061
0.0064048991 0.83112979 0.022237375 14405061
0.0068618283 0.83127677 0.022234932 14405061
0.0073187575 0.83142382 0.022232488 14339268
0.0081838742 0.83085996 0.021617711 14405061
0.0086423531 0.83100748 0.021615267 14339268
0.0091008395 0.83115506 0.021612823 14339268
0.0095593259 0.83130252 0.021610379 14405061
0.010017805 0.8314501 0.021607935 14273475
0.010892235 0.83088923 0.020993128 14273475
0.011352278 0.83103728 0.02099067 14273475
0.011812307 0.83118534 0.020988211 14339268
0.012272343 0.83133334 0.020985767 14339268
0.012732379 0.83148134 0.020983309 14339268
0.013192423 0.8316294 0.02098085 14405061
0.01407773 0.83107209 0.020365968 14339268
0.014539324 0.83122057 0.02036351 14405061
0.015000917 0.8313691 0.020361051 14273475
0.015892439 0.83081377 0.01974614 14273477
0.016355582 0.83096284 0.019743666 14273477
0.016818725 0.83111185 0.019741207 14273475
0.017716475 0.83055848 0.019126251 14339268
0.018181182 0.83070803 0.019123778 14339268
0.018645875 0.83085757 0.019121289 14141889
0.019110568 0.83100712 0.019118816 14273475
0.019575275 0.83115661 0.019116342 14339268
-0.028309502 0.82898104 0.02953504 13879741
-0.027869664 0.82912254 0.029532701 14142913
-0.027429834 0.82926404 0.029530361 14274499
-0.026990004 0.82940561 0.029528007 14406085
-0.026550174 0.82954711 0.029525667 14800073
-0.026110344 0.82968867 0.029523328 14997452
-0.025976375 0.83057487 0.030131355 14931659
-0.025538094 0.83071589 0.030129015 14997452
-0.025099814 0.83085692 0.030126691 15062991
-0.024661541 0.83099794 0.030124351 15194577
-0.024223261 0.83113897 0.030122012 15194577
-0.023784988 0.83127999 0.030119672 15194577
-0.023346707 0.83142102 0.030117333 15260370
-0.022908427 0.83156204 0.030114993 15194577
-0.022470154 0.83170307 0.030112669 15194577
-0.02171202 0.83110392 0.029499874 14931405
-0.02127219 0.83124548 0.029497519 14865612
-0.02083236 0.83138698 0.02949518 14865612
-0.02039253 0.83152854 0.02949284 14603210
-0.019952692 0.83167005 0.029490486 14471624
-0.019512862 0.83181155 0.029488146 14471626
-0.019073032 0.83195311 0.029485807 14471626
-0.018633194 0.83209467 0.029483452 14734028
-0.018193372 0.83223617 0.029481113 14602442
-0.017753534 0.83237767 0.029478773 14602442
-0.017313704 0.83251923 0.029476419 14470856
-0.016873874 0.83266079 0.02947408 14470856
-0.016095541 0.83206815 0.028861195 14536649
-0.015654154 0.83221018 0.02885884 14470856
-0.015212767 0.83235222 0.028856486 14470856
-0.014771387 0.83249426 0.028854132 14470856
-0.01433 0.83263624 0.028851777 14470856
-0.013888612 0.83277828 0.028849423 14470856
-0.013099395 0.83218914 0.028236464 14405063
-0.01265645 0.83233166 0.028234109 14470854
-0.012213513 0.83247423 0.02823174 14470854
-0.011770569 0.83261675 0.028229386 14405061
-0.011327632 0.83275926 0.028227016 14405061
-0.010529108 0.83217317 0.027614027 14470854
-0.010084607 0.83231616 0.027611658 14470854
-0.0096401125 0.83245921 0.027609289 14470854
-0.0088353604 0.83187509 0.02699627 14470854
-0.0083893165 0.83201861 0.026993886 14405061
-0.0079432651 0.83216214 0.026991501 14470854
-0.0074972138 0.83230567 0.026989132 14470854
-0.0070511624 0.83244926 0.026986748 14470854
-0.0066051185 0.83259279 0.026984379 14405061
-0.0057894811 0.83201218 0.02637127 14405061
-0.00534188 0.83215618 0.026368886 14339268
-0.004521586 0.83157706 0.025755778 14405061
-0.0040724352 0.8317216 0.025753379 14405061
-0.0036232769 0.83186615 0.025750995 14405061
-0.0027967542 0.83128899 0.025137827 14339268
-0.0023460463 0.83143401 0.025135428 14339268
-0.0018953308 0.83157903 0.025133029 14339268
-0.0014446229 0.83172405 0.025130615 14273475
-0.00099390745 0.83186913 0.025128216 14273475
-0.00054319948 0.83201414 0.025125816 14339268
0.00029418617 0.83144051 0.024512619 14339268
0.00074645132 0.83158606 0.024510205 14339268
0.0011987165 0.83173156 0.024507791 14339268
0.0020423308 0.83115995 0.023894548 14339268
0.0024961457 0.83130598 0.02389212 14339268
0.0033444241 0.83073592 0.023278877 14405061
0.0037997887 0.83088243 0.023276448 14405061
0.0042551681 0.83102894 0.023274019 14405061
0.0051096454 0.83046085 0.022660717 14405061
0.0055665746 0.83060789 0.022658288 14339268
0.0060235038 0.83075488 0.02265586 14405061
0.0064804256 0.83090192 0.022653416 14405061
0.0069373474 0.83104897 0.022650972 14405061
0.007394284 0.83119601 0.022648543 14339268
0.0082596615 0.83063138 0.022035167 14339268
0.0087181404 0.8307789 0.022032723 14339268
0.0091766194 0.83092642 0.022030279 14339268
0.0096351057 0.831074 0.022027835 14405061
0.010093585 0.83122146 0.022025391 14339268
0.010968275 0.83065987 0.021412 14273475
0.011428319 0.83080792 0.021409556 14273475
0.011888348 0.83095592 0.021407098 14339268
0.012348384 0.83110398 0.021404639 14339268
0.01280842 0.83125198 0.021402195 14339268
0.013268448 0.83140004 0.021399736 14405061
0.014154024 0.8308419 0.02078627 14339268
0.014615618 0.83099043 0.020783797 14339268
0.015077211 0.83113897 0.020781338 14273475
0.015968986 0.83058286 0.020167857 14273477
0.016432144 0.83073187 0.020165384 14273477
0.016895287 0.83088094 0.02016291 14273477
0.01779329 0.8303268 0.01954937 14339270
0.018257983 0.83047634 0.019546896 14339268
0.018722691 0.83062589 0.019544423 14273475
0.019187383 0.83077538 0.019541934 14273475
0.019652076 0.83092493 0.019539461 14339268
-0.028533593 0.82951015 0.030544445 13879741
-0.028095312 0.82965118 0.030542105 14011327
-0.027657039 0.8297922 0.030539766 14274499
-0.027218759 0.82993323 0.030537441 14471878
-0.026780486 0.83007425 0.030535102 14734280
-0.026342206 0.83021528 0.030532762 14931659
-0.025903925 0.8303563 0.030530423 15062732
