# .PCD v0.7 - Point Cloud Data file format
VERSION 0.7
FIELDS x y z rgb
SIZE 4 4 4 4
TYPE F F F U
COUNT 1 1 1 1
WIDTH 1095
HEIGHT 1
VIEWPOINT 0 0 0 1 0 0 0
POINTS 1095
DATA ascii
0.053339317 0.82607067 0.069495648 16373182
0.053499252 0.82570761 0.069492966 16110010
0.053659171 0.8253445 0.069490284 16306106
0.054534003 0.8254413 0.07003434 16306106
0.054693267 0.82507974 0.070031673 16436922
0.054852545 0.82471818 0.070028991 16371129
0.055011809 0.82435662 0.070026308 16173750
0.055171087 0.82399499 0.070023641 16173750
0.055330351 0.82363343 0.070020959 16239543
0.055489615 0.82327187 0.070018277 16042164
0.055648878 0.82291031 0.070015609 15845555
0.056517795 0.82302058 0.07055977 15713969
0.056676403 0.82266045 0.070557103 15648176
0.056835011 0.82230037 0.070554435 15582383
0.056993619 0.8219403 0.070551768 15385517
0.057152227 0.82158023 0.070549116 15517103
0.057310849 0.82122016 0.070546448 15319978
0.057469457 0.82086003 0.070543781 15254185
0.057628065 0.82050002 0.070541114 14662818
0.057786673 0.82013988 0.070538446 14531232
0.057945281 0.81977981 0.070535779 14137501
0.057400838 0.81893295 0.069986165 14071708
0.057560101 0.81857139 0.069983482 13743513
0.05771938 0.81820983 0.069980815 13546134
0.057878643 0.81784821 0.069978133 13282962
0.058037907 0.81748664 0.069975451 12953997
0.058197185 0.81712508 0.069972783 12756618
0.058356449 0.81676352 0.069970101 12361860
0.058515713 0.81640196 0.069967434 11506551
0.057977185 0.81554163 0.069417715 11572344
0.058137119 0.81517857 0.069415018 11177586
0.058297038 0.81481552 0.069412336 11177586
0.058456972 0.81445241 0.069409654 11177586
0.058616892 0.81408936 0.069406956 11177586
0.058776826 0.81372631 0.069404274 11177586
0.058242902 0.81285554 0.068854481 11309172
0.058403492 0.812491 0.068851784 11309172
0.058564067 0.8121264 0.068849087 11374965
0.058032796 0.81124973 0.068299264 11439988
0.058194041 0.81088364 0.068296552 11308402
0.058355287 0.81051755 0.06829384 11439988
0.058516532 0.81015152 0.068291128 11439988
0.058677778 0.80978549 0.068288416 11505781
0.058150426 0.80889976 0.067738518 11505781
0.058312342 0.80853224 0.067735791 11439988
0.058474228 0.80816472 0.067733079 11439988
0.058636144 0.80779713 0.067730352 11505779
0.05879803 0.80742955 0.067727625 11571572
0.058959946 0.80706203 0.067724913 11505779
0.058437213 0.80616587 0.067174941 11505779
0.05859977 0.80579686 0.067172199 11505779
0.058762327 0.80542779 0.067169473 11439986
0.058242232 0.80452567 0.066619441 11439986
0.058405444 0.80415511 0.066616699 11439986
0.057887316 0.80324852 0.066066653 11439988
0.058051199 0.80287647 0.066063896 11505781
0.058215067 0.80250442 0.066061139 11439988
0.057699591 0.80159187 0.065511048 11308402
0.05786413 0.80121833 0.065508276 11308402
0.058028668 0.80084479 0.06550552 11439988
0.058193192 0.80047125 0.065502748 11308402
0.058357731 0.8000977 0.065499976 11308402
0.058522269 0.79972422 0.06549722 11439474
0.058011368 0.79880118 0.064947039 11439474
0.058176562 0.79842615 0.064944252 11439472
0.058341756 0.79805112 0.064941481 11373679
0.058506936 0.79767609 0.064938709 11439472
0.05867213 0.79730105 0.064935938 11373679
0.058165208 0.79636908 0.064385682 11439472
0.058331057 0.79599255 0.064382896 11439472
0.058496907 0.79561603 0.064380109 11439472
0.057992592 0.79467803 0.063829824 11373679
0.058159098 0.79430002 0.063827023 11307886
0.058325604 0.79392201 0.063824221 11373679
0.057823956 0.79297805 0.063273892 11373679
0.057991117 0.79259855 0.06327109 11439472
0.058158293 0.79221904 0.063268274 11439726
0.057659253 0.79126912 0.062717885 11571312
0.05782707 0.79088807 0.062715068 11439726
0.057330027 0.78993368 0.062164664 11571312
0.0574985 0.7895512 0.062161833 11571058
0.057666987 0.78916872 0.062159002 11571058
0.057835475 0.78878617 0.062156171 11571058
0.058003947 0.78840369 0.062153339 11636851
0.058172435 0.78802121 0.062150508 11571058
0.057679981 0.78705633 0.061600029 11571058
0.057849124 0.78667235 0.061597183 11636851
0.058018252 0.78628838 0.061594352 11636851
0.057528436 0.78531754 0.061043814 11768691
0.057698235 0.78493202 0.061040953 11768691
0.057868034 0.78454655 0.061038107 11702898
0.058037832 0.78416109 0.061035246 11637105
0.058207631 0.78377557 0.0610324 11571312
0.057721764 0.78279579 0.060481802 11439726
0.057892218 0.78240877 0.060478926 11571058
0.058062688 0.78202182 0.060476065 11307886
0.057579428 0.78103602 0.059925422 10717033
0.057750538 0.78064752 0.059922546 10453861
0.057921663 0.78025907 0.05991967 9993310
0.058092773 0.77987063 0.059916794 9598552
0.058263883 0.77948213 0.059913918 9797475
0.058435008 0.77909368 0.059911042 10323819
0.057956383 0.77809739 0.05936034 10721155
0.058128148 0.77770746 0.059357449 12037015
0.057651475 0.7767067 0.058806673 11906967
0.057823911 0.77631521 0.058803782 12499104
0.057996348 0.77592379 0.058800876 12499356
0.057522327 0.77491707 0.058250099 11841426
0.057695419 0.77452409 0.058247179 10588792
0.057868496 0.77413118 0.058244273 8746588
0.057397112 0.7731185 0.057693452 8744537
0.05757086 0.77272403 0.057690531 8612951
0.057744607 0.77232957 0.05768761 9663325
0.057275847 0.77131093 0.0571367 9926497
0.05745025 0.77091497 0.057133764 10386534
0.057624653 0.77051902 0.057130843 10452327
0.05715853 0.76949441 0.056579918 10715497
0.057333604 0.76909697 0.056576982 10847083
0.056869432 0.76806784 0.056026012 10912617
0.057045147 0.7676689 0.056023061 10978410
0.057220861 0.76726997 0.056020111 11044203
0.056759357 0.76623487 0.055469096 11044203
0.056935742 0.76583445 0.05546613 11306605
0.057112113 0.76543403 0.055463165 11306605
0.057288498 0.7650336 0.0554602 11175019
0.057464883 0.76463318 0.055457234 11175019
0.057641253 0.76423275 0.055454269 11306605
0.057184339 0.76318717 0.054903179 11306605
0.057361379 0.76278532 0.054900214 11175019
0.055013463 0.75561845 0.05158709 11306603
0.055194452 0.75520754 0.05158405 11306603
0.055375442 0.75479668 0.05158101 11306603
0.055556431 0.75438583 0.05157797 11306603
0.055737421 0.75397491 0.051574931 11175019
0.05591841 0.753564 0.051571891 11109226
0.056099385 0.75315315 0.051568851 11175017
0.05565761 0.75207323 0.051017508 11175017
0.055839241 0.75166082 0.051014453 11175017
0.056020886 0.75124848 0.051011398 11109224
0.056202531 0.75083607 0.051008344 11109224
0.056384176 0.75042373 0.051005289 11109224
0.056565821 0.75001132 0.051002234 11109224
0.056128666 0.74892098 0.050450832 11109224
0.056310967 0.74850708 0.050447762 11175017
0.056493267 0.74809325 0.050444707 11109224
0.051719576 0.8292563 0.069863841 16776419
0.05187951 0.82889318 0.069861159 16776423
0.05203943 0.82853013 0.069858462 16776423
0.052199364 0.82816708 0.069855779 16776161
0.052359283 0.82780397 0.069853097 16575955
0.052519217 0.82744092 0.0698504 16638151
0.052679136 0.82707787 0.069847718 16243393
0.052839071 0.82671475 0.069845036 16438205
0.05299899 0.8263517 0.069842339 16240826
0.053158924 0.82598865 0.069839656 16305590
0.053318843 0.8256256 0.069836959 16239797
0.053478777 0.82526255 0.069834277 16370869
0.054354355 0.82535964 0.070376933 16305076
0.054513618 0.82499808 0.07037425 16370869
0.054672882 0.82463652 0.070371583 16370869
0.054832146 0.8242749 0.070368901 16173490
0.054991424 0.82391334 0.070366219 16305076
0.055150688 0.82355177 0.070363551 16370869
0.055309951 0.82319021 0.070360869 16305076
0.05546923 0.82282865 0.070358187 16107697
0.056338876 0.82293922 0.070900947 16107697
0.056497484 0.82257915 0.07089828 15845039
0.056656092 0.82221901 0.070895612 15845039
0.0568147 0.82185894 0.070892945 15779246
0.056973323 0.82149887 0.070890278 15779246
0.057131931 0.8211388 0.07088761 15648430
0.057290539 0.82077873 0.070884943 15648430
0.057449147 0.82041866 0.070882276 15582637
0.057607755 0.82005858 0.070879623 15385258
0.057766363 0.81969845 0.070876956 15188392
0.057221174 0.81885129 0.070328757 14925220
0.057380438 0.81848973 0.070326075 14531745
0.057539716 0.81812811 0.070323393 14531745
0.05769898 0.81776655 0.070320725 14137501
0.057858244 0.81740499 0.070318043 14005915
0.058017522 0.81704342 0.070315361 13349268
0.058176786 0.81668186 0.070312694 13217682
0.058336049 0.8163203 0.070310012 12822924
0.057796791 0.81545961 0.069761708 12757131
0.05795671 0.81509656 0.069759026 12296067
0.058116645 0.81473351 0.069756344 11374965
0.058276564 0.81437045 0.069753647 11374965
0.058436498 0.81400734 0.069750965 11309172
0.058596417 0.81364429 0.069748268 11111793
0.058061764 0.81277323 0.069199905 11177586
0.058222339 0.81240863 0.069197208 11177586
0.058382928 0.81204408 0.069194511 11374965
0.057850912 0.811167 0.068646088 11439988
0.058012158 0.81080097 0.068643376 11308402
0.058173403 0.81043494 0.068640664 11439988
0.058334634 0.81006885 0.068637967 11439988
0.058495879 0.80970275 0.068635255 11505781
0.057967797 0.80881679 0.068086758 11505781
0.058129698 0.80844921 0.068084046 11308402
0.058291599 0.80808163 0.068081319 11505781
0.0584535 0.8077141 0.068078592 11505781
0.058615401 0.80734658 0.06807588 11571574
0.058777303 0.806979 0.068073153 11505781
0.05825384 0.80608249 0.067524597 11505781
0.058416396 0.80571347 0.06752187 11439988
0.058578953 0.8053444 0.067519128 11439988
0.058058113 0.80444193 0.066970527 11439988
0.058221325 0.80407143 0.066967785 11505781
0.057702467 0.80316448 0.06641914 11505527
0.057866335 0.80279243 0.066416383 11505527
0.058030218 0.80242038 0.066413626 11505527
0.057513997 0.80150747 0.06586495 11308148
0.057678536 0.80113393 0.065862194 11570806
0.057843059 0.80076039 0.065859422 11570806
0.058007598 0.80038691 0.06585665 11439474
0.058172122 0.80001336 0.065853894 11439474
0.05833666 0.79963982 0.065851122 11373681
0.057825029 0.79871643 0.065302357 11439474
0.057990208 0.79834139 0.065299585 11439472
0.058155403 0.79796636 0.065296814 11439472
0.058320597 0.79759139 0.065294027 11373679
0.058485791 0.79721636 0.065291256 11373679
0.057978123 0.79628402 0.064742431 11439472
0.058143973 0.7959075 0.064739645 11439472
0.058309823 0.79553097 0.064736858 11373681
0.057804763 0.79459262 0.064187974 11307888
0.057971269 0.79421461 0.064185172 11307886
0.058137789 0.79383665 0.064182371 11373679
0.057635382 0.79289234 0.063633472 11373679
0.057802543 0.79251283 0.063630655 11439472
0.057969719 0.79213333 0.063627854 11439472
0.057469934 0.79118305 0.063078865 11439472
0.057637766 0.790802 0.063076049 11439472
0.057139978 0.78984725 0.062527075 11439472
0.05730845 0.78946483 0.062524244 11439472
0.057476938 0.78908229 0.062521413 11439472
0.05764541 0.78869981 0.062518582 11439472
0.057813898 0.78831732 0.062515751 11571058
0.057982385 0.78793484 0.062512919 11439472
0.057489172 0.7869696 0.061963856 11439472
0.057658315 0.78658563 0.06196101 11571058
0.057827458 0.78620166 0.061958164 11636851
0.057336897 0.7852304 0.061409041 11702898
0.057506695 0.78484493 0.061406195 11702898
0.057676494 0.78445947 0.061403334 11637105
0.057846293 0.78407395 0.061400488 11637105
0.058016092 0.78368855 0.061397627 11571312
0.057529494 0.78270835 0.060848445 11571312
0.057699934 0.78232139 0.060845584 11834230
0.057870403 0.78193438 0.060842723 11702644
0.057386413 0.78094828 0.060293481 11637105
0.057557508 0.78055978 0.060290605 11637105
0.057728633 0.78017133 0.060287729 11571312
0.057899743 0.77978289 0.060284853 10913382
0.058070853 0.77939439 0.060281977 10650724
0.058241978 0.77900589 0.060279101 10519138
0.057762608 0.7780093 0.059729815 10387816
0.057934389 0.77761936 0.059726924 10124644
0.05745697 0.77661824 0.059177577 10193007
0.057629392 0.77622682 0.059174672 11179902
0.057801828 0.77583539 0.059171781 12496787
0.057327077 0.77482831 0.058622405 12759959
0.057500169 0.7744354 0.058619499 12367254
0.057673246 0.77404243 0.058616593 12762012
0.057201132 0.77302939 0.058067173 12170650
0.05737488 0.77263492 0.058064252 10920583
0.057548627 0.77224052 0.058061332 9271905
0.057079107 0.77122152 0.057511851 8285010
0.05725351 0.77082556 0.057508916 9269852
0.057427913 0.77042961 0.05750598 9533024
0.056961045 0.76940465 0.056956485 10123874
0.057136118 0.76900721 0.056953534 10321253
0.056671202 0.76797771 0.05640398 10715499
0.056846932 0.76757878 0.056401029 10715499
0.057022646 0.76717985 0.056398079 10715499
0.056560397 0.76614439 0.055848479 10847085
0.056736782 0.76574397 0.055845514 10912363
0.056913152 0.76534361 0.055842564 10912363
0.057089522 0.76494318 0.055839598 10978410
0.057265922 0.76454276 0.055836633 11044203
0.057442293 0.76414233 0.055833668 11044203
0.056984633 0.76309639 0.055283993 11175789
0.057161674 0.76269448 0.055281013 11044203
0.054809317 0.75552559 0.051976398 11175787
0.054990292 0.75511479 0.051973358 11241580
0.055171281 0.75470388 0.051970318 11175017
0.055352271 0.75429296 0.051967278 11175017
0.05553326 0.75388211 0.051964223 11175017
0.05571425 0.75347126 0.051961184 11175017
0.055895224 0.75306034 0.051958144 11175017
0.05545269 0.75198007 0.051408216 11175017
0.055634335 0.75156772 0.051405162 11175017
0.05581598 0.75115532 0.051402107 11175017
0.055997625 0.75074291 0.051399052 11109224
0.05617927 0.75033057 0.051396012 11109224
0.056360915 0.74991822 0.051392958 10978408
0.055923015 0.74882746 0.050842971 11044201
0.056105316 0.74841362 0.050839901 11044201
0.056287631 0.74799973 0.050836831 10978408
0.051539183 0.82917428 0.070207849 16777196
0.051699102 0.82881117 0.070205152 16776936
0.051859036 0.82844812 0.07020247 16578529
0.052018955 0.82808506 0.070199773 16638666
0.052178875 0.82772195 0.070197091 16046529
0.052338809 0.8273589 0.070194408 16504252
0.052498743 0.82699585 0.070191711 16175287
0.052658662 0.8266328 0.070189029 16370869
0.052818581 0.82626969 0.070186347 16502455
0.052978516 0.82590663 0.07018365 16436149
0.053138435 0.82554358 0.070180967 16436149
0.053298369 0.82518053 0.070178285 16370356
0.054174691 0.82527798 0.07071951 16370356
0.054333955 0.82491642 0.070716843 16370356
0.054493219 0.8245548 0.070714161 16370356
0.054652497 0.82419324 0.070711479 16173490
0.054811761 0.82383168 0.070708811 16305076
0.054971024 0.82347012 0.070706129 16305074
0.055130288 0.82310855 0.070703447 16305074
0.055289567 0.82274693 0.07070078 16370354
0.056159958 0.82285786 0.071242109 16172975
0.056318566 0.82249779 0.071239442 16041904
0.056477174 0.82213771 0.071236774 16041904
0.056635782 0.82177764 0.071234107 15976111
0.05679439 0.82141757 0.071231455 15976111
0.056953013 0.82105744 0.071228787 15845039
0.057111621 0.82069737 0.07122612 15779246
0.057270229 0.8203373 0.071223453 15779246
0.057428837 0.81997722 0.071220785 15713453
0.057587445 0.81961715 0.071218118 15451051
0.057041511 0.81876963 0.070671335 15385258
0.057200775 0.81840801 0.070668653 15319465
0.057360053 0.81804645 0.070665985 15122086
0.057519317 0.81768489 0.070663303 14991529
0.057678595 0.81732333 0.070660621 14728357
0.057837859 0.81696177 0.070657954 14138017
0.057997122 0.81660014 0.070655271 13743259
0.058156386 0.81623858 0.070652589 13612186
0.057616383 0.81537765 0.070105717 13217428
0.057776302 0.81501454 0.070103019 13020049
0.057936236 0.81465149 0.070100337 12888463
0.058096156 0.81428844 0.070097655 12822924
0.05825609 0.81392539 0.070094958 11836029
0.058416009 0.81356227 0.070092276 11308918
0.05788061 0.81269085 0.069545314 11177332
0.0580412 0.81232631 0.069542617 11177586
0.058201775 0.81196171 0.069539919 11374965
0.058362365 0.81159717 0.069537222 11439472
0.058522955 0.81123257 0.069534525 11439472
0.058683529 0.81086802 0.069531828 11571058
0.05815275 0.80998617 0.068984792 11571058
0.058313996 0.80962008 0.06898208 11571058
0.058475241 0.80925405 0.068979368 11571058
0.058636472 0.80888796 0.068976656 11571060
0.058797717 0.80852193 0.068973958 11636853
0.058270872 0.80763108 0.068426847 11505781
0.058432773 0.80726349 0.068424121 11571574
0.058594674 0.80689597 0.068421409 11505781
0.058070466 0.80599916 0.067874253 11439988
0.058233023 0.80563009 0.067871526 11439988
0.058395579 0.80526102 0.067868799 11439988
0.058558136 0.804892 0.067866057 11439988
0.058720693 0.80452299 0.06786333 11571574
0.058883265 0.80415392 0.067860603 11439734
0.058363646 0.80324662 0.067313373 11505527
0.058526859 0.80287611 0.067310631 11505527
0.058009237 0.80196434 0.066763371 11439734
0.058173105 0.80159229 0.066760615 11636599
0.058336988 0.80122024 0.066757873 11570806
0.058500856 0.80084825 0.066755116 11439474
0.058664724 0.80047619 0.066752359 11439474
0.058828607 0.80010414 0.066749603 11373681
0.05831559 0.79918194 0.066202268 11439474
0.058480129 0.7988084 0.066199511 11439472
0.058644667 0.79843485 0.06619674 11439472
0.058134258 0.79750669 0.06564936 11373679
0.058299452 0.79713166 0.065646574 11439472
0.058464631 0.79675663 0.065643802 11439472
0.058629826 0.79638159 0.065641031 11439472
0.05879502 0.79600656 0.065638259 11373679
0.058288589 0.79506946 0.065090805 11307886
0.058454439 0.79469287 0.065088019 11439472
0.058620289 0.79431641 0.065085232 11373679
0.058116466 0.79337323 0.064537734 11373679
0.058282971 0.79299521 0.064534932 11439472
0.058449477 0.7926172 0.064532146 11571058
0.057948306 0.79166812 0.063984618 11439472
0.058115482 0.79128861 0.063981801 11439472
0.058282644 0.79090905 0.063979 11439472
0.058449805 0.79052961 0.063976184 11439472
0.058616981 0.79015005 0.063973382 11439472
0.058119744 0.78919196 0.063425764 11373679
0.058287576 0.78881097 0.063422933 11439472
0.058455393 0.78842998 0.063420117 11439472
0.057960808 0.78746593 0.062872484 11439472
0.058129296 0.78708345 0.062869653 11571058
0.058297768 0.78670096 0.062866822 11571058
0.057805806 0.7857309 0.062319145 11636851
0.057974949 0.78534693 0.062316298 11636851
0.058144078 0.78496295 0.062313452 11637105
0.057654753 0.78398693 0.061765715 11637105
0.057824552 0.7836014 0.061762869 11571058
0.05733721 0.78262091 0.061215103 11571058
0.057507664 0.78223395 0.061212227 11702644
0.057678118 0.781847 0.061209366 11702644
0.057848573 0.78146005 0.061206505 11702898
0.058019027 0.78107303 0.061203644 11702898
0.058189496 0.78068608 0.061200768 11702898
0.057706729 0.77969509 0.060652927 11637105
0.057877839 0.77930665 0.060650051 11702898
0.058048949 0.77891815 0.060647175 11373933
0.058220074 0.7785297 0.060644299 11045228
0.058391184 0.77814126 0.060641423 10716263
0.058562294 0.77775276 0.060638547 10518886
0.05808416 0.77675134 0.060090631 10058335
0.058255941 0.77636141 0.060087755 10321507
0.057779744 0.77535546 0.05953978 10518886
0.057952181 0.77496403 0.059536874 10851447
0.058124617 0.77457255 0.059533983 11640963
0.057651088 0.7735607 0.058985993 11709840
0.05782418 0.77316773 0.058983088 12630942
0.057997271 0.77277482 0.058980167 13090725
0.057526365 0.77175695 0.058432147 12630174
0.057700112 0.77136254 0.058429226 11576716
0.05787386 0.77096808 0.058426306 10195063
0.057405576 0.76994419 0.057878196 9205088
0.057579979 0.7695483 0.057875261 7823435
0.057113692 0.76852 0.057327151 9137499
0.057288766 0.76812255 0.057324216 9598050
0.057463825 0.76772511 0.057321265 9993062
0.057000145 0.76669085 0.056773096 10190441
0.057175875 0.76629192 0.056770146 10584425
0.057351589 0.76589298 0.056767195 10650218
0.056890562 0.76485276 0.056218982 10650218
0.057066947 0.76445234 0.056216016 10781804
0.057243332 0.76405191 0.056213051 10913130
0.057419702 0.76365149 0.056210086 10913130
0.057596087 0.76325107 0.05620712 10913130
0.057772473 0.76285064 0.056204155 10913130
0.05731605 0.76179987 0.055655867 11044203
0.057493076 0.76139796 0.055652902 11175789
0.05703862 0.76034278 0.055104584 11044201
0.057216331 0.75993937 0.055101603 11044201
0.057394013 0.75953591 0.055098608 11044201
0.056312695 0.75781703 0.054004863 11044201
0.056491718 0.75741059 0.054001853 11175787
0.056670725 0.7570042 0.053998843 11241580
0.056222185 0.75593555 0.053450435 10978408
0.056401864 0.75552768 0.053447425 10978408
0.055955306 0.75445449 0.052898958 11175017
0.05613564 0.75404513 0.052895933 11175017
0.056315973 0.75363576 0.052892908 11175017
0.055872053 0.75255668 0.052344397 11175017
0.056053042 0.75214577 0.052341357 11175017
0.056234032 0.75173485 0.052338317 11306603
0.056415007 0.751324 0.052335277 10978408
0.056595996 0.75091314 0.052332237 10978408
0.056776986 0.75050223 0.052329198 10978408
0.056337669 0.74941266 0.051780611 11044201
0.056519315 0.74900031 0.051777557 10978408
0.05670096 0.74858791 0.051774517 10978408
0.050633743 0.82864928 0.070009485 16777195
0.050794333 0.82828474 0.070006773 16772053
0.050954908 0.8279202 0.070004076 15916744
0.051115498 0.8275556 0.070001379 16174520
0.051276088 0.82719105 0.069998682 16371899
0.051436663 0.82682645 0.069995984 16436149
0.052318335 0.82691383 0.070535719 16436149
0.052478254 0.82655078 0.070533022 16566965
0.052638188 0.82618767 0.07053034 16632758
0.052798107 0.82582462 0.070527658 16632758
0.052958041 0.82546157 0.070524961 16632758
0.053117961 0.82509851 0.070522279 16566965
0.053277895 0.8247354 0.070519596 16566965
0.053437814 0.82437235 0.070516899 16370356
0.053597748 0.8240093 0.070514217 16238770
0.053757668 0.82364619 0.070511535 16238770
0.053917602 0.82328314 0.070508838 16370356
0.054791361 0.82338846 0.071048707 16305076
0.05495064 0.82302684 0.071046039 16305076
0.055109903 0.82266527 0.071043357 16305076
0.055269167 0.82230371 0.07104069 16107697
0.05542843 0.82194209 0.071038008 16041902
0.055587709 0.82158053 0.071035326 16041902
0.055746973 0.82121897 0.071032658 16041902
0.055906251 0.82085741 0.071029976 15976109
0.056065515 0.82049584 0.071027294 15845037
0.056224778 0.82013422 0.071024626 15779244
0.056384042 0.81977266 0.071021944 15845037
0.05654332 0.8194111 0.071019277 15779244
0.056702584 0.81904954 0.071016595 15779246
0.056861848 0.81868792 0.071013913 15779246
0.057021126 0.81832635 0.071011245 15713453
0.05718039 0.81796479 0.071008563 15581867
0.057339653 0.81760323 0.071005881 15516074
0.057498932 0.81724167 0.071003214 15450281
0.057658195 0.81688005 0.071000531 15188392
0.057116121 0.81602174 0.070455089 14859427
0.057276055 0.81565869 0.070452407 14597798
0.057435974 0.81529564 0.07044971 14334626
0.057595909 0.81493253 0.070447028 14138784
0.057755828 0.81456947 0.070444331 13480854
0.057915762 0.81420642 0.070441648 13415061
0.058075681 0.81384337 0.070438966 13283475
0.058235615 0.81348026 0.070436269 12626063
0.057699457 0.81260848 0.069890738 12626063
0.057860047 0.81224394 0.06988804 12033408
0.058020636 0.8118794 0.069885328 11309685
0.058181211 0.81151479 0.069882631 11308400
0.058341801 0.81115025 0.069879934 11439986
0.058502391 0.81078565 0.069877237 11571058
0.057970867 0.8099035 0.069331616 11439472
0.058132112 0.80953741 0.069328919 11373681
0.058293357 0.80917132 0.069326207 11439474
0.058454588 0.80880529 0.069323495 11439474
0.058615834 0.80843925 0.069320783 11636853
0.058088243 0.80754805 0.068775088 11636853
0.058250144 0.80718052 0.068772376 11636853
0.058412045 0.80681294 0.068769649 11505781
0.057887092 0.80591577 0.068223923 11439988
0.058049649 0.80554676 0.068221197 11505781
0.058212206 0.80517769 0.068218455 11505781
0.058374763 0.80480862 0.068215728 11439988
0.058537319 0.8044396 0.068213001 11505781
0.058699891 0.80407059 0.068210259 11439734
0.058179528 0.80316293 0.067664444 11505527
0.058342755 0.80279243 0.067661703 11505527
0.057824373 0.8018803 0.067115873 11505527
0.057988256 0.80150825 0.067113116 11636853
0.058152124 0.80113626 0.06711036 11571060
0.058316007 0.8007642 0.067107603 11571060
0.058479875 0.80039215 0.067104846 11439474
0.058643743 0.8000201 0.06710209 11373681
0.058129996 0.79909754 0.066556185 11571060
0.05829452 0.79872406 0.066553414 11571058
0.058459058 0.79835051 0.066550657 11439472
0.057947919 0.79742193 0.066004679 11636338
0.058113098 0.7970469 0.066001907 11636338
0.058278292 0.79667193 0.065999135 11439472
0.058443487 0.79629689 0.065996349 11439472
0.058608681 0.79592186 0.065993577 11307886
0.058101505 0.79498434 0.065447539 11307886
0.058267355 0.79460788 0.065444753 11571058
0.058433205 0.79423136 0.065441966 11373679
0.057928637 0.79328787 0.064895883 11373679
0.058095142 0.79290986 0.064893097 11439472
0.058261648 0.79253185 0.064890295 11439472
0.057759747 0.79158235 0.064344183 11373679
0.057926908 0.7912029 0.064341381 11439472
0.058094069 0.79082334 0.064338565 11439472
0.058261231 0.7904439 0.064335763 11439472
0.058428407 0.79006433 0.064332947 11439472
0.057930425 0.78910589 0.063786745 11373679
0.058098257 0.7887249 0.063783929 11439472
0.058266088 0.78834391 0.063781098 11439472
0.057770744 0.7873795 0.063234881 11439472
0.057939231 0.78699708 0.063232049 11571058
0.058107719 0.78661454 0.063229218 11439472
0.057614997 0.78564417 0.062682956 11571058
0.057784155 0.7852602 0.062680125 11571058
0.057953283 0.78487623 0.062677279 11636851
0.057463214 0.78389984 0.062130958 11439472
0.057633013 0.78351438 0.062128097 11373679
0.057144925 0.78253353 0.061581746 11439472
0.057315379 0.78214657 0.061578885 11636851
0.057485834 0.78175962 0.061576024 11702644
0.057656288 0.78137261 0.061573148 11637105
0.057826743 0.78098559 0.061570287 11637105
0.057997212 0.78059864 0.061567426 11702898
0.057513699 0.77960736 0.061020985 11702898
0.057684809 0.77921891 0.061018109 11702898
0.057855919 0.77883041 0.061015233 11571312
0.058027044 0.77844191 0.061012357 11571058
0.058198154 0.77805346 0.061009482 11439472
0.058369264 0.77766502 0.061006606 11242607
0.0578904 0.7766633 0.06046012 11045228
0.058062166 0.77627331 0.06045723 10650470
0.057585239 0.77526706 0.05991067 10584677
0.057757676 0.77487564 0.059907779 10124896
0.057930097 0.77448416 0.059904873 9993310
0.057455838 0.77347195 0.059358299 10323819
0.05762893 0.77307898 0.059355393 10389612
0.057802007 0.77268606 0.059352487 11377795
0.057330385 0.77166784 0.058805868 12496276
0.057504132 0.77127343 0.058802947 12892576
0.05767788 0.77087897 0.058800027 12958369
0.057208851 0.76985478 0.058253333 13221543
0.057383254 0.76945889 0.058250412 12563613
0.056916222 0.76843023 0.057703719 10851712
0.057091281 0.76803279 0.057700768 9075301
0.05726634 0.76763535 0.057697833 8744537
0.05680193 0.76660073 0.057151079 8547158
0.056977645 0.76620179 0.057148129 9073241
0.057153374 0.76580286 0.057145178 9796964
0.056691602 0.76476228 0.05659838 9862239
0.056867987 0.76436186 0.056595415 10322790
0.057044372 0.76396143 0.05659245 10388070
0.057220742 0.76356101 0.056589484 10453863
0.057397127 0.76316059 0.056586519 10585449
0.057573512 0.76276016 0.056583554 10585449
0.057116345 0.76170909 0.056036681 10782058
0.05729337 0.76130718 0.056033701 10979437
0.05683817 0.76025164 0.055486813 10782056
0.057015881 0.75984824 0.055483818 10847849
0.057193577 0.75944483 0.055480838 10978921
0.05611077 0.75772518 0.054389924 11110507
0.056289777 0.75731879 0.054386914 11110507
0.056468785 0.75691241 0.054383904 11242093
0.056019515 0.7558434 0.053836912 10978408
0.056199178 0.75543553 0.053833887 11044201
0.05575189 0.75436205 0.05328685 11044201
0.055932224 0.75395262 0.053283826 11044201
0.056112543 0.75354326 0.053280786 11109224
0.055667892 0.75246382 0.052733704 11109224
0.055848882 0.75205296 0.052730665 11175017
0.056029871 0.75164211 0.052727625 11306603
0.056210861 0.75123119 0.052724585 10978408
0.05639185 0.75082028 0.052721545 10978408
0.056572825 0.75040942 0.05271849 10912615
0.056132764 0.74931955 0.052171335 10978408
0.056314409 0.74890715 0.05216828 10978408
0.056496054 0.74849474 0.052165225 10978408
0.050452605 0.82856691 0.070354894 15787470
0.05061318 0.82820237 0.070352197 16504002
0.05077377 0.82783782 0.0703495 16109244
0.050934359 0.82747328 0.070346802 16502201
0.051094934 0.82710868 0.070344105 16436408
0.051255524 0.82674414 0.070341393 16501172
0.052137926 0.82683182 0.070879713 16566965
0.05229786 0.82646877 0.07087703 16566965
0.05245778 0.82610571 0.070874348 16501172
0.052617714 0.8257426 0.070871651 16566965
0.052777633 0.82537955 0.070868969 16566965
0.052937552 0.8250165 0.070866272 16566965
0.053097486 0.82465339 0.07086359 16566965
0.053257421 0.82429034 0.070860907 16566965
0.05341734 0.82392728 0.07085821 16369586
0.053577259 0.82356417 0.070855528 16238770
0.053737193 0.82320112 0.070852846 16238770
0.054611698 0.82330674 0.071391299 16173490
0.054770976 0.82294518 0.071388617 16107697
0.05493024 0.82258362 0.07138595 16173490
0.055089504 0.82222199 0.071383268 16107697
0.055248782 0.82186043 0.071380585 16041904
0.055408046 0.82149887 0.071377918 16041904
0.055567309 0.82113731 0.071375236 16041902
0.055726588 0.82077575 0.071372569 16041902
0.055885851 0.82041413 0.071369886 15845037
0.056045115 0.82005256 0.071367204 15845037
0.056204394 0.819691 0.071364537 15845037
0.056363657 0.81932944 0.071361855 15845037
0.056522921 0.81896782 0.071359172 15845037
0.056682184 0.81860626 0.071356505 15910830
0.056841463 0.8182447 0.071353823 15976109
0.057000726 0.81788313 0.071351156 15976109
0.05715999 0.81752157 0.071348473 15844523
0.057319269 0.81715995 0.071345791 15910316
0.057478532 0.81679839 0.071343124 15713451
0.056935728 0.81593972 0.070799083 15713451
0.057095647 0.81557667 0.0707964 15385258
0.057255581 0.81521362 0.070793718 15187879
0.0574155 0.81485057 0.070791021 14729638
0.05757542 0.81448746 0.070788339 14466466
0.057735354 0.81412441 0.070785657 13875612
0.057895288 0.81376135 0.070782959 13809819
0.058055207 0.81339824 0.070780277 13678749
0.057518318 0.81252617 0.070236146 13283991
0.057678908 0.81216156 0.070233449 13218198
0.057839483 0.81179702 0.070230752 12889233
0.058000073 0.81143248 0.070228055 12559750
0.058160663 0.81106794 0.070225358 11836027
0.058321238 0.81070334 0.070222661 11637367
0.057788983 0.80982077 0.069678456 11571574
0.057950214 0.80945474 0.069675744 11373681
0.058111459 0.80908865 0.069673032 11571060
0.058272704 0.80872262 0.06967032 11571060
0.05843395 0.80835652 0.069667622 11571060
0.057905614 0.80746502 0.069123343 11636853
0.058067515 0.80709749 0.069120616 11636853
0.058229417 0.80672991 0.069117889 11571060
0.057703719 0.80583239 0.068573579 11571060
0.057866275 0.80546337 0.068570852 11702646
0.058028832 0.80509436 0.068568125 11636853
0.058191389 0.80472529 0.068565384 11702646
0.058353946 0.80435622 0.068562657 11636853
0.058516517 0.80398721 0.06855993 11570806
0.057995424 0.80307925 0.068015531 11636599
0.058158636 0.80270869 0.068012789 11439734
0.057639524 0.80179626 0.06746836 11439734
0.057803392 0.80142421 0.067465603 11636853
0.05796726 0.80105221 0.067462847 11571060
0.058131143 0.80068016 0.067460105 11571060
0.058295012 0.80030811 0.067457348 11571060
0.058458894 0.79993606 0.067454591 11439474
0.057944402 0.7990132 0.066910088 11571060
0.058108926 0.79863966 0.066907331 11571060
0.058273464 0.79826611 0.06690456 11439474
0.057761565 0.79733723 0.066360012 11636338
0.057926759 0.79696226 0.066357225 11636338
0.058091953 0.79658723 0.066354454 11636338
0.058257148 0.7962122 0.066351682 11504752
0.058422342 0.79583716 0.06634891 11438959
0.057914421 0.79489934 0.065804288 11438959
0.058080271 0.79452276 0.065801501 11439472
0.058246121 0.7941463 0.065798715 11439472
0.057740808 0.79320246 0.065254048 11439472
0.057907313 0.79282445 0.065251246 11439472
0.058073819 0.79244643 0.065248445 11439472
0.057571173 0.79149663 0.064703763 11307886
0.057738334 0.79111713 0.064700946 11373679
0.05790551 0.79073763 0.064698145 11373679
0.058072671 0.79035813 0.064695328 11439472
0.058239833 0.78997862 0.064692527 11439472
0.05774112 0.78901982 0.064147741 11438959
0.057908952 0.78863883 0.064144909 11504752
0.058076769 0.78825784 0.064142093 11439472
0.057580695 0.78729314 0.063597292 11439472
0.057749182 0.78691065 0.06359446 11439472
0.057917669 0.78652811 0.063591629 11439472
0.057424203 0.78555745 0.063046783 11571058
0.057593361 0.78517342 0.063043937 11636851
0.057762489 0.78478944 0.063041091 11571058
0.057271674 0.78381276 0.062496185 11439472
0.057441473 0.7834273 0.062493339 11373679
0.05695264 0.78244615 0.061948404 11439472
0.057123095 0.78205913 0.061945528 11571058
0.057293549 0.78167218 0.061942667 11636851
0.057464018 0.78128517 0.061939806 11571058
0.057634473 0.78089821 0.061936945 11636851
0.057804927 0.78051126 0.061934069 11637105
0.057320669 0.77951962 0.061389059 11702898
0.057491794 0.77913117 0.061386183 11702644
0.057662904 0.77874267 0.061383307 11636851
0.057834014 0.77835417 0.061380431 11636851
0.058005139 0.77796572 0.061377555 11439472
0.058176249 0.77757728 0.061374679 11571058
0.057696626 0.77657521 0.060829595 11702644
0.057868406 0.77618521 0.060826719 11571572
0.057390735 0.77517867 0.060281575 11505779
0.057563171 0.77478719 0.060278669 11176814
0.057735592 0.7743957 0.060275778 10979435
0.057260588 0.77338314 0.059730619 10782056
0.05743368 0.77299023 0.059727713 10584677
0.057606757 0.77259731 0.059724793 10387046
0.057134375 0.77157879 0.059179604 10189667
0.057308123 0.77118433 0.059176683 10257517
0.05748187 0.77078986 0.059173763 11704963
0.057012111 0.76976538 0.058628485 12562069
0.057186514 0.76936942 0.058625549 12956827
0.056718737 0.76834047 0.058080271 12693914
0.056893811 0.76794302 0.058077335 13220258
0.057068869 0.76754558 0.058074385 12301209
0.0566037 0.76651061 0.057529047 10656384
0.056779429 0.76611167 0.057526097 9273700
0.056955144 0.76571274 0.057523146 8089426
0.056492642 0.7646718 0.056977764 8745557
0.056669027 0.76427138 0.056974798 9074522
0.056845397 0.76387095 0.056971833 9402204
0.057021782 0.76347053 0.056968868 9862755
0.057198167 0.76307011 0.056965902 10322536
0.057374537 0.76266968 0.056962952 10322536
0.056916639 0.76161826 0.05641748 10519402
0.057093665 0.7612164 0.056414515 10585195
0.056637719 0.76016051 0.055869028 10716265
0.056815431 0.7597571 0.055866048 10716265
0.056993127 0.7593537 0.055863068 10650472
0.055908829 0.75763339 0.05477497 10847851
0.056087837 0.757227 0.05477196 11110509
0.056266859 0.75682056 0.05476895 11110509
0.055816844 0.75575125 0.054223374 11044201
0.055996507 0.75534338 0.054220363 10978408
0.055548474 0.7542696 0.053674743 11044201
0.055728808 0.75386018 0.053671703 10978408
0.055909127 0.75345081 0.053668678 10978410
0.055463746 0.75237101 0.053123012 10978410
0.055644721 0.75196016 0.053119957 11044203
0.05582571 0.75154924 0.053116918 11175789
0.0560067 0.75113839 0.053113878 10978410
0.056187689 0.75072753 0.053110838 10912617
0.056368664 0.75031662 0.053107798 10912615
0.055927858 0.74922633 0.052562043 11044201
0.056109503 0.74881399 0.052559003 10978408
0.056291148 0.74840164 0.052555948 10978408
0.050271451 0.82848459 0.070700303 15782846
0.050432041 0.82812005 0.070697606 16502201
0.050592616 0.82775545 0.070694908 16436408
0.050753206 0.82739091 0.070692211 16501688
0.050913796 0.82702637 0.070689514 16501688
0.051074371 0.82666177 0.070686817 16566965
0.051957533 0.8267498 0.071223721 16566965
0.052117452 0.82638675 0.071221024 16501170
0.052277371 0.8260237 0.071218342 16501170
0.052437305 0.82566059 0.071215659 16566963
0.052597225 0.82529753 0.071212962 16566963
0.052757159 0.82493448 0.07121028 16501170
0.052917078 0.82457137 0.071207598 16566963
0.053077012 0.82420832 0.071204901 16566963
0.053236932 0.82384527 0.071202219 16369584
0.053396866 0.82348216 0.071199521 16303791
0.053556785 0.8231191 0.071196839 16303791
0.054432049 0.82322508 0.071733877 16172975
0.054591313 0.82286352 0.07173121 16172975
0.054750577 0.8225019 0.071728528 16173490
0.05490984 0.82214034 0.07172586 16107697
0.055069119 0.82177877 0.071723178 16041904
0.055228382 0.82141721 0.071720496 16041904
0.055387661 0.82105565 0.071717829 16041902
0.055546924 0.82069403 0.071715146 15976109
0.055706188 0.82033247 0.071712464 15779244
0.055865452 0.81997091 0.071709797 15845037
0.05602473 0.81960934 0.071707115 15910830
0.056183994 0.81924772 0.071704432 15845037
0.056343257 0.81888616 0.071701765 15910830
0.056502536 0.8185246 0.071699083 15910830
0.0566618 0.81816304 0.071696416 16107695
0.056821063 0.81780148 0.071693733 16107695
0.056980327 0.81743985 0.071691051 15910316
0.057139605 0.81707829 0.071688384 15976109
0.057298869 0.81671673 0.071685702 15779244
0.056755319 0.81585771 0.071143091 15779244
0.056915238 0.81549466 0.071140394 15713451
0.057075173 0.8151316 0.071137711 15516072
0.057235092 0.81476855 0.071135029 15189162
0.057395026 0.81440544 0.071132332 15057576
0.057554945 0.81404239 0.07112965 14467236
0.05771488 0.81367934 0.071126968 14401443
0.057874799 0.81331623 0.071124271 14072991
0.05733718 0.81244379 0.07058157 14072991
0.057497755 0.81207925 0.070578858 13679003
0.057658345 0.81171465 0.070576161 13481624
0.057818934 0.81135011 0.070573464 13349784
0.057979509 0.81098557 0.070570767 13152405
0.058140099 0.81062102 0.07056807 12691084
0.057607085 0.8097381 0.07002528 12362119
0.05776833 0.80937207 0.070022568 11967102
0.057929575 0.80900598 0.070019871 11506551
0.058090821 0.80863988 0.070017159 11703158
0.058252051 0.80827385 0.070014447 11571572
0.057722986 0.80738199 0.069471583 11505779
0.057884887 0.80701447 0.069468871 11505779
0.058046788 0.80664694 0.069466144 11439988
0.057520345 0.80574906 0.06892325 11439988
0.057682902 0.80537999 0.068920508 11505781
0.057845458 0.80501097 0.068917781 11505781
0.058008015 0.80464196 0.068915054 11571574
0.058170572 0.80427289 0.068912312 11571574
0.058333144 0.80390382 0.068909585 11571060
0.057811305 0.80299556 0.068366602 11636853
0.057974517 0.802625 0.06836386 11571060
0.05813773 0.80225444 0.068361118 11571060
0.058300957 0.80188394 0.068358377 11571060
0.05846417 0.80151337 0.068355635 11571060
0.05794628 0.80059612 0.067812592 11571060
0.058110163 0.80022407 0.067809835 11571060
0.058274031 0.79985201 0.067807093 11439474
0.058437914 0.79948002 0.067804337 11571060
0.058601782 0.79910797 0.06780158 11439474
0.058765665 0.79873598 0.067798823 11439474
0.058252394 0.79780823 0.067255706 11636338
0.058416933 0.79743469 0.067252934 11636338
0.058581457 0.7970612 0.067250177 11636338
0.058070794 0.79612744 0.066707 11504752
0.058235988 0.79575241 0.066704229 11504752
0.058401182 0.79537743 0.066701457 11438959
0.058566377 0.7950024 0.06669867 11439472
0.058731571 0.79462737 0.066695899 11636851
0.058224887 0.79368472 0.066152662 11571058
0.058390722 0.7933082 0.066149876 11439472
0.058556587 0.79293168 0.066147089 11439472
0.058052495 0.79198301 0.065603808 11307886
0.058219016 0.791605 0.065601006 11307886
0.058385521 0.79122698 0.06559822 11373679
0.057884097 0.79027241 0.065054908 11373679
0.058051273 0.78989291 0.065052092 11373679
0.057551816 0.78893381 0.064508721 11438959
0.057719633 0.78855276 0.064505905 11504752
0.05788745 0.78817177 0.064503074 11439472
0.057390645 0.78720677 0.063959688 11439472
0.057559118 0.78682423 0.063956857 11307886
0.057727605 0.78644174 0.063954026 11373679
0.057896093 0.78605926 0.063951194 11571058
0.058064565 0.78567672 0.063948363 11636851
0.058233052 0.78529429 0.063945532 11636338
0.057740837 0.78431875 0.063402072 11438959
0.057909966 0.78393477 0.063399225 11438959
0.058079109 0.78355074 0.063396394 11438959
0.057589531 0.78256929 0.062852859 11439472
0.05775933 0.78218377 0.062850013 11571058
0.057271734 0.78119779 0.062306449 11636851
0.057442188 0.78081083 0.062303588 11636851
0.057612643 0.78042382 0.062300727 11571312
0.057783097 0.78003687 0.062297866 11637105
0.057953551 0.77964985 0.06229499 11636851
0.058124006 0.7792629 0.062292129 11636851
0.057640985 0.77826643 0.06174849 11636851
0.05781211 0.77787799 0.061745614 11571058
0.05798322 0.77748954 0.061742738 11636851
0.057502866 0.77648711 0.061199084 11702644
0.057674631 0.77609712 0.061196193 11702644
0.057846412 0.77570713 0.061193302 11636851
0.058018178 0.77531719 0.061190426 11439472
0.058189943 0.77492726 0.061187536 11636851
0.057713524 0.77391583 0.060643777 11373679
0.057885945 0.7735244 0.060640872 11242093
0.058058381 0.77313292 0.060637981 11242093
0.057584599 0.77211559 0.060094208 10781542
0.057757691 0.77172261 0.060091302 10716265
0.057930782 0.77132964 0.060088381 10189921
0.057459638 0.77030635 0.059544563 10058083
0.057633385 0.76991189 0.059541643 10518634
0.057807133 0.76951742 0.059538737 11375228
0.05733858 0.76848811 0.05899483 12362123
0.057512984 0.76809216 0.058991909 12432279
0.057046458 0.76705837 0.058448002 12695451
0.057221517 0.76666093 0.058445066 12762526
0.057396576 0.76626348 0.058442131 12499354
0.056932643 0.76522374 0.057898164 11576968
0.057108372 0.76482475 0.057895213 9800557
0.057284102 0.76442587 0.057892263 8811350
0.056822821 0.76338011 0.057348266 8811350
0.056999192 0.76297969 0.057345301 9205340
0.057175577 0.76257926 0.057342336 9468512
0.056716934 0.76152754 0.056798294 9927780
0.05689396 0.76112556 0.056795314 10059366
0.056437284 0.76006937 0.056251258 10453609
0.05661498 0.75966597 0.056248263 10387816
0.056792676 0.75926256 0.056245282 10650472
0.056338623 0.75820041 0.055701151 10847851
0.05651699 0.75779545 0.055698141 10716265
0.056695342 0.75739056 0.055695146 10716265
0.055614159 0.75565916 0.05460985 10912615
0.055793837 0.75525129 0.054606825 10978408
0.055973515 0.75484335 0.054603815 10978408
0.056153178 0.75443548 0.05460079 10978408
0.056332842 0.75402761 0.054597765 10978410
0.055886045 0.75294894 0.05405353 10978410
0.056066379 0.75253952 0.05405049 11175789
0.056246698 0.75213015 0.054047465 11175789
0.055802539 0.75104558 0.053503186 10978410
0.055983528 0.75063467 0.053500146 10912617
0.056164503 0.75022382 0.053497091 10978408
0.056345493 0.74981296 0.053494051 11044201
0.056526482 0.74940205 0.053491011 11109224
0.056707472 0.74899113 0.053487971 11109224
0.049363062 0.82795829 0.070507601 16371383
0.049524307 0.82759225 0.070504889 16632758
0.049685553 0.82722616 0.070502192 16632758
0.049846783 0.82686013 0.07049948 16632758
0.050008029 0.82649404 0.070496768 16698551
0.050893232 0.82657945 0.071032226 16566963
0.051053807 0.82621485 0.071029529 16632756
0.051214397 0.82585031 0.071026832 16501170
0.051374987 0.82548571 0.071024135 16501170
0.051535562 0.82512116 0.071021438 16566963
0.051696151 0.82475662 0.071018741 16566963
0.051856741 0.82439208 0.071016043 16501170
0.052017316 0.82402748 0.071013346 16566963
0.052177906 0.82366294 0.071010634 16501170
0.052338496 0.82329834 0.071007937 16369584
0.052499071 0.82293379 0.07100524 16369584
0.052659661 0.82256925 0.071002543 16303791
0.053536311 0.82267404 0.07153815 16172975
0.05369623 0.82231098 0.071535468 16172975
0.053856164 0.82194787 0.071532771 16041389
0.054016098 0.82158482 0.071530089 16041389
0.054176018 0.82122177 0.071527407 15976109
0.054335952 0.82085872 0.071524709 16041902
0.054495871 0.82049561 0.071522027 15976109
0.054655805 0.82013255 0.071519345 15910316
0.054815724 0.8197695 0.071516648 15779244
0.054975644 0.81940639 0.071513966 15845037
0.055135578 0.81904334 0.071511284 15845037
0.055295512 0.81868029 0.071508586 15845037
0.055455431 0.81831717 0.071505904 15845037
0.055615351 0.81795412 0.071503207 15910830
0.055775285 0.81759107 0.071500525 15976623
0.055935204 0.81722802 0.071497843 15976623
0.056095138 0.81686491 0.071495146 15976109
0.056255057 0.81650186 0.071492463 15976109
0.056414992 0.8161388 0.071489781 15779244
0.056574911 0.81577575 0.071487084 15779244
0.056734845 0.81541264 0.071484402 15779244
0.056894764 0.81504959 0.07148172 15713451
0.057054698 0.81468654 0.071479023 15451049
0.057214618 0.81432343 0.07147634 15385256
0.057374552 0.81396037 0.071473643 15189162
0.057534471 0.81359732 0.071470961 15123369
0.057694405 0.81323421 0.071468279 14729638
0.057156026 0.81236148 0.070926979 14598052
0.057316616 0.81199688 0.070924282 14401443
0.057477191 0.81163234 0.070921585 14269857
0.057637781 0.81126773 0.070918888 13941405
0.057798371 0.81090319 0.070916191 13744026
0.057958946 0.81053865 0.070913479 13480600
0.057425201 0.80965543 0.07037212 13283221
0.057586446 0.80928934 0.070369408 13283223
0.057054654 0.80840164 0.069827989 13020051
0.057216555 0.80803406 0.069825277 12427651
0.057378456 0.80766654 0.06982255 11967100
0.057540357 0.80729902 0.069819838 11505779
0.057702258 0.80693144 0.069817111 11505779
0.057864159 0.80656385 0.069814384 11505779
0.057336971 0.80566573 0.069272906 11439986
0.057499528 0.80529666 0.069270179 11439986
0.057662085 0.80492759 0.069267452 11505779
0.057824641 0.80455858 0.06926471 11571574
0.057987198 0.8041895 0.069261983 11571574
0.05814977 0.80382049 0.069259256 11439988
0.057627186 0.80291188 0.068717688 11439988
0.057790399 0.80254132 0.068714947 11571060
0.057953626 0.80217075 0.068712205 11439474
0.058116838 0.80180025 0.068709448 11636853
0.058280051 0.80142969 0.068706706 11571060
0.057761431 0.80051208 0.068165094 11571060
0.057925299 0.80014002 0.068162337 11571060
0.058089182 0.79976797 0.06815958 11571060
0.05825305 0.79939598 0.068156824 11571060
0.058416933 0.79902393 0.068154067 11504754
0.058580801 0.79865193 0.06815131 11504754
0.0580668 0.79772389 0.067609608 11636338
0.058231324 0.79735035 0.067606851 11636338
0.058395863 0.7969768 0.06760408 11636338
0.057884455 0.79604274 0.067062333 11504752
0.058049649 0.79566777 0.067059562 11504752
0.058214843 0.79529274 0.067056775 11438959
0.058380038 0.7949177 0.067054003 11439472
0.058545217 0.79454267 0.067051232 11571058
0.058037803 0.79359967 0.066509411 11571058
0.058203653 0.79322314 0.066506624 11571058
0.058369502 0.79284662 0.066503838 11439472
0.057864681 0.79189765 0.065961972 11373679
0.058031186 0.79151964 0.06595917 11307886
0.058197692 0.79114163 0.065956369 11307886
0.057695523 0.7901867 0.065414473 11307886
0.057862699 0.7898072 0.065411672 11373679
0.057362497 0.78884774 0.064869702 11373679
0.057530329 0.78846669 0.064866886 11439472
0.057698146 0.78808576 0.064864069 11439472
0.057200596 0.78712034 0.064322099 11373679
0.057369068 0.78673786 0.064319268 11307886
0.057537556 0.78635538 0.064316437 11373679
0.057706043 0.78597283 0.064313605 11636338
0.057874516 0.78559035 0.064310774 11636338
0.058042988 0.78520787 0.064307943 11504752
0.057550043 0.78423202 0.063765883 11438959
0.057719171 0.78384805 0.063763052 11438959
0.057888314 0.78346401 0.063760206 11438959
0.057397991 0.78248215 0.063218102 11504752
0.05756779 0.78209668 0.063215241 11504752
0.057079449 0.78111041 0.062673107 11636338
0.057249904 0.78072339 0.062670246 11767924
0.057420358 0.78033638 0.06266737 11636592
0.057590812 0.77994943 0.062664509 11636592
0.057761267 0.77956247 0.062661648 11636338
0.057931736 0.77917552 0.062658787 11702131
0.05744797 0.77817869 0.062116563 11571058
0.05761908 0.77779025 0.062113687 11571058
0.057790205 0.7774018 0.062110811 11636851
0.057309106 0.77639902 0.061568558 11768437
0.057480872 0.77600908 0.061565682 11702644
0.057652637 0.77561909 0.061562791 11636851
0.057824418 0.7752291 0.061559901 11571058
0.057996184 0.77483916 0.06155701 11636851
0.057519004 0.77382743 0.061014667 11768437
0.05769144 0.77343595 0.061011776 11636851
0.057863876 0.77304447 0.061008871 11439472
0.057389349 0.77202678 0.060466513 11439472
0.057562441 0.77163386 0.060463607 11439472
0.057735533 0.77124089 0.060460702 11307886
0.057263643 0.77021724 0.059918299 10650220
0.05743739 0.76982278 0.059915379 10518634
0.057611138 0.76942837 0.059912458 10584427
0.057141855 0.76839864 0.059369981 10387048
0.057316259 0.76800275 0.059367046 10454122
0.056848973 0.76696861 0.058824569 10914673
0.057024047 0.76657116 0.058821633 11640963
0.057199106 0.76617372 0.058818683 12364686
0.056734428 0.76513362 0.058276147 12563350
0.056910142 0.76473469 0.058273196 12958108
0.057085872 0.76433575 0.058270231 12761242
0.056623861 0.76328969 0.05772765 12300691
0.056800231 0.76288927 0.057724684 11049089
0.056976616 0.76248884 0.057721719 8877920
0.056517228 0.7614367 0.057179093 8482651
0.056694254 0.76103485 0.057176128 8482651
0.056236833 0.75997829 0.056633472 9336415
0.05641453 0.75957489 0.056630492 9731173
0.056592226 0.75917143 0.056627497 10059366
0.056137443 0.75810891 0.056084782 10322538
0.056315795 0.75770402 0.056081787 10387816
0.056494147 0.75729907 0.056078792 10453609
0.055411488 0.75556701 0.054996312 10781290
0.055591151 0.75515914 0.054993302 10847083
0.055770829 0.75475121 0.054990277 10978156
0.055950508 0.75434333 0.054987267 10912363
0.056130171 0.75393546 0.054984242 10978410
