# .PCD v0.7 - Point Cloud Data file format
VERSION 0.7
FIELDS x y z rgb
SIZE 4 4 4 4
TYPE F F F U
COUNT 1 1 1 1
WIDTH 1025
HEIGHT 1
VIEWPOINT 0 0 0 1 0 0 0
POINTS 1025
DATA ascii
0.72699451 -0.04478085 0.035332814 4278392344
0.72638208 -0.044503927 0.035266295 4278589460
0.72581083 -0.044084415 0.035065055 4278589460
0.72523803 -0.043664396 0.03486383 4278456090
0.72464347 -0.043315306 0.034729943 4278979600
0.7240479 -0.042965889 0.034596071 4278782739
0.72343153 -0.042687684 0.034529537 4278455577
0.72283423 -0.042337716 0.034395695 4278587163
0.72221661 -0.042059109 0.034329161 4278784288
0.72157937 -0.041852146 0.034329996 4278914845
0.72096103 -0.041573316 0.034263507 4279178265
0.72032356 -0.041366279 0.034264341 4279310618
0.71968609 -0.041159227 0.034265175 4279047446
0.7190305 -0.041024297 0.034333363 4278454546
0.71839327 -0.04081732 0.034334198 4279044639
0.71773839 -0.040682644 0.034402415 4278717725
0.71706671 -0.040620431 0.034537941 4278585878
0.71639591 -0.040558577 0.034673482 4278520085
0.71572614 -0.04049702 0.034809038 4278586130
0.715074 -0.040363207 0.034877226 4278453774
0.71438956 -0.04037489 0.035080105 4278584592
0.71370661 -0.040387049 0.035282999 4278519049
0.71304101 -0.040326864 0.03541854 4278519049
0.71237642 -0.040266991 0.035554081 4279045134
0.7116974 -0.040280417 0.035756946 4278586645
0.70327842 -0.042771623 0.040279165 4283662993
0.70262623 -0.042793795 0.040482029 4279707702
0.70201141 -0.04259412 0.040482834 4280365630
0.7013849 -0.042468622 0.040550977 4280036665
0.70077038 -0.042269021 0.040551797 4279576884
0.70015579 -0.04206942 0.040552601 4279575855
0.69954127 -0.041869819 0.040553406 4279243810
0.69891596 -0.041744709 0.040621564 4279178528
0.69831216 -0.041470617 0.04055503 4278849563
0.69769758 -0.041271001 0.04055585 4278847778
0.69708306 -0.0410714 0.040556654 4279108890
0.69646847 -0.040871799 0.040557459 4279239960
0.69584441 -0.040747106 0.040625617 4278781462
0.69523013 -0.04054758 0.040626436 4278847255
0.69460684 -0.04042314 0.040694579 4278715672
0.69399273 -0.040223703 0.040695399 4278584338
0.69337016 -0.040099472 0.040763542 4278518792
0.69274813 -0.039975435 0.040831685 4278191360
0.69212651 -0.039851531 0.040899843 4278784010
0.69150543 -0.039727807 0.040967986 4278781719
0.69088483 -0.039604247 0.041036144 4281482307
0.6902647 -0.03948082 0.041104287 4282146376
0.68964511 -0.039357573 0.04117243 4281684030
0.689026 -0.039234489 0.041240588 4281355065
0.68840736 -0.03911154 0.041308716 4281549125
0.68779552 -0.038912818 0.041309521 4281878608
0.6871776 -0.038790137 0.041377679 4283786089
0.686566 -0.038591489 0.041378483 4280496173
0.73160815 -0.047796264 0.037525505 4278915856
0.73105007 -0.047380492 0.037324846 4278785305
0.73049051 -0.046964288 0.037124202 4278653719
0.7299521 -0.046476752 0.036856398 4279111704
0.72936702 -0.046130404 0.036722928 4279242270
0.72878093 -0.045783713 0.036589444 4279046683
0.72821569 -0.045365632 0.0363888 4278783511
0.7276274 -0.045018211 0.036255315 4278651925
0.72703809 -0.044670507 0.03612186 4278653717
0.72644782 -0.044322461 0.035988376 4278720527
0.72585654 -0.043974087 0.035854906 4278784542
0.72526425 -0.043625399 0.035721421 4278521370
0.72469139 -0.043204859 0.035520807 4278913553
0.72409695 -0.042855442 0.035387322 4278782737
0.7235015 -0.042505726 0.035253853 4278390036
0.72290504 -0.042155668 0.035120398 4278521622
0.72228819 -0.041877151 0.035054058 4278980899
0.72167087 -0.041598484 0.034987763 4279176475
0.72103417 -0.041391686 0.034988597 4279176727
0.72039741 -0.041184872 0.034989446 4279243288
0.71976072 -0.040978074 0.034990281 4278914323
0.71912396 -0.040771261 0.034991115 4283654486
0.71846932 -0.040636793 0.035059094 4278191120
0.71781516 -0.040502504 0.035127103 4278453270
0.71716148 -0.040368363 0.035195082 4278387731
0.7164911 -0.040306956 0.035330221 4278387731
0.71582174 -0.040245876 0.03546536 4278584588
0.71515334 -0.040185124 0.035600498 4278322188
0.71446949 -0.040197507 0.035802782 4278322190
0.7138195 -0.040064573 0.035870776 4278322440
0.7131381 -0.040077746 0.036073044 4278388233
0.71247393 -0.04001835 0.036208183 4278913807
0.7117334 -0.040324971 0.036679044 4278390043
0.70401931 -0.042587534 0.040783986 4284977304
0.7033788 -0.042535812 0.040919095 4280568935
0.70275146 -0.04241024 0.040987059 4279314227
0.70212466 -0.042284817 0.041054994 4280299589
0.70149833 -0.042159557 0.041122958 4279115315
0.70088404 -0.041960031 0.041123763 4278587940
0.70025843 -0.041835025 0.041191712 4279045143
0.69964439 -0.041635588 0.041192532 4278978323
0.69903034 -0.041436151 0.041193336 4278783259
0.69841629 -0.041236699 0.041194141 4278322708
0.69780219 -0.041037261 0.04119496 4278847003
0.69718814 -0.040837824 0.041195765 4279042320
0.69657409 -0.040638372 0.04119657 4278846224
0.69596004 -0.040438935 0.041197389 4278453006
0.6953367 -0.040314615 0.041265339 4278453006
0.69472283 -0.040115252 0.041266143 4278518799
0.69410026 -0.039991215 0.041334078 4278650126
0.69347811 -0.039867312 0.041402027 4278519047
0.69286478 -0.039668113 0.041402847 4278191105
0.6922434 -0.039544448 0.041470796 4278257926
0.6916225 -0.039420962 0.041538745 4279639597
0.69100207 -0.039297611 0.04160668 4281812297
0.69038218 -0.039174438 0.041674629 4281619521
0.68976986 -0.038975552 0.041675434 4281946948
0.68915069 -0.038852632 0.041743383 4281354811
0.68853855 -0.038653821 0.041744187 4280758843
0.68792015 -0.03853111 0.041812122 4280824638
0.68730831 -0.038332388 0.041812927 4283721064
0.68669647 -0.038133666 0.041813731 4280364585
0.7321505 -0.048244521 0.03864263 4278720013
0.73166573 -0.047617063 0.038241714 4279045642
0.73108542 -0.047271922 0.038108617 4279112224
0.73052698 -0.046855539 0.037908599 4278980638
0.72996712 -0.046438709 0.037708566 4279242020
0.72938335 -0.046092421 0.037575483 4279111452
0.72882074 -0.045674697 0.037375435 4278979096
0.72821283 -0.045398921 0.037309334 4279044889
0.72764778 -0.044980392 0.037109286 4278848280
0.72708124 -0.044561371 0.036909252 4278850587
0.72649205 -0.044213325 0.036776185 4278851599
0.72590184 -0.043864995 0.036643133 4278652438
0.72531068 -0.043516323 0.03651005 4278652438
0.72471851 -0.043167323 0.036376983 4278652175
0.7241658 -0.042674452 0.036109999 4278652171
0.72357118 -0.042324647 0.035976946 4278586128
0.72295582 -0.042046472 0.03591083 4278586128
0.72235954 -0.041696131 0.035777763 4278848282
0.72174299 -0.041417539 0.035711646 4278979350
0.72110701 -0.041210979 0.035712481 4278847507
0.72047096 -0.041004404 0.03571333 4278715149
0.71983498 -0.040797845 0.035714164 4278649356
0.719199 -0.040591285 0.035714999 4278518540
0.71856302 -0.04038471 0.035715833 4278321936
0.71790928 -0.040250733 0.035783634 4278321936
0.71723861 -0.040189564 0.03591837 4278453776
0.71658611 -0.04005596 0.035986155 4278322190
0.71591711 -0.039995357 0.036120877 4278584585
0.71523237 -0.040007949 0.036322564 4278191367
0.71456558 -0.039948061 0.036457285 4278387981
0.71389979 -0.039888486 0.036592007 4278256393
0.71320301 -0.039975524 0.036860645 4278387979
0.7125082 -0.040063187 0.037129253 4278455055
0.70476025 -0.042403445 0.041288823 4286027162
0.70410633 -0.04242605 0.041490465 4282672237
0.70349151 -0.042226374 0.04149127 4280170318
0.70286441 -0.042101026 0.041559011 4280100152
0.70223778 -0.041975826 0.041626766 4278519083
0.70161164 -0.04185082 0.041694522 4278453290
0.70099759 -0.041651383 0.041695327 4278387477
0.70037222 -0.041526571 0.041763082 4280163615
0.69975841 -0.041327208 0.041763887 4278650124
0.6991446 -0.041127846 0.041764706 4278453272
0.69853079 -0.040928483 0.041765511 4278387479
0.69791698 -0.04072912 0.041766316 4278714645
0.69730318 -0.040529758 0.04176712 4278846470
0.69667947 -0.040405557 0.041834861 4278520600
0.6960659 -0.040206268 0.041835666 4278191896
0.69545233 -0.040006995 0.041836485 4278586911
0.6948297 -0.039883077 0.041904226 4279115034
0.69421637 -0.039683878 0.041905031 4280101415
0.69359446 -0.039560214 0.041972786 4279904548
0.69297302 -0.039436713 0.042040527 4279641380
0.69236016 -0.039237678 0.042041332 4280825654
0.69174731 -0.039038628 0.042042151 4281483850
0.69112688 -0.03891544 0.042109892 4281878340
0.69051433 -0.03871648 0.042110696 4281813566
0.68989456 -0.038593531 0.042178437 4281747272
0.68928224 -0.03839466 0.042179257 4279773482
0.68866992 -0.038195774 0.042180061 4280362802
0.68805116 -0.038073152 0.042247802 4280363826
0.68744522 -0.037798017 0.042181671 4282338125
0.686827 -0.03767556 0.042249411 4280431925
0.68623185 -0.037247255 0.042049423 4280300339
0.73386014 -0.049310476 0.039954737 4283927692
0.73328632 -0.048967078 0.039822042 4283069546
0.73273546 -0.048552662 0.039622605 4279056173
0.7321831 -0.048137769 0.039423183 4278326549
0.73162925 -0.047722355 0.039223731 4279045389
0.73107398 -0.047306493 0.039024308 4279308063
0.7305631 -0.046748057 0.038691372 4279242270
0.72998166 -0.046402186 0.038558692 4279176995
0.72944409 -0.045913592 0.038292497 4278915610
0.7288602 -0.045566916 0.038159817 4278718229
0.7282753 -0.045219928 0.038027152 4278718229
0.72768939 -0.044872642 0.037894472 4278782739
0.72710252 -0.044525027 0.037761807 4278784542
0.72653586 -0.04410547 0.037562385 4278851348
0.72594678 -0.043757111 0.03742972 4278717464
0.72537744 -0.043336689 0.037230298 4278717464
0.7247861 -0.04298763 0.037097633 4278717968
0.72419381 -0.042638242 0.036964968 4278652424
0.72360051 -0.042288542 0.036832318 4278651155
0.72300625 -0.041938514 0.036699653 4278716948
0.72241098 -0.041588187 0.036567003 4278847258
0.7217955 -0.041309759 0.03650108 4278979098
0.72117949 -0.041031197 0.036435172 4278781712
0.72054422 -0.04082486 0.036436006 4278518540
0.71990901 -0.040618539 0.036436841 4279373849
0.71927375 -0.040412217 0.03643769 4278518540
0.71863848 -0.040205896 0.036438525 4278453004
0.71798545 -0.040072292 0.036506101 4278321936
0.71731538 -0.040011674 0.036640421 4278387983
0.71664631 -0.039951369 0.036774755 4278322190
0.71597821 -0.039891392 0.036909088 4278388231
0.71534467 -0.039685622 0.036909923 4278191367
0.71464497 -0.039772376 0.037177742 4278387979
0.71399611 -0.039640144 0.037245303 4278387209
0.71329963 -0.039727941 0.037513137 4278453002
0.70487255 -0.042093664 0.041861191 4285699219
0.70423156 -0.042042494 0.041995496 4281422168
0.70360416 -0.04191722 0.042063028 4278984497
0.70297724 -0.04179211 0.042130575 4279504165
0.7023508 -0.041667163 0.042198136 4278584606
0.70172489 -0.041542351 0.042265683 4278453020
0.70111108 -0.041343004 0.042266488 4278518799
0.70048589 -0.04121846 0.04233402 4279045389
0.69987231 -0.041019171 0.042334825 4278584842
0.69925874 -0.040819898 0.042335644 4278585626
0.69864517 -0.04062061 0.042336449 4278519833
0.69802123 -0.040496454 0.042403996 4279241745
0.6974079 -0.040297255 0.042404801 4279309832
0.69679457 -0.040098056 0.04240562 4278918436
0.6961813 -0.039898857 0.042406425 4278983214
0.69556797 -0.039699644 0.04240723 4280035902
0.69494545 -0.039575979 0.042474777 4280234546
0.69433242 -0.039376855 0.042475581 4280037417
0.69371068 -0.039253429 0.042543128 4280102697
0.69309783 -0.039054394 0.042543933 4279905322
0.69248497 -0.038855344 0.042544752 4280694838
0.69187218 -0.038656309 0.042545557 4282140237
0.6912517 -0.03853327 0.042613104 4282008901
0.69063908 -0.03833431 0.042613909 4281548346
0.69002652 -0.03813535 0.042614713 4281350717
0.68941391 -0.037936389 0.042615518 4279705892
0.68880135 -0.037737429 0.042616323 4280495925
0.68818873 -0.037538469 0.042617142 4280232749
0.68758237 -0.037263021 0.042551219 4281613891
0.68696952 -0.037063971 0.042552024 4281880141
0.68637383 -0.036634982 0.042352632 4281485383
0.73460907 -0.04912439 0.040465012 4279902769
0.73401135 -0.048851579 0.040399298 4283199096
0.73343736 -0.048507825 0.040267006 4285238679
0.73283845 -0.048234612 0.040201277 4285176216
0.73228651 -0.047819316 0.040002435 4283857528
0.7317096 -0.047474593 0.039870173 4281484102
0.73115492 -0.047058418 0.039671332 4279045913
0.73059881 -0.046641767 0.039472505 4279045913
0.73006392 -0.046153367 0.039207146 4279439649
0.72948205 -0.045807034 0.039074868 4279047192
0.72889924 -0.045460373 0.03894259 4278719249
0.72833741 -0.045041889 0.038743779 4278785042
0.72777414 -0.044622898 0.038544953 4278718479
0.72716635 -0.044346839 0.038479239 4278982171
0.72657931 -0.043998808 0.038346976 4278850346
0.72601235 -0.043578655 0.038148165 4278651682
0.7254231 -0.043229923 0.038015902 4278651682
0.72483283 -0.042880878 0.037883639 4278586643
0.72424161 -0.04253149 0.037751377 4278455309
0.72364944 -0.042181805 0.037619114 4278586132
0.72305626 -0.041831791 0.037486851 4278586132
0.72244251 -0.041553795 0.037421152 4278782489
0.72182834 -0.04127562 0.037355438 4278782235
0.72121358 -0.040997297 0.037289724 4278780940
0.72057956 -0.040791363 0.037290558 4278255877
0.71996415 -0.040512785 0.037224844 4278453256
0.71932983 -0.040306777 0.037225679 4278453254
0.71867752 -0.04017359 0.037293062 4278387981
0.71804351 -0.039967671 0.037293896 4278191374
0.71737432 -0.039907679 0.037427828 4278453002
0.71674079 -0.039701909 0.037428662 4278518795
0.7160902 -0.039569274 0.03749603 4278584838
0.71542323 -0.039509982 0.037629947 4278585608
0.7147572 -0.039451033 0.037763879 4278323208
0.71405953 -0.039539129 0.038030893 4278191372
0.7056132 -0.04190965 0.042365819 4284583314
0.70498472 -0.041784212 0.042433172 4283728005
0.70435679 -0.041658938 0.042500511 4279646020
0.7037167 -0.041608378 0.042634398 4279045157
0.70310235 -0.041408867 0.042635202 4279372577
0.70247591 -0.041284069 0.042702556 4278650901
0.70184994 -0.041159421 0.042769894 4278716694
0.70123613 -0.040960059 0.042770714 4279245591
0.70061088 -0.040835664 0.042838037 4279575071
0.69999731 -0.04063639 0.042838842 4279115552
0.69937283 -0.040512234 0.042906195 4279378724
0.6987595 -0.04031302 0.042907 4279510310
0.69814616 -0.040113822 0.042907804 4279904550
0.69753283 -0.039914623 0.042908624 4279905049
0.69690961 -0.039790854 0.042975962 4279378987
0.69629651 -0.039591745 0.042976767 4279708985
0.69568342 -0.03939262 0.042977586 4280037950
0.69506115 -0.039269194 0.043044925 4279840569
0.69444835 -0.039070159 0.043045729 4280104245
0.6938355 -0.038871109 0.043046534 4280037937
0.69322264 -0.038672075 0.043047354 4280365619
0.69260985 -0.038473025 0.043048158 4281155135
0.69199699 -0.03827399 0.043048963 4281680195
0.6913842 -0.03807494 0.043049768 4282140233
0.69077134 -0.037875906 0.043050587 4281285437
0.69015855 -0.037676856 0.043051392 4280364337
0.68955266 -0.037401408 0.042985663 4280495923
0.68893963 -0.037202284 0.042986467 4280826687
0.68833303 -0.036926597 0.042920753 4279972661
0.68772596 -0.036650762 0.042855024 4283062884
0.68711239 -0.036451474 0.042855844 4286483350
0.6865046 -0.03617537 0.04279013 4284312181
0.74884331 -0.048902929 0.037243739 4278522397
0.74826622 -0.048557803 0.037111849 4279180327
0.74771738 -0.048143029 0.036913633 4279048741
0.74710912 -0.047866628 0.036848128 4278983450
0.7465291 -0.047520548 0.036716253 4279440652
0.74594808 -0.047174156 0.036584377 4278915610
0.73548311 -0.048584729 0.040643543 4279507480
0.7348597 -0.048382238 0.040644363 4279899160
0.73421174 -0.04825063 0.040711537 4279964966
0.73361284 -0.047977284 0.040646017 4280491310
0.73301345 -0.047703743 0.040580481 4283194227
0.73241359 -0.047430068 0.040514961 4284977050
0.7318368 -0.047085047 0.040383086 4285372564
0.73125899 -0.046739683 0.04025121 4283198313
0.73068017 -0.046393991 0.040119335 4280632386
0.73010039 -0.046048015 0.03998746 4279046683
0.7295422 -0.045630172 0.039789245 4279242768
0.72896022 -0.045283467 0.039657384 4278915345
0.72839928 -0.044864744 0.039459169 4278783759
0.72781503 -0.044517323 0.039327309 4278652434
0.72722983 -0.04416956 0.039195433 4278786071
0.72664368 -0.043821469 0.039063588 4278654249
0.72605652 -0.04347308 0.038931713 4278324764
0.72546834 -0.043124378 0.038799867 4278390557
0.72492039 -0.042631015 0.038535327 4278324756
0.72430944 -0.042353719 0.038469791 4278520852
0.72371805 -0.042003959 0.038337931 4278586643
0.7231257 -0.041653901 0.0382061 4278717718
0.72251278 -0.04137598 0.03814058 4278717718
0.72189933 -0.041097909 0.038075089 4278520339
0.72126633 -0.040892303 0.038075924 4278585612
0.72063327 -0.040686697 0.038076758 4279243540
0.72001886 -0.040408283 0.038011223 4278256645
0.71938556 -0.040202603 0.038012058 4279836447
0.71875232 -0.039996922 0.038012892 4278191374
0.71810114 -0.039864287 0.038080096 4278190865
0.7174505 -0.039731786 0.038147256 4278322436
0.71681768 -0.039526254 0.03814809 4278322436
0.71615064 -0.03946729 0.038281605 4278585859
0.71546763 -0.039481997 0.038481459 4278257928
0.7148028 -0.039423749 0.038614973 4278192137
0.71412253 -0.03943935 0.038814828 4278257930
0.70772624 -0.041382939 0.042205438 4279576866
0.70640856 -0.041428044 0.042605102 4285635230
0.70576543 -0.041376829 0.042738572 4280567886
0.70511001 -0.041400507 0.042938396 4279844163
0.70449501 -0.041200742 0.042939216 4279381052
0.70385456 -0.041150421 0.043072671 4279182128
0.70323998 -0.04095082 0.04307349 4279311913
0.70261323 -0.040826097 0.043140635 4279573540
0.70198691 -0.040701538 0.04320778 4279836712
0.70136118 -0.040577114 0.043274924 4279376929
0.70073587 -0.040452883 0.043342054 4279311913
0.7001223 -0.040253609 0.043342859 4279116069
0.69949776 -0.040129602 0.043410003 4279313448
0.69888443 -0.039930388 0.043410808 4279379241
0.6982711 -0.03973119 0.043411627 4279641900
0.69764757 -0.03960751 0.043478772 4279576620
0.69703448 -0.039408386 0.043479577 4279905583
0.69642138 -0.039209262 0.043480381 4280037171
0.69579881 -0.03908591 0.043547526 4279905585
0.69518602 -0.038886875 0.043548331 4279839538
0.69458216 -0.038611904 0.04348281 4280036917
0.69396907 -0.03841278 0.043483615 4280102197
0.69334751 -0.038289741 0.04355076 4280497205
0.69274294 -0.038014531 0.043485239 4281155135
0.69212985 -0.037815407 0.043486044 4280760377
0.69151682 -0.037616283 0.043486848 4281746756
0.69091123 -0.037340775 0.043421328 4281418307
0.69029796 -0.037141576 0.043422133 4280693300
0.68969166 -0.036865816 0.043356612 4282074953
0.68908489 -0.036589891 0.043291107 4282272850
0.68847108 -0.036390528 0.043291926 4281220680
0.68786985 -0.036037579 0.043160081 4281152836
0.68725556 -0.035838053 0.043160886 4283322987
0.68665284 -0.035484612 0.043029055 4282862436
0.68605471 -0.035053819 0.042830884 4282338657
0.74894309 -0.048575521 0.03783232 4278656036
0.74833685 -0.048299581 0.037767008 4278919208
0.74778867 -0.047884494 0.037569389 4278851362
0.74720997 -0.047538519 0.037437916 4278982682
0.74660152 -0.047261879 0.037372619 4279309582
0.74596405 -0.047054842 0.037373468 4278850587
0.74538314 -0.046708122 0.037241995 4278719001
0.74471712 -0.046570837 0.037308976 4278324502
0.73576057 -0.04777056 0.040758774 4279507480
0.73511088 -0.047638565 0.04082574 4279571478
0.73446161 -0.047506705 0.04089272 4279636253
0.73381287 -0.047375023 0.040959686 4279833632
0.73318869 -0.047172308 0.040960521 4280559177
0.73258841 -0.046898291 0.040895194 4285762723
0.7319876 -0.046624154 0.040829867 4285766816
0.73138624 -0.046349823 0.04076454 4284519306
0.73078448 -0.046075359 0.040699214 4283598204
0.73018217 -0.045800716 0.040633887 4278920737
0.72964722 -0.045310915 0.040370151 4278718730
0.72904319 -0.04503572 0.040304825 4278916630
0.72846079 -0.044688538 0.040173352 4278521618
0.72787744 -0.044341028 0.040041894 4278587411
0.72729307 -0.04399319 0.039910436 4278784790
0.72668636 -0.043717146 0.039845124 4278719010
0.72612143 -0.043296605 0.039647534 4278456090
0.72553408 -0.042947829 0.039516062 4278390297
0.72494578 -0.042598709 0.039384618 4278390549
0.72435647 -0.042249277 0.03925316 4278651925
0.72376621 -0.041899547 0.039121702 4278718231
0.72317499 -0.041549474 0.038990259 4278718231
0.72256309 -0.041271731 0.038924962 4278586645
0.72195065 -0.040993795 0.038859636 4278454805
0.7213378 -0.040715739 0.038794339 4278389264
0.7207244 -0.040437505 0.038729042 4278257676
0.72011054 -0.040159106 0.038663715 4278191883
0.71947771 -0.039953575 0.03866455 4278257163
0.71880859 -0.039894283 0.038797677 4278191372
0.71817631 -0.039688915 0.038798511 4278190863
0.71750867 -0.0396301 0.038931623 4278322689
0.7168594 -0.039498225 0.038998574 4278322689
0.71617627 -0.039513424 0.039197832 4278454273
0.71549463 -0.039529055 0.039397091 4278192137
0.71481442 -0.039545178 0.039596319 4278192396
0.71410286 -0.039709121 0.039927825 4278257928
0.70917594 -0.040953428 0.04231447 4278654485
0.70846987 -0.041198179 0.042712092 4278720278
0.70782363 -0.041146323 0.042845175 4283131736
0.70650661 -0.041192666 0.043243602 4285371027
0.70587736 -0.041067302 0.043310553 4280366654
0.70526183 -0.040867373 0.043311357 4280169275
0.7046333 -0.040742248 0.043378308 4279577399
0.70399249 -0.040692151 0.043511391 4278985776
0.70336515 -0.040567413 0.043578312 4279247149
0.70273834 -0.040442839 0.043645263 4279640362
0.70212406 -0.040243328 0.043646067 4279706155
0.70149797 -0.040119007 0.043713003 4279377442
0.70087236 -0.039994821 0.043779954 4279311659
0.70025855 -0.039795458 0.043780759 4279247149
0.69963372 -0.03967154 0.043847695 4279313196
0.69902015 -0.039472252 0.0438485 4279510575
0.69839603 -0.039348558 0.043915436 4279576368
0.69778275 -0.039149359 0.04391624 4280169786
0.69716942 -0.03895016 0.04391706 4280760892
0.69654632 -0.038826779 0.043983996 4280036656
0.69594276 -0.038551748 0.043918669 4279905070
0.69532013 -0.038428545 0.043985605 4279905070
0.69470704 -0.038229421 0.043986425 4280233265
0.69410282 -0.037954152 0.043921098 4280233267
0.69348949 -0.037754953 0.043921903 4280825400
0.69287616 -0.037555754 0.043922722 4281088572
0.69227093 -0.037280157 0.043857396 4281088572
0.69165736 -0.037080869 0.0438582 4281550660
0.69105136 -0.036805034 0.043792903 4281221445
0.69043756 -0.036605671 0.043793708 4280758582
0.68983793 -0.036252886 0.043662265 4281942856
0.68923044 -0.035976574 0.043596953 4281942854
0.68861592 -0.035776973 0.043597758 4281022531
0.68801403 -0.035423458 0.04346633 4281284939
0.68740511 -0.035146669 0.043401018 4282402653
0.68679565 -0.034869716 0.043335706 4281942102
0.68620253 -0.03436102 0.043072015 4281877590
0.74904275 -0.04824838 0.038420513 4282081117
0.74846637 -0.047902808 0.038289443 4278594088
0.74788904 -0.047556907 0.038158372 4279245345
0.74728161 -0.047280446 0.038093269 4279112485
0.7466737 -0.047003835 0.038028181 4278850335
0.74606532 -0.046727046 0.037963048 4278982432
0.74542809 -0.046520084 0.037963897 4278719260
0.74476278 -0.046383187 0.038030699 4278192927
0.74415362 -0.046106145 0.037965566 4278390045
0.74348885 -0.045969412 0.038032383 4278391581
0.7382282 -0.046715483 0.040082589 4278588188
0.73752195 -0.046723694 0.040281266 4278653981
0.73679191 -0.046803296 0.040545851 4278785305
0.73536253 -0.046893328 0.041009128 4279112735
0.73466271 -0.046903595 0.041207805 4279176475
0.7340132 -0.046771824 0.041274577 4279308061
0.73338825 -0.046568856 0.041275397 4279506478
0.73273945 -0.046437323 0.041342169 4281083720
0.73213845 -0.046162933 0.041277036 4280491578
0.73153698 -0.045888379 0.041211918 4285175964
0.73091179 -0.045685336 0.041212738 4285504929
0.73030961 -0.045410544 0.041147619 4284586909
0.72970682 -0.045135617 0.041082516 4282413944
0.72910362 -0.044860497 0.041017383 4279380786
0.72854424 -0.044441253 0.04082039 4278390811
0.72796142 -0.044093609 0.040689334 4278390811
0.72737771 -0.043745637 0.040558264 4278980638
0.72677147 -0.043469578 0.040493175 4278850335
0.72618604 -0.043121055 0.040362105 4278784288
0.72559953 -0.042772189 0.040231049 4278718495
0.72499138 -0.042495489 0.040165961 4278521881
0.72440314 -0.042146087 0.040034905 4278587411
0.7237938 -0.041868955 0.039969787 4278848534
0.72318393 -0.041591704 0.039904699 4278586139
0.72259325 -0.041241482 0.039773643 4278520346
0.72198212 -0.040963829 0.03970854 4278454805
0.72138971 -0.04061304 0.039577499 4278257680
0.72077739 -0.04033497 0.039512381 4278322190
0.72012711 -0.04020296 0.039579168 4278453006
0.71951425 -0.039924726 0.039514035 4278453006
0.71884626 -0.039866135 0.03964676 4278190851
0.71819723 -0.039734527 0.039713532 4278191370
0.7175132 -0.039749905 0.039912164 4278519047
0.71684813 -0.039692283 0.040044859 4278322440
0.71618408 -0.039634958 0.040177569 4278585612
0.71550399 -0.039651632 0.040376201 4278192393
0.71480864 -0.039742529 0.040640771 4278454026
0.71413177 -0.039760217 0.040839389 4278781962
0.7099514 -0.040619642 0.042690471 4279514157
0.709243 -0.040864661 0.043086857 4278921766
0.70856661 -0.040961713 0.043351412 4281027142
0.70790648 -0.040984854 0.043550014 4284783255
0.70727593 -0.040859252 0.043616772 4283791222
0.70665967 -0.040659085 0.043617591 4280825138
0.70604336 -0.040458933 0.043618396 4279772962
0.70540053 -0.040408492 0.043751061 4279246618
0.7047717 -0.040283442 0.043817803 4279640876
0.70414335 -0.04015854 0.043884546 4279443245
0.70351547 -0.040033802 0.043951288 4279574571
0.70288813 -0.039909229 0.04401803 4279836710
0.70226127 -0.039784819 0.044084758 4279836710
0.70163488 -0.039660558 0.0441515 4279443233
0.7010206 -0.039461032 0.044152319 4278983729
0.70039493 -0.039337024 0.044219047 4279312946
0.69978088 -0.039137587 0.044219866 4279378989
0.69915599 -0.039013788 0.044286594 4279839540
0.69854218 -0.038814425 0.044287413 4281287236
0.697918 -0.03869091 0.044354126 4280300861
0.69730443 -0.038491622 0.044354945 4279839279
0.69669086 -0.038292348 0.04435575 4279509542
0.69607729 -0.03809306 0.044356555 4279904300
0.69546372 -0.037893772 0.044357359 4279971111
0.69485021 -0.037694499 0.044358179 4279839778
0.69424546 -0.037418902 0.044293076 4280496685
0.69363165 -0.037219539 0.04429388 4281022517
0.69302619 -0.036943734 0.044228762 4281154103
0.69241214 -0.036744282 0.044229582 4282142533
0.69180596 -0.036468208 0.044164464 4282012228
0.6911993 -0.036191985 0.044099346 4280561980
0.69059211 -0.035915598 0.044034243 4281678662
0.68997735 -0.035715923 0.044035062 4282270799
0.68937629 -0.035362333 0.043904021 4282206793
0.68876767 -0.035085469 0.043838903 4281681733
0.68816495 -0.034731328 0.043707877 4281680977
0.68755502 -0.034454063 0.043642774 4281615184
0.68694466 -0.034176633 0.043577656 4281221459
0.6863451 -0.033744365 0.043380708 4280300611
0.74859595 -0.047506034 0.038811877 4281818459
0.74798936 -0.047229663 0.038746983 4278785307
0.74738222 -0.046953112 0.038682058 4279308581
0.74677461 -0.046676412 0.038617164 4278850596
0.74613786 -0.046469599 0.038617998 4278850594
0.74550116 -0.046262801 0.038618833 4278784801
0.74489254 -0.045985803 0.038553938 4278193440
0.74422765 -0.045849189 0.038620517 4278324254
0.74359095 -0.045642391 0.038621351 4278522397
0.74295419 -0.045435578 0.0386222 4278588438
0.7422632 -0.045369864 0.038754538 4278391059
0.73924732 -0.045818716 0.039941281 4278784790
0.73851186 -0.04589726 0.040205091 4278719260
0.73777837 -0.04597643 0.040468901 4278719260
0.73702145 -0.046127364 0.040798455 4278719774
0.73629212 -0.046207905 0.041062236 4278785567
0.73558974 -0.046217844 0.041260317 4278916380
0.73491347 -0.046156913 0.041392639 4278980636
0.73426265 -0.046024874 0.041459188 4279112222
0.73358816 -0.045964524 0.04159151 4279177765
0.73293853 -0.045832872 0.041658059 4279965489
0.73231316 -0.045629755 0.041658878 4280424502
0.73168778 -0.045426622 0.041659713 4280695369
0.73106235 -0.045223504 0.041660532 4283458675
0.73045993 -0.044948503 0.041595623 4285768367
0.72983432 -0.044745296 0.041596457 4284783005
0.72923112 -0.044470027 0.041531518 4282609004
0.72864968 -0.044122472 0.041400895 4278393364
0.72804523 -0.043846801 0.041335955 4278194957
0.72746205 -0.043498695 0.041205302 4278916378
0.72685647 -0.043222636 0.041140407 4278916126
0.72625029 -0.042946398 0.041075483 4278719012
0.72566468 -0.042597473 0.040944844 4278719012
0.7250573 -0.042320877 0.040879935 4278456342
0.72446996 -0.041971385 0.040749282 4278324493
0.72386134 -0.041694373 0.040684387 4278979093
0.72325224 -0.041417181 0.040619478 4278651925
0.72264266 -0.041139856 0.040554568 4278586132
0.72201312 -0.040935367 0.040555388 4278389264
0.72140276 -0.040657774 0.040490478 4278191883
0.72077292 -0.04045321 0.040491313 4278257163
0.72014308 -0.040248647 0.040492147 4278453006
0.7195133 -0.040044084 0.040492982 4278518799
0.71884692 -0.039986342 0.040625274 4278191374
0.71819949 -0.03985545 0.040691853 4278389264
0.71753484 -0.03979829 0.040824145 4278585360
0.7168712 -0.039741427 0.040956438 4278322956
0.71620852 -0.039684907 0.041088715 4278651921
0.71552974 -0.039702535 0.041286767 4278192906
0.71069735 -0.040434286 0.04319872 4279648306
0.71001732 -0.040530831 0.043462455 4280437056
0.70933926 -0.040628016 0.043726191 4278991674
0.70867777 -0.040651232 0.043924183 4284386700
0.70806074 -0.040450841 0.043924987 4284783001
0.70744377 -0.040250435 0.043925807 4280299826
0.7067852 -0.040274605 0.044123828 4280099868
0.70618254 -0.0399995 0.044058889 4279707674
0.70553929 -0.039949298 0.044191167 4279444502
0.70491016 -0.039824322 0.044257715 4279575583
0.70429438 -0.039624318 0.04425852 4279772200
0.7036534 -0.039574832 0.044390798 4279706407
0.7030381 -0.039374992 0.044391602 4279770917
0.7024107 -0.039250568 0.044458151 4279770917
0.70178378 -0.039126322 0.044524685 4279377694
0.70115733 -0.03900221 0.044591203 4279050024
0.70054281 -0.038802609 0.044592023 4279248173
0.69991708 -0.03867875 0.044658557 4279445032
0.69929188 -0.038555056 0.04472509 4279839790
0.69867784 -0.038355604 0.044725895 4281219898
0.69806379 -0.038156167 0.044726714 4280431416
0.69744974 -0.03795673 0.044727519 4279510827
0.69683564 -0.037757292 0.044728324 4279905581
0.69622159 -0.03755784 0.044729143 4280300339
0.69560754 -0.037358403 0.044729948 4279971624
0.69500268 -0.037082568 0.044665039 4280367403
0.69438833 -0.036883041 0.044665843 4280498991
0.69378269 -0.036606997 0.044600934 4280959540
0.69317657 -0.036330774 0.044536024 4281156919
0.69256175 -0.036131099 0.044536844 4282340675
0.69195491 -0.035854623 0.044471934 4282405957
0.69134754 -0.035577998 0.04440701 4280561718
0.69073224 -0.035378158 0.04440783 4281613891
0.69012415 -0.035101295 0.04434292 4281811270
0.6895225 -0.034747168 0.044212282 4282272071
0.68891311 -0.034469917 0.044147387 4282207303
0.68830973 -0.03411524 0.044016764 4281418570
0.6876992 -0.033837572 0.043951839 4281221191
0.68709409 -0.033482328 0.043821245 4281221459
0.68649369 -0.033049271 0.043624878 4280105538
0.68588638 -0.032693297 0.043494269 4280170288
0.74808955 -0.046902701 0.039335147 4281229406
0.74748272 -0.046626091 0.039270461 4278590754
0.74684644 -0.046419442 0.039271295 4278720546
0.74623889 -0.046142578 0.039206579 4278850596
0.74560243 -0.045935854 0.039207414 4278719010
0.74496591 -0.045729131 0.039208248 4278193432
0.74432945 -0.045522407 0.039209098 4278520337
0.74369299 -0.045315683 0.039209932 4278718999
0.74302906 -0.045179576 0.039276332 4278653717
0.7423656 -0.045043617 0.039342701 4278719510
0.74167573 -0.044978589 0.039474636 4278719760
0.74096012 -0.044984758 0.039672107 4278785806
0.74021947 -0.045062304 0.039935112 4279047693
0.73948085 -0.045140505 0.040198103 4278915606
0.73874426 -0.045219347 0.040461123 4278915606
0.73798382 -0.045369983 0.040789649 4278981653
0.73725134 -0.045450196 0.041052639 4278850335
0.7365461 -0.045459703 0.041250095 4278587686
0.73581731 -0.045541093 0.041513085 4278653981
0.73514003 -0.045480162 0.041645005 4279046683
0.73446369 -0.045419544 0.04177691 4279046683
0.73381257 -0.045287579 0.041843265 4279047194
0.73313797 -0.045227528 0.041975185 4278981403
0.73251182 -0.045024157 0.041976005 4279636272
0.73183864 -0.044964597 0.04210791 4279573038
0.73121303 -0.044761389 0.042108729 4279638831
0.73061037 -0.04448612 0.042044014 4281942354
0.72998452 -0.044282839 0.042044833 4284316810
0.72935861 -0.044079557 0.042045653 4285243293
0.72877729 -0.043731689 0.041915432 4283662462
0.7281729 -0.043455869 0.041850701 4282938739
0.72754627 -0.043252349 0.041851535 4278260245
0.72694117 -0.042976305 0.041786835 4278917143
0.72635686 -0.042627484 0.041656584 4278719526
0.72575057 -0.042351007 0.041591853 4278653733
0.72514373 -0.042074397 0.041527167 4278325018
0.72453642 -0.041797608 0.041462451 4278455057
0.72390831 -0.041593611 0.041463286 4278782741
0.72330022 -0.041316614 0.04139857 4278717714
0.72269171 -0.041039437 0.041333884 4278651921
0.72206312 -0.040835276 0.041334718 4278389512
0.72145385 -0.040557846 0.041269988 4278258698
0.72080588 -0.040426955 0.041336372 4278585612
0.72017729 -0.040222779 0.041337192 4278257680
0.7195487 -0.040018618 0.041338027 4278586645
0.71888345 -0.039961576 0.041469902 4278916376
0.71821916 -0.039904892 0.041601792 4278391061
0.71755588 -0.039848521 0.041733682 4279312415
0.71689361 -0.039792448 0.041865572 4280696630
0.71624964 -0.039662823 0.041931957 4280762423
0.71553779 -0.039829239 0.042260408 4280959806
0.71484524 -0.039922431 0.042523369 4281682246
0.71417129 -0.039942086 0.042720765 4281155898
0.71212649 -0.040152743 0.043444052 4281816658
0.71144331 -0.040248945 0.043706983 4280568388
0.70883274 -0.040116757 0.044300005 4283329134
0.70818645 -0.040065899 0.044431835 4281614154
0.70758355 -0.039790571 0.044367149 4280556336
0.70695245 -0.039665088 0.044433475 4280164123
0.70633543 -0.039464697 0.044434279 4279772438
0.70570499 -0.039339468 0.044500634 4279772438
0.70507509 -0.039214388 0.044566959 4279573776
0.70443273 -0.039164811 0.044698834 4281151788
0.70380402 -0.039040148 0.044765174 4279904548
0.70317584 -0.038915649 0.044831514 4279443483
0.70254815 -0.038791299 0.044897854 4279443483
0.70193285 -0.038591444 0.044898659 4279773736
0.70130587 -0.038467333 0.044964999 4279840040
0.70069081 -0.038267583 0.044965804 4280696618
0.7000646 -0.038143724 0.045032144 4280037668
0.69944978 -0.037944034 0.045032948 4280037668
0.69883502 -0.037744358 0.045033768 4280364851
0.69822019 -0.037544668 0.045034572 4280890943
0.69760537 -0.037344992 0.045035377 4280892476
0.69699061 -0.037145317 0.045036197 4281419072
0.69637579 -0.036945626 0.045037001 4281813830
0.69576102 -0.036745951 0.045037821 4281749310
0.69515544 -0.036469728 0.044973105 4282277710
0.69454932 -0.036193341 0.044908389 4281159748
0.69393402 -0.035993502 0.044909209 4281026362
0.69332719 -0.035716891 0.044844493 4280500018
0.69271165 -0.035516977 0.044845313 4281682747
0.6921041 -0.035240114 0.044780597 4281484601
0.69149607 -0.034963101 0.044715896 4280891967
0.69088751 -0.034685925 0.044651195 4281615690
0.69027847 -0.034408569 0.04458648 4281614916
0.68966895 -0.034131095 0.044521779 4281679164
0.6890589 -0.033853427 0.044457063 4281218611
0.68844843 -0.033575624 0.044392377 4281614143
0.68784362 -0.033220142 0.044262156 4281350971
0.68723792 -0.032864362 0.044131935 4280825922
0.68663114 -0.032508239 0.044001728 4280760894
0.68602896 -0.032074094 0.043806002 4280169777
0.74758309 -0.046299353 0.039858431 4278195996
0.74697608 -0.046022519 0.039793938 4278916126
0.74633986 -0.04581587 0.039794773 4278916137
0.74570358 -0.045609221 0.039795607 4278718758
0.74506736 -0.045402586 0.039796457 4278193943
0.74443114 -0.045195937 0.039797291 4278651921
0.74379492 -0.044989288 0.039798126 4278718997
0.74310368 -0.044924185 0.039929643 4278719510
0.7424407 -0.044788525 0.039995819 4278719510
0.74172413 -0.044794917 0.040192693 4278719764
0.74106264 -0.044659749 0.040258855 4278851346
0.7403751 -0.044595823 0.040390372 4278851346
0.73963606 -0.044674575 0.040652588 4278850583
0.73892498 -0.044682696 0.040849432 4278784790
0.73821539 -0.044691294 0.041046277 4278915347
0.7374562 -0.044843212 0.041373804 4279505435
0.73675001 -0.044852942 0.041570649 4278784803
0.73604536 -0.044863135 0.041767478 4278654235
0.73534214 -0.044873819 0.041964337 4279112476
0.73466498 -0.044813275 0.042095825 4278980890
0.73401308 -0.044681236 0.042162016 4279113237
0.73333764 -0.044621259 0.042293519 4278785044
0.73268694 -0.044489607 0.042359665 4278915876
0.73206031 -0.044286072 0.042360485 4279113766
0.73141038 -0.044154689 0.042426676 4279311145
0.730784 -0.043951243 0.042427495 4279704361
0.73015761 -0.043747798 0.04242833 4279444026
0.72953123 -0.043544352 0.042429149 4285306533
0.72890484 -0.043340921 0.042429969 4284386446
0.72827846 -0.043137476 0.042430803 4284715411
0.72767395 -0.042861417 0.042366281 4280633671
0.7270689 -0.042585224 0.042301774 4279445280
0.72644198 -0.042381614 0.042302608 4278587936
0.72583622 -0.042105168 0.042238086 4278587936
0.72522992 -0.041828558 0.042173594 4278455577
0.72460258 -0.041624784 0.042174414 4278455829
0.72399557 -0.041347936 0.042109892 4278651925
0.72336793 -0.041144088 0.042110726 4278850583
0.72274035 -0.04094024 0.042111546 4279705892
0.72213233 -0.040663078 0.042047054 4279575583
0.72150445 -0.040459156 0.042047888 4280037417
0.7208575 -0.040328711 0.042114034 4280433976
0.72022986 -0.040124878 0.042114854 4281027144
0.71958363 -0.039994687 0.04218103 4280698179
0.71891952 -0.039938375 0.042312533 4281224523
0.71827453 -0.039808556 0.042378664 4281158732
0.71759427 -0.039826706 0.042575479 4280831298
0.71691543 -0.039845318 0.042772293 4280766017
0.71625549 -0.039790377 0.042903781 4280831810
0.71557939 -0.039809853 0.043100581 4280897093
0.71488792 -0.039904058 0.043362722 4281355594
0.71421504 -0.039924577 0.043559507 4281553225
0.71354359 -0.039945588 0.043756306 4282276176
0.71288985 -0.039892644 0.043887779 4281946697
0.71023905 -0.039908335 0.044609636 4281877586
0.70959097 -0.039857224 0.044741094 4281215806
0.70897323 -0.039656579 0.044741914 4280755255
0.70835543 -0.039455935 0.044742733 4280756025
0.70770931 -0.03940548 0.044874191 4280031527
0.70709205 -0.039205 0.044875011 4281019179
0.70646107 -0.039079756 0.044941127 4280164116
0.70583063 -0.03895469 0.045007288 4280032530
0.70521384 -0.038754374 0.045008093 4280227606
0.70458412 -0.038629517 0.045074224 4280231218
0.70395488 -0.038504854 0.045140371 4279448114
0.70332617 -0.038380325 0.045206502 4280499769
0.70269793 -0.038255975 0.045272633 4278525979
0.70207018 -0.038131788 0.045338765 4280694586
0.70145464 -0.037931859 0.045339584 4281024050
0.7008391 -0.037731946 0.045340389 4281222446
0.7002123 -0.037608057 0.04540652 4281486901
0.699597 -0.037408218 0.04540734 4281092143
0.6989817 -0.037208378 0.045408145 4282078547
0.69837689 -0.03693226 0.045343637 4282866769
0.69776136 -0.036732331 0.045344442 4282340677
0.69715583 -0.036455959 0.045279935 4282078287
0.69654006 -0.036255956 0.045280755 4281683529
0.69592428 -0.036055952 0.045281559 4281683279
0.69531775 -0.035779268 0.045217052 4281420107
0.69471073 -0.035502419 0.04515256 4281616721
0.69409442 -0.035302252 0.045153379 4280958010
0.69347817 -0.035102099 0.045154184 4280300080
0.69287014 -0.034824908 0.045089662 4281421108
0.69225365 -0.034624666 0.045090482 4281684026
0.69164491 -0.034347281 0.045025989 4280564281
0.69103569 -0.034069702 0.044961467 4281090625
0.69042593 -0.033791974 0.04489699 4281088574
0.6898157 -0.033514097 0.044832498 4281679684
0.68920499 -0.033236027 0.044767976 4280825387
0.68860036 -0.032880262 0.044638157 4280693550
0.68799472 -0.032524154 0.044508353 4281088308
0.68737596 -0.032323197 0.044509172 4280627521
0.68677461 -0.031888813 0.044314057 4280496957
0.68617183 -0.031453967 0.044118926 4280626994
0.74771267 -0.04590258 0.040380865 4282740342
0.74704766 -0.045766473 0.040446848 4279643183
0.74641192 -0.045559987 0.040447682 4278917421
0.74580467 -0.045282885 0.040383384 4278720042
0.74516869 -0.045076326 0.040384218 4278192939
0.7445327 -0.044869766 0.040385053 4278586909
0.74386889 -0.044734046 0.040451035 4278785055
0.74320561 -0.04459846 0.040517017 4278653469
0.7425428 -0.044463068 0.040583 4278785055
0.74185348 -0.044398904 0.040714115 4278784540
0.74113828 -0.044406205 0.040910363 4278916376
0.74045116 -0.044342756 0.041041479 4278458905
0.73976499 -0.04427965 0.041172594 4278523167
0.73905379 -0.044288218 0.041368827 4278457374
0.73836982 -0.044225827 0.041499943 4278653719
0.7376613 -0.044235289 0.041696176 4279439892
0.73692894 -0.044316873 0.041957557 4278850587
0.73622364 -0.044327378 0.042153791 4278916380
0.73554462 -0.044266582 0.042284876 4279244310
0.73486662 -0.044206098 0.042415977 4279244310
0.73418957 -0.044145927 0.042547092 4279375894
0.73353761 -0.044014037 0.042613029 4278982419
0.73288614 -0.043882325 0.042679012 4278918173
0.73221159 -0.043822959 0.042810112 4278919710
0.73156136 -0.04369162 0.042876065 4278853917
0.73093474 -0.0434881 0.042876884 4279577388
0.73030812 -0.04328458 0.042877719 4279972671
0.72968149 -0.043081045 0.042878538 4280762718
0.72903246 -0.042950138 0.042944521 4282606707
0.72840607 -0.042746693 0.04294534 4284712083
0.72780156 -0.042470485 0.042881012 4284453009
0.72717494 -0.04226695 0.042881846 4284582781
0.72654831 -0.04206343 0.042882666 4282866254
0.72594285 -0.041786924 0.042818382 4278852881
0.72531593 -0.041583329 0.042819202 4278718227
0.72468907 -0.04137972 0.042820036 4279048216
0.7240622 -0.041176125 0.042820856 4278853663
0.72345549 -0.040899187 0.042756543 4279907632
0.72282839 -0.040695503 0.042757362 4280170804
0.72220123 -0.040491819 0.042758197 4281356097
0.72157413 -0.040288135 0.042759016 4281093185
0.72092783 -0.040158108 0.042824998 4281224775
0.72028208 -0.0400282 0.042890936 4281158730
0.71963674 -0.039898485 0.042956904 4281619281
0.71897352 -0.039842799 0.043087959 4281159502
0.71831125 -0.039787427 0.043219045 4281620053
0.71763206 -0.03980644 0.043415248 4280764992
0.71695435 -0.039825901 0.043611452 4280962882
0.71629554 -0.039771661 0.043742523 4281028675
0.71563774 -0.039717749 0.043873608 4280962634
0.71494699 -0.039812863 0.04413493 4281225291
0.71429163 -0.039759725 0.044265985 4281225545
0.71363729 -0.039706931 0.044397056 4281683527
0.71296769 -0.039729059 0.044593245 4281418557
0.71229959 -0.039751649 0.044789448 4281221178
0.71166438 -0.039625183 0.044855371 4280762175
0.71102965 -0.03949891 0.044921309 4280893509
0.71039546 -0.039372787 0.044987261 4281021250
0.70976174 -0.039246827 0.045053199 4280756025
0.7091285 -0.039121032 0.045119122 4280558646
0.7084958 -0.0389954 0.045185074 4280493107
0.70787776 -0.038794681 0.045185894 4280361003
0.70724577 -0.038669258 0.045251817 4280295458
0.70662802 -0.038468614 0.045252621 4279900949
0.70599675 -0.038343459 0.045318589 4279966742
0.70536602 -0.038218454 0.045384496 4279505685
0.70473576 -0.038093612 0.045450419 4280232249
0.70411873 -0.037893206 0.045451239 4280041534
0.70348918 -0.037768617 0.045517191 4280762939
0.70286018 -0.037644163 0.045583099 4278986528
0.70224363 -0.037443921 0.045583919 4281287488
0.70162708 -0.037243679 0.045584738 4281223479
0.70101058 -0.037043437 0.045585543 4281881659
0.70038277 -0.0369194 0.045651495 4282078784
0.69976652 -0.036719233 0.0456523 4281881405
0.69916099 -0.036442712 0.045587987 4282078283
0.6985445 -0.03624247 0.045588791 4282406218
0.69793826 -0.035965711 0.045524508 4282010175
0.69732147 -0.035765395 0.045525327 4281419340
0.69670469 -0.035565078 0.045526132 4281287754
0.69608796 -0.035364747 0.045526952 4281156683
0.69548047 -0.035087585 0.045462623 4281025349
0.69486344 -0.03488718 0.045463443 4281221963
0.69425523 -0.03460978 0.045399159 4281419342
0.69363797 -0.034409299 0.045399964 4280695867
0.6930207 -0.034208819 0.045400783 4281948736
0.69241154 -0.033931091 0.0453365 4281947712
0.69180185 -0.0336532 0.045272171 4280498488
0.6911841 -0.033452556 0.045272991 4280630074
0.69057369 -0.033174455 0.045208707 4280956738
0.6899699 -0.032818601 0.045079291 4281482566
0.68935823 -0.032540068 0.045014992 4280628522
0.68874609 -0.032261387 0.044950694 4280694834
0.6881398 -0.031904757 0.044821307 4280760627
0.6875264 -0.031625673 0.044757009 4280365632
0.68692428 -0.031190485 0.044562489 4280366400
0.6863094 -0.030910939 0.044498205 4280101677
0.7471481 -0.045440421 0.041034013 4283990659
0.74651259 -0.04523401 0.041034862 4279248950
0.74590564 -0.044956878 0.040970758 4278919985
0.74526989 -0.044750392 0.040971592 4278522411
0.74463415 -0.044543907 0.040972427 4278390561
0.74397057 -0.044408396 0.041038215 4278522397
0.74330747 -0.044273078 0.041103989 4278391063
0.74261755 -0.044209063 0.041234702 4278654235
0.7419557 -0.044074133 0.041300461 4278851098
0.74126744 -0.044010654 0.041431174 4278655514
0.7405802 -0.043947533 0.041561887 4278458907
0.73989397 -0.043884709 0.0416926 4278916387
0.73918259 -0.043893754 0.041888222 4278653215
0.7384727 -0.043903276 0.042083859 4278522397
0.73778987 -0.043841586 0.042214558 4278915608
0.73708266 -0.043852016 0.042410195 4279246370
0.73640209 -0.043791011 0.042540893 4279576357
0.73569763 -0.043802306 0.04273653 4279577386
0.73504388 -0.043670014 0.042802274 4279906351
0.73436624 -0.043610007 0.042932972 4280830544
0.73371375 -0.043478101 0.042998731 4281026640
0.73303783 -0.043418646 0.043129414 4281354326
0.73238659 -0.043287158 0.043195188 4281552471
0.73173583 -0.043155834 0.043260932 4281355092
0.73108554 -0.043024674 0.043326721 4280764492
0.73045868 -0.042821065 0.04332754 4281227092
0.72983176 -0.04261747 0.04332836 4280896851
0.72918248 -0.042486593 0.043394104 4282079848
0.72855586 -0.042283073 0.043394938 4282145641
0.7279073 -0.042152464 0.043460712 4284843154
0.72730261 -0.041876018 0.043396592 4285504400
0.72667599 -0.041672498 0.043397412 4286162330
0.72604936 -0.041468978 0.043398246 4285307021
0.72542274 -0.041265458 0.043399066 4281488463
0.72479612 -0.041061938 0.0433999 4280957756
0.72416949 -0.040858403 0.04340072 4280894273
0.72354281 -0.040654883 0.043401539 4280962121
0.72291619 -0.040451363 0.043402374 4281027914
0.72226989 -0.040321484 0.043468148 4281225293
0.72164351 -0.040118039 0.043468967 4280895558
0.72099787 -0.039988384 0.043534711 4281290314
0.72035277 -0.039858893 0.04360044 4281487693
0.7197082 -0.039729565 0.043666214 4281816658
0.7190271 -0.03974846 0.043861806 4281685072
0.71838397 -0.039619625 0.04392755 4281553488
0.71770537 -0.039639309 0.044123143 4281487693
0.7170282 -0.039659485 0.044318736 4281092172
0.71637005 -0.039605781 0.044449404 4280829000
0.7157129 -0.039552405 0.044580072 4280829000
0.71503973 -0.039573863 0.04477565 4279775028
0.71438473 -0.039521202 0.044906318 4279971378
0.71373075 -0.03946887 0.045036986 4280232751
0.71309406 -0.03934212 0.04510273 4280560431
0.7124418 -0.039290339 0.045233399 4280428845
0.7118063 -0.039163962 0.045299143 4280429619
0.71117127 -0.039037734 0.045364857 4280695101
0.71055204 -0.038836613 0.045365676 4280037687
0.70991778 -0.038710654 0.04543142 4280364851
0.70929879 -0.038509622 0.04543224 4280430644
0.70866525 -0.038383886 0.045497969 4281088310
0.70804656 -0.038182929 0.045498788 4280693550
0.70741373 -0.038057446 0.045564517 4281091380
0.70679528 -0.037856564 0.045565337 4281619519
0.70617676 -0.037655681 0.045566157 4281619519
0.70554495 -0.037530512 0.045631871 4280696117
0.70492673 -0.037329704 0.04563269 4280169523
0.70430845 -0.03712891 0.04563351 4281091641
0.70367765 -0.037004068 0.045699254 4281551931
0.70304734 -0.036879361 0.045764968 4281486138
0.70242959 -0.036678717 0.045765787 4282143816
0.70118248 -0.036353722 0.045832351 4281159750
0.70057631 -0.036076799 0.045768231 4281417791
0.69994748 -0.035952598 0.045833975 4280891447
0.69934082 -0.035675511 0.045769855 4281678649
0.69872302 -0.035474867 0.045770675 4281613874
0.69810528 -0.035274222 0.045771495 4281483056
0.69748753 -0.035073578 0.045772299 4281483056
0.69686973 -0.034872934 0.045773119 4281548873
0.69625199 -0.03467229 0.045773938 4281220680
0.69562489 -0.034548655 0.045839682 4281219135
0.69500738 -0.0343481 0.045840487 4281349949
0.69438988 -0.034147531 0.045841306 4281284156
0.69378096 -0.033869728 0.045777187 4280957756
0.69317162 -0.033591792 0.045713112 4281947464
0.69256985 -0.033236265 0.045584098 4281817663
0.69195133 -0.033035383 0.045584917 4279908663
0.69133288 -0.032834515 0.045585722 4279974456
0.69071436 -0.032633618 0.045586541 4280564296
0.69011015 -0.032277301 0.045457527 4280957758
0.68950498 -0.031920686 0.045328543 4281154343
0.68889213 -0.031641603 0.045264453 4280759594
0.68827879 -0.031362355 0.045200348 4281022766
0.68767112 -0.031004921 0.045071349 4279642929
0.6870625 -0.030647174 0.044942349 4280436040
