# .PCD v0.7 - Point Cloud Data file format
VERSION 0.7
FIELDS x y z rgb
SIZE 4 4 4 4
TYPE F F F U
COUNT 1 1 1 1
WIDTH 1024
HEIGHT 1
VIEWPOINT 0 0 0 1 0 0 0
POINTS 1024
DATA ascii
0.74153793 -0.040035039 0.043651745 4284644214
0.74117321 -0.040536717 0.043651879 4286289039
0.74087 -0.041077927 0.043720901 4294574074
0.7405054 -0.041579396 0.043721035 4294901755
0.74007905 -0.042041764 0.043652281 4287860113
0.73965234 -0.042504542 0.043583542 4280692019
0.73922539 -0.042967752 0.043514833 4280560433
0.74177724 -0.036436491 0.042694017 4281551943
0.74177361 -0.037187822 0.043106198 4280567626
0.74152833 -0.037773989 0.043243706 4282343522
0.74128366 -0.038359307 0.043381184 4283789939
0.74110079 -0.03898403 0.043587342 4284314995
0.74079615 -0.039527431 0.043656155 4290825672
0.74049181 -0.0400704 0.043724969 4294311933
0.74024945 -0.040652581 0.043862447 4294639611
0.73988414 -0.0411551 0.043862581 4294309365
0.73951876 -0.041657612 0.043862715 4285689205
0.73909134 -0.042121142 0.043794185 4280492853
0.73860139 -0.04254631 0.043656975 4280229681
0.73811078 -0.042972311 0.04351975 4279968044
0.7410332 -0.036672257 0.043115079 4280435525
0.74078715 -0.03726007 0.043252155 4282080865
0.74041939 -0.038513869 0.043663263 4288786355
0.74005252 -0.039018482 0.043663397 4293326072
0.73974729 -0.039563023 0.043732002 4294770686
0.7395041 -0.040146858 0.043869093 4294639100
0.73913765 -0.040650845 0.043869227 4289375410
0.73883337 -0.041194126 0.043937832 4285163635
0.73840487 -0.041658811 0.043869495 4280426539
0.73791373 -0.042085044 0.043732688 4280163888
0.73748451 -0.04255078 0.043664351 4279705642
0.74053848 -0.035565048 0.042990088 4279908150
0.74041295 -0.036237493 0.043263301 4279840569
0.74010521 -0.036785677 0.043331698 4284772730
0.73992038 -0.037414752 0.043536648 4289836985
0.73967505 -0.038002133 0.043673322 4294770686
0.73943025 -0.038588673 0.043810025 4294770686
0.73918611 -0.039174363 0.043946683 4294112756
0.73881876 -0.039679609 0.043946818 4289574074
0.73851353 -0.040224455 0.044015229 4286351502
0.73820853 -0.040768877 0.044083625 4284966763
0.7377792 -0.041234523 0.044015497 4281677113
0.73741204 -0.041739553 0.044015646 4279771437
0.73698223 -0.042205825 0.043947503 4279312165
0.7364893 -0.042633966 0.043811113 4279574819
0.74114877 -0.033684224 0.043276876 4280564798
0.74077886 -0.034193031 0.04327701 4280630074
0.74034816 -0.034660265 0.043209091 4280564285
0.74010003 -0.03525202 0.043345362 4279840562
0.73979133 -0.035801776 0.043413565 4280496703
0.73954427 -0.036392063 0.043549851 4282402385
0.73929781 -0.036981516 0.043686122 4294441721
0.73905194 -0.037570119 0.043822363 4294770686
0.73880666 -0.038157903 0.043958649 4294770686
0.73850018 -0.038704723 0.044026852 4290560967
0.73825598 -0.039291039 0.044163123 4288062380
0.73795021 -0.039836809 0.044231325 4287009180
0.73764479 -0.040382169 0.044299543 4284770154
0.73727715 -0.040887833 0.044299677 4281809469
0.73684692 -0.041354425 0.044231743 4279705642
0.73641634 -0.041821443 0.044163808 4279443747
0.73598552 -0.04228887 0.044095889 4279575587
0.7480846 -0.008795619 0.035823405 4279378222
0.74775207 -0.0093785822 0.035891429 4278784803
0.74747503 -0.010010555 0.036027312 4278719010
0.74708778 -0.010543257 0.036027461 4279045913
0.74681169 -0.011173949 0.036163315 4279373077
0.7465362 -0.011803836 0.036299199 4278718997
0.74626136 -0.012432873 0.036435068 4278851350
0.74609923 -0.013157837 0.036706686 4278917143
0.7459383 -0.013881125 0.036978304 4278785817
0.74120969 -0.032180965 0.043361425 4280760127
0.74083889 -0.032691024 0.04336156 4280036658
0.7405287 -0.033243187 0.043429568 4280234037
0.74027956 -0.033836804 0.043565437 4280102449
0.73990917 -0.034346238 0.043565586 4280234035
0.73959994 -0.034897134 0.043633565 4280431414
0.73935217 -0.035488874 0.043769434 4282866788
0.73904365 -0.036038727 0.043837443 4283128936
0.73879695 -0.036628999 0.043973312 4294639615
0.7385509 -0.037218429 0.044109181 4291878110
0.73824364 -0.037766606 0.044177189 4289509562
0.7379986 -0.038354568 0.044313043 4287014055
0.73775423 -0.038941696 0.044448912 4287014575
0.73744816 -0.039488196 0.044516906 4284578179
0.73720485 -0.040073857 0.044652775 4284246374
0.73677433 -0.040540569 0.044585064 4282864721
0.73640621 -0.041046858 0.044585198 4279706659
0.73591232 -0.041475251 0.044449612 4279641627
0.73541784 -0.041904464 0.044313997 4279707160
0.73492271 -0.042334534 0.044178426 4279509014
0.73430026 -0.042688794 0.043907106 4279837979
0.73361301 -0.043006614 0.043567941 4280165410
0.73292434 -0.043326527 0.043228745 4280628275
0.74825001 -0.0081209093 0.036474302 4279771948
0.74786258 -0.0086538196 0.036474451 4278982432
0.74769628 -0.0093856603 0.036745265 4278915358
0.74730945 -0.0099177212 0.036745414 4278849565
0.74692261 -0.010449782 0.036745563 4279308056
0.7466473 -0.011080064 0.03688103 4279438870
0.74637252 -0.011709504 0.037016496 4278915608
0.74615443 -0.012386784 0.037219629 4279046933
0.74599344 -0.013111293 0.037490442 4279178519
0.74577731 -0.013785854 0.03769356 4279113237
0.74561858 -0.014507212 0.037964359 4278982421
0.74121255 -0.030628502 0.043380752 4280430910
0.74090099 -0.031182848 0.043448552 4280825668
0.74065012 -0.031779386 0.043584004 4280823871
0.74033928 -0.032332681 0.043651804 4280100915
0.7400288 -0.032885566 0.043719605 4279772462
0.73971856 -0.033438027 0.04378742 4279904300
0.73940867 -0.03399007 0.043855205 4280826687
0.73916024 -0.034583256 0.043990672 4281353031
0.73885113 -0.035134248 0.044058472 4283262059
0.73854226 -0.035684824 0.044126272 4283327591
0.73829538 -0.036275908 0.044261724 4293851900
0.73798728 -0.036825441 0.044329539 4287538089
0.73780352 -0.037455581 0.044532672 4286156436
0.73755848 -0.038044155 0.044668123 4286816165
0.73725176 -0.038591787 0.044735909 4285894813
0.73694533 -0.03913901 0.044803709 4284447615
0.73657662 -0.039646134 0.044803843 4283591009
0.73627067 -0.040192738 0.044871643 4282538321
0.73590213 -0.040699653 0.044871792 4279904550
0.73547059 -0.041167527 0.04480426 4280036123
0.73491234 -0.041558146 0.044601426 4279772436
0.73435313 -0.041950025 0.044398576 4279640850
0.73372954 -0.042304732 0.044128075 4279772436
0.73297745 -0.04258471 0.043722242 4279640854
0.7324149 -0.042981192 0.043519393 4280694068
0.7317875 -0.043341152 0.043248892 4281023803
0.7313512 -0.043815523 0.04318139 4280826424
0.73072183 -0.044178195 0.042910889 4279510823
0.74797314 -0.0079296678 0.037057117 4279047966
0.7476964 -0.0085624307 0.037192166 4278652686
0.74742019 -0.0091943741 0.03732723 4278849815
0.74714464 -0.0098254681 0.037462294 4278718229
0.74686968 -0.010455713 0.037597358 4279242513
0.74648368 -0.010986738 0.037597507 4279045389
0.74626565 -0.011664718 0.037800014 4278782235
0.74604857 -0.012341462 0.038002566 4279046933
0.74588865 -0.013065509 0.03827256 4279178519
0.74578649 -0.013836242 0.038609996 4278981387
0.74551594 -0.014460422 0.038745075 4279113488
0.74547309 -0.015275523 0.039149955 4278588164
0.74560291 -0.016231328 0.039757252 4278192896
0.74121785 -0.029068843 0.04340291 4280362804
0.74096513 -0.029668503 0.043537959 4279903284
0.74071306 -0.030267321 0.043673024 4279903798
0.74046159 -0.030865304 0.043808073 4279706419
0.74015009 -0.031419754 0.043875679 4280033585
0.73983896 -0.031973772 0.043943271 4280363056
0.73958898 -0.032569662 0.044078335 4279839277
0.73927861 -0.033122629 0.044145912 4280435007
0.73902971 -0.033717059 0.044280991 4281092939
0.73872006 -0.034268983 0.044348583 4281882455
0.73841077 -0.034820497 0.044416189 4281615690
0.73816335 -0.035412826 0.044551238 4281614920
0.73791659 -0.036004312 0.044686288 4284513662
0.73767048 -0.036594957 0.044821352 4284645761
0.73736286 -0.037144169 0.044888929 4284645761
0.73711777 -0.037733354 0.045024008 4284908679
0.73681086 -0.0382815 0.045091599 4284973189
0.73644173 -0.038789257 0.045091733 4282408032
0.7361353 -0.039336786 0.04515934 4281752664
0.73576629 -0.039844334 0.045159474 4281950043
0.73533428 -0.040312529 0.045092151 4279578151
0.73483878 -0.04074201 0.04495737 4279904539
0.73434269 -0.041172318 0.044822589 4279904026
0.73384601 -0.041603468 0.044687822 4279838233
0.73315781 -0.041919917 0.044350654 4279640854
0.73246807 -0.042238459 0.0440135 4279706393
0.73177683 -0.04255911 0.043676361 4280365352
0.73121226 -0.042957611 0.043474123 4281287222
0.73064673 -0.04335738 0.043271899 4281221429
0.73001587 -0.043720938 0.043002188 4280630577
0.72944844 -0.044123426 0.042799965 4279971877
0.72894466 -0.04456421 0.042665198 4278718477
0.72857004 -0.045079514 0.042665333 4278718477
0.72813046 -0.045558192 0.042598009 4279048216
0.74780697 -0.0078392923 0.037773997 4278455575
0.74753094 -0.008471638 0.037908658 4278390286
0.74719995 -0.0090532005 0.037976041 4278783757
0.746925 -0.009684056 0.038110703 4278717964
0.74659473 -0.01026459 0.038178116 4278979590
0.74637681 -0.010943279 0.038380042 4278913803
0.74610364 -0.011571631 0.038514704 4278848534
0.74594367 -0.012296893 0.038783878 4278916630
0.74584138 -0.013069153 0.039120302 4278785044
0.7456274 -0.013742395 0.039322227 4278587661
0.74552786 -0.01451087 0.039658651 4278719247
0.74571437 -0.015517451 0.040331379 4278456075
0.74556154 -0.016232871 0.040600553 4278192400
0.74540997 -0.016946606 0.040869728 4278389784
0.7450875 -0.017516442 0.040937126 4278587163
0.74482286 -0.018133052 0.041071773 4279246118
0.74450123 -0.018701844 0.041139171 4280104761
0.74429548 -0.019363776 0.041341096 4280104497
0.74403262 -0.019977875 0.041475758 4280301372
0.74110597 -0.027413875 0.043293387 4279641900
0.74097145 -0.028104134 0.043562546 4279114532
0.74071795 -0.028705455 0.043697193 4280231216
0.74046504 -0.029305942 0.043831855 4279967531
0.74021274 -0.029905573 0.043966502 4279502617
0.73996109 -0.030504376 0.044101149 4279831582
0.73971003 -0.031102344 0.044235811 4279766293
0.73939872 -0.031656884 0.044303209 4280099868
0.7390877 -0.032211006 0.044370607 4279906584
0.73883808 -0.032806866 0.044505239 4280170787
0.73858917 -0.033401892 0.0446399 4279973408
0.73827934 -0.033954337 0.044707298 4279311134
0.73803151 -0.034547903 0.044841945 4280491558
0.73778427 -0.035140634 0.044976592 4281418309
0.73747563 -0.035691395 0.04504399 4281948764
0.73729157 -0.036323562 0.045245901 4283725175
0.7369839 -0.03687308 0.045313299 4283462003
0.73667651 -0.037422173 0.045380682 4283987831
0.73636949 -0.037970833 0.04544808 4283984497
0.736 -0.038479015 0.045448229 4281286221
0.73563057 -0.03898719 0.045448363 4281155148
0.73519814 -0.039455712 0.045381233 4280891976
0.73476535 -0.039924651 0.045314118 4280036406
0.73433232 -0.040394008 0.045247003 4280036908
0.73370862 -0.040746711 0.044978127 4279904550
0.73321086 -0.041178711 0.044843748 4279641378
0.73245752 -0.041457132 0.044440359 4279837981
0.73189402 -0.041853264 0.044238731 4279508763
0.73126554 -0.042212449 0.04396984 4280035624
0.73063588 -0.042573318 0.043700963 4280035624
0.73013377 -0.043011405 0.043566599 4280627757
0.72956645 -0.043412767 0.043364972 4281023029
0.72912765 -0.043890104 0.043297857 4281418040
0.72862369 -0.044330694 0.043163493 4279772962
0.72811908 -0.044772133 0.043029115 4279180825
0.72761393 -0.045214415 0.042894751 4278982432
0.72730392 -0.045767061 0.042962134 4279377444
0.7496525 0.0098267943 0.030640945 4279311138
0.74930066 0.0092162043 0.030708164 4279311138
0.74873924 0.0088237077 0.030507162 4279968548
0.74725521 -0.0082809329 0.038489804 4278325006
0.74698019 -0.0089123994 0.038624063 4278652684
0.74664998 -0.0094932467 0.038691267 4278652684
0.74643195 -0.010172844 0.038892582 4278979849
0.74615878 -0.010801807 0.039026842 4278913807
0.74599874 -0.011528283 0.039295197 4278913555
0.74583989 -0.012253083 0.039563552 4278916630
0.74573886 -0.013024986 0.039898992 4278785555
0.745673 -0.01552061 0.041173458 4278192393
0.74546432 -0.016187429 0.041374773 4278191383
0.74525654 -0.01685299 0.041576058 4278851108
0.74499214 -0.017469808 0.041710332 4279180073
0.74472839 -0.01808577 0.041844577 4279444267
0.74440742 -0.018653825 0.041911766 4279116069
0.7440868 -0.01922144 0.04197897 4280101677
0.74376649 -0.019788645 0.04204616 4280035888
0.7435047 -0.020401888 0.042180404 4280364853
0.74295151 -0.020783059 0.041979402 4281417025
0.74137294 -0.025232881 0.04318738 4280628275
0.74123573 -0.025927924 0.043455705 4280167210
0.74092042 -0.026488215 0.043522909 4279311649
0.74066538 -0.027092241 0.043657169 4279443235
0.74047101 -0.027739361 0.043858454 4279180063
0.74021727 -0.028341502 0.043992698 4279572257
0.73996419 -0.028942801 0.044126958 4279242522
0.73977226 -0.029586576 0.044328257 4279502871
0.73945981 -0.030142881 0.044395462 4279766043
0.73920858 -0.030741662 0.044529706 4279635740
0.73895788 -0.031339608 0.044663951 4279312415
0.73864669 -0.031894244 0.04473114 4280104735
0.73839712 -0.032490723 0.0448654 4280566565
0.73814809 -0.03308636 0.044999629 4279908635
0.73783815 -0.033639312 0.045066819 4278917141
0.73759025 -0.034233488 0.045201063 4280690218
0.73734295 -0.034826823 0.045335308 4282142280
0.7370342 -0.035378106 0.045402512 4282079830
0.73678792 -0.035969973 0.045536757 4283593071
0.73647994 -0.036520198 0.045603946 4283066727
0.73623478 -0.037110604 0.04573819 4283658349
0.73592752 -0.037659794 0.04580538 4283260774
0.73555779 -0.038168386 0.045805529 4281943379
0.73512506 -0.03863702 0.045738593 4281811793
0.73469204 -0.039106078 0.045671687 4280101947
0.73419541 -0.039536007 0.045537725 4280166968
0.73125488 -0.041428789 0.044398531 4279640351
0.73062515 -0.04178866 0.044130459 4279969066
0.73012292 -0.042226344 0.043996483 4279640101
0.72962004 -0.042664863 0.043862507 4280298029
0.72911656 -0.043104231 0.04372856 4281615168
0.72861248 -0.043544434 0.043594584 4281484350
0.72810781 -0.043985464 0.043460622 4280103984
0.72766757 -0.04446438 0.043393716 4279248675
0.72716182 -0.04490687 0.04325974 4279049259
0.72678626 -0.045423433 0.043259874 4279181097
0.7503745 0.010913864 0.031512529 4278784040
0.74991894 0.010414124 0.031445816 4278915876
0.74956763 0.0098040551 0.031512842 4278784299
0.74911177 0.0093038827 0.031446129 4278981678
0.74870819 0.0087487698 0.031446278 4279046690
0.74825186 0.0082479417 0.03137958 4278981669
0.74774235 0.0078008175 0.031246021 4279640362
0.74536812 -0.016142756 0.042147353 4278324254
0.74516135 -0.016807772 0.042348057 4279248171
0.74478257 -0.017328732 0.042348206 4279445550
0.74451941 -0.01794447 0.042482048 4279906605
0.74414098 -0.018465012 0.042482197 4278984216
0.74387872 -0.019079491 0.04261604 4279769632
0.74350059 -0.019599609 0.042616174 4279633951
0.74312246 -0.020119734 0.042616323 4280094502
0.74274433 -0.020639852 0.042616457 4280557355
0.74248356 -0.021252237 0.042750314 4280623921
0.74222338 -0.021863788 0.042884156 4280362543
0.74184585 -0.022383064 0.04288429 4280496435
0.74158663 -0.022993356 0.043018132 4280628021
0.741328 -0.023602806 0.043151975 4280563252
0.74112946 -0.024256505 0.043352678 4280102447
0.74093181 -0.024908952 0.043553367 4279905583
0.74067533 -0.025515467 0.043687224 4280497718
0.74047935 -0.026165597 0.043887913 4279309584
0.74022424 -0.026770227 0.044021755 4279112205
0.73996973 -0.027374022 0.044155598 4278587912
0.73971581 -0.027976982 0.04428944 4279045141
0.73952305 -0.028622717 0.044490129 4279441691
0.73927051 -0.029223785 0.044623986 4279836708
0.73901862 -0.029824011 0.044757828 4280297259
0.73876727 -0.030423403 0.04489167 4280962134
0.73851657 -0.03102196 0.045025498 4281754730
0.73820519 -0.031577103 0.045092478 4282277209
0.73795557 -0.0321742 0.045226321 4281222192
0.73764497 -0.032728292 0.045293316 4280498469
0.73739642 -0.033323914 0.045427158 4282012482
0.73714846 -0.033918694 0.045561001 4281681982
0.73683906 -0.03447111 0.045627981 4281615417
0.73659217 -0.035064429 0.045761839 4283064667
0.73628354 -0.035615802 0.045828819 4283196253
0.73603773 -0.036207661 0.045962662 4283065180
0.73572987 -0.036757983 0.046029657 4283394659
0.73542231 -0.037307888 0.046096638 4281285439
0.73498911 -0.03777685 0.04602994 4282271823
0.73461878 -0.038286284 0.046030074 4282074444
0.73412192 -0.038716026 0.045896515 4281022531
0.73356098 -0.039106965 0.045696095 4280626746
0.73299915 -0.039499171 0.045495674 4280561212
0.73243642 -0.039892629 0.045295268 4279773732
0.73130828 -0.040683322 0.044894457 4279773467
0.73067862 -0.04104197 0.04462719 4279772962
0.73004776 -0.04140228 0.044359922 4279969841
0.72954464 -0.041840628 0.044226378 4279575083
0.72904086 -0.042279802 0.044092804 4279706407
0.72853655 -0.042719804 0.043959245 4280233513
0.72803158 -0.043160655 0.043825686 4281289285
0.72752607 -0.043602347 0.043692142 4280303939
0.72708511 -0.044081993 0.043625429 4280238146
0.72670925 -0.044598967 0.043625563 4281356377
0.72633338 -0.045115948 0.043625712 4280698445
0.75048417 0.011664599 0.032115623 4279905331
0.75018513 0.010998994 0.032249093 4279045411
0.74967766 0.010555193 0.032115921 4279111970
0.74932677 0.0099454671 0.032182753 4278915108
0.74887109 0.0094458014 0.032116219 4279046694
0.7484678 0.0088911057 0.032116368 4279046690
0.74806452 0.0083364099 0.032116532 4278915876
0.74766129 0.0077816993 0.032116681 4279245091
0.74731123 0.0071730167 0.032183498 4279179550
0.74457359 -0.017188042 0.042985275 4281881940
0.7441951 -0.017708577 0.042985409 4282671957
0.74387473 -0.018276393 0.043052197 4280300842
0.74355465 -0.018843785 0.043118998 4280824373
0.74317652 -0.01936391 0.043119133 4279637276
0.74285692 -0.019930676 0.04318592 4279637276
0.74247897 -0.020450585 0.043186054 4280097827
0.74215978 -0.021016724 0.043252856 4280360749
0.74178195 -0.021536425 0.043253005 4280427566
0.74146324 -0.022101931 0.043319777 4280298544
0.74114484 -0.022667028 0.043386579 4280166958
0.74088621 -0.023277089 0.043520018 4280298794
0.74074727 -0.023976669 0.043786749 4280364587
0.74049014 -0.024584629 0.043920189 4280300341
0.7402935 -0.025236525 0.044120282 4280037169
0.73997772 -0.025798053 0.044187084 4279837209
0.73978257 -0.02644784 0.044387162 4278850314
0.739528 -0.027052239 0.044520602 4279246607
0.73933458 -0.027699731 0.044720694 4279246104
0.73908138 -0.028302237 0.044854105 4280364838
0.73882878 -0.028903924 0.044987544 4281550656
0.73857683 -0.029504761 0.045120999 4282537551
0.73832548 -0.030104764 0.045254439 4281817441
0.73801351 -0.030661061 0.045321211 4281358176
0.73776317 -0.031259581 0.045454651 4281223242
0.73751354 -0.031857282 0.045588091 4280432428
0.73720276 -0.032411896 0.045654878 4280958772
0.73695415 -0.033008128 0.045788318 4281683776
0.73670614 -0.033603519 0.045921743 4281221178
0.73639655 -0.034156449 0.04598853 4283261012
0.73614967 -0.034750372 0.046121955 4282998355
0.73584086 -0.035302266 0.046188757 4283129941
0.73553234 -0.035853736 0.046255544 4283394143
0.73516136 -0.036364011 0.046255693 4283327841
0.73485333 -0.036914848 0.046322465 4281415231
0.73441947 -0.037384555 0.046255961 4282268996
0.733922 -0.03781452 0.046122789 4282203203
0.73348731 -0.03828527 0.046056286 4281417287
0.73286176 -0.038637251 0.045789838 4280430394
0.73229861 -0.039030425 0.045590028 4280561978
0.73173457 -0.039424859 0.045390233 4280366374
0.73097765 -0.03970325 0.04499048 4279774237
0.73066795 -0.040256388 0.045057282 4279971866
0.72984409 -0.040499657 0.044590876 4280167971
0.72934037 -0.040938213 0.044457734 4279904302
0.72890067 -0.041415885 0.04439123 4279706923
0.72839594 -0.041855909 0.044258058 4280233265
0.72795546 -0.042334631 0.044191584 4280496685
0.72744966 -0.04277613 0.044058412 4281224008
0.72700846 -0.043255888 0.043991908 4280567111
0.7266323 -0.043773279 0.043992057 4280567111
0.72612512 -0.04421667 0.043858901 4281751387
0.72581434 -0.044771276 0.043925673 4281093709
0.75019073 0.011860207 0.03271848 4281354564
0.74989206 0.011194646 0.032851517 4280761662
0.74943686 0.010695904 0.032785222 4279575853
0.74908644 0.010086507 0.032851815 4279245844
0.74868363 0.0095324367 0.032851964 4278851086
0.74828082 0.0089783669 0.032852128 4279113237
0.74782503 0.0084787905 0.032785833 4279244062
0.74747521 0.0078702271 0.032852426 4279244060
0.7470724 0.0073161572 0.032852575 4279047192
0.74672306 0.0067082196 0.032919183 4279178778
0.74387085 -0.017472684 0.043488771 4281752138
0.74360877 -0.018087968 0.043621808 4280959291
0.74323064 -0.018608086 0.043621942 4280430894
0.74285251 -0.019128211 0.043622091 4280036387
0.74253303 -0.019695066 0.04368867 4280562731
0.74215508 -0.020214975 0.043688819 4279575834
0.74177706 -0.020734891 0.043688953 4279838245
0.74145818 -0.021300919 0.043755546 4279837480
0.7411989 -0.021912426 0.043888584 4279904550
0.74082136 -0.022431709 0.043888718 4279904550
0.74056292 -0.023041956 0.044021755 4280497960
0.74024546 -0.023606099 0.044088349 4281092155
0.74010783 -0.024305008 0.044354275 4280828482
0.73985142 -0.024912536 0.044487312 4280169527
0.73953545 -0.025474578 0.044553891 4279577889
0.73934036 -0.026125066 0.044753358 4279446303
0.73914623 -0.026774302 0.04495284 4281357378
0.73889244 -0.027378276 0.045085877 4282146896
0.73869997 -0.02802521 0.045285359 4282934357
0.73838657 -0.028583676 0.045351937 4282078285
0.73813456 -0.029185139 0.045484975 4280894011
0.73782194 -0.029742561 0.045551553 4280629056
0.737571 -0.030342542 0.045684591 4280958019
0.73732066 -0.030941695 0.045817629 4281418309
0.7369476 -0.031454898 0.045817763 4281615686
0.73663634 -0.032010444 0.045884356 4281220928
0.73651135 -0.032691963 0.046150267 4282341973
0.73626328 -0.033287957 0.046283305 4283065180
0.73595357 -0.033841416 0.046349898 4283194720
0.7356441 -0.034394443 0.046416476 4282667344
0.73527241 -0.034905761 0.04641661 4283391067
0.73496342 -0.035458162 0.046483189 4284116323
0.73471767 -0.03605102 0.046616212 4284442973
0.73434639 -0.036561713 0.046616361 4286677623
0.73384869 -0.036991492 0.046483606 4293192424
0.7333504 -0.037422121 0.046350867 4294179319
0.73278797 -0.037813537 0.046151668 4282602596
0.73216093 -0.038166396 0.045886025 4281877326
0.73159647 -0.038560539 0.045686826 4280299830
0.73096716 -0.038916543 0.045421183 4280957760
0.73040074 -0.039313413 0.045221999 4280562478
0.72976917 -0.039672554 0.044956356 4280233504
0.72920072 -0.040072143 0.044757143 4280101664
0.72869605 -0.040511571 0.044624418 4279838245
0.72825545 -0.040990196 0.044558108 4279377694
0.72781456 -0.041469231 0.044491813 4280298031
0.72737336 -0.041948684 0.044425502 4280298544
0.72693187 -0.042428568 0.044359207 4281552723
0.72649008 -0.042908855 0.044292897 4280236863
0.72611344 -0.043426879 0.044293031 4280763207
0.72567117 -0.043907806 0.044226721 4282144080
0.72529447 -0.044426039 0.04422687 4282537802
0.74949455 0.011501357 0.033321068 4282012240
0.74914408 0.010891661 0.033387452 4281882453
0.74874127 0.010337591 0.033387601 4279249426
0.74839127 0.0097285062 0.033454001 4279117840
0.74798864 0.0091746449 0.033454165 4278983951
0.74758601 0.0086207837 0.033454314 4279309083
0.74718332 0.0080669224 0.033454463 4279244060
0.74678063 0.0075130612 0.033454612 4278916376
0.74643159 0.0069052577 0.033520997 4278982169
0.74354655 -0.017236792 0.043992132 4281353017
0.74322641 -0.017804794 0.044058517 4281353017
0.7429651 -0.018419638 0.044191137 4280892464
0.74258709 -0.018939547 0.044191286 4280169508
0.74220914 -0.019459456 0.04419142 4279972129
0.74183118 -0.019979373 0.044191569 4279906082
0.74151224 -0.020545706 0.044257954 4280366120
0.74113441 -0.021065407 0.044258103 4280234796
0.740816 -0.021631099 0.044324473 4280959291
0.74049783 -0.022196382 0.044390872 4280761912
0.74018002 -0.022761248 0.044457257 4281486146
0.7398625 -0.023325689 0.044523641 4281156919
0.73966527 -0.023980029 0.044722497 4280960569
0.73940879 -0.024588168 0.044855148 4280435259
0.73915291 -0.025195464 0.044987768 4280832330
0.73889768 -0.025801919 0.045120403 4281227088
0.73864305 -0.026407532 0.045253009 4281159748
0.73851049 -0.027100548 0.04551813 4281155888
0.73825741 -0.027704075 0.045650765 4281157434
0.73800492 -0.028306767 0.045783386 4281289031
0.73769176 -0.028865121 0.04584977 4281091652
0.73737895 -0.029423073 0.045916155 4281025347
0.737005 -0.029937536 0.045916289 4280762175
0.7367543 -0.030537702 0.046048924 4281880654
0.73644239 -0.031094395 0.046115309 4283525216
0.73619282 -0.031693101 0.046247929 4282735700
0.73588169 -0.032248743 0.046314314 4282538323
0.73569536 -0.032887995 0.046513185 4282931030
0.73532271 -0.033400573 0.046513319 4281876543
0.73507524 -0.033996344 0.046645954 4284904818
0.73476565 -0.034549892 0.046712324 4288983984
0.73451924 -0.035144195 0.046844959 4292079853
0.73414737 -0.035655722 0.046845093 4294246399
0.73371232 -0.036126494 0.046778992 4294835962
0.7332769 -0.036597684 0.046712875 4290033090
0.73271418 -0.036988609 0.046514302 4286085510
0.73208696 -0.037340663 0.046249464 4282794065
0.73152232 -0.037734315 0.046050876 4282270540
0.73095673 -0.038129225 0.045852289 4281153853
0.73039025 -0.038525395 0.045653701 4281219646
0.72969431 -0.038844235 0.045322627 4280758834
0.72912568 -0.03924334 0.045124054 4280429869
0.72855616 -0.039643697 0.044925466 4280233252
0.72811508 -0.040122643 0.044859365 4279772699
0.72767377 -0.040601999 0.044793263 4279706906
0.72723216 -0.041081779 0.044727147 4280101413
0.72679019 -0.041561984 0.04466106 4280232749
0.72634798 -0.042042606 0.044594958 4281683541
0.72590542 -0.042523637 0.044528857 4281091404
0.72552824 -0.043042503 0.044529006 4281290314
0.72508526 -0.043524176 0.044462904 4282341973
0.72470784 -0.04404325 0.044463053 4283788390
0.74823767 0.010754615 0.033725247 4281029694
0.74799329 0.010034606 0.033923537 4281161280
0.74764359 0.0094256401 0.033989742 4280306739
0.74718767 0.0089264661 0.033923835 4278857246
0.74678487 0.0083723962 0.033923984 4279709986
0.74627495 0.0079268515 0.033792064 4278654732
0.74307764 -0.017711684 0.044759795 4281551677
0.74258262 -0.01813668 0.04462786 4282012995
0.74220449 -0.018656805 0.044628009 4280433963
0.74188524 -0.019223854 0.04469417 4280039205
0.74150729 -0.019743763 0.044694319 4279577887
0.74112928 -0.020263672 0.044694453 4280300840
0.74081069 -0.020829894 0.044760644 4279840042
0.74049234 -0.021395683 0.04482682 4280630326
0.74017435 -0.021961063 0.044893011 4280564533
0.73985666 -0.022526026 0.044959202 4280564533
0.73953927 -0.023090556 0.045025378 4279771418
0.73928225 -0.023699924 0.045157596 4279971111
0.73902595 -0.024308465 0.045289829 4280895556
0.73877019 -0.024916157 0.045422047 4280829513
0.73851502 -0.025523022 0.045554265 4280105790
0.73826051 -0.026129045 0.045686498 4281221180
0.73806751 -0.02677843 0.045884758 4281221679
0.73781431 -0.02738256 0.046016976 4281552958
0.73756176 -0.027985856 0.046149194 4281091904
0.73730981 -0.028588317 0.046281412 4280762939
0.7369355 -0.029103205 0.046281561 4281420619
0.73662281 -0.029661231 0.046347737 4282079830
0.73624867 -0.030175902 0.046347871 4282341205
0.7359364 -0.030733317 0.046414062 4282866005
0.7356866 -0.031332843 0.04654628 4282405454
0.73537517 -0.031889208 0.046612471 4282732103
0.73518884 -0.032529384 0.046810716 4283256143
0.73475319 -0.033000678 0.046744823 4283983204
0.73456806 -0.03363917 0.046943069 4291750890
0.73419523 -0.034151956 0.046943218 4293525503
0.73388547 -0.034706019 0.047009394 4293132287
0.73351282 -0.035218596 0.047009543 4293390838
0.73307687 -0.035690315 0.046943635 4289177256
0.73257709 -0.036121823 0.0468117 4283651687
0.73201311 -0.036513716 0.046613723 4282796378
0.73144823 -0.036906876 0.046415731 4282335311
0.73088241 -0.037301295 0.046217769 4281613121
0.73031569 -0.037696965 0.046019778 4281219644
0.72968376 -0.038054295 0.045755744 4280759093
0.7290507 -0.038413316 0.045491755 4280692269
0.72854543 -0.038852356 0.045359805 4280364074
0.72803962 -0.039292231 0.045227855 4280298279
0.72759795 -0.039771706 0.045161977 4279903521
0.7271561 -0.040251605 0.045096084 4279903774
0.72664869 -0.040693581 0.04496415 4280233252
0.72627133 -0.041212656 0.044964284 4280167724
0.72582853 -0.041693807 0.044898376 4281090636
0.72538537 -0.042175375 0.044832468 4281156429
0.72494197 -0.042657375 0.04476659 4281620051
0.72456414 -0.043177068 0.044766724 4282607198
0.72412026 -0.043659687 0.044700816 4283262821
0.74188042 -0.018421099 0.045130953 4281159231
0.74156135 -0.018988244 0.045196936 4281225024
0.74112415 -0.019461341 0.045131236 4278920984
0.74080539 -0.02002807 0.045197219 4278983450
0.74048692 -0.020594381 0.045263201 4279969841
0.74010909 -0.021114081 0.045263335 4280234287
0.73979104 -0.021679759 0.045329317 4280102701
0.73947334 -0.02224502 0.0453953 4279443997
0.73915589 -0.022809871 0.045461282 4279440149
0.73889905 -0.023419641 0.045593098 4279441689
0.73864281 -0.024028569 0.045724913 4281023803
0.73838717 -0.024636671 0.045856744 4280892217
0.73813212 -0.025243923 0.04598856 4281353029
0.73787773 -0.025850348 0.046120375 4281484354
0.73762387 -0.026455916 0.046252176 4281615936
0.73737073 -0.027060665 0.046384007 4280762427
0.73711812 -0.027664572 0.046515822 4281751119
0.73686612 -0.028267637 0.046647638 4280830017
0.73655313 -0.028826408 0.04671362 4281751119
0.73624039 -0.029384755 0.046779588 4282407766
0.73580414 -0.029856592 0.046713904 4282273870
0.73549175 -0.030414522 0.046779871 4282403908
0.73517966 -0.030972019 0.046845838 4282798666
0.73486793 -0.031529106 0.046911821 4291025368
0.73455644 -0.032085776 0.046977788 4293394431
0.73424524 -0.032642022 0.047043771 4289643197
0.73387152 -0.033156067 0.04704392 4286746256
0.7336238 -0.033753268 0.047175735 4285825154
0.73331356 -0.034308262 0.047241718 4283917173
0.73294032 -0.034821682 0.047241852 4281941321
0.73244011 -0.035253197 0.047110319 4282006344
0.73187578 -0.035644814 0.046912938 4282137930
0.7313742 -0.036078222 0.046781406 4280954691
0.73080814 -0.036472142 0.046584025 4281482316
0.73024118 -0.036867321 0.046386674 4281088062
0.72967333 -0.037263758 0.046189308 4280956472
0.72904015 -0.037621751 0.045926079 4280956472
0.72853482 -0.038060397 0.045794562 4280429869
0.72802883 -0.038499877 0.045663029 4280166695
0.7275871 -0.038979262 0.04559733 4280100902
0.72708011 -0.03942021 0.045465797 4279969316
0.72657245 -0.039861992 0.045334265 4279968548
0.72612947 -0.040343054 0.045268565 4279969316
0.72568625 -0.040824525 0.045202866 4279705892
0.72524267 -0.041306429 0.045137182 4280826181
0.7247988 -0.041788734 0.045071483 4281155146
0.72435462 -0.042271473 0.045005798 4281488978
0.72391015 -0.042754635 0.044940084 4282345569
0.72346532 -0.043238208 0.0448744 4282474086
0.74080014 -0.019225642 0.045634195 4284118380
0.74054098 -0.019839168 0.045765609 4278392332
0.74010354 -0.020312376 0.045700103 4279836710
0.73978531 -0.020878568 0.045765892 4280101415
0.73946744 -0.021444343 0.045831665 4280233001
0.73914981 -0.022009701 0.045897439 4278984721
0.73877233 -0.022528984 0.045897588 4279509016
0.73845518 -0.023093715 0.045963377 4280299043
0.73825943 -0.023748487 0.046160415 4281483831
0.73800385 -0.024356984 0.046291828 4281483831
0.73768812 -0.02491983 0.046357602 4281483066
0.73743367 -0.025526859 0.046489015 4281615168
0.73717982 -0.026133046 0.046620429 4281287486
0.73692656 -0.02673839 0.046751827 4281224271
0.73667395 -0.027342908 0.04688324 4281423187
0.73636031 -0.027902812 0.046949014 4281028429
0.73610872 -0.028505869 0.047080427 4281619533
0.73579586 -0.029064722 0.047146216 4282406735
0.73535913 -0.029536888 0.047080711 4282140996
0.73504657 -0.030095324 0.047146484 4282667080
0.73467195 -0.030610628 0.047146633 4286219902
0.73435986 -0.031168446 0.047212407 4289774020
0.73404801 -0.031725839 0.047278181 4290759895
0.73373652 -0.032282799 0.04734394 4285099119
0.73329937 -0.032755598 0.047278464 4283849568
0.7330513 -0.03335382 0.047409862 4284046947
0.73255074 -0.033785366 0.047278732 4283455595
0.732113 -0.034258991 0.047213256 4281217600
0.73180211 -0.034815133 0.047279015 4281744455
0.73123658 -0.03520751 0.047082245 4281415490
0.72940612 -0.036311775 0.046360701 4280956472
0.72896528 -0.036789596 0.046295196 4281022006
0.72845972 -0.037228048 0.046164081 4280890420
0.72801816 -0.037706919 0.04609859 4280758834
0.72751147 -0.038146839 0.04596746 4280100902
0.72700417 -0.038587585 0.045836315 4280297513
0.72662652 -0.039107084 0.045836464 4280100134
0.72611833 -0.039549097 0.045705333 4279968548
0.72567493 -0.040030479 0.045639858 4280035624
0.72516567 -0.040473968 0.045508727 4279904038
0.72472149 -0.0409564 0.045443222 4280956476
0.72427702 -0.041439243 0.045377746 4281022269
0.72383225 -0.04192251 0.045312241 4282013008
0.72338724 -0.042406201 0.045246765 4282147674
0.74001867 -0.020263121 0.046464607 4282143800
0.73946154 -0.020643055 0.046268448 4279972118
0.73908377 -0.021162763 0.046268582 4280761634
0.73882633 -0.021774381 0.046399593 4280893733
0.7384488 -0.022293665 0.046399727 4280105248
0.73807132 -0.022812948 0.046399876 4280367655
0.73781508 -0.023422889 0.046530887 4281023532
0.73755956 -0.024031989 0.046661884 4281089325
0.73730457 -0.024640255 0.046792895 4281549876
0.73698908 -0.02520299 0.046858475 4281813818
0.73673522 -0.025809787 0.046989486 4281419840
0.7364819 -0.026415743 0.047120482 4281355344
0.73622918 -0.027020857 0.047251478 4281156935
0.73591542 -0.027581289 0.047317058 4281025349
0.7356019 -0.02814129 0.047382638 4282076487
0.73528874 -0.028700873 0.047448203 4283589728
0.73491359 -0.029216804 0.047448337 4287279026
0.73453856 -0.029732734 0.047448486 4290700262
0.73422593 -0.030291483 0.047514066 4291952639
0.73391366 -0.030849807 0.047579631 4289452507
0.73353887 -0.03136532 0.047579765 4285034107
0.73329002 -0.031965204 0.047710791 4283190102
0.73278934 -0.032396339 0.047580048 4282926930
0.7323513 -0.032870084 0.047514766 4282929753
0.73197639 -0.033385798 0.047514901 4280627005
0.73147428 -0.033818826 0.047384173 4281349186
0.73109907 -0.034334965 0.047384322 4281482053
0.72895485 -0.035996512 0.046730548 4280562480
0.72844917 -0.036434568 0.04659985 4280562731
0.72794282 -0.03687346 0.046469122 4280628524
0.72750068 -0.03735286 0.046403825 4280496187
0.72705823 -0.037832677 0.046338528 4280101679
0.72655034 -0.038273662 0.046207815 4280101929
0.72610712 -0.038754538 0.046142533 4279575585
0.72559822 -0.03919699 0.046011806 4279905322
0.72515428 -0.039678916 0.045946509 4279183909
0.72470999 -0.040161245 0.045881227 4279380774
0.72419953 -0.040605791 0.045750514 4279904550
0.72375453 -0.04108917 0.045685217 4280957238
0.72330916 -0.041572973 0.04561992 4281482553
0.72279716 -0.042019621 0.045489207 4281943885
0.73850286 -0.021539055 0.046901733 4280500772
0.73818582 -0.022104189 0.046967119 4280105510
0.73774779 -0.022577621 0.046902016 4280501040
0.73743105 -0.02314233 0.046967402 4280828208
0.73723656 -0.02379705 0.047163218 4280959794
0.73685962 -0.024315491 0.047163367 4281419058
0.73654401 -0.024878733 0.047228724 4281682743
0.73629004 -0.025486141 0.047359347 4281551941
0.73597515 -0.026048332 0.047424704 4281551693
0.7357223 -0.026654281 0.047555298 4281091142
0.73540813 -0.027215421 0.047620684 4282470225
0.73509431 -0.027776152 0.047686055 4285960854
0.73465645 -0.028249376 0.047620967 4288136651
0.73434293 -0.028809689 0.047686338 4292018175
0.73402971 -0.029369563 0.047751695 4291558911
0.73365414 -0.029886127 0.047751829 4291887103
0.7333414 -0.030445389 0.0478172 4291756031
0.73296601 -0.030961737 0.047817349 4285429894
0.73259062 -0.031478085 0.047817484 4282466118
0.73221523 -0.031994432 0.047817633 4282466118
0.73183984 -0.03251078 0.047817767 4281417023
0.73133737 -0.03294383 0.047687471 4287539386
0.73102534 -0.033502035 0.047752813 4282337625
0.73052216 -0.033936128 0.047622517 4281413434
0.73001832 -0.034371063 0.047492191 4280821297
0.72951382 -0.034806833 0.047361881 4280888885
0.72900879 -0.035243429 0.04723154 4280824886
0.72837418 -0.035600089 0.046970785 4280628271
0.72799683 -0.036119163 0.046970919 4280496685
0.72748995 -0.036558278 0.046840593 4280431145
0.72704732 -0.037038006 0.04677552 4280430644
0.72660446 -0.037518144 0.046710417 4280430644
0.72616124 -0.037998714 0.046645343 4280037937
0.7256524 -0.038440555 0.046515033 4279708972
0.7252084 -0.038922176 0.046449929 4279118886
0.72469848 -0.039365478 0.046319619 4279249698
0.72418797 -0.039809629 0.046189308 4279578663
0.72374278 -0.040292919 0.046124205 4279971362
0.7232973 -0.040776625 0.046059132 4280366120
0.72271895 -0.041184992 0.045863599 4280694055
0.72220612 -0.041632287 0.045733273 4280562496
0.73730272 -0.022250839 0.047274113 4281027396
0.73704678 -0.022861585 0.047404304 4281290817
0.73679143 -0.02347149 0.047534496 4280830266
0.73641419 -0.023990348 0.047534645 4280960817
0.73615974 -0.024598993 0.047664836 4281288239
0.73578286 -0.025117442 0.047664985 4281154637
0.73546761 -0.025680356 0.047730133 4287409342
0.73515272 -0.026242852 0.047795311 4289448925
0.73483807 -0.026804939 0.047860488 4291559423
0.73452377 -0.027366593 0.047925651 4290178558
0.73420978 -0.027927831 0.047990829 4291689471
0.73389608 -0.028488658 0.048055992 4290503930
0.73339486 -0.028919406 0.047926068 4289122277
0.73301858 -0.029437013 0.047926217 4288990943
0.73270518 -0.029997423 0.047991395 4284708738
0.73232901 -0.030514821 0.047991529 4283256661
0.73195291 -0.031032212 0.047991678 4281676854
0.73157674 -0.03154961 0.047991812 4282005819
0.73113704 -0.032025047 0.047926918 4281876545
0.73082441 -0.032584406 0.047992095 4286155934
0.73032063 -0.033018723 0.047862187 4287010723
0.72988021 -0.03349521 0.047797292 4281218365
0.72943944 -0.033972114 0.047732398 4283323741
0.72893417 -0.034408532 0.047602504 4280824373
0.72842818 -0.034845792 0.047472581 4280563250
0.72798622 -0.035324365 0.047407702 4280300329
0.72747922 -0.035763092 0.047277778 4280234536
0.72697163 -0.036202647 0.04714787 4280102697
0.72659349 -0.036722772 0.047148019 4280364851
0.72608495 -0.037163585 0.047018111 4280365621
0.72564119 -0.037644684 0.046953216 4280038452
0.72519708 -0.0381262 0.046888337 4279577901
0.7246871 -0.038569115 0.046758428 4278856997
0.72417641 -0.039012857 0.046628505 4279250468
0.7237311 -0.039496057 0.046563625 4279841572
0.72321939 -0.039941274 0.046433717 4280103202
0.72270703 -0.040387325 0.046303809 4280366374
0.72212768 -0.040796243 0.046108872 4280496936
0.72168052 -0.041281953 0.046043992 4280364347
0.70229113 -0.045319624 0.034667388 4279375375
0.70174456 -0.04581283 0.034537494 4279178265
0.70112753 -0.046273515 0.034342572 4279375644
0.70057958 -0.046768606 0.034212679 4280431412
0.69989085 -0.047198638 0.033952728 4280039465
0.69941157 -0.047728561 0.033887863 4279579168
0.6988616 -0.048226386 0.03375797 4280171305
0.69845212 -0.048789673 0.033758119 4280039465
0.69797188 -0.049320854 0.033693239 4280302386
0.69756222 -0.049884349 0.033693388 4280433458
0.69722354 -0.050479546 0.033758581 4280827705
0.69660062 -0.050948396 0.033563673 4280696119
0.73634577 -0.023145542 0.047906592 4281812547
0.73602962 -0.023710027 0.047971562 4280958761
0.73565221 -0.024229102 0.047971711 4280762415
0.73533654 -0.024792947 0.048036665 4286684336
0.73502111 -0.025356382 0.048101634 4292018175
0.73464406 -0.025875032 0.048101783 4288926695
0.7343291 -0.026437834 0.048166737 4290244863
0.73401451 -0.027000211 0.048231691 4289584627
0.73363769 -0.027518444 0.04823184 4289776348
0.73326099 -0.028036684 0.048231974 4285363324
0.73282146 -0.028511614 0.048167303 4283784292
0.73244452 -0.029030055 0.048167437 4286680729
0.73206764 -0.029548496 0.048167586 4287936442
0.73169076 -0.030066945 0.04816772 4287345850
0.73131382 -0.030585386 0.048167869 4289249988
0.73093688 -0.031103835 0.048168004 4287407784
0.73056 -0.031622276 0.048168153 4284045901
0.73005545 -0.032057032 0.048038647 4286480465
0.72967827 -0.032575898 0.048038781 4294375346
0.72923696 -0.033053346 0.04797411 4290424976
0.72873104 -0.03348998 0.047844589 4286740568
0.72828895 -0.033968471 0.047779903 4280756781
0.72778201 -0.034406587 0.047650412 4280432177
0.72733915 -0.034886122 0.047585711 4280169773
0.72689605 -0.035366073 0.04752104 4280498738
0.72645259 -0.035846457 0.047456354 4280037169
0.72607398 -0.0363672 0.047456488 4280035634
0.72563004 -0.036848202 0.047391817 4280497209
0.72512037 -0.037290081 0.047262311 4280104761
0.72467566 -0.037772134 0.047197625 4279907382
0.7241649 -0.038215488 0.047068119 4279250731
0.72371948 -0.038698584 0.047003448 4279446303
0.72320765 -0.039143406 0.046873942 4280563250
0.72269523 -0.039589062 0.046744421 4280759093
0.72224855 -0.040073834 0.04667975 4280824886
0.72160196 -0.040444814 0.046420604 4280428847
0.72082072 -0.040741742 0.046031803 4280231734
0.70269662 -0.044675782 0.035533205 4278719764
0.70208126 -0.045133442 0.035338894 4279242513
0.70146495 -0.045592383 0.035144582 4279505944
0.7009176 -0.046086028 0.035015091 4279505944
0.70029962 -0.046547249 0.03482078 4280294701
0.69968075 -0.047009744 0.034626454 4280230183
0.69927198 -0.047571987 0.034626603 4279505940
0.69872218 -0.048068978 0.034497112 4279440147
0.69824249 -0.048599228 0.034432456 4279507747
0.6978333 -0.049162105 0.034432605 4279113770
0.69728214 -0.049660988 0.034303129 4279443245
0.69694376 -0.050256059 0.034368083 4279837995
0.69646311 -0.050787568 0.034303427 4280232753
0.69605362 -0.051350854 0.034303576 4279640103
0.69564408 -0.051914141 0.03430374 4280494640
0.73558325 -0.023384213 0.048344254 4281352245
0.73520553 -0.023903705 0.048344389 4280826420
0.73482788 -0.024423197 0.048344538 4285629340
0.73445022 -0.024942689 0.048344672 4291161855
0.73413467 -0.025506638 0.048409447 4289911793
0.73381937 -0.026070163 0.048474208 4289057247
0.7333796 -0.026545204 0.04840973 4287209651
0.73306465 -0.027108312 0.048474491 4283720825
0.73256183 -0.027540147 0.048345387 4283325284
0.73218417 -0.028059639 0.048345521 4284838523
0.73180652 -0.028579131 0.048345655 4288326576
0.7314288 -0.02909863 0.048345804 4286488483
0.73105115 -0.029618114 0.048345938 4287212719
0.73067343 -0.030137613 0.048346087 4289970614
0.73023218 -0.030614749 0.04828161 4291549646
0.72985435 -0.031134456 0.048281759 4291217545
0.72947651 -0.031654149 0.048281893 4294244725
0.7290346 -0.032132126 0.048217401 4294967138
0.7285924 -0.032610521 0.048152938 4294770525
0.72814989 -0.033089325 0.048088446 4284239872
0.72770703 -0.033568561 0.048023984 4281870875
0.72726393 -0.034048215 0.047959492 4280891443
0.72682047 -0.034528285 0.047895014 4280169775
0.72637671 -0.035008766 0.047830537 4280301361
0.72606301 -0.035570204 0.047895297 4280036917
0.72561896 -0.036051109 0.04783082 4279970611
0.72517461 -0.036532439 0.047766343 4280431927
0.72472996 -0.037014179 0.047701865 4280302140
0.72428501 -0.037496343 0.047637373 4280038968
0.72377384 -0.03793972 0.047508284 4279841587
0.72326201 -0.038383931 0.047379196 4279772962
0.72281587 -0.038867764 0.047314703 4280693302
0.72230297 -0.039313443 0.0471856 4280561716
0.72172296 -0.039721578 0.046991885 4280363574
0.72107542 -0.040092804 0.046733543 4280362802
0.72015929 -0.040313892 0.046216726 4280099630
0.70262647 -0.044559062 0.036332533 4278588692
0.70194161 -0.044981621 0.036074206 4278783761
0.70132536 -0.045439646 0.035880506 4279373851
0.70077825 -0.045932464 0.035751417 4279308058
0.70023048 -0.046426132 0.035622329 4279833632
0.69961178 -0.046887502 0.035428628 4279833632
0.69906271 -0.047383055 0.035299554 4279636503
0.6985836 -0.047912166 0.035235092 4279439124
0.6981042 -0.048441678 0.0351706 4279572255
0.69769549 -0.049003914 0.035170749 4279376677
0.69721562 -0.049534082 0.035106301 4279442985
0.69680667 -0.050096534 0.03510645 4279640364
0.69639778 -0.050658986 0.035106599 4279706157
0.69584578 -0.05115851 0.034977525 4279574571
0.6954366 -0.051721379 0.034977674 4279903275
0.69502735 -0.052284248 0.034977823 4280166445
0.73475838 -0.023577936 0.048717901 4281286721
0.73431849 -0.024052881 0.048653632 4282203993
0.73394036 -0.024573006 0.048653767 4282207584
0.7335 -0.025048576 0.048589483 4282010205
0.7331841 -0.025613248 0.04865405 4285107080
0.73274338 -0.026089236 0.048589766 4285436043
0.73236513 -0.026609562 0.048589915 4287144608
0.73198682 -0.027129896 0.048590049 4288327089
0.73154557 -0.027606733 0.04852578 4289248191
0.73116714 -0.028127268 0.048525929 4283984217
0.73078871 -0.02864781 0.048526064 4287007326
0.73041022 -0.029168352 0.048526213 4292072833
0.72996819 -0.029646233 0.048461929 4294770346
0.72958958 -0.030166984 0.048462063 4294901623
0.72914714 -0.03064549 0.048397794 4293982277
0.72870433 -0.031124413 0.048333511 4294376488
0.72838962 -0.031687409 0.048398077 4294836025
0.72794652 -0.032166749 0.048333794 4294967100
0.72750312 -0.032646514 0.048269525 4294178120
0.72712409 -0.033167891 0.048269659 4282990080
0.72668016 -0.033648282 0.048205376 4281544486
0.72630101 -0.034169875 0.048205525 4280695347
0.72585666 -0.034650892 0.048141241 4280761140
0.72547734 -0.035172686 0.048141375 4280892730
0.72509795 -0.035694487 0.048141524 4280826422
0.72465301 -0.036176354 0.048077255 4280300842
0.72420776 -0.03665863 0.048012987 4280169786
0.72382814 -0.037180848 0.048013136 4279709235
0.72338247 -0.037663758 0.047948852 4279970359
0.72287023 -0.038107984 0.047820151 4280363824
0.72235739 -0.038553052 0.047691464 4280297011
0.7217775 -0.038960278 0.047498345 4279770667
0.72099674 -0.039253354 0.047111988 4280231736
0.7203477 -0.039625458 0.046854451 4280166195
0.71963048 -0.039961189 0.046532512 4280166447
0.719046 -0.040374696 0.046339393 4280100652
0.70241797 -0.044374533 0.037001401 4278458125
0.70194244 -0.044898525 0.036937147 4278259743
0.70139658 -0.045389056 0.036808476 4279045659
0.70077991 -0.045846775 0.036615372 4279045659
0.70016235 -0.046305768 0.036422268 4279504402
0.69961435 -0.046799242 0.036293581 4279504150
0.69899511 -0.047260538 0.036100492 4279242513
0.69851649 -0.047788709 0.036036223 4279244312
0.69803762 -0.048317298 0.035971969 4279178519
0.6975584 -0.048846304 0.035907701 4279442974
0.69707888 -0.049375743 0.035843447 4279443235
0.69659907 -0.049905598 0.035779193 4279245866
0.69611895 -0.050435856 0.035714895 4279574831
0.69563854 -0.050966546 0.035650641 4279509038
0.69522959 -0.051529005 0.035650805 4279904298
0.69503665 -0.052184857 0.035844207 4280167208
0.68296599 -0.062020198 0.032497689 4279902751
0.68247437 -0.062566184 0.032433435 4279704863
0.68175656 -0.063033015 0.032175928 4279506460
0.6811884 -0.063554145 0.032047257 4279572775
0.6806953 -0.064102225 0.031982973 4279178780
0.73374617 -0.023636937 0.048899725 4282207586
0.73324305 -0.024068192 0.048771426 4281685603
0.73286402 -0.024589568 0.048771575 4281619810
0.73248494 -0.025110945 0.048771709 4286950577
0.73210591 -0.025632329 0.048771858 4288265146
0.73172688 -0.026153706 0.048771992 4285498489
0.73122185 -0.026587471 0.048643693 4283327320
0.73084253 -0.027109265 0.048643827 4289966492
0.73046315 -0.027631067 0.048643976 4289704572
0.73008382 -0.028152861 0.048644111 4292401265
0.72964084 -0.028631695 0.04858005 4294967171
0.72926134 -0.029153705 0.048580185 4294901625
0.728818 -0.029633164 0.048516124 4294836052
0.72843832 -0.030155383 0.048516259 4294704954
0.72799444 -0.030635469 0.048452184 4294639409
0.72761464 -0.031157896 0.048452333 4294836015
0.72717035 -0.031638615 0.048388258 4294770478
0.72679043 -0.032161251 0.048388407 4294967119
0.72641045 -0.032683887 0.048388541 4293189720
0.7259655 -0.03316544 0.048324466 4281872908
0.7255854 -0.033688284 0.0483246 4280892464
0.7252053 -0.034211129 0.048324749 4280892464
0.72475976 -0.034693524 0.048260674 4281024052
0.7244451 -0.035256818 0.048325032 4280957741
0.72399926 -0.035739638 0.048260957 4280432680
0.72355312 -0.036222868 0.048196882 4280037939
0.72317266 -0.036746129 0.048197031 4279314216
0.72272611 -0.037229985 0.048132941 4279903536
0.72227919 -0.037714273 0.048068881 4280231470
0.7216326 -0.038082018 0.047812164 4279837482
0.72085142 -0.038373888 0.047426999 4279705896
0.72020209 -0.038745403 0.047170281 4279508265
0.71955144 -0.03911861 0.046913594 4279902253
0.71889967 -0.039493471 0.046656862 4280101167
0.71838111 -0.039945893 0.046528578 4280101167
0.70262897 -0.044396639 0.038054764 4278850566
0.70201457 -0.044850513 0.037862256 4278717979
0.7014693 -0.045339614 0.037733972 4279046429
0.70085323 -0.045795798 0.037541494 4279046429
0.70016575 -0.046219707 0.037284791 4279306773
0.69961822 -0.046711937 0.037156522 4279045911
