# .PCD v0.7 - Point Cloud Data file format
VERSION 0.7
FIELDS x y z rgb
SIZE 4 4 4 4
TYPE F F F U
COUNT 1 1 1 1
WIDTH 1024
HEIGHT 1
VIEWPOINT 0 0 0 1 0 0 0
POINTS 1024
DATA ascii
0.69129151 -0.079312861 0.055893704 4280828732
0.69121701 -0.078703225 0.055960193 4281091902
0.69129264 -0.078117967 0.055894196 4280369713
0.70663929 -0.047386307 0.042394206 4282540623
0.70656484 -0.046737548 0.04246068 4280501040
0.70656544 -0.046087503 0.042460948 4279310364
0.70649099 -0.045439523 0.042527467 4279179559
0.70184767 -0.032892898 0.046639413 4281484603
0.70154786 -0.032289185 0.046904624 4282406988
0.70147341 -0.03166426 0.046971127 4282015057
0.70132381 -0.031047875 0.047103837 4282212438
0.70117426 -0.030432526 0.047236577 4282342493
0.70109975 -0.029809678 0.047303081 4283000423
0.70095015 -0.029196145 0.04743582 4283064419
0.70087564 -0.028574588 0.047502309 4282933346
0.70072609 -0.027962867 0.047635049 4283132009
0.70065159 -0.027342608 0.047701523 4283132520
0.70065218 -0.026713034 0.047701776 4283264106
0.70065284 -0.02608346 0.047702044 4284248191
0.70065343 -0.025453886 0.047702298 4286087824
0.70072907 -0.024813702 0.047636345 4294639614
0.70080477 -0.024172999 0.047570348 4294639614
0.70088047 -0.023531776 0.04750438 4294639614
0.70095617 -0.022890039 0.047438413 4294770686
0.70110697 -0.022236131 0.047306195 4294770686
0.70103246 -0.02161691 0.047372699 4294770686
0.70118326 -0.020961711 0.047240481 4294770686
0.70148426 -0.020280628 0.046975821 4294770686
0.69308805 -0.084971257 0.055104017 4280956973
0.69293815 -0.084339842 0.055236325 4281222465
0.69278824 -0.083709471 0.055368677 4281288258
0.6926384 -0.083080135 0.055501014 4280894273
0.69248849 -0.08245182 0.055633336 4280696380
0.69226336 -0.081811078 0.055831701 4280959293
0.69218868 -0.081198327 0.055897981 4281025086
0.692114 -0.080586106 0.055964291 4280696121
0.69203937 -0.079974391 0.056030571 4280630587
0.69188946 -0.079350755 0.056162894 4280631103
0.69196528 -0.078764722 0.056097105 4280959039
0.70261878 -0.032857269 0.04680495 4281746238
0.70246887 -0.032237254 0.046937272 4282539087
0.70231897 -0.031618275 0.047069594 4282015823
0.70216906 -0.031000338 0.047201931 4282213463
0.70194387 -0.030391714 0.047400281 4283198565
0.70194447 -0.029759031 0.047400549 4283132772
0.70171934 -0.029152738 0.047598898 4282605663
0.70164466 -0.028529888 0.047665194 4282539102
0.70157003 -0.027907554 0.047731489 4283132268
0.70157063 -0.027276166 0.047731742 4283460720
0.70157123 -0.026644779 0.04773201 4283263341
0.70157182 -0.026013391 0.047732264 4284313984
0.7016477 -0.025371654 0.04766649 4287141026
0.70164829 -0.024740007 0.047666758 4294639614
0.70172417 -0.024097489 0.04760097 4294639614
0.70187527 -0.023443326 0.047469199 4294639614
0.70187587 -0.022810901 0.047469452 4294770686
0.70202696 -0.022155184 0.047337636 4294770686
0.70210284 -0.021510337 0.047271878 4294770686
0.70217872 -0.020864971 0.047206104 4294770686
0.69391572 -0.085060492 0.055180132 4281221445
0.69376552 -0.084427521 0.055312082 4281222215
0.69361532 -0.083795592 0.055444002 4281156422
0.69354045 -0.083178706 0.055510074 4280959043
0.69323945 -0.082521096 0.05577369 4280630076
0.69308925 -0.081892535 0.05590561 4280695867
0.69308984 -0.08129146 0.055905849 4281221693
0.69293964 -0.080664448 0.056037784 4280958521
0.70354229 -0.032807156 0.046840832 4282205244
0.70331669 -0.032192826 0.047038585 4282604631
0.70324188 -0.031564541 0.047104686 4281949777
0.70309162 -0.030944785 0.047236592 4282540633
0.70294142 -0.030326068 0.047368526 4282672219
0.70286661 -0.029699849 0.047434613 4282934106
0.70271635 -0.029082945 0.047566533 4283131485
0.70256615 -0.028467078 0.047698453 4282934106
0.70241594 -0.027852247 0.047830373 4283263075
0.70241654 -0.027219303 0.047830626 4283592040
0.70249254 -0.026576528 0.047765061 4283854962
0.70249313 -0.025943328 0.047765329 4284049788
0.70256919 -0.025299776 0.047699764 4290824909
0.70256978 -0.024666315 0.047700018 4294639611
0.70264578 -0.024021985 0.047634438 4294639611
0.70279723 -0.02336601 0.047503054 4294639614
0.70279783 -0.022731772 0.047503322 4294639614
0.70287383 -0.022085886 0.047437757 4294639614
0.70302534 -0.021427579 0.047306359 4294639614
0.70310134 -0.020780401 0.047240779 4294639614
0.69482028 -0.085770249 0.055192813 4281286203
0.6947453 -0.085149728 0.055258706 4281156418
0.6945948 -0.084515207 0.055390239 4281222213
0.6944443 -0.083881721 0.055521742 4280827455
0.69436926 -0.083263278 0.055587634 4280827455
0.69414318 -0.082617857 0.055784792 4281090625
0.70431697 -0.032771528 0.047010809 4282271291
0.70424199 -0.032140911 0.047076702 4281552205
0.70409143 -0.031518564 0.04720822 4282279258
0.70394093 -0.030897254 0.047339737 4282212436
0.70379037 -0.03027698 0.04747124 4282409815
0.70371538 -0.029649206 0.047537148 4282934106
0.70364046 -0.029021952 0.047603041 4283262557
0.7034899 -0.028404269 0.047734544 4283065178
0.70333934 -0.027787626 0.047866076 4283130973
0.70333993 -0.02715287 0.04786633 4283328352
0.70334053 -0.026518116 0.047866598 4283787622
0.70341671 -0.025873268 0.047801226 4285034105
0.7034173 -0.025238253 0.047801495 4292928192
0.70349348 -0.024592627 0.047736108 4294967260
0.70349407 -0.023957351 0.047736377 4294967261
0.70372146 -0.023288693 0.047539771 4294967269
0.70372206 -0.022652641 0.047540024 4294901741
0.70387381 -0.021993298 0.047409043 4294901743
0.70387447 -0.021356732 0.047409311 4294901747
0.70402622 -0.020695835 0.047278315 4294901747
0.69565201 -0.085861042 0.05527401 4281024050
0.69557685 -0.085238963 0.055339694 4281353277
0.69542599 -0.084602885 0.055470809 4281287484
0.69519943 -0.083953589 0.055667371 4281024832
0.69504857 -0.083319843 0.055798471 4280894273
0.70516896 -0.032728665 0.047117397 4281615919
0.7050181 -0.032103989 0.047248513 4281684809
0.70486724 -0.031480346 0.047379628 4282540120
0.70479214 -0.030849723 0.047445312 4283130971
0.70464122 -0.030227898 0.047576413 4283328350
0.70464182 -0.029590031 0.047576681 4283590492
0.70449096 -0.028969759 0.047707796 4283062863
0.70441586 -0.028341468 0.04777348 4283524184
0.70441645 -0.02770438 0.047773749 4283655770
0.70434129 -0.027076865 0.047839433 4283787356
0.70434195 -0.026440037 0.047839686 4284445538
0.70434254 -0.025803208 0.047839954 4285232460
0.70434314 -0.025166381 0.047840223 4294836076
0.70434374 -0.024529552 0.047840476 4294704714
0.70442009 -0.023881854 0.047775313 4294573128
0.7045722 -0.02322251 0.047644734 4294967157
0.7045728 -0.022584904 0.047645003 4294901631
0.70464915 -0.021935653 0.047579825 4294704520
0.7048012 -0.02127398 0.047449246 4294901643
0.70495331 -0.020611269 0.047318682 4294967190
0.69663739 -0.085981913 0.055227175 4281287224
0.69633448 -0.085313424 0.055488348 4281287484
0.69618326 -0.084676057 0.055619061 4281221691
0.70602292 -0.032685809 0.047226414 4282340664
0.70594764 -0.03205207 0.04729189 4283784764
0.70572054 -0.031434376 0.047487825 4283846196
0.70564526 -0.0308022 0.047553316 4283846196
0.70556998 -0.030170538 0.047618791 4284635962
0.70549464 -0.029539397 0.047684282 4284308278
0.70541936 -0.028908774 0.047749773 4284177212
0.70534408 -0.028278669 0.047815263 4284638024
0.7052688 -0.027649079 0.047880739 4284506958
0.7052694 -0.027010435 0.047881007 4285493853
0.70527005 -0.026371794 0.047881261 4285296472
0.70519471 -0.025743244 0.047946751 4285690931
0.70527124 -0.025094511 0.047881797 4294967142
0.70527184 -0.024455868 0.04788205 4294310738
0.70534837 -0.023806361 0.047817096 4294967105
0.70534897 -0.023167459 0.047817364 4294901607
0.70550138 -0.022505783 0.047687173 4294441822
0.70557791 -0.021854715 0.047622219 4294967164
0.70565438 -0.021203138 0.047557265 4294967164
0.70680273 -0.032650188 0.047402874 4285366110
0.70672727 -0.03201516 0.047468156 4287795534
0.70657575 -0.031388409 0.047598466 4288187435
0.70650035 -0.030754676 0.047663748 4287792677
0.70642483 -0.030121461 0.04772903 4287661087
0.70642549 -0.029480226 0.047729298 4287925558
0.70627397 -0.028856585 0.047859594 4286871877
0.70619851 -0.028224926 0.047924876 4286477389
0.70619911 -0.027584469 0.04792513 4286214217
0.70619977 -0.026944013 0.047925398 4286478918
0.70620036 -0.02630356 0.047925666 4286017084
0.70620096 -0.025663102 0.047925919 4286872858
0.70620155 -0.025022648 0.047926188 4294967129
0.70620215 -0.024382193 0.047926456 4294836050
0.70627886 -0.023730867 0.047861695 4294901577
0.70635557 -0.023079025 0.04779695 4294967146
0.70643222 -0.022426665 0.047732204 4294639464
0.70650887 -0.021773785 0.047667444 4294901612
0.70658553 -0.021120392 0.047602698 4294836075
0.70758414 -0.032614574 0.04758136 4285890869
0.7075848 -0.031970747 0.047581628 4294836075
0.70743299 -0.031342439 0.047711521 4294441794
0.70735735 -0.030707156 0.047776595 4294967115
0.70728171 -0.030072384 0.047841698 4294967143
0.70720613 -0.029438134 0.047906771 4294967155
0.70720673 -0.028795607 0.04790704 4293056376
0.70705491 -0.028171187 0.048036933 4294900397
0.70705551 -0.027529176 0.048037201 4294967221
0.70705611 -0.026887165 0.048037454 4294967195
0.70705676 -0.026245156 0.048037723 4294967173
0.70705736 -0.025603145 0.048037991 4290031393
0.70713419 -0.024950786 0.047973439 4294967180
0.70713478 -0.024308516 0.047973707 4294769795
0.70721161 -0.023655379 0.047909155 4294967202
0.7072885 -0.023001721 0.047844604 4294967248
0.70736527 -0.022347549 0.047780052 4294967217
0.70744216 -0.021692855 0.0477155 4294376794
0.70751899 -0.021037651 0.047650963 4293718864
0.69960672 -0.088806905 0.055105105 4281090890
0.69937825 -0.08814387 0.055299222 4281352779
0.69922608 -0.087497935 0.055428743 4281616201
0.70844364 -0.032571718 0.047697276 4288521554
0.70844424 -0.031926341 0.047697529 4294770543
0.70829207 -0.031296477 0.04782702 4294310728
0.70829266 -0.03065162 0.047827289 4294836048
0.70814049 -0.030023314 0.047956795 4294770271
0.70806473 -0.029387508 0.048021674 4294835577
0.70806539 -0.028743425 0.048021942 4291544159
0.70798957 -0.028108396 0.048086807 4294967226
0.70791382 -0.027473886 0.048151702 4294966706
0.70791447 -0.026830319 0.04815197 4294836133
0.70791507 -0.026186757 0.048152238 4294573440
0.70799208 -0.025533101 0.048087865 4292070735
0.70806903 -0.024878928 0.048023522 4294967237
0.70814604 -0.024224237 0.047959179 4294967237
0.70814669 -0.023579895 0.047959447 4294967271
0.7082237 -0.022924423 0.047895089 4294901739
0.70830065 -0.022268437 0.047830746 4294967230
0.70845407 -0.021600287 0.047701791 4294770618
0.70845467 -0.020954911 0.047702059 4294178900
0.7092284 -0.032536112 0.047880024 4294507174
0.70922905 -0.031889439 0.047880277 4294901638
0.70922965 -0.031242762 0.047880545 4294705010
0.70915371 -0.030604107 0.047945231 4294770547
0.70907784 -0.029965969 0.048009917 4294967217
0.70900184 -0.029328348 0.048074588 4294967271
0.70900249 -0.028682454 0.048074856 4294967236
0.70892656 -0.02804561 0.048139527 4291938940
0.70892715 -0.027399972 0.048139796 4294373281
0.70885122 -0.026763905 0.048204467 4294899102
0.70892841 -0.026108697 0.048140332 4292596068
0.708929 -0.02546306 0.0481406 4294177133
0.70900619 -0.024807075 0.048076451 4294967170
0.70900679 -0.024161177 0.048076719 4294967183
0.70908397 -0.023504414 0.04801257 4294770588
0.7091611 -0.022847131 0.04794842 4294901656
0.70931482 -0.022177942 0.047819868 4294245490
0.70939201 -0.021519365 0.047755733 4294836091
0.7094692 -0.020860273 0.047691569 4294967127
0.71009159 -0.03249326 0.048000574 4294967223
0.71009219 -0.031845033 0.048000842 4294836113
0.71009278 -0.031196801 0.048001096 4294245768
0.71001673 -0.030556595 0.048065588 4294967169
0.70994061 -0.029916901 0.048130065 4294967231
0.70994127 -0.029269191 0.048130333 4294967265
0.70994186 -0.028621482 0.048130602 4294967233
0.70986581 -0.027982825 0.048195064 4294967235
0.7098664 -0.027335374 0.048195332 4292795784
0.709867 -0.026687922 0.048195601 4292925812
0.7098676 -0.026040472 0.048195869 4294966376
0.70986825 -0.02539302 0.048196137 4294177870
0.70994556 -0.024735222 0.048132196 4294770007
0.70994616 -0.024087511 0.048132464 4294507603
0.71002352 -0.023428934 0.048068523 4294573418
0.71010083 -0.022769835 0.048004568 4294705018
0.71017814 -0.022110224 0.047940657 4294639213
0.71033221 -0.021438446 0.047812492 4294705006
0.71048623 -0.020765636 0.047684357 4294309452
0.71095663 -0.032450419 0.048123583 4294967198
0.71103412 -0.031793132 0.048059836 4294967183
0.71095788 -0.031150851 0.04812412 4294573961
0.71095848 -0.03050107 0.048124388 4294967166
0.71088225 -0.029859561 0.048188657 4294967211
0.71080601 -0.029218575 0.04825294 4294836147
0.71080661 -0.028569311 0.048253208 4294639510
0.7108072 -0.027920045 0.048253477 4294836121
0.71080786 -0.027270779 0.048253745 4294243940
0.71080846 -0.026621515 0.048254013 4294901597
0.71080911 -0.025972251 0.048254281 4294836054
0.71080971 -0.025322989 0.04825455 4294901601
0.71088719 -0.024663374 0.048190802 4294967138
0.71096468 -0.024003243 0.048127055 4294639451
0.71096528 -0.023353459 0.048127323 4294836052
0.71111965 -0.022681424 0.047999591 4294770513
0.7111972 -0.022019736 0.047935843 4294770499
0.7114284 -0.021334244 0.04774411 4294048056
0.71158278 -0.020659102 0.047616363 4289307904
0.71205473 -0.032385856 0.048057601 4294901601
0.71190131 -0.031748742 0.048185483 4294113579
0.71197897 -0.031089384 0.048121929 4294245165
0.71190256 -0.03044555 0.048186019 4294967095
0.71190315 -0.029793952 0.048186287 4294967169
0.7118268 -0.02915089 0.048250347 4294836099
0.71190441 -0.028490759 0.048186824 4294508145
0.71182799 -0.027848214 0.048250884 4294967160
0.71182865 -0.027196877 0.048251152 4294967160
0.71182925 -0.026545538 0.04825142 4294901599
0.7118299 -0.025894202 0.048251688 4294901593
0.7118305 -0.025242867 0.048251957 4294901591
0.7119081 -0.024581183 0.048188433 4294967129
0.71190876 -0.023929587 0.048188701 4294639441
0.71198642 -0.02326712 0.048125148 4294639433
0.71206409 -0.02260414 0.048061624 4294639433
0.71214175 -0.021940637 0.047998086 4294639433
0.71237344 -0.021253334 0.047806948 4294967123
0.71260518 -0.020564476 0.047615826 4285030656
0.71307796 -0.032982726 0.048058584 4289769806
0.71307856 -0.032328539 0.048058853 4294967135
0.71292484 -0.03168935 0.048186332 4294310695
0.71292543 -0.03103568 0.0481866 4294704941
0.7128489 -0.030390024 0.048250467 4294967098
0.71277231 -0.029744891 0.048314333 4294967141
0.71277291 -0.029091742 0.048314601 4294967150
0.71285075 -0.028429795 0.048251271 4294967151
0.71285141 -0.027776385 0.048251554 4294967167
0.71277475 -0.027132289 0.048315421 4294967148
0.71277541 -0.026479138 0.048315689 4294967133
0.71277606 -0.025825989 0.048315957 4294967107
0.71277666 -0.025172839 0.048316225 4294638910
0.71277726 -0.024519688 0.048316494 4294967103
0.7128551 -0.023855925 0.048253164 4294836031
0.71293294 -0.023191653 0.048189834 4294770493
0.71301073 -0.022526858 0.048126504 4294967112
0.71316576 -0.021850158 0.047999576 4294967112
0.71324354 -0.021184068 0.047936246 4294967131
0.71363014 -0.020469852 0.047618508 4289307447
0.71418172 -0.032920502 0.04799971 4294178160
0.71402764 -0.032278463 0.048126772 4294967115
0.71387351 -0.03163746 0.048253849 4294573892
0.71379685 -0.030989733 0.048317492 4294508306
0.71379745 -0.030334512 0.04831776 4294967089
0.71372068 -0.029687565 0.048381448 4294967108
0.71372133 -0.029032601 0.048381716 4291411721
0.71379936 -0.02836884 0.048318565 4294372406
0.71379995 -0.027713617 0.048318848 4294834015
0.71372318 -0.027067706 0.048382521 4289175817
0.71372384 -0.026412742 0.048382789 4291478307
0.71372443 -0.025757778 0.048383057 4294504746
0.71372509 -0.025102815 0.048383325 4294965811
0.71372569 -0.024447851 0.048383594 4294836000
0.71380371 -0.023782276 0.048320457 4294770470
0.71388167 -0.023116186 0.048257351 4294967099
0.714037 -0.022438454 0.048130825 4294967105
0.71419233 -0.021759681 0.048004299 4294967107
0.71427029 -0.021091525 0.047941178 4293782860
0.71575218 -0.034137219 0.04756473 4283458123
0.71544278 -0.033503696 0.047817782 4284707136
0.71513397 -0.032213915 0.048071116 4294639398
0.71497953 -0.031570584 0.048197791 4294376994
0.71474767 -0.030936034 0.048387632 4294704904
0.71474826 -0.030278999 0.0483879 4294967110
0.71474892 -0.029621961 0.048388168 4294967136
0.71467203 -0.028973462 0.048451647 4290951937
0.71467263 -0.028316684 0.04845193 4294967118
0.71467328 -0.027659904 0.048452199 4294967141
0.71459639 -0.027012434 0.048515663 4290294796
0.71459699 -0.026355915 0.048515931 4294175300
0.71459764 -0.025699398 0.048516199 4291741699
0.71459824 -0.02504288 0.048516467 4294967100
0.71459889 -0.024386359 0.048516735 4294901552
0.71459949 -0.02372984 0.048517004 4294967099
0.71475518 -0.02305159 0.04839088 4294967112
0.71483326 -0.022383429 0.048327982 4294770497
0.71506649 -0.021691978 0.048138648 4294967108
0.71522212 -0.021010621 0.04801254 4290361111
0.71647495 -0.033450536 0.047829613 4284901919
0.71632022 -0.032803059 0.047955856 4294967113
0.71570134 -0.030223491 0.048460886 4294967111
0.715702 -0.02956464 0.048461154 4294967118
0.71562493 -0.028914325 0.048524439 4294967103
0.71554792 -0.028264524 0.04858768 4294373937
0.71547085 -0.027615244 0.048650935 4294966874
0.7154721 -0.026299095 0.048651487 4294243380
0.71547276 -0.025641024 0.048651755 4294967103
0.71555167 -0.02431453 0.048589304 4294835998
0.71562994 -0.023645591 0.0485266 4294967097
0.71570826 -0.022976132 0.048463866 4294967105
0.71586424 -0.02229503 0.048338145 4294967105
0.71602023 -0.021612894 0.048212439 4294967123
0.71625388 -0.020918079 0.048023745 4285557504
0.71766543 -0.033383943 0.047719061 4287269132
0.7175104 -0.032733873 0.047844917 4294573338
0.71719968 -0.032099307 0.048096359 4294770461
0.71696681 -0.031459324 0.048284993 4294508058
0.71681178 -0.030813135 0.048410848 4294967085
0.71665668 -0.030167984 0.048536703 4294704451
0.71665734 -0.029507319 0.048536971 4290689025
0.71658015 -0.028855188 0.048600018 4289965312
0.71658075 -0.028194783 0.048600286 4294967110
0.7165814 -0.027534377 0.048600569 4294506793
0.71658206 -0.02687397 0.048600838 4294901551
0.71650481 -0.026223138 0.048663914 4294967087
0.71658331 -0.025553161 0.048601374 4294967084
0.71650606 -0.024902849 0.048664451 4294573592
0.71658456 -0.024232352 0.048601925 4294770455
0.716663 -0.023561342 0.04853943 4294967097
0.71674144 -0.022889813 0.048476905 4294967109
0.71689779 -0.022206638 0.048351616 4294967109
0.71697628 -0.021533811 0.048289075 4294967129
0.71728826 -0.020825544 0.048038214 4288055599
0.7189365 -0.033977516 0.04754971 4284374071
0.71870315 -0.033330791 0.047737762 4290294567
0.7184698 -0.032685623 0.047925785 4294507556
0.71831441 -0.03203477 0.048051238 4294967083
0.71808106 -0.031392455 0.048239276 4294508058
0.71792567 -0.030743932 0.048364729 4294967082
0.7178483 -0.030088438 0.048427582 4294967125
0.71769297 -0.029441731 0.04855305 4289109760
0.71769357 -0.028778994 0.048553318 4290294016
0.71769422 -0.028116258 0.048553586 4292068870
0.71769482 -0.027453519 0.048553869 4294966056
0.71769547 -0.026790783 0.048554137 4294967094
0.71761811 -0.026137615 0.04861699 4292334088
0.71761876 -0.025475137 0.048617274 4294967098
0.71761942 -0.024812661 0.048617542 4294704933
0.71769798 -0.024139836 0.048555225 4294639392
0.71777666 -0.02346649 0.048492908 4294967101
0.7179333 -0.022781763 0.048368007 4294967107
0.71801192 -0.022107126 0.048305705 4294967107
0.71801257 -0.021443352 0.048305973 4294506824
0.71816921 -0.020756295 0.048181057 4285687076
0.72021043 -0.035246525 0.04738456 4281878831
0.72005475 -0.034589194 0.047509581 4283061818
0.71989912 -0.033932902 0.047634646 4283519784
0.71966523 -0.033284362 0.047822073 4294967149
0.71958774 -0.032623425 0.047884732 4294836009
0.71943206 -0.03197024 0.048009783 4294836009
0.71927637 -0.031318091 0.048134834 4294770466
0.71904254 -0.030674737 0.048322245 4294310947
0.71896499 -0.030016908 0.04838492 4294967122
0.71888745 -0.029359594 0.048447564 4293255202
0.7188881 -0.028694268 0.048447832 4294966334
0.71888876 -0.028028939 0.048448116 4293584421
0.71881121 -0.027372662 0.04851079 4290818048
0.71881181 -0.026707593 0.048511058 4291673856
0.71881247 -0.026042525 0.048511326 4294242335
0.71881306 -0.02537746 0.048511609 4294967091
0.71881372 -0.024712391 0.048511878 4294967087
0.71889257 -0.024036974 0.048449755 4294770482
0.71889317 -0.023371644 0.048450023 4294836013
0.71897197 -0.022695452 0.048387945 4294573869
0.71897256 -0.022029866 0.048388213 4294836017
0.72141027 -0.035860039 0.047286287 4281748277
0.72125423 -0.035199597 0.04741095 4281287978
0.7210983 -0.034540199 0.047535583 4282930234
0.72094226 -0.033881832 0.047660232 4283979052
0.72086459 -0.03321778 0.047722667 4294967162
0.72063029 -0.032568209 0.047909513 4294507114
0.72047424 -0.031912949 0.048034132 4294639402
0.71992981 -0.027959215 0.048471093 4294967130
0.72000945 -0.0266151 0.048409447 4294966331
0.72001326 -0.022609143 0.048411101 4294704922
0.7223779 -0.036495008 0.047378033 4281549364
0.72237849 -0.035820872 0.047378317 4281615157
0.72230065 -0.035152677 0.047440574 4282733634
0.72206587 -0.034497403 0.047626793 4283062340
0.72198802 -0.033830762 0.04768905 4284504349
0.72175324 -0.03317808 0.04787527 4294967117
0.72175384 -0.032506019 0.047875553 4294639425
0.72159755 -0.031848427 0.047999769 4294704943
0.72151971 -0.031184377 0.048062027 4294967111
0.72136337 -0.030528603 0.048186272 4294901591
0.72128558 -0.029865848 0.048248515 4294571836
0.72120768 -0.029203614 0.048310786 4291282186
0.72112983 -0.028541895 0.048373044 4291343643
0.72113049 -0.027871903 0.048373312 4294966626
0.72105265 -0.027210964 0.048435584 4294967130
0.7211318 -0.02653192 0.048373863 4294967103
0.7210539 -0.025871499 0.048436135 4294704181
0.72113305 -0.02519194 0.048374414 4294967062
0.72113371 -0.024521947 0.048374698 4294573836
0.72129196 -0.023160752 0.048251271 4294901545
0.72129261 -0.022490242 0.048251554 4294967082
0.72137165 -0.021808611 0.048189864 4294967126
0.72129387 -0.021149224 0.048252106 4289045052
0.72358429 -0.036441389 0.047287568 4281744693
0.72334903 -0.035781711 0.047473177 4281876279
0.72327101 -0.035111703 0.047535211 4283718987
0.72311437 -0.034448415 0.047659054 4284377169
0.72303641 -0.033779703 0.047721118 4286084900
0.72280109 -0.033124946 0.047906727 4294770488
0.72280174 -0.03245081 0.047906995 4294901538
0.72272372 -0.031783909 0.047969058 4294704927
0.72256708 -0.03112502 0.048092887 4294836017
0.72241044 -0.030467171 0.048216715 4294967115
0.7224111 -0.029794332 0.048216999 4294967103
0.72241175 -0.029121492 0.048217282 4294900281
0.72233373 -0.028457185 0.048279345 4294964058
0.72233438 -0.027784603 0.048279613 4294967146
0.72233498 -0.02711202 0.048279896 4292003119
0.72241431 -0.026430124 0.048218384 4290227968
0.72241497 -0.025757283 0.048218653 4294967104
0.72233695 -0.025094276 0.048280731 4294901517
0.72241622 -0.024411604 0.048219219 4294770455
0.72241688 -0.023738762 0.048219487 4294835988
0.72249615 -0.023055315 0.04815799 4294704916
0.7226541 -0.022360487 0.048034728 4294770453
0.72273338 -0.021675741 0.047973216 4293124386
0.72296995 -0.020967718 0.047788158 4284571157
0.72304928 -0.020281425 0.047726676 4282006318
0.72455758 -0.036404047 0.047385842 4281679415
0.72440064 -0.03573687 0.047509283 4282533689
0.72424364 -0.035070732 0.047632709 4282533920
0.72400784 -0.034411833 0.047817737 4283453235
0.7240085 -0.033735104 0.047818005 4291414062
0.72385156 -0.033071809 0.047941417 4294704906
0.72377336 -0.032402582 0.048003286 4294835980
0.72369522 -0.031733867 0.048065126 4294901535
0.72361708 -0.031065671 0.048126981 4294835771
0.72353894 -0.030397993 0.048188835 4294967111
0.72353959 -0.029722821 0.048189119 4294962226
0.72354019 -0.029047649 0.048189387 4291277824
0.72354084 -0.028372476 0.04818967 4291605000
0.7234627 -0.027706096 0.048251525 4291081728
0.7234633 -0.027031181 0.048251808 4291346945
0.72354281 -0.026346954 0.048190504 4293123356
0.7236222 -0.025662214 0.048129216 4294967070
0.72362286 -0.024986785 0.048129484 4294967052
0.72354472 -0.024321437 0.048191339 4294967077
0.72354537 -0.023646263 0.048191607 4294704916
0.72362483 -0.022960488 0.048130319 4294835990
0.72378308 -0.022263328 0.048007458 4294770453
0.72394133 -0.021565126 0.047884583 4289242624
0.72425723 -0.02084313 0.047638565 4285096245
0.72441548 -0.020142343 0.047515705 4282138163
0.72457373 -0.019440522 0.04739283 4282006577
0.72529685 -0.035703398 0.047671393 4281943087
0.7251395 -0.035035707 0.047794417 4282863394
0.72498226 -0.034369044 0.047917426 4283847198
0.72490394 -0.033696964 0.047979087 4294967119
0.72482562 -0.033025403 0.048040733 4294967122
0.72482628 -0.032347381 0.048041016 4294770228
0.72474796 -0.03167659 0.048102677 4294967101
0.72466964 -0.031006321 0.048164308 4294967103
0.72459131 -0.030336574 0.048225984 4294967109
0.72451299 -0.029667342 0.04828763 4294967124
0.72451365 -0.028990356 0.048287898 4294967108
0.72459322 -0.02830484 0.048226818 4294967090
0.72451496 -0.027636383 0.048288465 4294967082
0.72451556 -0.026959395 0.048288748 4294704922
0.72459519 -0.0262731 0.048227653 4294704922
0.72467482 -0.025586283 0.048166543 4294704902
0.72459644 -0.024918612 0.048228204 4294967065
0.7245971 -0.024241365 0.048228487 4294836002
0.72459775 -0.023564119 0.04822877 4294704924
0.72467738 -0.022876265 0.048167661 4294901535
0.72483599 -0.022177033 0.048045203 4294967087
0.72491556 -0.021487888 0.047984123 4293584478
0.72523212 -0.020764079 0.04773891 4282662701
0.72546965 -0.020049836 0.047555089 4282202927
0.72619498 -0.03566993 0.047835931 4281877546
0.72603738 -0.035000682 0.047958538 4282994474
0.72587979 -0.034332469 0.048081174 4283846932
0.72580135 -0.033658832 0.048142612 4294967108
0.72572279 -0.032985713 0.048204064 4294572086
0.72564435 -0.032313112 0.048265517 4294967097
0.72548676 -0.031648267 0.048388138 4294770488
0.72540826 -0.030976959 0.048449576 4294704943
0.72540891 -0.030298417 0.048449844 4294967117
0.72533041 -0.029627895 0.048511311 4294836029
0.72533107 -0.028949615 0.048511595 4294836023
0.72525263 -0.028279861 0.048573032 4294901562
0.72525322 -0.027601838 0.048573315 4294967095
0.72525388 -0.026923815 0.048573598 4294967083
0.72525454 -0.026245791 0.048573866 4294901531
0.72533429 -0.025558202 0.04851298 4294704904
0.72533494 -0.024879923 0.048513263 4294967056
0.7253356 -0.024201639 0.048513547 4294835996
0.72541535 -0.023513008 0.048452646 4294901533
0.72565341 -0.022802657 0.048269421 4294901533
0.72573316 -0.022112474 0.048208535 4294967110
0.72589207 -0.021410653 0.048086494 4290426444
0.72620928 -0.02068503 0.0478421 4282202416
0.72636819 -0.019980613 0.04772003 4282531381
0.7267645 -0.019239467 0.047414497 4281808169
0.75496519 -0.074652351 0.026525527 4278918936
0.75449026 -0.073831722 0.026891679 4278919708
0.75417387 -0.073029265 0.027135894 4279774765
0.72709513 -0.035636462 0.048002884 4282010404
0.72693717 -0.034965657 0.048125103 4282994728
0.7268585 -0.034289692 0.048186362 4284702993
0.72677988 -0.033614241 0.048247591 4294967096
0.72662199 -0.032946028 0.048369825 4294507304
0.72654331 -0.032271873 0.048431054 4294835976
0.72646469 -0.031598233 0.048492312 4294704906
0.72638607 -0.030925116 0.048553556 4294901539
0.72638667 -0.03024476 0.048553839 4290755328
0.72630805 -0.029572422 0.048615098 4291215872
0.7263087 -0.028892327 0.048615366 4294967155
0.72630936 -0.028212231 0.048615649 4294967155
0.72623074 -0.027540924 0.048676893 4293846866
0.72623134 -0.026861088 0.048677176 4288583424
0.72623199 -0.026181251 0.048677459 4294965318
0.72623265 -0.025501413 0.048677742 4294901556
0.72631258 -0.024811754 0.04861705 4294507806
0.72631323 -0.024131658 0.048617333 4294770455
0.72639316 -0.023441214 0.048556641 4294770451
0.72655243 -0.022739653 0.048434973 4294967063
0.7267909 -0.022026187 0.048252374 4294178080
0.72695017 -0.021322295 0.048130721 4285490451
0.72718871 -0.020605981 0.047948122 4282072372
0.72734791 -0.019899754 0.047826469 4281480235
0.72774506 -0.019156795 0.047521919 4281482034
0.72798359 -0.018435556 0.04733932 4281285940
0.75592172 -0.077027678 0.026765287 4278787874
0.75544584 -0.076200828 0.027130216 4278919460
0.7548905 -0.075368777 0.027555928 4278984479
0.75449407 -0.074556462 0.027860105 4278918940
0.75409764 -0.073746733 0.028164268 4279049759
0.72799712 -0.035603002 0.048172295 4281944863
0.72783887 -0.034930639 0.048294112 4282994976
0.72776008 -0.034253117 0.048355147 4286414613
0.72768128 -0.033576112 0.048416212 4294770464
0.72760248 -0.032899626 0.048477247 4294508060
0.72752368 -0.032223657 0.048538283 4294704896
0.72744489 -0.031548206 0.048599333 4294704896
0.72736609 -0.030873273 0.048660383 4294835978
0.72728729 -0.030198859 0.048721433 4292465426
0.72728795 -0.029516952 0.048721716 4289504768
0.7272886 -0.028835043 0.048721999 4291542065
0.7272892 -0.028153135 0.048722282 4290489893
0.72728986 -0.027471224 0.04872255 4294967143
0.72729051 -0.026789315 0.048722833 4289703168
0.72729117 -0.026107404 0.048723117 4294967120
0.72729182 -0.025425496 0.0487234 4294967095
0.72729248 -0.024743591 0.048723683 4294836019
0.72737259 -0.024051592 0.048663184 4294508324
0.7274527 -0.023359079 0.0486027 4294508324
0.7275328 -0.022666045 0.048542216 4294901530
0.72769237 -0.021961635 0.048420995 4291414528
0.72793138 -0.021245062 0.048238978 4283780374
0.72817039 -0.020526938 0.04805696 4281942324
0.7283299 -0.019818898 0.047935724 4281679152
0.72856891 -0.019097924 0.047753736 4281351472
0.72872853 -0.018387549 0.047632486 4281417526
0.75473475 -0.075303018 0.028644368 4278919719
0.75441712 -0.074500814 0.028886959 4278852897
0.75417906 -0.073708482 0.029068962 4279441700
0.75187653 -0.06739717 0.03082794 4279376411
0.75171804 -0.06662558 0.030949384 4279047192
0.72890109 -0.035569541 0.04834412 4282141740
0.72874254 -0.034895625 0.048465535 4283190819
0.72866356 -0.034216546 0.048526376 4291546190
0.72858465 -0.033537988 0.048587218 4294967179
0.72850567 -0.032859948 0.048648059 4294508060
0.72842669 -0.032182425 0.048708916 4294704896
0.72834778 -0.031505417 0.048769757 4294704896
0.72826874 -0.030828929 0.048830613 4294967066
0.72818983 -0.03015296 0.048891425 4294967066
0.72819048 -0.029469498 0.048891708 4294963774
0.72819114 -0.028786035 0.048891991 4294965339
0.72819173 -0.028102571 0.048892274 4294967138
0.72819245 -0.027419107 0.048892558 4294967119
0.72819304 -0.026735641 0.048892841 4294967123
0.7281937 -0.026052177 0.048893124 4294836006
0.72827399 -0.025359146 0.048832864 4294967066
0.72835428 -0.0246656 0.048772573 4294967082
0.72835493 -0.023981618 0.048772857 4294770464
0.72843516 -0.023287293 0.048712581 4294704927
0.72859502 -0.022581842 0.048591733 4294967064
0.72875494 -0.021875357 0.048470899 4294834013
0.72883523 -0.021178961 0.048410624 4283845946
0.72899508 -0.020470658 0.048289791 4281547564
0.72923458 -0.019749682 0.048108369 4281744943
0.7293945 -0.019039053 0.047987536 4281481771
0.72955436 -0.018327389 0.047866732 4281220145
0.72963464 -0.017627101 0.047806442 4281286201
0.75473595 -0.075253859 0.029608846 4278918954
0.75457716 -0.074469313 0.029729888 4278918436
0.75386083 -0.07286568 0.03027381 4280029476
0.7537818 -0.072092816 0.030334488 4279439901
0.75354326 -0.071306437 0.030515894 4279439901
0.75330472 -0.070521608 0.030697301 4279375898
0.75306618 -0.069738343 0.030878708 4279375124
0.75298715 -0.068969101 0.030939385 4279309081
0.75274855 -0.068188429 0.031120792 4279178267
0.75258976 -0.067415029 0.031241849 4279178780
0.75235116 -0.066637196 0.031423241 4279114520
0.75211263 -0.065860927 0.031604633 4278917143
0.75203359 -0.065096095 0.031665325 4278851096
0.72980702 -0.035536081 0.048518389 4282863160
0.72972786 -0.034854673 0.048579037 4282993686
0.72956902 -0.034179978 0.048700035 4294967142
0.72948986 -0.033499867 0.048760667 4294111571
0.72933102 -0.032826986 0.048881665 4294967093
0.72925186 -0.032148167 0.048942327 4294573830
0.72917277 -0.031469867 0.04900296 4294704896
0.72917342 -0.030784588 0.049003243 4294965284
0.72917402 -0.030099312 0.049003527 4288714752
0.72917473 -0.029414035 0.04900381 4294967127
0.72917533 -0.028728759 0.049004093 4294967115
0.72909629 -0.02805201 0.049064726 4294967105
0.72917664 -0.027358204 0.049004659 4291279872
0.72917736 -0.026672926 0.049004927 4291016704
0.72917795 -0.025987647 0.04900521 4294966814
0.72917861 -0.025302373 0.049005494 4294770451
0.72925907 -0.024607271 0.048945427 4294835984
0.72925973 -0.023921734 0.04894571 4294704908
0.72934014 -0.023225849 0.048885629 4294967056
0.72950035 -0.022518847 0.048765197 4294967077
0.72966057 -0.021810805 0.048644751 4288121122
0.72982079 -0.021101734 0.048524335 4283449403
0.72990119 -0.020403003 0.048464254 4282268459
0.73006141 -0.019692112 0.048343837 4282202666
0.73014182 -0.018992089 0.048283756 4281940009
0.73030204 -0.018279389 0.048163339 4281480231
0.7303825 -0.017578065 0.048103258 4281874736
0.75473523 -0.075204708 0.03057088 4279115565
0.75457615 -0.074421719 0.030691519 4278722090
0.75441706 -0.073639765 0.030812159 4278982698
0.75425792 -0.072858848 0.030932814 4279243808
0.7540189 -0.072071694 0.031113595 4279243038
0.75393969 -0.071300119 0.031174093 4279243038
0.75378054 -0.070522308 0.031294718 4279572255
0.75378132 -0.069758534 0.031295031 4279310364
0.7537021 -0.068988517 0.031355515 4279311134
0.75338316 -0.06820108 0.031596467 4279311899
0.75338387 -0.067438602 0.03159678 4279377692
0.75314486 -0.066659734 0.031777576 4279709226
0.75298572 -0.065887623 0.031898201 4281618518
0.7529065 -0.065121494 0.031958699 4281685842
0.75274742 -0.064351201 0.032079324 4281882952
0.73063493 -0.035508309 0.048755229 4282863928
0.73071551 -0.034813724 0.048695385 4282862613
0.73055631 -0.034137219 0.048815966 4294967167
0.73039711 -0.033461746 0.048936576 4294967155
0.73031783 -0.032780595 0.048997 4294639427
0.73023856 -0.032099962 0.049057439 4294508298
0.73015928 -0.031419843 0.049117878 4294704898
0.73008001 -0.030740248 0.049178302 4293979177
0.7300806 -0.030053416 0.049178585 4288584192
0.73008132 -0.029366586 0.049178869 4294967128
0.73008192 -0.028679755 0.049179152 4294967102
0.73008263 -0.027992923 0.049179435 4294967103
0.73008323 -0.027306091 0.049179718 4290819840
0.73008394 -0.026619259 0.049180001 4293846298
0.73008454 -0.025932426 0.049180284 4294901258
0.73016512 -0.025236029 0.049120426 4294967046
0.73024571 -0.024539115 0.049060553 4294835976
0.73024642 -0.023851763 0.049060836 4294835976
0.73032701 -0.023154069 0.049000964 4294704902
0.7304076 -0.022455856 0.048941106 4294967071
0.73056811 -0.021746265 0.048821077 4285817633
0.7306487 -0.021046756 0.048761189 4283186742
0.73072928 -0.020346731 0.048701331 4282857777
0.73080993 -0.019646183 0.048641458 4282202920
0.73081052 -0.018957023 0.048641741 4281677353
0.73105103 -0.018231384 0.048461571 4281611562
0.73105168 -0.017541442 0.048461854 4281413413
0.75497282 -0.075180486 0.031350613 4278983466
0.75481337 -0.074398264 0.03147085 4278655280
0.75465393 -0.073617093 0.031591073 4278787120
0.7545746 -0.072844476 0.031651348 4278984481
0.75441515 -0.072065115 0.0317716 4279179548
0.75441587 -0.07130082 0.031771913 4279508513
0.75433654 -0.070529774 0.031832173 4280628275
0.75433725 -0.069765732 0.031832486 4282077505
0.75425792 -0.068995446 0.031892762 4282144316
0.75425863 -0.068231672 0.031893089 4280434995
0.75425935 -0.067467891 0.031893402 4282277199
0.75401986 -0.066687733 0.032073572 4281425502
0.75402057 -0.065924734 0.0320739 4281557601
0.75394118 -0.065156788 0.03213416 4281491545
0.754022 -0.064398728 0.032074526 4281818696
0.73186493 -0.035452135 0.048694357 4282667062
0.73170537 -0.034772776 0.04881455 4284506911
0.73154587 -0.034094457 0.048934743 4294967160
0.73138636 -0.033417173 0.049054921 4294704754
0.7312268 -0.032740921 0.049175113 4294311730
0.73114735 -0.032058738 0.049235359 4294508292
0.731148 -0.031369831 0.049235657 4294967054
0.73106861 -0.03068842 0.049295872 4294967085
0.73106921 -0.029999774 0.049296156 4294967093
0.73106992 -0.02931113 0.049296439 4292006168
0.73107052 -0.028622486 0.049296722 4292792576
0.73107123 -0.02793384 0.049297005 4293912078
0.73107183 -0.027245194 0.049297288 4294967100
0.73107255 -0.026556548 0.049297571 4294967089
0.73107314 -0.025867902 0.049297854 4294704656
0.73115391 -0.025169693 0.049238205 4294967044
0.73123467 -0.024470961 0.049178526 4294704896
0.73123533 -0.023781797 0.049178809 4294704896
0.73131609 -0.023082292 0.049119145 4294704898
0.73139685 -0.022382263 0.049059466 4288583424
0.73147762 -0.02168172 0.048999816 4284632614
0.73155832 -0.02098066 0.048940152 4282795064
0.73155904 -0.020290459 0.048940435 4282334513
0.73171985 -0.01957698 0.048820809 4282137904
0.73172051 -0.018886261 0.048821092 4281413413
0.73180127 -0.018183388 0.048761413 4281348392
0.75512916 -0.075147942 0.032188863 4279179309
0.75512987 -0.074382871 0.03218919 4278851630
0.75505036 -0.073609993 0.032249272 4279379257
0.75505108 -0.072845176 0.032249585 4279578413
0.75489134 -0.072065815 0.03236942 4281419840
0.75481182 -0.071294509 0.032429472 4282998872
0.75481254 -0.070530474 0.032429785 4281881420
0.75489354 -0.069772929 0.032370359 4282606675
0.75489426 -0.069008626 0.032370672 4282803275
0.75505549 -0.068256289 0.032251477 4281684041
0.7550562 -0.067491472 0.03225179 4282341971
0.75497669 -0.066721193 0.032311857 4281818207
0.75497741 -0.065956637 0.03231217 4281554006
0.75497818 -0.065192081 0.032312483 4281947733
0.7549789 -0.064427525 0.032312796 4281748809
0.73293698 -0.036100633 0.048756734 4282207281
0.73285741 -0.035413004 0.048816785 4282272822
0.73269755 -0.034731835 0.048936561 4286086443
0.73253769 -0.034051698 0.049056321 4294901608
0.73237783 -0.0333726 0.049176127 4294836071
0.73221797 -0.032694537 0.049295902 4294180396
0.73221862 -0.032003559 0.049296185 4294573828
0.73213899 -0.031319819 0.049356237 4294967047
0.73205948 -0.030636594 0.049416274 4294835994
0.73206007 -0.029946135 0.049416557 4294967068
0.73206079 -0.029255679 0.04941684 4294967108
0.73206139 -0.028565219 0.049417123 4294967093
0.7320621 -0.02787476 0.049417406 4294967089
0.7320627 -0.0271843 0.049417689 4294967088
0.73206341 -0.02649384 0.049417973 4294967101
0.7321443 -0.025794076 0.049358517 4294573871
0.73214495 -0.025103359 0.0493588 4294573826
0.73222589 -0.024402814 0.049299315 4294573824
0.73222655 -0.023711836 0.049299598 4294573824
0.73230743 -0.023010517 0.049240157 4294704902
0.73238838 -0.022308674 0.049180686 4286477056
0.73246932 -0.021606319 0.049121216 4284633911
0.73230946 -0.020936808 0.049241006 4282336314
0.73239034 -0.020234188 0.049181536 4282007349
0.73247129 -0.019531056 0.049122065 4281809716
0.73255217 -0.018827401 0.049062595 4281611310
0.75568551 -0.075922288 0.03272745 4279246368
0.75552541 -0.075140327 0.032846868 4279114782
0.75536537 -0.07435941 0.032966301 4279245854
0.75536609 -0.073595114 0.032966614 4280365634
0.7553668 -0.072830811 0.032966927 4280762437
0.75528717 -0.072059244 0.033026785 4282866268
0.75536823 -0.07130222 0.032967553 4282142545
0.75544941 -0.070544682 0.032908306 4281550928
0.75553054 -0.069786616 0.032849073 4280367429
0.75561166 -0.069028042 0.032789826 4279574823
0.75577319 -0.068274923 0.032671049 4280232238
0.75585437 -0.067515045 0.032611802 4280824375
0.75593543 -0.066754654 0.032552555 4280100400
0.7558558 -0.065983348 0.032612428 4280166445
0.75601733 -0.065227382 0.032493636 4280495921
0.73409271 -0.03605248 0.048763081 4282074421
0.73385209 -0.035373881 0.048942015 4282404156
0.73369193 -0.034690894 0.049061403 4291612485
0.73353177 -0.034008943 0.049180776 4294638963
0.73337162 -0.033328034 0.049300164 4294179361
0.73329186 -0.032641441 0.049360007 4294508310
0.73321205 -0.031955365 0.049419835 4294573828
0.7331323 -0.031269811 0.049479678 4294967069
0.73305255 -0.030584771 0.049539506 4293389314
0.73305321 -0.029892497 0.04953979 4290621952
0.73305386 -0.029200228 0.049540073 4290949120
0.73305452 -0.028507955 0.049540356 4290226195
0.73297477 -0.02782421 0.049600169 4289436160
0.73305583 -0.027123408 0.049540937 4292199436
0.73305655 -0.026431136 0.04954122 4294900779
0.73313761 -0.025729557 0.049481958 4294901550
0.73313826 -0.025037026 0.049482241 4294704925
0.73313892 -0.024344496 0.049482524 4294573824
0.73321998 -0.023641879 0.049423248 4294573824
0.73330104 -0.022938745 0.049364015 4294967075
0.73330176 -0.022245694 0.049364299 4289303345
0.73322201 -0.021563504 0.049424112 4283383612
0.7332226 -0.020870715 0.049424395 4282203701
0.73338413 -0.020155163 0.049305588 4282072115
0.75592065 -0.075897276 0.033504128 4279444250
0.75584078 -0.075124413 0.033563808 4279115285
0.75576097 -0.074352063 0.033623457 4279246871
0.75576174 -0.073588021 0.03362377 4280036152
0.75576246 -0.072823986 0.033624083 4280234296
0.75576317 -0.072059944 0.033624396 4280560951
0.75584447 -0.071302921 0.033565387 4280231986
0.7560063 -0.07055214 0.033446983 4280100402
0.75616819 -0.069800317 0.033328608 4279838775
0.75624949 -0.069041215 0.033269569 4279376427
0.75657248 -0.068299539 0.033032477 4279441702
0.75665379 -0.067538634 0.032973424 4280231218
0.75673509 -0.0667772 0.0329144 4280166195
0.7567358 -0.066010058 0.032914713 4279706409
0.7568171 -0.065247849 0.032855675 4280232751
0.73500955 -0.036020592 0.048951134 4285955697
0.7348491 -0.035334758 0.049070105 4287340945
0.73468864 -0.034649957 0.049189091 4294572990
0.73452812 -0.033966195 0.049308062 4294638783
0.73436761 -0.033283468 0.049427047 4294967154
0.73420709 -0.032601781 0.049546018 4294967154
0.73412722 -0.031914148 0.049605653 4294967155
0.73404729 -0.031227037 0.049665287 4294967159
0.73404795 -0.030532951 0.049665585 4294967160
0.7340486 -0.029838864 0.049665868 4294967164
0.73404926 -0.029144781 0.049666151 4294967148
0.73396933 -0.028458964 0.049725756 4294967137
0.73396999 -0.027765136 0.049726054 4294967119
0.73397064 -0.027071308 0.049726337 4294967122
0.73405194 -0.026368434 0.049667299 4294967119
0.73405254 -0.025674349 0.049667582 4294967117
0.73413384 -0.024970695 0.049608514 4294967149
0.73405391 -0.024286179 0.049668148 4294967162
0.73405457 -0.023592092 0.049668431 4294967164
0.73405522 -0.022898005 0.049668729 4292002896
0.73413646 -0.022193315 0.049609646 4284368940
0.73397595 -0.021520691 0.049728617 4283581752
0.75623554 -0.07588084 0.034220442 4280037668
0.75615555 -0.075108483 0.034279928 4280169254
0.75615627 -0.07434471 0.034280241 4279841572
0.75615698 -0.073580928 0.034280553 4280434496
0.75623846 -0.072824687 0.034221709 4278986028
0.75623918 -0.072060645 0.034222022 4279378474
0.75632066 -0.071303621 0.034163207 4279575853
0.75648284 -0.070552841 0.034045205 4279771687
0.75664502 -0.069801018 0.033927232 4279903536
0.75696868 -0.069060639 0.033690959 4279113518
0.7570501 -0.068300247 0.033632129 4279112483
0.75721228 -0.067545056 0.033514127 4278980897
0.75729376 -0.066783369 0.033455297 4279506993
0.75737524 -0.066021159 0.033396482 4279245606
0.7357676 -0.03530132 0.049260184 4282603084
0.73576826 -0.034603085 0.049260482 4289638812
0.73552668 -0.033923447 0.049438179 4286480748
0.73536587 -0.033238906 0.049556747 4288581200
0.73520505 -0.032555401 0.049675331 4291214192
0.73504424 -0.031872936 0.049793899 4290097254
0.73496419 -0.031184269 0.049853325 4289439074
0.73488408 -0.03049612 0.049912766 4289833832
0.73480403 -0.02980849 0.049972191 4290227820
0.73480469 -0.029113371 0.049972475 4294965407
0.73480535 -0.028418249 0.049972773 4289964857
0.734806 -0.027723124 0.049973056 4294965132
0.73480666 -0.027028002 0.049973339 4291477846
0.73480737 -0.026332878 0.049973622 4291018327
0.73472726 -0.025647065 0.050033048 4294111129
0.73480868 -0.024942635 0.049974203 4292265858
0.73472857 -0.02425734 0.050033629 4292727441
0.73480999 -0.02355239 0.049974769 4293056406
0.73472989 -0.022867613 0.050034195 4285422380
0.75646818 -0.076619089 0.034994617 4279905851
0.75654984 -0.075864397 0.034935966 4280036152
0.75646961 -0.075092569 0.034995243 4279509808
0.75647032 -0.074329302 0.034995556 4280496437
0.7564711 -0.073566042 0.034995869 4281943881
0.75663358 -0.072817847 0.034878284 4282077772
0.75671524 -0.072061345 0.034819648 4282407749
0.75679684 -0.071304321 0.034761027 4282210370
0.75695932 -0.070553541 0.034643441 4279445270
0.75712186 -0.069801718 0.034525871 4279771939
0.7572844 -0.069048859 0.034408286 4279376161
0.75752777 -0.068300948 0.034231767 4279112735
0.75769025 -0.067545757 0.034114182 4279112735
0.73644668 -0.033886902 0.049630061 4283059282
0.73628557 -0.033200804 0.049748242 4283517523
0.73604345 -0.032522462 0.049925357 4289045919
0.73596323 -0.031831723 0.049984589 4287732108
0.73580211 -0.031148737 0.050102741 4287536275
0.73572189 -0.030459292 0.050161973 4287141517
0.7356416 -0.029770367 0.050221205 4288584351
0.73556137 -0.029081963 0.050280437 4290624707
0.73556209 -0.028385805 0.05028072 4283982950
0.73556274 -0.027689645 0.050281003 4289380015
0.73540157 -0.027011065 0.050399169 4285169263
0.73556405 -0.026297327 0.050281584 4289967782
0.73548377 -0.025610475 0.050340801 4288258965
0.73564625 -0.024895445 0.050223216 4284638817
0.75661957 -0.076584473 0.035826579 4279510573
0.75686342 -0.075847954 0.035650671 4279903534
0.75678313 -0.07507664 0.035709724 4279771948
0.75686485 -0.074321955 0.035651296 4280559920
0.75686562 -0.073558949 0.035651609 4281875262
0.75694734 -0.072803475 0.035593197 4281549112
0.75711018 -0.072054774 0.035476014 4282143035
0.75711095 -0.071290985 0.035476327 4282866758
0.7573548 -0.070547484 0.035300404 4281551159
0.7575987 -0.069802418 0.035124496 4280036134
0.75768048 -0.069043323 0.035066083 4279312161
0.7570132 -0.076576337 0.036481336 4279050011
0.75685155 -0.07579723 0.036598742 4279442705
0.75709593 -0.075060718 0.0364234 4279574291
0.75709665 -0.074298494 0.036423728 4280099619
0.75717854 -0.073544055 0.036365509 4280823344
0.75717926 -0.072781578 0.036365822 4279836445
0.75734246 -0.072033644 0.036249042 4282008367
0.75758678 -0.071291685 0.036073744 4281745195
0.75758755 -0.070527911 0.036074057 4283851602
0.75791311 -0.069790125 0.035840213 4281947464
0.75716245 -0.076541714 0.03731069 4279115032
0.75724459 -0.075789362 0.03725265 4279246092
0.75732666 -0.075036481 0.037194639 4279771416
0.75732738 -0.074275032 0.037194952 4279903002
0.75740951 -0.073521376 0.037136927 4280495141
0.75757301 -0.072774738 0.037020549 4279375898
0.75773644 -0.072027065 0.036904201 4281611821
0.75773716 -0.071264327 0.036904514 4281677614
0.75806338 -0.070528612 0.036671475 4282007345
0.75730973 -0.077266984 0.038138106 4279181846
0.75739199 -0.07651592 0.038080275 4279311635
0.75747424 -0.075764343 0.038022459 4279180814
0.7575565 -0.075012237 0.037964642 4279378195
0.75755721 -0.07425157 0.037964955 4279443988
0.75755793 -0.073490895 0.037965268 4279838492
0.75755864 -0.072730228 0.037965581 4279309085
0.75780398 -0.071991384 0.037791491 4280690734
0.75804937 -0.07125099 0.037617385 4280953906
0.76253062 0.010648981 0.034511954 4280624168
0.7625314 0.011425193 0.034512267 4280695339
0.75737464 -0.077222228 0.039022163 4279443221
0.75745714 -0.076472461 0.038964525 4279507731
0.75745785 -0.075713612 0.038964838 4279376912
0.75762194 -0.074971378 0.038849294 4279377428
0.75770438 -0.074220054 0.038791671 4279443221
0.75770509 -0.073460415 0.038791984 4279377943
0.7579509 -0.072723389 0.03861849 4278914591
0.75803334 -0.071970254 0.038560882 4280757800
0.76301426 0.010648269 0.035119101 4281217332
0.76293325 0.011403773 0.03517735 4281217061
0.75743806 -0.07717748 0.039904177 4279507731
0.75760245 -0.076437838 0.039789021 4279638549
0.75760317 -0.075680017 0.039789334 4279769365
0.75776768 -0.074938819 0.039674193 4279572754
0.75776839 -0.074180484 0.039674506 4279572754
0.75793278 -0.073437735 0.039559349 4279443485
0.75801539 -0.072686404 0.03950195 4278717729
0.75817978 -0.071941845 0.039386794 4280495141
0.75758183 -0.077141806 0.040726647 4279245593
0.75766456 -0.076394372 0.040669426 4279507993
0.75774729 -0.075646423 0.040612206 4279506710
0.75783002 -0.074897952 0.040554971 4279506193
0.75791276 -0.07414896 0.04049778 4279506193
0.75799549 -0.073399454 0.040440544 4279835675
0.75824231 -0.072664499 0.040268287 4278782489
0.75764209 -0.077097051 0.041604802 4279442722
