# .PCD v0.7 - Point Cloud Data file format
VERSION 0.7
FIELDS x y z rgb
SIZE 4 4 4 4
TYPE F F F U
COUNT 1 1 1 1
WIDTH 1025
HEIGHT 1
VIEWPOINT 0 0 0 1 0 0 0
POINTS 1025
DATA ascii
0.68705809 -0.03583084 0.020103574 4280892979
0.68743777 -0.034389995 0.021902204 4280761142
0.68788093 -0.032949742 0.024000764 4280300591
0.68817604 -0.031538937 0.025399506 4282008397
0.68847108 -0.030135389 0.026798248 4281943631
0.6887027 -0.0287455 0.027897 4281747274
0.68889201 -0.027365059 0.028795838 4283061850
0.68908131 -0.025989285 0.029694617 4283390815
0.68899554 -0.024635818 0.029293716 4291945187
0.68899441 -0.023275886 0.029292643 4289843145
0.68899328 -0.021915954 0.02929163 4291817446
0.68882287 -0.020560663 0.028490663 4292474344
0.68856782 -0.019202512 0.027289748 4291355863
0.68803769 -0.017838949 0.024789095 4282996057
0.68742287 -0.016461642 0.021888435 4283325284
0.68676579 -0.015068397 0.018787801 4281879123
0.68600285 -0.013655512 0.015187263 4281550158
0.68536681 -0.012229819 0.012186527 4280232499
0.68640316 -0.047439083 0.010312915 4279440652
0.68665278 -0.045967005 0.011511624 4279110925
0.68683964 -0.044516098 0.012410402 4280360475
0.68708926 -0.043055676 0.013609052 4279440902
0.68733889 -0.041601472 0.01480782 4279375109
0.68758845 -0.040153489 0.016006529 4280560172
0.68804705 -0.038672242 0.018205047 4280167210
0.68833852 -0.037231907 0.019603789 4280365352
0.68865085 -0.035795394 0.021102428 4281023282
0.68902588 -0.034357145 0.022901058 4280629554
0.68931729 -0.032939866 0.0242998 4280497968
0.68969238 -0.031519234 0.02609843 4281746506
0.68992114 -0.030124683 0.027197242 4282076237
0.69017076 -0.028733697 0.02839601 4281812549
0.69031596 -0.027358307 0.029094875 4282733397
0.6903984 -0.025991391 0.029493749 4283325534
0.69045997 -0.024627905 0.029792666 4292010464
0.69045889 -0.02326927 0.029791594 4289904310
0.69041592 -0.02191231 0.029590607 4287075473
0.6903103 -0.020556055 0.02908963 4290301647
0.69007927 -0.019199135 0.027988732 4290301647
0.68966013 -0.01783707 0.025987983 4284312699
0.68907374 -0.016463064 0.023187339 4283260263
0.68838286 -0.015072268 0.019886732 4281222476
0.68767101 -0.013663655 0.016486108 4281354062
0.68695921 -0.012237426 0.013085544 4279313714
0.68785357 -0.047426913 0.010511935 4279506445
0.6881001 -0.045955352 0.011710644 4279175952
0.68834656 -0.044490013 0.012909353 4280426792
0.68863434 -0.043021441 0.014307976 4279440147
0.68894273 -0.041555654 0.015806675 4279374354
0.68931311 -0.040085025 0.017605305 4280494638
0.68964219 -0.038631611 0.019203961 4280101931
0.69001251 -0.037179116 0.02100265 4280496938
0.6903829 -0.035735946 0.02280128 4281088561
0.69069135 -0.034311615 0.02429992 4280891696
0.69102043 -0.032892145 0.025898635 4280694317
0.69122571 -0.031496882 0.02689743 4281878860
0.69138968 -0.030111585 0.027696252 4282076237
0.69157434 -0.028728299 0.02859503 4281417277
0.69175893 -0.027349677 0.029493868 4283260511
0.69184041 -0.025983799 0.029892802 4283063132
0.69188052 -0.024622709 0.030091703 4292405990
0.69187939 -0.02326485 0.03009063 4288524706
0.6918577 -0.021907829 0.02998966 4288983986
0.69177395 -0.02055203 0.02958864 4288591029
0.69158703 -0.019195762 0.028687716 4289972682
0.6911937 -0.017835444 0.026786983 4282865253
0.69067651 -0.016464097 0.024286211 4282140498
0.68846428 -0.012241137 0.013584495 4279247403
0.68936408 -0.047398236 0.011010826 4279244308
0.68964827 -0.045917481 0.012409568 4278913305
0.68989164 -0.044453964 0.013608277 4280100402
0.69021654 -0.042977758 0.015206933 4278916376
0.69058222 -0.041500911 0.017005563 4278718997
0.69086635 -0.040050216 0.018404245 4280757810
0.69125247 -0.038587041 0.020302892 4280430894
0.6916793 -0.037126333 0.022401452 4280496685
0.69196343 -0.035700507 0.023800135 4281087795
0.69222724 -0.034285113 0.02509886 4280758832
0.69247073 -0.032879367 0.026297629 4280693039
0.69269377 -0.031482488 0.027396441 4281284926
0.69285566 -0.030098487 0.028195262 4281417275
0.69305837 -0.028714366 0.029194057 4281548611
0.6931591 -0.027344801 0.029692888 4282271571
0.69323951 -0.025979444 0.030091822 4283258466
0.69327921 -0.02461887 0.030290782 4292340458
0.69327807 -0.023261528 0.03028971 4291749592
0.69323617 -0.021905866 0.030088663 4292605163
0.69319427 -0.020549165 0.029887676 4292079083
0.69307083 -0.019192711 0.029286742 4289052605
0.69270283 -0.017833881 0.027485967 4283192421
0.69213092 -0.016463749 0.024685264 4282599764
0.69081169 -0.047386065 0.011209905 4279177763
0.69117272 -0.045884866 0.013008475 4278980384
0.69137275 -0.044432867 0.014007211 4279904818
0.6917941 -0.042934079 0.016105771 4279180061
0.69221544 -0.041446172 0.018204331 4278719510
0.6926167 -0.039973348 0.020202994 4280363054
0.69295764 -0.038522735 0.021901608 4280496175
0.69325829 -0.037088305 0.023400366 4280693550
0.69353884 -0.03566508 0.024799049 4281414707
0.69379932 -0.034252279 0.026097775 4280889646
0.69397926 -0.032857858 0.026996613 4280692267
0.69415921 -0.031468097 0.027895391 4281613371
0.69433916 -0.030083001 0.028794229 4281745727
0.6944387 -0.028711105 0.02929312 4281745992
0.69457841 -0.02733805 0.029991984 4282337623
0.69463766 -0.025975086 0.030290902 4283521897
0.69467676 -0.024615033 0.030489802 4292407534
0.69465548 -0.023259306 0.030388772 4291685598
0.69463426 -0.021903062 0.030287743 4291882205
0.69463313 -0.020545721 0.030286729 4292275936
0.69443077 -0.019191582 0.029285848 4286749324
0.69414788 -0.017832506 0.027884901 4282401872
0.69362354 -0.016463801 0.02528429 4281613641
0.69223839 -0.047379397 0.011308968 4279112483
0.6926344 -0.045867976 0.013307512 4279112483
0.69301063 -0.044371903 0.015206099 4279970093
0.69332725 -0.042899854 0.016804755 4279180313
0.69374317 -0.041413762 0.018903375 4279705894
0.69415915 -0.039938554 0.021001935 4280363824
0.69451547 -0.038486067 0.022800565 4280365103
0.69489169 -0.037039224 0.024699152 4280562731
0.69512892 -0.035626225 0.02589798 4281151788
0.69530654 -0.034228954 0.026796818 4280955179
0.69550407 -0.032833435 0.027795553 4280757800
0.69566178 -0.031448405 0.028594375 4281943106
0.69577986 -0.030072302 0.029193282 4281614141
0.69587803 -0.028701443 0.029692113 4281548100
0.69599611 -0.027331302 0.030291021 4282468696
0.69605458 -0.025969114 0.030589938 4282995040
0.69607329 -0.024611194 0.030688882 4292078310
0.69605231 -0.023255987 0.030587852 4291750871
0.69599158 -0.021901937 0.030286849 4291816664
0.69601035 -0.020544017 0.030385733 4292407522
0.69585031 -0.019189496 0.029584885 4286749324
0.69563067 -0.017831011 0.028483987 4281744709
0.69511306 -0.016463853 0.025883257 4281284674
0.69372338 -0.047356222 0.011707902 4279377190
0.69415343 -0.045835361 0.013906419 4279245606
0.69446588 -0.044355799 0.015505075 4280363302
0.6949352 -0.042846732 0.017903626 4279640084
0.69532609 -0.041367963 0.019902229 4279705892
0.69567776 -0.039907962 0.021700859 4280363822
0.69612747 -0.038437564 0.023999393 4280627507
0.69645959 -0.037001207 0.025698125 4280758830
0.69663489 -0.035601087 0.026596904 4280955179
0.69681019 -0.03420563 0.027495742 4281349684
0.69698548 -0.032814845 0.02839452 4281086512
0.6970824 -0.031439319 0.028893411 4281417791
0.69715965 -0.030068783 0.029292345 4281155389
0.69731534 -0.028691784 0.030091107 4281482303
0.69741225 -0.027324554 0.030590057 4282666581
0.69743073 -0.025966374 0.030689001 4282403409
0.6974296 -0.024610071 0.030687988 4292008112
0.69742846 -0.023253765 0.030686915 4292993931
0.69732934 -0.02190165 0.030185938 4292600481
0.69734782 -0.020543471 0.030284882 4292402625
0.69722903 -0.01918805 0.029683888 4286020704
0.69703186 -0.017829761 0.028683007 4282138430
0.69659942 -0.016463909 0.026482224 4282007618
0.69487858 -0.048835479 0.010408223 4278456079
0.69532233 -0.047300044 0.012706816 4279903788
0.69576603 -0.045776539 0.015005291 4278981919
0.69620973 -0.044264946 0.017303824 4280560168
0.69663411 -0.042769995 0.019502401 4279770133
0.69703919 -0.041290909 0.021601021 4279903525
0.69740558 -0.039831117 0.023499668 4280758834
0.69765592 -0.038404852 0.024798393 4280429617
0.69800293 -0.036966883 0.026597023 4280627246
0.6981566 -0.035572525 0.027395904 4280823853
0.6983102 -0.034182318 0.028194726 4281218611
0.69842511 -0.032802071 0.028793573 4280889646
0.69852072 -0.031427585 0.029292464 4281746240
0.69865501 -0.030050909 0.029991329 4280892215
0.69875062 -0.028682128 0.03049016 4281680447
0.69880748 -0.027319681 0.030789077 4283192401
0.69884509 -0.025960406 0.030988038 4282929229
0.69880527 -0.024607591 0.030786991 4292795548
0.69876546 -0.023253739 0.030586004 4293321558
0.69864827 -0.0219022 0.02998507 4293124972
0.69864714 -0.020544082 0.029983997 4290098047
0.69851059 -0.019188201 0.029283047 4284045091
0.69833529 -0.017828815 0.028382123 4282072120
0.69783115 -0.016461387 0.025781393 4281676859
0.69513726 -0.010813732 0.011878848 4280693540
0.69630659 -0.048828542 0.010507286 4280695087
0.6968016 -0.047276877 0.01310581 4279442972
0.69718212 -0.045770139 0.015104353 4279441700
0.69767714 -0.044243861 0.017702878 4279903523
0.6980958 -0.042749953 0.019901454 4279702296
0.69853359 -0.041262977 0.022199988 4279705896
0.69885689 -0.039813153 0.023898661 4281021756
0.69931376 -0.038344517 0.026297212 4280234296
0.69952255 -0.036936253 0.027396023 4280365619
0.69967413 -0.035543967 0.028194845 4280759345
0.6997875 -0.034162171 0.028793693 4280692772
0.69988179 -0.032786392 0.029292583 4284245594
0.69995701 -0.031415857 0.029691458 4289112671
0.70008945 -0.030040218 0.030390263 4288587068
0.7001456 -0.028676735 0.03068924 4285884689
0.70020175 -0.02731481 0.030988157 4286147107
0.70020062 -0.025959283 0.030987144 4286541865
0.70019948 -0.024603754 0.030986071 4293581662
0.700122 -0.023252614 0.03058511 4293517362
0.70002544 -0.021900238 0.030084074 4293386808
0.69998616 -0.020543534 0.029883087 4287597874
0.69985139 -0.019187393 0.029182136 4282466048
0.69958305 -0.017828045 0.027781308 4281613369
0.6991238 -0.016459458 0.025380492 4281153340
0.69724977 -0.012253694 0.015578568 4280496422
0.69658047 -0.010815037 0.012077868 4280561956
0.69780934 -0.048798583 0.011006236 4280366122
0.69825995 -0.047259215 0.013404787 4279904285
0.69874823 -0.045721799 0.016003251 4279509266
0.69964951 -0.042706296 0.020800292 4279636249
0.70013779 -0.04120826 0.023398876 4279442724
0.7004379 -0.039765753 0.024997592 4280890170
0.7007944 -0.038319707 0.026896179 4280630074
0.70105684 -0.036901932 0.028294921 4280695087
0.70113099 -0.035525694 0.028693795 4281088561
0.70124286 -0.034145199 0.029292703 4281676056
0.70131701 -0.032773629 0.029691577 4287926391
0.70139122 -0.031404126 0.030090451 4292334649
0.7014842 -0.030034307 0.030589342 4292530977
0.70155835 -0.028669212 0.030988276 4289502976
0.70163256 -0.027306192 0.03138721 4293647957
0.70159376 -0.025954932 0.031186163 4293450578
0.70155501 -0.024602631 0.030985177 4293977673
0.70144093 -0.023253683 0.030384183 4292859669
0.70136452 -0.02189995 0.029983222 4293846323
0.70123154 -0.020545878 0.029282272 4285755672
0.70109862 -0.019188181 0.028581262 4282729216
0.70083392 -0.017827276 0.027180374 4281350700
0.70036203 -0.016456928 0.024679661 4280957758
0.69806027 -0.010818815 0.012476861 4280297509
0.69916099 -0.048814692 0.010705352 4279904801
0.69969821 -0.047247052 0.013603747 4280496424
0.70021689 -0.045699682 0.016402185 4280101914
0.70073557 -0.044166818 0.019200742 4279442970
0.70117998 -0.042667359 0.021599293 4279308311
0.70156872 -0.041193731 0.023697853 4279903273
0.70206887 -0.039705746 0.026396394 4281021754
0.7022348 -0.03830279 0.027295172 4280760377
0.70249361 -0.036886055 0.028693914 4281022002
0.70254821 -0.035514288 0.028992832 4281415730
0.70267701 -0.034131397 0.029691696 4282727195
0.70275021 -0.032760862 0.03009057 4288780151
0.70284188 -0.031389747 0.030589521 4292597292
0.70291507 -0.030023618 0.030988395 4293320231
0.70300674 -0.028657429 0.031487226 4290226177
0.70300561 -0.027303196 0.031486213 4289370634
0.70300448 -0.025948964 0.0314852 4289370634
0.70291054 -0.024601508 0.030984223 4293583167
0.70279801 -0.023252558 0.030383229 4293320472
0.70272261 -0.021898825 0.029982328 4293122614
0.70255435 -0.020545907 0.029081345 4285097751
0.70244181 -0.019187372 0.028480411 4282860800
0.70208788 -0.017826503 0.026579559 4281219116
0.70158535 -0.016454197 0.023878872 4280760377
0.70106423 -0.015067441 0.02107811 4280562232
0.69992918 -0.012245522 0.01497674 4279441691
0.69953799 -0.010822594 0.012875915 4279771167
0.7005142 -0.048830807 0.010404408 4279703572
0.70111716 -0.047240391 0.01370281 4279575073
0.70210338 -0.044170655 0.019099772 4279772699
0.70272464 -0.04262371 0.02249819 4279243789
0.70314455 -0.041143484 0.024796784 4280494888
0.70350957 -0.039687794 0.026795447 4280692267
0.70369148 -0.038281932 0.027794242 4280758060
0.70391005 -0.03687387 0.028992951 4280888868
0.70396382 -0.035502873 0.029291928 4281677607
0.70409083 -0.034120761 0.029990792 4283185922
0.70419955 -0.03274519 0.03058964 4290488945
0.70427167 -0.031378023 0.030988514 4293123116
0.70436209 -0.030010536 0.031487405 4293648933
0.70436096 -0.028656304 0.031486332 4293845040
0.70439649 -0.027298328 0.031685293 4291477766
0.70435876 -0.025947843 0.031484246 4293319970
0.70430267 -0.024597675 0.031183243 4292992280
0.70415509 -0.023251433 0.030382335 4292860934
0.7040807 -0.021897698 0.029981375 4293452333
0.70391482 -0.02054478 0.029080451 4283715596
0.70367563 -0.019188473 0.027779579 4283386631
0.70334494 -0.017825728 0.025978744 4280825650
0.70281279 -0.016451463 0.023078024 4280301622
0.70235389 -0.015064005 0.020577252 4280364849
0.70121628 -0.012238504 0.014375865 4279375898
0.70086718 -0.010816488 0.012474954 4279507993
0.70046318 -0.0093801441 0.010274112 4279245842
0.70197725 -0.04881236 0.010703444 4279374354
0.70255357 -0.047228232 0.01390183 4279312161
0.70422852 -0.042589508 0.023197174 4279178250
0.70460635 -0.04112003 0.025295794 4280429348
0.70500231 -0.039657228 0.027494431 4280495141
0.7051636 -0.038257126 0.028393209 4280757798
0.70532489 -0.03686168 0.029292047 4281546026
0.70539594 -0.035488039 0.029690862 4281874984
0.70546699 -0.034116469 0.030089796 4283580672
0.70559222 -0.032738246 0.03078866 4291081069
0.70566332 -0.031371597 0.031187534 4293517610
0.70571631 -0.030009415 0.031486452 4293846312
0.70571518 -0.028655183 0.031485438 4293977132
0.70576823 -0.027295332 0.031784415 4292267782
0.70571297 -0.02594672 0.031483352 4292728333
0.70565772 -0.024596551 0.031182349 4293058567
0.70551217 -0.023250308 0.030381382 4292925696
0.70542079 -0.021897409 0.029880464 4292859932
0.70525718 -0.020544231 0.02897948 4283453456
0.70503944 -0.019187342 0.027778625 4282137600
0.70465922 -0.017824773 0.02567786 4280825650
0.7041707 -0.016450122 0.022977114 4280564535
0.70368218 -0.015061483 0.020276368 4280365103
0.70310336 -0.013655262 0.017075717 4280167724
0.70274115 -0.012244184 0.015074849 4279177749
0.70228869 -0.010816561 0.012574017 4279179028
0.7034387 -0.048793912 0.011002421 4278981140
0.70402455 -0.047205076 0.014300823 4279375126
0.70571095 -0.042560026 0.023796141 4280164375
0.70601225 -0.041109964 0.025494814 4280954407
0.70642024 -0.039643481 0.027793407 4280757028
0.70663255 -0.038232323 0.028992176 4280758048
0.70668483 -0.036860555 0.029291093 4280889634
0.70682603 -0.035473201 0.030089915 4281808169
0.70691383 -0.034099504 0.030588806 4283910656
0.70698386 -0.032731302 0.03098774 4292595323
0.70707166 -0.031362526 0.031486571 4292793108
0.70710617 -0.03000351 0.031685531 4292464391
0.70714062 -0.028645534 0.031884432 4289569280
0.70715725 -0.027290463 0.031983435 4289108992
0.70710278 -0.025942368 0.031682432 4291411732
0.70701271 -0.024595428 0.031181455 4292926225
0.70688701 -0.023248088 0.030480504 4293056528
0.70679694 -0.021895446 0.029979527 4293648204
0.70663571 -0.020542525 0.029078603 4283321881
0.70638549 -0.01918653 0.027677715 4282598158
0.7060107 -0.017823696 0.025576949 4281088822
0.70547581 -0.016448183 0.022576213 4280498740
0.70504767 -0.015059877 0.020175457 4280758832
0.70449495 -0.013654109 0.017074764 4280232488
0.70406675 -0.012239117 0.014673948 4279638046
0.70360291 -0.010809217 0.0120731 4280562729
0.70719033 -0.042530555 0.024395108 4280165145
0.70752227 -0.041073125 0.026293755 4281019430
0.70780158 -0.039638147 0.02789247 4280822051
0.70802832 -0.038223304 0.029191256 4281020452
0.70811486 -0.036844682 0.029690087 4280955429
0.70820141 -0.035468649 0.030188978 4281808943
0.70827037 -0.034098379 0.030587912 4284173568
0.70837444 -0.032724362 0.031186759 4292924027
0.70846099 -0.031356104 0.03168565 4293582640
0.7084949 -0.029997608 0.031884551 4291147266
0.70851135 -0.028642278 0.031983554 4290686476
0.7084927 -0.027291216 0.031882524 4288121600
0.70845652 -0.025941247 0.031681538 4288582145
0.70838523 -0.024592951 0.031280518 4292727858
0.70827889 -0.023244772 0.030679584 4294044986
0.7081551 -0.021894321 0.029978633 4293386066
0.70801365 -0.02054082 0.029177666 4283189784
0.7077145 -0.019186037 0.027476847 4282597647
0.70727503 -0.017822916 0.024976075 4280892466
0.70678294 -0.01644624 0.022175312 4280498738
0.70627332 -0.015054598 0.019274592 4280627244
0.70581633 -0.013650082 0.016673863 4280232486
0.70534176 -0.012231117 0.013973057 4281152820
0.7048496 -0.010796925 0.011172295 4281221681
0.70926881 -0.039611794 0.028491497 4280296479
0.70940584 -0.03821823 0.029290318 4280428065
0.70949101 -0.036839873 0.02978915 4281217063
0.70957625 -0.035464101 0.0302881 4281873712
0.70969605 -0.034084581 0.030986965 4285883660
0.70978129 -0.032714512 0.031485796 4293515648
0.70981473 -0.031354979 0.031684756 4293319227
0.70988268 -0.029991705 0.03208369 4293780532
0.70988154 -0.028639026 0.032082617 4290293504
0.70988041 -0.027286351 0.032081604 4292266278
0.70984477 -0.025936898 0.031880558 4291608348
0.70973998 -0.024591828 0.031279624 4293319729
0.70966977 -0.023241458 0.030878603 4292925735
0.70956504 -0.021890689 0.030277669 4293450594
0.70946026 -0.020536808 0.029676676 4282926112
0.70907909 -0.019184906 0.027475893 4282662940
0.70862883 -0.017821839 0.024875164 4280891694
0.70807493 -0.016444096 0.021674454 4280367657
0.70707071 -0.01364318 0.015873015 4279772951
0.70658582 -0.012221159 0.013072252 4280825376
0.71079975 -0.038209215 0.029489338 4279905569
0.71086669 -0.036835056 0.029888272 4280759343
0.71098465 -0.035452694 0.030587137 4281873966
0.71108562 -0.034077123 0.031185985 4288119839
0.71113551 -0.032713391 0.031484902 4293646451
0.71120244 -0.03134856 0.031883776 4293384230
0.71123534 -0.029990584 0.032082736 4290030592
0.71125126 -0.028635774 0.03218168 4287533568
0.71128416 -0.027279612 0.032380641 4290955547
0.71123201 -0.02593255 0.032079637 4290889754
0.71112877 -0.024587998 0.031478643 4293057825
0.7110256 -0.023240335 0.030877709 4293319968
0.71093935 -0.021888727 0.030376673 4293712996
0.71090424 -0.020532798 0.030175686 4283584305
0.71044368 -0.019183775 0.027474999 4283123754
0.70996612 -0.017820818 0.024674237 4280890416
0.70943755 -0.016442753 0.021573544 4280365869
0.70839727 -0.013639149 0.015472054 4279377682
0.70790267 -0.012215109 0.012571335 4280298264
0.71215916 -0.03820809 0.029488444 4280037157
0.71222508 -0.036833931 0.029887319 4280300329
0.71237469 -0.035444714 0.030786157 4281743153
0.71244061 -0.034076001 0.031185031 4288252706
0.71252328 -0.032706451 0.031683981 4293384560
0.71258914 -0.031342138 0.032082856 4293385511
0.71262157 -0.029984683 0.032281816 4288451840
0.71267068 -0.028626129 0.032580674 4289044224
0.71266955 -0.027274748 0.03257966 4292135215
0.71260142 -0.025929816 0.03217864 4288713984
0.71251655 -0.024584167 0.031677723 4293254186
0.71239811 -0.023238115 0.030976772 4293254690
0.71231318 -0.021886766 0.030475795 4293450844
0.7122786 -0.020531096 0.030274808 4282925869
0.71187532 -0.019181374 0.027873993 4282925869
0.71140504 -0.017819449 0.02507323 4281086516
0.71076715 -0.016441006 0.021272659 4280431664
0.70964217 -0.013631523 0.01457119 4279509014
0.70908803 -0.012201232 0.011270523 4280561956
0.7135846 -0.038191184 0.029887438 4280233252
0.71361643 -0.036825433 0.030086339 4280496424
0.71373075 -0.035443589 0.030785203 4281348899
0.7137956 -0.03407488 0.031184137 4289438263
0.71387696 -0.032705329 0.031683028 4293188464
0.71394181 -0.031341016 0.032081962 4292795675
0.71402317 -0.029976392 0.032580853 4292268561
0.71402204 -0.02862501 0.03257978 4292992032
0.71402091 -0.027273629 0.032578766 4292992048
0.71395379 -0.025928697 0.032177746 4293781564
0.71388674 -0.024581691 0.031776845 4293583165
0.71383607 -0.023231521 0.031475782 4292925485
0.71371949 -0.021883136 0.030774832 4293255248
0.7136029 -0.020531125 0.030073822 4282267428
0.71323884 -0.019180244 0.027873039 4282464807
0.71272635 -0.017818486 0.024772346 4282204997
0.71494293 -0.038190059 0.029886544 4280167206
0.71500677 -0.03681694 0.030285418 4280429865
0.71510303 -0.035439044 0.030884326 4281414433
0.71518308 -0.034067422 0.031383216 4290228029
0.71526313 -0.032698393 0.031882107 4292333405
0.71529448 -0.031339899 0.032081068 4292466706
0.71537453 -0.029975273 0.032579899 4288585216
0.71537346 -0.02862389 0.032578886 4289044480
0.71537232 -0.027272508 0.032577813 4293386806
0.71535498 -0.025922738 0.032476842 4293057841
0.71524018 -0.02458057 0.031775892 4293648946
0.71515787 -0.023232587 0.031274915 4292793374
0.71514052 -0.021878671 0.031173825 4293057621
0.71504194 -0.020527119 0.030572891 4282334506
0.71630132 -0.038188931 0.02988559 4280298794
0.71639603 -0.036808446 0.030484498 4279838245
0.71647483 -0.035434492 0.030983388 4282005021
0.71653759 -0.034066297 0.031382322 4292464199
0.71664828 -0.032691456 0.032081187 4293056336
0.7166791 -0.03133348 0.032280087 4293452056
0.71672595 -0.029974151 0.032579005 4290491662
0.71675676 -0.028618509 0.032777965 4288253952
0.71672368 -0.027271388 0.032576919 4287071232
0.71672261 -0.025920007 0.032575905 4290031892
0.71664155 -0.02457539 0.032074928 4293321769
0.71657652 -0.023227088 0.031673968 4293124388
0.71646357 -0.021879219 0.030972958 4292399439
0.71753508 -0.039579805 0.029085815 4280693552
0.71765971 -0.038187806 0.029884696 4280628271
0.71775287 -0.036807321 0.030483544 4280496938
0.71783036 -0.035433367 0.030982494 4282267668
0.71790779 -0.034062013 0.031481326 4293449271
0.71800095 -0.032690331 0.032080233 4293383478
0.71803129 -0.031332359 0.032279193 4293713679
0.7180773 -0.029973034 0.032578051 4292662053
0.71813905 -0.02861313 0.032976985 4292860725
0.71809077 -0.027268397 0.032675982 4292531999
0.71807396 -0.025918886 0.032574952 4293847859
0.71799421 -0.024574269 0.032074034 4293387530
0.71793026 -0.023225965 0.031673014 4293715478
0.7162891 -0.047310099 0.012192607 4279637278
0.71843296 -0.04107298 0.02608633 4280167722
0.71892649 -0.039570272 0.029284894 4280694066
0.71904898 -0.038178794 0.030083716 4280628271
0.71910971 -0.036806196 0.03048265 4280694569
0.71918589 -0.035432242 0.030981541 4282530318
0.71929294 -0.034054555 0.031680405 4293777714
0.71935368 -0.032689214 0.032079339 4293975093
0.71938348 -0.031331237 0.03227824 4293647624
0.71942872 -0.029971913 0.032577157 4291279883
0.7194894 -0.02861201 0.032976091 4291741983
0.71945739 -0.027265407 0.032775104 4292004623
0.71942532 -0.025917767 0.032574058 4293386276
0.71934694 -0.024573147 0.032073081 4293583878
0.71928394 -0.023224844 0.03167212 4294307349
0.71767819 -0.047314432 0.012091637 4279441187
0.7193312 -0.042586405 0.022986948 4279509540
0.71983159 -0.041062921 0.02628541 4279905070
0.72031677 -0.039560739 0.029483974 4280365621
0.72040683 -0.038177669 0.030082822 4280102699
0.72046649 -0.036805071 0.030481696 4280759848
0.72054142 -0.035431121 0.030980647 4282660873
0.72064668 -0.034053434 0.031679511 4293845560
0.72070634 -0.032688092 0.032078445 4293582388
0.72078121 -0.031322174 0.032577276 4293847068
0.72079527 -0.029968403 0.03267628 4289503488
0.72083974 -0.028610891 0.032975197 4289568774
0.72080827 -0.027264286 0.03277421 4290292224
0.72077674 -0.025916647 0.032573164 4293384491
0.72069961 -0.024572026 0.032072186 4293779720
0.72063768 -0.02322372 0.031671166 4293780490
0.7191872 -0.047274783 0.01279062 4279573538
0.72072244 -0.042580545 0.023086011 4279640866
0.7212292 -0.04105287 0.02648443 4279970091
0.72166127 -0.03956382 0.029383004 4280167470
0.72176468 -0.038176544 0.030081868 4280101929
0.72182333 -0.036803946 0.030480802 4280759846
0.72189695 -0.035429999 0.030979693 4282200576
0.72200036 -0.034052312 0.031678617 4294240822
0.72205901 -0.032686971 0.032077491 4293714478
0.7221027 -0.03132635 0.032376409 4293189899
0.72213149 -0.029969674 0.032575309 4290162944
0.72214532 -0.02861616 0.032674313 4290424851
0.72212923 -0.027266908 0.032573283 4291543568
0.72209823 -0.025918748 0.032372296 4293517358
0.72200745 -0.024574962 0.031771302 4293779720
0.72199142 -0.023222599 0.031670272 4294767650
0.72064865 -0.047251631 0.013189614 4279376927
0.72209841 -0.042579401 0.023085058 4280233252
0.72259635 -0.041051734 0.026483536 4280889384
0.72299159 -0.039571092 0.029182136 4281086763
0.72309321 -0.038183302 0.029881001 4281548597
0.72318017 -0.036802821 0.030479908 4281353269
0.72325248 -0.035428874 0.030978799 4282137859
0.7233541 -0.034051187 0.031677663 4293584187
0.72341168 -0.03268585 0.032076597 4293255222
0.72341055 -0.031333171 0.032075524 4292992259
0.72348285 -0.029968552 0.032574415 4290293760
0.72349644 -0.028615039 0.032673419 4289505024
0.72348058 -0.027265787 0.032572329 4288912128
0.72340608 -0.02592246 0.032071412 4293715001
0.72334623 -0.024575192 0.031670392 4293715243
0.72328639 -0.023225849 0.031269372 4294242380
0.72179186 -0.048755728 0.011389971 4278848782
0.72222328 -0.047184505 0.014388502 4280363824
0.72357535 -0.042545222 0.023784041 4279969565
0.72397798 -0.041046143 0.026582599 4280626466
0.72435176 -0.039569963 0.029181242 4281087017
0.7244516 -0.038182177 0.029880106 4281483058
0.72453701 -0.036801696 0.030478954 4280891694
0.7245791 -0.0354346 0.030777872 4281809664
0.72467893 -0.034056399 0.031476736 4293979472
0.7247355 -0.03269054 0.03187567 4293518921
0.72476327 -0.03133205 0.03207463 4292926216
0.7248342 -0.029967431 0.032573521 4293780782
0.72480428 -0.028620306 0.032372534 4293913404
0.72480315 -0.027268408 0.032371461 4289241088
0.7247299 -0.025924563 0.031870484 4294965070
0.72469997 -0.024574069 0.031669497 4293715255
0.72462672 -0.02322582 0.031168461 4293518925
0.72459674 -0.021872478 0.030967474 4285755933
0.72307193 -0.050215006 0.010490239 4279048214
0.72346723 -0.048645198 0.013288796 4280232488
0.72383428 -0.047100887 0.01588738 4280759343
0.72424376 -0.04555434 0.018785894 4280825140
0.72497785 -0.042534646 0.023983061 4279904287
0.72537321 -0.041036084 0.026781678 4280429600
0.72564113 -0.039589845 0.028680384 4281284909
0.72575331 -0.038196821 0.029479206 4281810740
0.72580886 -0.036822669 0.029878139 4281941554
0.72593516 -0.035433479 0.030776978 4282071808
0.72599071 -0.03406477 0.031175852 4294373453
0.72606039 -0.03269523 0.031674802 4293452351
0.72610176 -0.031333577 0.03197372 4294175263
0.72611481 -0.029978251 0.032072663 4290556160
0.72611368 -0.028625574 0.03207165 4289043456
0.72611254 -0.027272897 0.032070637 4292661790
0.72606897 -0.025925051 0.031769633 4294109236
0.72599697 -0.024578355 0.031268597 4294370853
0.7259959 -0.023223603 0.031267583 4294108984
0.72593808 -0.021872187 0.030866563 4285161998
0.7244817 -0.051622473 0.010490358 4279312662
0.72467518 -0.05012963 0.0118891 4280958259
0.72504932 -0.04856921 0.014587641 4279971364
0.7253679 -0.047044765 0.016886294 4280364072
0.72572821 -0.045516528 0.019484878 4280297509
0.72607458 -0.044006743 0.021983445 4279507484
0.72637928 -0.042524066 0.024182141 4280297760
0.72671181 -0.041043874 0.026580751 4281350700
0.72696096 -0.039601319 0.0283795 4281745458
0.72704321 -0.038215406 0.028978348 4282072622
0.72716725 -0.036821544 0.029877245 4282203683
0.72722173 -0.035449475 0.03027612 4283122432
0.72729009 -0.034076307 0.030775011 4294108745
0.72734457 -0.032708641 0.031173944 4294108745
0.727413 -0.031340394 0.031672835 4292201500
0.72741187 -0.02998668 0.031671822 4290556173
0.72742462 -0.028630838 0.031770766 4289503744
0.7274096 -0.027279254 0.031669736 4293121569
0.72738069 -0.025928762 0.031468689 4293779499
0.72731006 -0.024581285 0.030967712 4294965315
0.72725332 -0.023230128 0.030566692 4294702679
0.72721046 -0.021876063 0.030265689 4284505882
0.72589153 -0.053029947 0.010490537 4279639830
0.72604042 -0.051552303 0.011589289 4280565295
0.7263121 -0.050026216 0.013587892 4280101415
0.72662473 -0.048493225 0.015886545 4279114520
0.72724998 -0.045463003 0.020483792 4279836447
0.72757626 -0.043960795 0.022882402 4279244308
0.72783434 -0.042494617 0.024781108 4280232991
0.72807872 -0.041042741 0.026579857 4281351470
0.72826862 -0.039616995 0.027978599 4281680435
0.72834933 -0.038230047 0.028577447 4281876011
0.72847104 -0.036835153 0.029476345 4282071582
0.72852451 -0.03546204 0.029875278 4284242194
0.72860521 -0.034084678 0.030474126 4293714516
0.72864503 -0.032719139 0.030773044 4294175067
0.72869849 -0.031352505 0.031171978 4293583669
0.72869736 -0.029997498 0.031170905 4290096906
0.72870988 -0.02864036 0.031269908 4289307392
0.72869509 -0.027287479 0.031168818 4292201500
0.72866672 -0.025935691 0.030967832 4293714739
0.72861099 -0.024585567 0.030566871 4293913400
0.72856891 -0.023232279 0.030265868 4293847105
0.72849959 -0.021879103 0.029764831 4284308505
0.72847116 -0.020521615 0.029563844 4282733133
0.72730136 -0.054437414 0.010490656 4279640864
0.72750092 -0.052930787 0.011989355 4279775532
0.72766036 -0.051450759 0.013188064 4279575585
0.72788668 -0.049946867 0.014886796 4279309333
0.72815317 -0.048434518 0.016885459 4279243540
0.72841972 -0.04693253 0.018884182 4279969064
0.72868621 -0.045440905 0.020882785 4279113237
0.72893935 -0.043964632 0.022781491 4279113239
0.72917914 -0.042502914 0.02458024 4279904801
0.72941893 -0.041050524 0.02637893 4281483567
0.7295382 -0.039645273 0.027277768 4281615153
0.72971112 -0.038228922 0.028576553 4281350437
0.72976351 -0.036852442 0.028975487 4283848258
0.72982931 -0.035474613 0.029474378 4287733893
0.7298817 -0.03410254 0.029873312 4288193145
0.72993416 -0.032732543 0.030272186 4289443212
0.72995979 -0.03136991 0.030471146 4291485348
0.72999883 -0.030005924 0.030770063 4291547795
0.72999769 -0.028649878 0.030768991 4290428268
0.72999656 -0.027293831 0.030767977 4291746167
0.72996867 -0.025941007 0.03056699 4291680374
0.7299006 -0.024591198 0.030065954 4294246307
0.72985935 -0.023236614 0.02976495 4293324445
0.72977787 -0.021882974 0.029163957 4283257664
0.72974998 -0.02052393 0.02896291 4282404432
0.72871113 -0.055844888 0.010490775 4279771418
0.72885436 -0.054361545 0.011589527 4281155902
0.72903693 -0.052864298 0.012988269 4279249450
0.72919321 -0.051386856 0.014187038 4279509794
0.72941518 -0.049885564 0.015885711 4279243540
0.72966337 -0.048381567 0.017784417 4279111954
0.72989845 -0.046892911 0.019583106 4280035370
0.73013353 -0.045413576 0.021381855 4278981399
0.73032928 -0.043958515 0.022880554 4278980886
0.73056436 -0.042497061 0.024679244 4280035871
0.73073387 -0.041067231 0.025978088 4281483567
0.73085082 -0.039660946 0.026876867 4281549360
0.73095471 -0.038263261 0.027675748 4281285157
0.7310192 -0.036880773 0.028174698 4282006572
0.73112309 -0.035490602 0.02897352 4287272600
0.73116136 -0.0341204 0.029272437 4284442472
0.73121274 -0.032748848 0.029671311 4290758600
0.73123783 -0.031384658 0.029870272 4290501574
0.7312367 -0.030026283 0.029869258 4290628785
0.73126185 -0.02866365 0.030068159 4287404149
0.73126072 -0.027305791 0.030067146 4285633128
0.73124647 -0.025949541 0.029966116 4289778087
0.73119283 -0.024596825 0.029565096 4288656020
0.73112607 -0.023243129 0.029064119 4291219902
0.73111182 -0.021883512 0.028963029 4282535754
0.73100567 -0.020527391 0.028162122 4282272846
0.73009521 -0.057266988 0.010290921 4280758313
0.7302227 -0.055787317 0.011289716 4281153071
0.73040164 -0.054285675 0.012688458 4280627244
0.73055482 -0.052804351 0.013887167 4279706919
0.73074663 -0.051310427 0.015385866 4279769382
0.73096418 -0.049812235 0.017084658 4278915343
0.73114312 -0.048340127 0.0184834 4278851098
0.73138642 -0.046847798 0.020382047 4280101165
0.73156542 -0.045391489 0.021780789 4279046681
0.7317701 -0.043932483 0.023379564 4279045393
0.73192334 -0.042500637 0.024578393 4280430368
0.73206377 -0.041079476 0.025677204 4280892968
0.73215264 -0.039680816 0.026376069 4281221933
0.73225445 -0.038281843 0.02717489 4281023530
0.73231769 -0.036898054 0.027673781 4280955692
0.73236799 -0.035520285 0.028072715 4282006092
0.73243117 -0.034141425 0.028571546 4283057487
0.73248154 -0.03276806 0.02897048 4285228656
0.73251903 -0.03139941 0.029269457 4288193940
0.73254359 -0.030034706 0.029468358 4288062356
0.73254251 -0.028675292 0.029467344 4287997861
0.73254138 -0.027315877 0.029466271 4289777879
0.7325145 -0.025959682 0.029265285 4286882987
0.73247474 -0.024603803 0.028964221 4291486946
0.73243505 -0.023246368 0.028663218 4290695883
0.73234379 -0.021890707 0.027962208 4282405454
0.73234272 -0.020527408 0.027961195 4281878342
0.73225147 -0.019166308 0.027260184 4281615170
0.7321474 -0.017801635 0.026459217 4280692789
0.73158002 -0.057221964 0.010889888 4280824104
0.73171747 -0.055736803 0.01198864 4280758311
0.7319054 -0.054230183 0.013487399 4279968282
0.73206812 -0.052744403 0.014786124 4279506714
0.73224342 -0.051259086 0.016184866 4279832345
0.73241878 -0.049781017 0.017583609 4279177749
0.73256886 -0.048321716 0.018782377 4278982169
0.73276943 -0.046846651 0.020381093 4280166443
0.73295736 -0.045385107 0.021879852 4279177495
0.73310751 -0.043946274 0.02307868 4279439122
0.73325765 -0.042513661 0.024277449 4280430118
0.73338258 -0.041096181 0.025276303 4280958259
0.7334823 -0.039692283 0.026075125 4281879361
0.73356938 -0.038296469 0.026774049 4281088822
0.73361874 -0.036915332 0.027172923 4281680696
0.73368061 -0.035532847 0.027671814 4282795586
0.7337299 -0.034156114 0.028070748 4288913563
0.73376662 -0.032784358 0.028369665 4294967033
0.7337907 -0.031416804 0.028568566 4294770681
0.7338022 -0.030052671 0.02866751 4294639611
0.73381364 -0.028689057 0.028766453 4294574075
0.73381251 -0.027327828 0.02876544 4294310655
0.7337988 -0.025968213 0.028664351 4286415495
0.73375982 -0.024610776 0.028363347 4283518558
0.73370826 -0.023252878 0.027962327 4283255884
0.7336567 -0.021892907 0.027561367 4282994760
0.73359251 -0.020531435 0.02706039 4282336579
0.73355353 -0.019166745 0.026759386 4282139200
0.73340106 -0.017800996 0.025558412 4280690986
0.73319817 -0.01642821 0.023957431 4280689709
0.73294485 -0.015045282 0.021956563 4279506191
0.73259056 -0.013646212 0.019155741 4280361500
0.73190725 -0.010807025 0.01375401 4279111954
0.73159075 -0.0093694469 0.011253119 4279311138
0.73306167 -0.05717694 0.011488855 4280955692
0.73318398 -0.055700392 0.01248759 4280955692
0.7333433 -0.054208651 0.013786376 4279309333
0.73351502 -0.052717112 0.015185118 4279178265
0.73364967 -0.05125165 0.016283929 4279439894
0.73383367 -0.049767837 0.017782688 4279112472
0.73399305 -0.048303302 0.019081414 4279179802
0.73416477 -0.046840005 0.020480156 4280100904
0.7343241 -0.045389201 0.021778941 4279243542
0.73444647 -0.043960065 0.022777796 4279439124
0.73459345 -0.042526677 0.023976564 4280758832
0.73469114 -0.04111734 0.024775445 4281483582
0.73480111 -0.039707948 0.025674284 4281944133
0.73484939 -0.038322926 0.026073158 4283325784
0.73493469 -0.036928929 0.026772082 4284708708
0.73495823 -0.035555676 0.026970983 4287402371
0.73499417 -0.034180291 0.0272699 4289835689
0.73504245 -0.032803562 0.027668774 4294901750
0.73505366 -0.031436838 0.027767777 4294901755
0.73506486 -0.030070635 0.027866662 4294770683
0.73508841 -0.02870282 0.028065622 4294770683
0.73508728 -0.027339779 0.028064549 4294835455
0.73508614 -0.02597674 0.028063536 4287664022
0.735048 -0.024617746 0.027762532 4284043101
0.73500979 -0.023257203 0.027461529 4283978575
0.73495924 -0.021895936 0.027060509 4283650123
0.73488402 -0.020533741 0.026459455 4283912782
0.7348088 -0.019168437 0.025858462 4283715403
0.73467177 -0.017800298 0.024757504 4281542700
0.73448539 -0.016425641 0.0232566 4280426535
0.73423719 -0.015040895 0.021255732 4279505934
0.73395193 -0.013643618 0.018954813 4280690208
0.73366672 -0.012234422 0.016653955 4279375629
0.73334438 -0.010809587 0.014053047 4279111954
0.73303437 -0.0093727792 0.011552155 4278785819
0.73433596 -0.058665067 0.01038909 4280628010
0.73446774 -0.057175778 0.011487901 4280821552
0.73464787 -0.055663981 0.0129866 4279966243
0.73473132 -0.054214284 0.013685465 4279506210
0.7348994 -0.052722491 0.015084207 4279047196
0.73507953 -0.051231682 0.016582906 4278850583
0.73522341 -0.049766682 0.017781734 4278916378
0.7353915 -0.048296399 0.019180477 4279310618
0.73553538 -0.046844356 0.020379245 4280494892
0.73567933 -0.045398533 0.021578014 4279112726
0.73582321 -0.043958925 0.022776842 4279375644
0.73589462 -0.042553846 0.02337569 4280496175
0.73600227 -0.0411385 0.024274528 4281022519
0.73608577 -0.039736211 0.024973452 4281877828
0.73613298 -0.038349375 0.025372267 4283062351
0.73619229 -0.03696093 0.025871217 4281944905
0.73623949 -0.0355785 0.026270151 4286350215
0.73627466 -0.034201309 0.026569009 4289702065
0.73630977 -0.032825667 0.026867926 4289702065
0.73633283 -0.031454224 0.027066886 4287533460
0.7363438 -0.030086208 0.02716583 4285362818
0.73635477 -0.028718708 0.027264774 4284772732
0.73635364 -0.027353596 0.027263701 4284377722
0.7363525 -0.025988482 0.027262688 4283851378
0.73631507 -0.024627417 0.026961684 4294113279
0.73630184 -0.023262616 0.026860595 4294441471
0.73625237 -0.021899793 0.026459575 4294835454
0.7361908 -0.020535471 0.025958598 4294835454
0.73608077 -0.019169811 0.025057614 4294835454
0.73594666 -0.017799597 0.023956656 4288847269
0.73575205 -0.016422661 0.022355735 4279965491
0.73554528 -0.015036969 0.020654798 4279175439
0.73530227 -0.0136403 0.01865387 4280820264
0.73501092 -0.012229341 0.016252995 4278981138
0.73475575 -0.010809668 0.01415211 4279244062
0.73446435 -0.0093746139 0.011751175 4278916891
0.73581582 -0.058618493 0.010988057 4280759083
0.73592108 -0.057145379 0.011886895 4280229413
0.73603821 -0.055669867 0.01288569 4279966241
0.73617899 -0.054185957 0.014084458 4279507234
0.73630792 -0.052714795 0.01518321 4279112989
0.7364369 -0.05124934 0.016282022 4278785305
0.73660135 -0.049771547 0.017680764 4278980890
0.73673028 -0.048318267 0.018779576 4279376409
0.73685926 -0.046870686 0.019878387 4280297511
0.73700005 -0.045423567 0.021077156 4279178519
0.73709357 -0.044002578 0.021875978 4279441437
0.73719883 -0.042581011 0.022774875 4280561968
0.73729235 -0.041168571 0.023573697 4280825140
0.73733854 -0.03977707 0.023972571 4282009414
0.7374084 -0.038379766 0.024571478 4282075708
0.73746639 -0.036989249 0.025070369 4281549373
0.73750073 -0.035608165 0.025369287 4282732887
0.73755878 -0.034222316 0.025868177 4283519067
0.73756945 -0.032850672 0.025967121 4284176997
0.73760378 -0.031474255 0.026266038 4283585626
0.73761451 -0.030104164 0.026364982 4283982189
0.73762518 -0.028734593 0.026463926 4283129706
0.73761225 -0.027369272 0.026362896 4283129190
0.73761111 -0.026001828 0.026361883 4283063397
0.73759812 -0.024635732 0.026260793 4284903291
0.73757333 -0.02327021 0.026059747 4286479750
0.73754853 -0.021903649 0.0258587 4287926937
0.73745275 -0.020539489 0.025057733 4287466386
0.73729777 -0.019172749 0.023756802 4287136142
0.73717833 -0.017799109 0.022755861 4284372582
0.73702335 -0.016419675 0.021454871 4279965234
0.73678553 -0.015030256 0.019453943 4279242518
0.7366187 -0.013634812 0.018052995 4280755757
0.73635721 -0.012224258 0.015852094 4279047442
0.73610747 -0.010803544 0.013751209 4279376157
0.73590517 -0.0093779508 0.012050152 4279047964
0.7371549 -0.060071632 0.010388315 4279706395
0.7372579 -0.058594622 0.011287093 4279507993
0.73731452 -0.057151519 0.011785924 4279573786
0.73742908 -0.05567576 0.012784719 4279507993
0.73754358 -0.054205172 0.013783574 4279310618
0.73766971 -0.052733235 0.014882326 4279047446
0.73778421 -0.051273279 0.015881121 4278981653
0.73793346 -0.049800463 0.017179906 4279045391
0.73804802 -0.048351638 0.018178701 4279045391
0.7381857 -0.046897013 0.01937747 4280431393
0.73828864 -0.045464307 0.020276368 4279309836
0.73835695 -0.0440512 0.020875216 4279639068
0.73847151 -0.042622328 0.021874011 4280561964
0.73851663 -0.041225389 0.022272885 4280957236
0.7385965 -0.039817926 0.022971749 4281023029
0.73863006 -0.038429853 0.023270667 4281220147
0.73870993 -0.037028607 0.023969531 4281417791
0.73874348 -0.035644677 0.024268448 4281286473
0.73877704 -0.0342623 0.024567425 4281942604
0.73882222 -0.032878578 0.0249663 4282403155
0.73884422 -0.031502213 0.0251652 4282534993
0.73886621 -0.03012689 0.025364161 4282600786
0.73888826 -0.028752599 0.025563121 4282143315
0.73888713 -0.027383082 0.025562048 4281814865
0.73890913 -0.026010346 0.025760949 4282143830
0.73887324 -0.024645396 0.025459945 4282931548
0.73886055 -0.023276709 0.025358856 4283193688
0.73882467 -0.021909166 0.025057852 4283455843
0.7387194 -0.020543503 0.024156928 4282666327
0.73859096 -0.019173801 0.023055911 4281941584
0.73843932 -0.017798509 0.02175492 4282466643
0.738253 -0.016415866 0.020154059 4280097579
0.73805511 -0.015024467 0.018453121 4279441689
0.73786873 -0.013624983 0.01685214 4280428584
0.73762453 -0.012212297 0.014751256 4278917642
0.73746127 -0.010797419 0.013350248 4278983183
0.73725176 -0.0093692839 0.011549294 4278785817
0.73711169 -0.0079423785 0.01034826 4278785817
0.73856384 -0.060070463 0.010387361 4279573790
0.73868704 -0.058578327 0.011486113 4279508763
0.73874241 -0.057135738 0.011985004 4279377943
0.73885435 -0.055660494 0.012983799 4279180564
0.7389437 -0.054204009 0.01378262 4279114771
0.73905563 -0.052738614 0.014781415 4278981900
0.73915625 -0.051284663 0.015680194 4279045642
0.73925686 -0.049835384 0.016579032 4279045389
0.73934621 -0.048396517 0.017377853 4279242768
0.73944688 -0.046956304 0.018276691 4281021737
0.73953617 -0.045525987 0.019075513 4278982670
0.73963684 -0.044094846 0.019974351 4280100383
0.73969221 -0.04268723 0.020473242 4280627757
0.73973632 -0.041286662 0.020872116 4280693037
0.73978043 -0.03988817 0.02127105 4280693037
0.73982453 -0.038491756 0.021669924 4281615419
0.73987997 -0.037093729 0.022168815 4281615686
0.73991275 -0.035705134 0.022467673 4281418057
0.73993421 -0.03432126 0.022666633 4281286471
0.73995572 -0.032938421 0.022865534 4281483332
0.73996592 -0.031559262 0.022964478 4282009926
0.73998737 -0.030178238 0.023163438 4281879108
0.74000889 -0.028798249 0.023362339 4282077004
0.74001902 -0.027421162 0.023461342 4281682246
0.74004054 -0.026042987 0.023660243 4281616453
0.74002808 -0.024669897 0.023559153 4281748039
0.7400043 -0.023297377 0.023358166 4281813065
0.7399466 -0.021926314 0.02285713 4281153851
0.73990017 -0.020552088 0.02245605 4281943367
0.73976326 -0.019178294 0.021255136 4281812545
0.73962635 -0.01779828 0.020054162 4281352764
0.73944414 -0.01641123 0.01845324 4280034089
0.73928457 -0.015016817 0.017052293 4279836449
0.73912501 -0.013615147 0.015651286 4281086516
0.7389428 -0.01220426 0.014050305 4279115019
0.73877186 -0.010786325 0.012549341 4278720527
0.73863494 -0.0093651172 0.011348307 4278852113
0.73999482 -0.060053639 0.010586381 4279311136
0.74009311 -0.058577158 0.011485159 4279442972
0.74014717 -0.057134576 0.01198405 4279442453
0.74022341 -0.055680476 0.012682855 4279179281
0.74029958 -0.054230005 0.01338172 4279114771
0.74039787 -0.052770108 0.014280498 4278916361
0.74044091 -0.051346228 0.014679372 4278784010
0.74055028 -0.049888343 0.015678167 4278848780
0.74062645 -0.048452899 0.016377032 4279177745
0.74071372 -0.047015592 0.017175853 4280757028
0.74080098 -0.045582429 0.017974734 4279968795
0.7408551 -0.044168338 0.018473625 4280167198
0.74088711 -0.042766273 0.018772483 4280364838
0.74091911 -0.041365765 0.0190714 4280628010
0.74095112 -0.039966807 0.019370317 4280628010
0.74099416 -0.038565468 0.019769192 4281418808
0.74100405 -0.037177242 0.019868135 4281813830
0.74103606 -0.035782687 0.020167053 4281681992
0.74105704 -0.03439286 0.020365953 4281550406
0.74105591 -0.033009868 0.020364881 4281615686
0.74105471 -0.031626876 0.020363808 4281813317
0.74107569 -0.030239116 0.020562768 4281419070
0.74111879 -0.028848138 0.020961642 4282274381
0.74111766 -0.027466703 0.020960629 4281748037
0.74114966 -0.026080443 0.021259487 4281682244
0.74111533 -0.02470383 0.020958483 4281879625
0.74112523 -0.023321304 0.021057367 4282405456
0.74106884 -0.021944283 0.02055639 4280824886
0.74101239 -0.02056467 0.020055354 4282338125
0.74091172 -0.019183716 0.01915437 4281748288
0.740789 -0.017798206 0.018053412 4281419321
0.74065518 -0.016406791 0.016852379 4279903271
0.74054343 -0.015010089 0.015851378 4278916376
0.7403543 -0.013603137 0.014150441 4281152822
0.74018729 -0.012189344 0.012649477 4279311887
0.7400977 -0.010776469 0.01184845 4278917139
0.73997486 -0.0093549462 0.010747433 4278852113
0.74140322 -0.060052477 0.010585427 4279047444
0.74145597 -0.05860626 0.011084259 4279244561
0.74150878 -0.057162642 0.011583149 4279179028
0.74159396 -0.055700459 0.012381971 4278915856
0.74164671 -0.054262795 0.012880802 4279047442
0.74171031 -0.052821189 0.01347971 4278784008
0.74179548 -0.051370159 0.014278471 4278717964
0.74184829 -0.049941301 0.014777362 4278522373
0.7419011 -0.048515029 0.015276253 4279377682
0.74195391 -0.047091357 0.015775084 4281089577
0.7420283 -0.045659803 0.016473949 4280694053
0.74207032 -0.044246804 0.016872823 4281021485
0.74209076 -0.042845309 0.017071784 4280889899
0.74208957 -0.041453771 0.017070711 4280824106
0.7421208 -0.040049635 0.017369568 4281944382
0.74211967 -0.038658872 0.017368495 4281420856
0.74216169 -0.037253387 0.017767429 4281420604
0.7421605 -0.03586366 0.017766356 4280826933
0.74215937 -0.034473933 0.017765284 4281616449
0.74213666 -0.033090014 0.017564178 4281944903
0.74216783 -0.031691838 0.017863095 4281813319
0.74218827 -0.0302976 0.018062055 4281747526
0.74219793 -0.028906524 0.018160939 4282207825
0.74222916 -0.027512234 0.018459916 4282273618
0.74227118 -0.026117887 0.01885879 4282142034
0.7422269 -0.024736406 0.01845777 4281747274
0.74224734 -0.023346314 0.018656671 4281944905
0.74222457 -0.021960581 0.018455625 4280627509
0.74212623 -0.020577813 0.017554581 4280561716
0.74207109 -0.019189131 0.017053604 4281614656
0.7419728 -0.01779807 0.016152561 4281286971
0.74186367 -0.016402142 0.01515156 4282076740
0.74174374 -0.015000567 0.014050603 4279642399
0.74161297 -0.013592567 0.012849569 4280496173
0.74150383 -0.012180316 0.011848569 4279440149
0.7413947 -0.010762883 0.010847569 4279310616
0.74278116 -0.061483949 0.010285556 4279245345
0.74281156 -0.060051307 0.010584474 4278917139
0.74286306 -0.058605097 0.011083305 4279310614
0.74291456 -0.057161473 0.011582196 4279309335
0.74295551 -0.055727489 0.01198107 4279111956
0.743007 -0.05428879 0.012479901 4279046163
0.74304801 -0.052859209 0.012878776 4279177228
0.74307841 -0.051437981 0.013177633 4278783757
0.74314046 -0.050000258 0.013776541 4280301864
0.74314982 -0.048594419 0.013875425 4280499243
0.74319082 -0.047172613 0.014274299 4280630055
0.74324232 -0.045747638 0.01477319 4280299297
0.74324113 -0.04435014 0.014772117 4280231466
0.74324 -0.042952642 0.014771044 4280889396
0.74325991 -0.041546229 0.014969945 4280823603
0.74325871 -0.040149249 0.014968872 4281417789
0.74325758 -0.038752269 0.014967799 4281617985
0.74325645 -0.037355289 0.014966726 4281550909
0.74327636 -0.035951458 0.015165627 4279443233
0.74327517 -0.034554999 0.015164554 4279311647
0.74324244 -0.033167243 0.014863551 4279903275
0.74328339 -0.03175943 0.015262425 4280232499
0.74327171 -0.030365612 0.015161335 4280364599
0.74333376 -0.028956393 0.015760243 4279508263
0.74335366 -0.027557753 0.015959144 4280100400
0.74338412 -0.026158538 0.016258061 4280822588
0.74336189 -0.024767622 0.016056955 4280824375
0.74336076 -0.023373492 0.016055882 4281682244
0.74334908 -0.021980193 0.015954852 4281614916
0.74332684 -0.020586943 0.015753806 4280364849
0.74322027 -0.019195158 0.014752805 4280365103
