# .PCD v0.7 - Point Cloud Data file format
VERSION 0.7
FIELDS x y z rgb
SIZE 4 4 4 4
TYPE F F F U
COUNT 1 1 1 1
WIDTH 1026
HEIGHT 1
VIEWPOINT 0 0 0 1 0 0 0
POINTS 1026
DATA ascii
0.7618193 0.012829907 0.036246598 4282730300
0.76188672 0.012227472 0.036321625 4282007081
0.76188654 0.011637539 0.036321029 4281284396
0.76188636 0.011047605 0.036320418 4281219894
0.76188624 0.01045767 0.036319807 4280429095
0.76188612 0.0098677371 0.036319196 4280429095
0.76181841 0.0092887469 0.036242947 4280756777
0.76181823 0.0086985528 0.036242336 4280559651
0.76131612 0.015217371 0.036559328 4283063899
0.76138371 0.014613381 0.036634162 4282271552
0.76145124 0.014009912 0.036708981 4282663219
0.76158655 0.013394201 0.036859259 4282728758
0.76151872 0.012817027 0.036783203 4282465586
0.76158625 0.012214851 0.036858037 4281743650
0.76158607 0.011625174 0.036857426 4281349419
0.76158595 0.011035502 0.036856815 4281285687
0.76165354 0.010434363 0.036931649 4280297509
0.76151794 0.0098673571 0.036780149 4280363302
0.76151776 0.009277422 0.036779538 4280230686
0.76108325 0.015189918 0.037171349 4282073422
0.76108313 0.014599722 0.037170753 4282136635
0.76115084 0.013996515 0.037245363 4281345824
0.76121855 0.013393821 0.037320003 4281146648
0.76115054 0.012816645 0.037244156 4282067750
0.76121825 0.012214471 0.037318796 4280819478
0.76121807 0.011624794 0.037318185 4280821796
0.76128584 0.0110234 0.03739281 4280558630
0.76128566 0.010433983 0.037392199 4279834907
0.76128554 0.0098445676 0.037391588 4279966493
0.76057887 0.015216609 0.037482455 4281939529
0.76078284 0.014586067 0.037706926 4281281328
0.76085067 0.013983116 0.037781373 4281083165
0.76085055 0.013393439 0.037780762 4281080857
0.76085043 0.012803765 0.037780151 4281607201
0.76091826 0.012201851 0.037854567 4280949784
0.76091814 0.011612434 0.037853971 4280622362
0.76091802 0.01102302 0.03785336 4280294682
0.7607137 0.010467991 0.037627652 4280031259
0.76041448 0.013995755 0.038167283 4280426268
0.76406771 0.0084607918 0.05361563 4282866756
0.7642085 0.007881362 0.053759038 4283261514
0.76434928 0.0073029641 0.053902447 4283329365
0.76441962 0.0067360289 0.053973868 4283592541
0.76441944 0.006179776 0.053973302 4284117353
0.76456022 0.0056037083 0.054116711 4283788388
0.74686712 -0.013636837 0.036023557 4278588692
0.74665552 -0.014255866 0.035806894 4278915343
0.76357847 0.0084828325 0.053907692 4283328342
0.76364899 0.007913826 0.05397892 4283854686
0.7638607 0.007323971 0.054193705 4283461725
0.76386058 0.0067669395 0.054193139 4283658334
0.76393104 0.0061997455 0.054264352 4283787871
0.76407218 0.0056231618 0.054407358 4284116836
0.76407206 0.0050669089 0.054406792 4283590492
0.74669176 -0.01301976 0.036724627 4278718229
0.74669158 -0.013639748 0.036723986 4278850583
0.74662077 -0.014259159 0.036651552 4278783759
0.74655002 -0.014879087 0.036579117 4279307804
0.74658799 -0.013024545 0.037495479 4278717716
0.74651706 -0.013642659 0.037423238 4278849813
0.74651694 -0.014261871 0.037422597 4278981140
0.74644595 -0.014880762 0.037350371 4279176729
0.74630421 -0.015500112 0.037206516 4279308833
0.74424291 -0.047500953 0.035097107 4279443223
0.74438435 -0.048101626 0.035239682 4279771165
0.74431336 -0.048742287 0.035167426 4278718477
0.74634367 -0.013027136 0.038121894 4278651921
0.74634349 -0.01364557 0.038121268 4278586130
0.74627239 -0.014263426 0.038049236 4278716944
0.74627221 -0.014882118 0.038048595 4278979350
0.74634302 -0.015500871 0.038119346 4279308831
0.74605906 -0.016120102 0.037833124 4279572003
0.74470377 -0.043597162 0.036448196 4278583815
0.74470365 -0.04422155 0.036447555 4278584585
0.74463248 -0.044858061 0.036375508 4278717198
0.74463236 -0.04548271 0.036374867 4279704093
0.7445612 -0.046119999 0.036302805 4279572503
0.74456108 -0.046744905 0.036302164 4279704089
0.7445609 -0.047369823 0.036301509 4279639066
0.74448979 -0.048008144 0.036229476 4279178515
0.74441868 -0.048646986 0.036157414 4279375894
0.7444185 -0.049272411 0.036156774 4279374876
0.74434739 -0.049912028 0.036084697 4280096298
0.74609995 -0.013029727 0.038747504 4278586128
0.74617088 -0.013648479 0.038818076 4278520335
0.74609965 -0.014265558 0.038746238 4278980886
0.74602836 -0.014883154 0.038674399 4279045913
0.74595708 -0.015501269 0.038602576 4279309085
0.74602807 -0.016119502 0.038673133 4279572257
0.74588561 -0.016738595 0.038530096 4279374878
0.74574327 -0.017358724 0.038387075 4279374108
0.74459922 -0.041057743 0.037223503 4278387463
0.7445991 -0.041681096 0.037222847 4278452997
0.74459893 -0.042304449 0.037222207 4278649606
0.74445653 -0.042950489 0.037079155 4278649606
0.74438524 -0.043585964 0.037007302 4278583815
0.74438512 -0.044210091 0.037006661 4278583561
0.74431384 -0.044846348 0.036934793 4278518795
0.74431366 -0.045470737 0.036934152 4279308311
0.74431348 -0.046095133 0.036933511 4279704091
0.74424219 -0.046732418 0.036861658 4279375124
0.74424207 -0.047357067 0.036861002 4279638296
0.74424189 -0.047981724 0.036860362 4279704091
0.74424171 -0.048606373 0.036859721 4279375126
0.74424154 -0.049231023 0.03685908 4279505690
0.74417025 -0.049869865 0.036787227 4279768355
0.7458567 -0.013649714 0.039371669 4278717714
0.74585652 -0.014267111 0.039371043 4278717714
0.7458564 -0.014884508 0.039370403 4278915097
0.74585623 -0.015501905 0.039369762 4279506464
0.74578482 -0.016119502 0.039298132 4279177499
0.74585593 -0.016736699 0.039368495 4279243292
0.74578446 -0.017354814 0.039296865 4279176729
0.74571306 -0.017973449 0.039225236 4278781462
0.74470949 -0.039741114 0.038208872 4278322186
0.74463809 -0.04037296 0.038137227 4278256393
0.74449539 -0.041015889 0.037994578 4278321670
0.74442393 -0.041649032 0.037922934 4278452999
0.74428117 -0.042293772 0.037780285 4278452999
0.74420977 -0.042928211 0.03770864 4278518792
0.74420959 -0.043551564 0.037707999 4278583815
0.74413812 -0.044186778 0.037636355 4278452745
0.744138 -0.044810396 0.037635699 4278716174
0.74406654 -0.045446388 0.037564054 4279308563
0.74406636 -0.046070263 0.037563413 4279440149
0.74406624 -0.046694137 0.037562773 4279637528
0.74399477 -0.047331169 0.037491113 4279638298
0.74399459 -0.047955297 0.037490472 4279176977
0.74406576 -0.04856576 0.037560835 4279308563
0.7439943 -0.049203567 0.037489191 4279439897
0.74385154 -0.049856082 0.037346512 4279899423
0.74554288 -0.013650948 0.039924875 4278717968
0.74568558 -0.014269241 0.040065825 4278651921
0.74554253 -0.014885225 0.039923608 4278914327
0.74554241 -0.015502363 0.039922968 4279374876
0.7456851 -0.016119102 0.040063918 4279243290
0.74554205 -0.01673664 0.039921701 4279243290
0.74561334 -0.01735306 0.039991856 4279242522
0.74568462 -0.01796896 0.04006201 4278781462
0.74561304 -0.018586818 0.039990574 4278847255
0.74539852 -0.019208182 0.039777562 4278781462
0.7448222 -0.037812017 0.039192066 4278190600
0.74467921 -0.038450796 0.039049804 4278190602
0.74467903 -0.039071038 0.039049163 4278256395
0.74453598 -0.039711379 0.038906947 4278322188
0.7444644 -0.04034245 0.038835496 4278322186
0.74424988 -0.040995166 0.038622439 4278453256
0.7441783 -0.041627787 0.038551003 4278452999
0.74410665 -0.04226093 0.038479552 4278452999
0.74403507 -0.042894594 0.038408116 4278452999
0.74403489 -0.043517172 0.038407475 4278583561
0.7439633 -0.044151604 0.038336024 4278518538
0.74389172 -0.044786561 0.038264588 4278584588
0.74389154 -0.045409657 0.038263932 4279440149
0.74389136 -0.046032757 0.038263291 4279769114
0.74381977 -0.046668746 0.038191855 4279637528
0.74389106 -0.047278948 0.03826201 4279637530
0.74389088 -0.047902048 0.038261369 4279966495
0.74374783 -0.048552491 0.038119122 4279440151
0.74374771 -0.049176104 0.038118467 4279308056
0.74537253 -0.013653856 0.040618867 4278915345
0.74537241 -0.014270216 0.040618226 4278717968
0.74544382 -0.014886895 0.040688187 4278586130
0.74537206 -0.015502938 0.040616959 4279374876
0.74537194 -0.016119299 0.040616319 4279243290
0.74544334 -0.0167352 0.04068628 4279177497
0.74537158 -0.01735202 0.040615052 4279176729
0.74537146 -0.017968381 0.040614411 4278518547
0.74544287 -0.018583506 0.040684372 4278518290
0.74558592 -0.019196616 0.04082489 4278649876
0.74544257 -0.019815709 0.040683106 4278781714
0.74544239 -0.020431811 0.040682465 4278584590
0.74500859 -0.036502957 0.040242344 4278519049
0.74479365 -0.037147637 0.040029913 4278387463
0.74472189 -0.037775338 0.039958686 4278322186
0.74465013 -0.038403563 0.039887443 4278256393
0.74443513 -0.039051868 0.039675012 4278256395
0.74429178 -0.039691687 0.039533168 4278322188
0.74422002 -0.040322244 0.039461926 4278322440
0.74414825 -0.040953308 0.039390698 4278387463
0.74407649 -0.041584902 0.039319471 4278387463
0.74400473 -0.042217001 0.039248213 4278452999
0.74393296 -0.04284963 0.039176971 4278452999
0.7438612 -0.043482773 0.039105728 4278583561
0.74378943 -0.04411643 0.039034486 4278452745
0.74371767 -0.044750609 0.038963243 4278518795
0.74364591 -0.045385309 0.038892001 4279374356
0.74371731 -0.04599525 0.038961962 4279900700
0.74357396 -0.046643358 0.038820118 4279506710
0.74357378 -0.0472662 0.038819477 4279638300
0.74357367 -0.047889031 0.038818836 4279704093
0.74343026 -0.048539221 0.038676992 4279242263
0.74513125 -0.014271768 0.041240588 4279046931
0.74513108 -0.01488761 0.041239962 4279112472
0.7451309 -0.015503453 0.041239321 4278914325
0.74520254 -0.016119096 0.041309074 4279177497
0.74520236 -0.016734678 0.041308433 4279177495
0.74527395 -0.017349545 0.0413782 4278979348
0.74527383 -0.01796487 0.041377559 4278715924
0.74534541 -0.018578958 0.041447312 4278518290
0.74534523 -0.019194022 0.041446686 4278518290
0.74541688 -0.019807333 0.041516438 4278518542
0.74541676 -0.020422138 0.041515797 4278584335
0.74541658 -0.021036945 0.041515157 4278518797
0.7454164 -0.021651752 0.041514531 4278387981
0.74548805 -0.022263765 0.041584283 4278322188
0.74555963 -0.022875264 0.041654035 4278322186
0.74563122 -0.023486242 0.041723788 4278190597
0.74512619 -0.03397873 0.041220263 4278584583
0.74476719 -0.034634441 0.040867656 4278519047
0.74491054 -0.035235114 0.041007802 4278584840
0.74483865 -0.035860226 0.040936783 4278519047
0.74476671 -0.036485851 0.040865749 4278322440
0.74462301 -0.037121013 0.040724322 4278322440
0.74455106 -0.037747934 0.040653288 4278190600
0.74447918 -0.038375378 0.040582255 4278256395
0.74426371 -0.039022908 0.040370435 4278256393
0.74419177 -0.039651908 0.040299401 4278387979
0.74404806 -0.040291727 0.040157974 4278322440
0.74397612 -0.04092202 0.040086925 4278519049
0.74383247 -0.041563656 0.039945498 4278584585
0.74376053 -0.042195238 0.039874479 4278452999
0.74376035 -0.042816006 0.039873838 4278387206
0.7436167 -0.043459974 0.039732382 4278452745
0.74354476 -0.044093113 0.039661348 4278584331
0.74354458 -0.044714659 0.039660707 4278518538
0.74361622 -0.045323823 0.039730459 4279242772
0.74340075 -0.045983016 0.039518625 4279440151
0.74347234 -0.04659218 0.039588377 4279637530
0.74332863 -0.047240295 0.039446935 4279374104
0.74496257 -0.014888961 0.041931719 4279441691
0.74503434 -0.015504085 0.042001262 4279375128
0.74496222 -0.016119093 0.041930452 4279243542
0.74503398 -0.016733699 0.041999996 4278914323
0.74503386 -0.017348504 0.041999355 4278847762
0.74503368 -0.017963311 0.041998729 4278847510
0.74510545 -0.018576879 0.042068273 4278452752
0.74517721 -0.019189931 0.042137831 4278452752
0.74517703 -0.019804219 0.042137191 4278386959
0.74524879 -0.020416494 0.042206749 4278453006
0.74532056 -0.02102825 0.042276293 4278453004
0.74546427 -0.021636955 0.042416036 4278387981
0.7453922 -0.022252997 0.042345211 4278322188
0.74539202 -0.02286651 0.042344585 4278322186
0.74546385 -0.023476711 0.042414129 4278190600
0.7456075 -0.024082825 0.042553872 4278322186
0.74560738 -0.024695558 0.042553246 4278322440
0.7456072 -0.025308292 0.042552605 4278322440
0.74531806 -0.030848568 0.04226616 4278518538
0.74524599 -0.031469017 0.042195335 4278452745
0.74503005 -0.032103859 0.041984141 4278650378
0.74502987 -0.032718662 0.0419835 4278584583
0.7449578 -0.033340923 0.041912675 4278518790
0.74488568 -0.033963703 0.04184185 4278452997
0.74474168 -0.034594972 0.041700825 4278519047
0.74466962 -0.035219047 0.041630015 4278519047
0.74459749 -0.035843641 0.04155919 4278519047
0.74452543 -0.036468752 0.041488349 4278387463
0.74445331 -0.037094381 0.041417524 4278321670
0.74438125 -0.037720531 0.041346684 4278190602
0.74423724 -0.038356721 0.04120566 4278322188
0.74416518 -0.038984165 0.041134834 4278322186
0.74402112 -0.039622169 0.04099381 4278322440
0.74387711 -0.040261213 0.040852785 4278322440
0.74373311 -0.040901292 0.040711761 4278452997
0.74366099 -0.041531585 0.040640935 4278518792
0.74358892 -0.042162396 0.04057008 4278583815
0.74344492 -0.042805068 0.040429056 4278649608
0.74344474 -0.043425575 0.040428415 4278452999
0.74337268 -0.044057935 0.040357605 4278518792
0.74330056 -0.044690821 0.040286765 4278453002
0.74322844 -0.045324221 0.040215909 4279176725
0.74322832 -0.045945507 0.040215269 4279045139
0.74457872 -0.014889358 0.042412311 4283454292
0.7446506 -0.015504482 0.042481661 4279703323
0.74472255 -0.016119087 0.042550996 4279440151
0.74472237 -0.016733635 0.04255037 4279110675
0.74479437 -0.017347462 0.04261972 4278518799
0.74486625 -0.017960774 0.042689055 4278387983
0.74493819 -0.018573565 0.042758405 4278321936
0.74501014 -0.019185839 0.042827755 4278650901
0.74500996 -0.01979935 0.042827114 4279308061
0.7450819 -0.020410847 0.042896464 4279374108
0.74515384 -0.021021826 0.042965814 4279308311
0.74522573 -0.021632286 0.043035164 4278979346
0.74536979 -0.022239435 0.043174505 4279439897
0.74536961 -0.022851652 0.043173879 4278716944
0.74544156 -0.023460558 0.043243244 4278651151
0.74536932 -0.024076082 0.043172613 4278847760
0.7454412 -0.02468447 0.043241978 4278782221
0.7452969 -0.025304601 0.043101355 4278716428
0.74536884 -0.025912728 0.04317072 4278519049
0.7452966 -0.026529551 0.043100104 4278322440
0.74522436 -0.027146891 0.043029487 4278388233
0.74522418 -0.027759623 0.043028846 4278322186
0.74515194 -0.028377738 0.04295823 4278453772
0.7450797 -0.028996371 0.042887613 4278584590
0.7450074 -0.029615525 0.042816997 4278584588
0.74493515 -0.030235194 0.04274638 4279505942
0.74486291 -0.030855384 0.042675763 4278387463
0.74486279 -0.031469412 0.042675123 4278387463
0.74471843 -0.032097317 0.042534515 4278518792
0.74464619 -0.032719061 0.042463899 4278321416
0.74464601 -0.033333864 0.042463258 4278453002
0.74450171 -0.033964097 0.042322651 4278321416
0.74450153 -0.034579422 0.04232201 4278387209
0.74442929 -0.03520298 0.042251378 4278322440
0.74435705 -0.035827056 0.042180762 4278322440
0.74428481 -0.036451645 0.042110145 4278322186
0.74421251 -0.03707676 0.042039528 4278453772
0.74414027 -0.037702389 0.041968882 4278322186
0.74406803 -0.038328536 0.041898251 4278322440
0.74392366 -0.038964987 0.041757643 4278387463
0.74385142 -0.03959243 0.041687012 4278255875
0.74370712 -0.040230699 0.041546389 4278584840
0.74356276 -0.04087 0.041405767 4278321668
0.74349052 -0.041499518 0.041335151 4278453254
0.74334621 -0.042140633 0.041194513 4278518790
0.74327391 -0.042771444 0.041123897 4278387204
0.74320167 -0.043402772 0.04105325 4278452997
0.74312943 -0.044034623 0.040982619 4278387204
0.74305719 -0.044666987 0.040911987 4278387209
0.74298495 -0.045299865 0.040841356 4278650901
0.74448371 -0.015505053 0.043171376 4283519313
0.74441129 -0.016119283 0.043100968 4282006074
0.74448335 -0.016733112 0.043170109 4280360999
0.74455547 -0.017346421 0.043239251 4279702814
0.74462754 -0.017959213 0.043308392 4279308054
0.74469966 -0.018571487 0.043377548 4279241491
0.74477172 -0.019183243 0.04344669 4279965214
0.74484384 -0.019794479 0.043515831 4282136383
0.74484366 -0.020407215 0.043515205 4281282101
0.74491578 -0.021017674 0.043584362 4281084976
0.74498785 -0.021627616 0.043653503 4280821804
0.74505997 -0.02223704 0.043722674 4281545527
0.74513203 -0.022845946 0.043791816 4281547067
0.74520409 -0.023454335 0.043860957 4281349686
0.74520397 -0.02406577 0.043860316 4281283893
0.74513155 -0.024681037 0.043789923 4282007618
0.74513143 -0.025292736 0.043789297 4282336583
0.74505901 -0.025908779 0.043718874 4280625713
0.74505889 -0.026520735 0.043718249 4280099371
0.74498641 -0.027137555 0.043647811 4279967785
0.74491405 -0.027754895 0.043577403 4279967783
0.74484164 -0.028372752 0.043506995 4279967783
0.74476922 -0.028991126 0.043436572 4279375646
0.74462456 -0.029615922 0.043296382 4279111702
0.74462438 -0.030229433 0.043295741 4279374874
0.74447972 -0.030855779 0.043155536 4279769116
0.7444796 -0.031469807 0.04315491 4279308565
0.74433494 -0.032097712 0.043014705 4279833882
0.74433476 -0.032712258 0.043014064 4279308313
0.7441901 -0.033341721 0.042873859 4278914327
0.74418992 -0.033956785 0.042873234 4279835429
0.7441175 -0.034579821 0.042802811 4278586128
0.74404514 -0.035203379 0.042732373 4278190856
0.74404496 -0.035818961 0.042731747 4278387981
0.74397254 -0.036443293 0.042661324 4278651153
0.74390018 -0.037068147 0.042590916 4278585360
0.7438277 -0.037693519 0.042520493 4278387979
0.7436831 -0.038328938 0.042380258 4278454026
0.74361062 -0.038955599 0.042309836 4278518790
0.74346602 -0.039592832 0.042169631 4278650376
0.7433936 -0.04022079 0.042099193 4278650376
0.74332118 -0.040849268 0.04202877 4278452999
0.74317652 -0.041489094 0.041888565 4278452999
0.7431041 -0.04211887 0.041818127 4278584583
0.74303168 -0.042749159 0.041747704 4278452997
0.74288702 -0.043391574 0.041607484 4278649606
0.7428146 -0.04402316 0.041537046 4278584583
0.74266994 -0.044667386 0.041396827 4278518795
0.73739171 -0.060258694 0.03628692 4280099369
0.7377528 -0.060806431 0.036635235 4280428334
0.7379694 -0.061388768 0.036843985 4279968035
0.738186 -0.061969548 0.037052721 4279834648
0.73840261 -0.062548779 0.037261456 4279834131
0.73854697 -0.063145816 0.037400395 4279833882
0.74410033 -0.016119478 0.043650523 4284045657
0.74431741 -0.016732126 0.043858618 4281151537
0.74431723 -0.01734538 0.043857992 4280756009
0.74431711 -0.017958632 0.043857351 4279637779
0.74438936 -0.018570645 0.043926299 4279505166
0.74438918 -0.019183638 0.043925658 4279570959
0.74446142 -0.019794876 0.043994606 4280755231
0.74453372 -0.020405594 0.044063553 4279505940
0.74460596 -0.021015797 0.044132501 4279639068
0.74460578 -0.021628011 0.04413186 4280427044
0.74460566 -0.022240225 0.044131234 4280887595
0.7446779 -0.02284939 0.044200197 4280690986
0.74467772 -0.023461347 0.044199571 4281151535
0.7446776 -0.024073303 0.04419893 4281415477
0.74467742 -0.02468526 0.044198304 4281942084
0.74467731 -0.025297217 0.044197679 4282600014
0.74460471 -0.025913518 0.044127449 4281284158
0.74460453 -0.026525734 0.044126809 4280561205
0.74453199 -0.027142815 0.044056609 4280231216
0.74445939 -0.027760413 0.043986395 4280231468
0.74438679 -0.028378529 0.043916181 4280231468
0.74431425 -0.028997164 0.043845966 4280100134
0.74424165 -0.029616319 0.043775752 4279771167
0.7440967 -0.030242145 0.043635949 4280033826
0.74402416 -0.030862594 0.043565735 4280624423
0.74395156 -0.031483561 0.043495521 4279769114
0.74387896 -0.032105047 0.043425307 4280821545
0.74387884 -0.032719851 0.043424681 4279375128
0.74380624 -0.033342116 0.043354452 4279441691
0.74373364 -0.033964895 0.043284237 4280099621
0.74373353 -0.034580216 0.043283597 4278981651
0.74366093 -0.035203777 0.043213367 4278916380
0.74366081 -0.035819359 0.043212742 4279178267
0.74351585 -0.036452442 0.043072954 4278915347
0.74351567 -0.037068546 0.043072313 4278586382
0.74344307 -0.037693918 0.043002099 4278586382
0.74329811 -0.038329333 0.042862266 4278651151
0.74329793 -0.038946211 0.04286164 4278519047
0.74322534 -0.039573137 0.042791411 4278584583
0.74308038 -0.040210888 0.042651609 4278781962
0.7430802 -0.040828541 0.042650968 4278453256
0.74293524 -0.041467845 0.042511165 4278387213
0.74279022 -0.042108182 0.042371348 4278650376
0.7427901 -0.042726874 0.042370707 4278584583
0.74264508 -0.043368772 0.042230904 4278649604
0.74257255 -0.043999843 0.042160675 4278584838
0.736269 -0.05851385 0.036092594 4279311897
0.73670334 -0.0590505 0.036509484 4280298283
0.73692042 -0.059637502 0.036717609 4280034089
0.73720992 -0.060204871 0.036995322 4280099369
0.737427 -0.060788505 0.037203446 4279836197
0.73764408 -0.061370581 0.037411585 4279836197
0.73786116 -0.061951101 0.03761971 4279703323
0.73815066 -0.062510952 0.037897438 4279768855
0.73829532 -0.063107476 0.038035974 4279833628
0.7385124 -0.063683346 0.038244098 4279570456
0.75425005 0.021955775 0.054228738 4280827703
0.75446761 0.021329394 0.054436222 4280564531
0.75446743 0.020753706 0.054435626 4279971115
0.75453985 0.020161899 0.054504395 4280102449
0.75439453 0.019618196 0.054365084 4280496437
0.75439441 0.019042252 0.054364502 4280364851
0.74342686 -0.01612068 0.043852821 4283322706
0.74386215 -0.016732983 0.044268414 4282599232
0.74393451 -0.017345775 0.044337168 4289635994
0.74400699 -0.017958049 0.044405907 4287728256
0.74400681 -0.018571042 0.044405267 4284771675
0.74407923 -0.019182537 0.044474021 4285166433
0.74415159 -0.019793514 0.04454276 4284773985
0.74415147 -0.020405989 0.044542119 4284708708
0.74422389 -0.021016192 0.044610873 4284247406
0.74422371 -0.021628406 0.044610232 4279834652
0.74422359 -0.02224062 0.044609606 4280163617
0.74422342 -0.022852836 0.044608966 4280492580
0.74422324 -0.023465052 0.04460834 4280558628
0.74422312 -0.024077266 0.044607714 4280690216
0.74422294 -0.024689483 0.044607073 4280559920
0.74415022 -0.025305787 0.044537067 4280559920
0.74407744 -0.025922608 0.044467062 4281153342
0.74400473 -0.026539946 0.044397056 4280497468
0.74400461 -0.027152939 0.044396415 4280760381
0.74385929 -0.027776182 0.04425703 4280299045
0.74378657 -0.028395073 0.044187024 4280167459
0.7437138 -0.029014483 0.044117004 4280496422
0.74364108 -0.029634414 0.044046998 4280233252
0.74356836 -0.030254863 0.043976977 4280627497
0.74349558 -0.030875828 0.043906972 4280690984
0.74349546 -0.031490639 0.043906331 4280625191
0.74342275 -0.032112382 0.043836325 4280625193
0.74334997 -0.03273464 0.043766305 4280625193
0.74327725 -0.033357423 0.043696269 4280428582
0.74320453 -0.03398072 0.043626264 4280625961
0.74320436 -0.034596562 0.043625623 4280101413
0.74313164 -0.035220638 0.043555617 4279575585
0.74313152 -0.035836734 0.043554991 4279905320
0.74313134 -0.036452837 0.043554351 4280037157
0.74305856 -0.037077952 0.04348433 4279445020
0.74298584 -0.037703581 0.04341431 4279576606
0.74298567 -0.038320202 0.043413669 4279773732
0.74291295 -0.038946606 0.043343648 4280234283
0.74284023 -0.039573535 0.043273628 4279970343
0.74269491 -0.040211283 0.043134227 4279904550
0.74269474 -0.040828943 0.043133587 4280101413
0.74254942 -0.041468248 0.042994186 4279905322
0.7425493 -0.042086419 0.042993546 4279311635
0.74247658 -0.042715937 0.042923525 4278916877
0.74240381 -0.043345969 0.042853504 4279507215
0.73565078 -0.057923377 0.036386713 4281084467
0.73601353 -0.058479667 0.036733016 4280624164
0.73630363 -0.059050918 0.037009925 4281018405
0.73652124 -0.059637919 0.037217438 4280162845
0.73688394 -0.060187206 0.037563726 4279900450
0.7371015 -0.060770579 0.03777127 4279834657
0.73724651 -0.061370991 0.037909389 4279769634
0.73746407 -0.061951511 0.038116902 4279179800
0.73775423 -0.062511362 0.038393825 4279180303
0.73797178 -0.063088514 0.038601354 4279508246
0.73818934 -0.063664116 0.038808867 4279903004
0.75330871 0.023247657 0.054127142 4281812798
0.75352675 0.022617647 0.054334 4280498742
0.75352663 0.022039888 0.054333404 4280761914
0.75359917 0.021445496 0.054401979 4280366902
0.75374448 0.020835238 0.054539666 4280366904
0.75381708 0.020242134 0.054608226 4279841075
0.75381696 0.019665414 0.054607645 4280300343
0.75374407 0.019104296 0.054537892 4279971378
0.74347925 -0.016733378 0.0447478 4284965983
0.74355185 -0.01734617 0.04481633 4294964968
0.74362445 -0.017958444 0.044884875 4292860364
0.74362427 -0.018571436 0.04488425 4285688150
0.74369681 -0.019182932 0.04495278 4285359185
0.74369669 -0.019795666 0.044952154 4284443991
0.74376923 -0.020406384 0.045020685 4284116055
0.74376905 -0.021018859 0.045020059 4283852128
0.74376893 -0.021631334 0.045019433 4280756011
0.74376875 -0.022243809 0.045018792 4280098081
0.74376863 -0.022856282 0.045018166 4280426789
0.74369574 -0.023472069 0.044948354 4280558630
0.74369556 -0.024084803 0.044947729 4280624421
0.74362266 -0.024701364 0.044877917 4280625193
0.74354976 -0.025318444 0.044808105 4280625193
0.74347687 -0.025936045 0.044738308 4280166958
0.74340397 -0.02655416 0.044668496 4280827205
0.74333107 -0.027172793 0.044598684 4281420107
0.74325824 -0.027791947 0.044528887 4281156668
0.74318528 -0.028411619 0.044459075 4280761910
0.74311244 -0.029031808 0.044389263 4280695852
0.74311227 -0.029646615 0.044388622 4280760880
0.74303937 -0.030267581 0.04431881 4280627244
0.74296647 -0.030889064 0.044249013 4280627244
0.74289358 -0.031511068 0.044179171 4280560683
0.74282068 -0.032133587 0.044109359 4280823342
0.74274778 -0.032756627 0.044039562 4280954928
0.7427476 -0.03337273 0.044038936 4280693552
0.74267471 -0.033996545 0.043969125 4280364587
0.74267459 -0.034612909 0.043968484 4280300076
0.74260163 -0.035237499 0.043898657 4279839527
0.74260151 -0.03585412 0.043898016 4280300080
0.74260134 -0.036470741 0.043897375 4280037670
0.74260116 -0.037087359 0.04389675 4279577119
0.74252832 -0.037713252 0.043826923 4279445533
0.74252814 -0.03833013 0.043826297 4279839778
0.74245524 -0.038956795 0.04375647 4280036387
0.74245507 -0.039573934 0.043755844 4279904548
0.74238217 -0.040201377 0.043686017 4279904548
0.74230927 -0.040829338 0.043616205 4279969567
0.74238187 -0.041436173 0.043684751 4279904034
0.74223626 -0.042075731 0.043545753 4279573778
0.7421633 -0.042704992 0.043475926 4279113227
0.7350316 -0.057331353 0.036682069 4280951850
0.73532236 -0.057906754 0.036958158 4280229408
0.73568594 -0.058462776 0.037303448 4280427038
0.73590398 -0.059051327 0.03751035 4281082913
0.73619473 -0.059620507 0.037786439 4280161562
0.73648554 -0.060187615 0.038062543 4280096800
0.73677635 -0.060752653 0.038338661 4280096800
0.73699439 -0.061334208 0.038545564 4279966495
0.73721242 -0.061914213 0.038752481 4279507995
0.73735774 -0.062511772 0.038890198 4279311637
0.73750305 -0.063108295 0.039027929 4279376409
0.73772115 -0.063684158 0.039234847 4280429097
0.75221902 0.024583699 0.053890869 4281089327
0.75251049 0.02393187 0.054166093 4281023033
0.75258321 0.023334367 0.054234445 4280825654
0.75272882 0.022720223 0.054371744 4280628275
0.7528016 0.022124005 0.054440096 4280430642
0.75294721 0.02151168 0.054577395 4279905581
0.75294709 0.020933146 0.054576799 4280234287
0.75309271 0.020322369 0.054714113 4279971374
0.75316548 0.019728487 0.054782465 4280234548
0.75301951 0.019181935 0.054643959 4280168755
0.74324203 -0.017345848 0.045364484 4294966263
0.74316895 -0.017959818 0.045294881 4294901753
0.74331462 -0.018570594 0.04543218 4294967030
0.74324155 -0.019184824 0.045362592 4293058776
0.74324137 -0.019797817 0.045361951 4286016343
0.74324119 -0.02041081 0.045361325 4284702800
0.74324107 -0.021023802 0.045360684 4284180317
0.74324089 -0.021636795 0.045360059 4280364076
0.74324077 -0.022249788 0.045359418 4279903525
0.7431677 -0.022865832 0.045289814 4279836197
0.74316752 -0.023479085 0.045289189 4280295458
0.74309444 -0.024095906 0.045219585 4280427812
0.74302143 -0.024713244 0.045149982 4280362789
0.74294835 -0.025331102 0.045080379 4280757547
0.74287534 -0.025949478 0.045010775 4280367154
0.74280226 -0.026568372 0.044941157 4280433210
0.74272919 -0.027187785 0.044871554 4280562232
0.74272907 -0.027802592 0.044870928 4280758582
0.74265599 -0.02842278 0.04480131 4281087547
0.74258292 -0.029043488 0.044731706 4281284924
0.74250984 -0.029664714 0.044662073 4280890166
0.74243683 -0.030286457 0.04459247 4280233013
0.74236375 -0.030908719 0.044522882 4281154115
0.74229074 -0.031531498 0.044453263 4281548863
0.74221766 -0.032154799 0.044383645 4281481270
0.74214458 -0.032778613 0.044314027 4281481783
0.74214447 -0.033395492 0.044313386 4281417273
0.74214429 -0.034012374 0.04431276 4281483066
0.74207121 -0.034637228 0.044243142 4281221178
0.74207103 -0.035254367 0.044242516 4281024052
0.74207091 -0.035871506 0.044241875 4280761393
0.74199784 -0.036497392 0.044172257 4279710249
0.74207056 -0.03710578 0.044240594 4278986526
0.74199754 -0.037732188 0.044170991 4279710251
0.74199736 -0.038349584 0.04417035 4280102180
0.74199718 -0.03896698 0.044169709 4279969567
0.74199706 -0.039584376 0.044169083 4279837979
0.74192399 -0.04021208 0.044099465 4280101151
0.74199671 -0.040819172 0.044167802 4279772186
0.74192369 -0.041447394 0.044098184 4279904026
0.74199641 -0.042053968 0.04416652 4281547566
0.74192333 -0.042682707 0.044096902 4282206009
0.7342658 -0.056125961 0.036841333 4281278248
0.73441142 -0.056737773 0.036978647 4280950049
0.73477578 -0.057298198 0.037322894 4280950049
0.73506719 -0.057873078 0.037598193 4280491280
0.7353586 -0.058445893 0.037873477 4280163344
0.73565006 -0.059016623 0.038148761 4280031762
0.73586863 -0.059603103 0.038355052 4280097301
0.73608714 -0.060188033 0.038561359 4280097301
0.73637855 -0.060753062 0.038836658 4280097301
0.73659712 -0.061334625 0.039042965 4280294429
0.73674273 -0.06193348 0.039180279 4280098077
0.73688841 -0.0625313 0.039317593 4279706393
0.73717988 -0.063089333 0.039592907 4281483066
0.73725259 -0.0637042 0.039661244 4281417273
0.7517103 0.02461919 0.054207459 4280760629
0.75185621 0.024002196 0.054344356 4280760379
0.75192916 0.023403654 0.054412499 4280497207
0.75200206 0.022805637 0.054480657 4280431414
0.75214803 0.022191225 0.054617554 4280364851
0.75214785 0.021611137 0.054616958 4280101677
0.75229383 0.020998286 0.054753855 4280101929
0.75243974 0.020386474 0.054890752 4280234285
0.75229353 0.019839147 0.054752663 4279971113
0.7524395 0.019228367 0.05488956 4280167724
0.74278623 -0.017960213 0.045774058 4291085510
0.74278611 -0.018573465 0.045773432 4294901753
0.74278593 -0.019186717 0.045772791 4294901753
0.74278575 -0.01979997 0.045772165 4294901753
0.74278563 -0.02041322 0.045771524 4293453530
0.74278545 -0.021026473 0.045770898 4289898121
0.74278533 -0.021639723 0.045770258 4285685593
0.74271208 -0.022255769 0.045700863 4281803806
0.74263889 -0.022872331 0.045631453 4280493357
0.74256563 -0.023489412 0.045562059 4280099621
0.74249244 -0.024107009 0.045492649 4280099617
0.74241924 -0.024725128 0.045423254 4279969314
0.74234599 -0.025343763 0.045353845 4280232486
0.74234581 -0.025958568 0.045353219 4280167206
0.74227262 -0.026577981 0.045283809 4280167206
0.74212635 -0.027202778 0.045145616 4280690984
0.74212617 -0.027818363 0.04514499 4280821543
0.74205297 -0.028439328 0.04507558 4280887336
0.74197972 -0.029060811 0.045006186 4280886570
0.74190652 -0.029682815 0.044936776 4280625461
0.74183333 -0.030305337 0.044867352 4279771698
0.74176013 -0.030928377 0.044797942 4280232249
0.74168688 -0.031551935 0.044728547 4280692287
0.74161363 -0.03217601 0.044659138 4280889664
0.74154043 -0.032800607 0.044589728 4280824123
0.74154025 -0.033418261 0.044589087 4280625965
0.74154007 -0.034035921 0.044588447 4281415481
0.74153996 -0.034653574 0.044587806 4281282353
0.74153978 -0.035271231 0.04458718 4281216560
0.7415396 -0.035888888 0.044586539 4281216562
0.74153948 -0.036506541 0.044585899 4280298792
0.7415393 -0.037124202 0.044585258 4280956722
0.74153912 -0.037741855 0.044584617 4280432428
0.741539 -0.038359515 0.044583991 4280693290
0.74153882 -0.038977169 0.04458335 4280494628
0.74153864 -0.039594822 0.04458271 4279903521
0.74153852 -0.040212482 0.044582069 4279771935
0.74161142 -0.04081957 0.044650212 4279772962
0.74153817 -0.041447796 0.044580802 4279971616
0.74161112 -0.042054363 0.044648945 4281942326
0.7340095 -0.056093849 0.037482783 4280755502
0.73422849 -0.056688614 0.037688464 4280164642
0.73452055 -0.057265058 0.037962928 4280033056
0.7347396 -0.057856455 0.038168624 4279836445
0.73503166 -0.058429003 0.038443103 4279573526
0.73525071 -0.05901704 0.038648784 4279835926
0.73554277 -0.05958569 0.038923278 4280031508
0.73576182 -0.06017036 0.039128944 4280229657
0.73598087 -0.06075348 0.039334655 4280032278
0.73612678 -0.061353631 0.039471582 4279768857
0.73619974 -0.061971597 0.03953971 4281678380
0.7364918 -0.06253171 0.039814189 4281878579
0.7365647 -0.063147865 0.039882317 4281875509
0.75090814 0.025309613 0.054251269 4280759345
0.75098121 0.024708485 0.054319218 4280496185
0.75112748 0.024090199 0.054455698 4280364599
0.75127375 0.023472944 0.054592207 4281023551
0.75134683 0.022873888 0.054660127 4279970863
0.7514199 0.022275342 0.054728076 4280298031
0.75149298 0.021677321 0.054796025 4280298794
0.75163925 0.021063434 0.054932535 4280298794
0.75171232 0.020466706 0.055000484 4280562480
0.75163895 0.01990222 0.054931328 4280233515
0.74211067 -0.017964525 0.045978978 4287798435
0.74233013 -0.018575098 0.046184033 4292796379
0.74247646 -0.019185616 0.046320528 4294770169
0.74232984 -0.019802121 0.046182767 4294967289
0.74232966 -0.020415632 0.046182141 4294901753
0.74232954 -0.021029143 0.0461815 4294967026
0.74225616 -0.021645186 0.046112314 4291936700
0.74218273 -0.02226175 0.046043113 4286936432
0.74218261 -0.022875778 0.046042472 4281016360
0.74203598 -0.02349643 0.045904711 4280231718
0.74196261 -0.024114545 0.04583551 4279903521
0.74196249 -0.024729352 0.045834869 4279837728
0.74181587 -0.025352336 0.045697108 4279903521
0.74181569 -0.025967659 0.045696467 4280100900
0.74166912 -0.026592197 0.045558691 4279969314
0.74159575 -0.027212903 0.04548949 4280493858
0.74152237 -0.02783413 0.045420289 4280559651
0.741449 -0.028455876 0.045351073 4280295709
0.74137557 -0.029078137 0.045281872 4280361253
0.74130225 -0.029700918 0.045212671 4279968298
0.74122882 -0.030324217 0.045143455 4279508013
0.74115545 -0.030948034 0.045074254 4279836978
0.74115527 -0.031565692 0.045073614 4279902003
0.74108195 -0.032190286 0.045004413 4279376427
0.74108177 -0.0328082 0.045003772 4280364347
0.7410816 -0.033426113 0.045003131 4280296748
0.74100822 -0.034051746 0.044933915 4281020471
0.74100804 -0.034669921 0.044933289 4281282353
0.74100792 -0.035288095 0.044932649 4281150510
0.74100775 -0.03590627 0.044932008 4281084719
0.74100757 -0.036524445 0.044931367 4280690986
0.74100745 -0.037142619 0.044930741 4281085744
0.74108046 -0.037751526 0.044998676 4280824876
0.74108034 -0.03836944 0.044998035 4280889133
0.74108016 -0.038987353 0.044997394 4280690984
0.74115324 -0.039595224 0.045065328 4279969318
0.74115306 -0.040212877 0.045064688 4279837732
0.74115288 -0.040830538 0.045064062 4280037419
0.74115276 -0.041448191 0.045063421 4279905569
0.73346108 -0.055481941 0.037849754 4280360744
0.73368061 -0.056078002 0.038054824 4280426535
0.73390007 -0.056672513 0.038259894 4279769884
0.73419285 -0.057248682 0.038533553 4279704091
0.73441231 -0.057839826 0.038738653 4279442204
0.73470503 -0.058412112 0.039012313 4279377177
0.73492455 -0.058999889 0.039217398 4279574037
0.73507082 -0.05960393 0.039353892 4279900692
0.73529035 -0.060188852 0.039558977 4280163866
0.73543662 -0.060790561 0.039695486 4280229659
0.73565614 -0.06137263 0.039900586 4279967261
0.73572922 -0.061990865 0.03996852 4282337584
0.75032407 0.02536382 0.054501936 4280495419
0.75047064 0.024743976 0.054638013 4280364087
0.75061727 0.024125172 0.054774106 4280693302
0.75061715 0.023542231 0.054773495 4280826170
0.75069034 0.022942135 0.054841235 4280299826
0.75083697 0.022325659 0.054977328 4280496687
0.75091016 0.02172686 0.055045083 4280366120
0.75105679 0.021112198 0.055181161 4279971626
0.75105667 0.020530814 0.05518055 4280300591
0.74180055 -0.018577971 0.046526685 4287864487
0.74187374 -0.019190503 0.046594426 4289114554
0.74187362 -0.019804273 0.046593785 4289310902
0.74187344 -0.020418044 0.046593159 4293848559
0.74187326 -0.021031814 0.046592519 4294966778
0.74179971 -0.021648116 0.046523526 4294901755
0.74172622 -0.022264939 0.046454519 4294638583
0.74165267 -0.022882279 0.046385527 4281544496
0.74157912 -0.023500137 0.046316534 4280823853
0.74150556 -0.024118513 0.046247527 4279839525
0.74143201 -0.024737407 0.046178535 4279443999
0.74135852 -0.025356822 0.046109512 4279970343
0.74128497 -0.025976751 0.04604052 4280101415
0.74113804 -0.026601806 0.045903161 4280429865
0.74106449 -0.027223032 0.045834154 4280627497
0.74099094 -0.027844779 0.045765147 4280232739
0.74084401 -0.028472424 0.045627788 4279705110
0.74084383 -0.02908982 0.045627147 4279374374
0.74077034 -0.02971312 0.04555814 4279311149
0.74077016 -0.030330775 0.045557499 4279375144
0.74069661 -0.030954853 0.045488492 4279638316
0.74062306 -0.031579446 0.045419499 4279441189
0.74054956 -0.032204561 0.045350492 4279114020
0.74054939 -0.032822993 0.045349851 4279444269
0.74047583 -0.033448882 0.045280844 4279835425
0.74047565 -0.034067575 0.045280203 4280427562
0.74047554 -0.034686267 0.045279577 4280953133
0.74047536 -0.03530496 0.045278937 4280753447
0.74047518 -0.035923652 0.045278296 4280425254
0.74047506 -0.036542345 0.045277655 4280953131
0.74054825 -0.03715203 0.045345381 4280689959
0.74054813 -0.037770465 0.045344755 4280690208
0.74062133 -0.038379367 0.045412481 4280819490
0.74069452 -0.038987748 0.045480207 4280557092
0.7406944 -0.039605666 0.045479581 4280428332
0.7407676 -0.040213279 0.045547307 4280625711
0.74084079 -0.040820368 0.045615047 4280363052
0.7407673 -0.041448593 0.04554604 4280690986
0.73305881 -0.054837495 0.038354293 4280754984
0.73320544 -0.055450343 0.03849037 4280163615
0.73335201 -0.056062147 0.038626462 4280295201
0.73364538 -0.056639872 0.038899317 4279768857
0.73386538 -0.057232313 0.039103791 4280032029
0.73401201 -0.057840236 0.039239898 4279310114
0.73430538 -0.05841253 0.039512739 4279310364
0.73445201 -0.059017859 0.039648831 4279703839
0.73459858 -0.059622161 0.039784938 4279834907
0.7347452 -0.06022542 0.039921045 4280099621
0.73511195 -0.060772635 0.040262282 4282270790
0.73518515 -0.061391644 0.040330008 4281813067
0.74966562 0.026021225 0.054686278 4280495923
0.74981254 0.025399825 0.054821953 4280364085
0.74988592 0.0247974 0.0548895 4280232753
0.7500329 0.024177821 0.055025175 4280627759
0.75003272 0.023594102 0.055024564 4280693814
0.75017965 0.022976073 0.055160254 4280233263
0.75032657 0.022359079 0.055295929 4280233513
0.75039995 0.021759758 0.055363461 4280497190
0.75047338 0.021160962 0.055431008 4279971626
0.74141717 -0.019192398 0.047005847 4287403423
0.74141699 -0.019806426 0.047005206 4287733155
0.74141681 -0.020420454 0.047004566 4288388517
0.74141669 -0.021034485 0.04700394 4290821309
0.74134302 -0.021651048 0.046935141 4294704117
0.74134284 -0.022265336 0.046934515 4294375152
0.74119556 -0.022885727 0.046797559 4281412912
0.74119544 -0.023500534 0.046796918 4280824625
0.74112171 -0.02411891 0.046728119 4280959039
0.74097449 -0.024741635 0.046591148 4280234548
0.74090075 -0.025361307 0.046522349 4280629306
0.74075353 -0.025985844 0.046385407 4280234287
0.7406798 -0.026606811 0.046316594 4280365101
0.74053258 -0.027233161 0.046179637 4280298532
0.74045885 -0.027855426 0.046110839 4280232739
0.74038517 -0.028478207 0.04604204 4279441938
0.740385 -0.029095862 0.046041399 4279110175
0.74031132 -0.029719422 0.045972601 4279045409
0.74023759 -0.030343495 0.045903787 4279242013
0.74016392 -0.030968091 0.045834988 4279439392
0.74009019 -0.031593204 0.04576619 4279439644
0.74001646 -0.032218836 0.045697376 4278916639
0.74001634 -0.032837786 0.04569675 4279311399
0.74001616 -0.033456739 0.04569611 4279834398
0.74001598 -0.034075692 0.045695469 4280360742
0.74001586 -0.034694642 0.045694828 4280427046
0.74001569 -0.035313591 0.045694187 4280360226
0.74001551 -0.035932545 0.045693547 4280162080
0.74008894 -0.036542743 0.045761079 4280491295
0.74008876 -0.037161436 0.045760438 4280622881
0.74016213 -0.03777086 0.04582797 4280623134
0.74023557 -0.038379766 0.045895502 4280819743
0.74023539 -0.038997937 0.045894861 4280491297
0.74030876 -0.039606065 0.045962393 4280821804
0.74038213 -0.040213674 0.046029925 4280427046
0.74045551 -0.040820763 0.046097457 4280690218
0.73258299 -0.054208539 0.038790658 4280754480
0.73272991 -0.054822162 0.038926333 4280557092
0.73295039 -0.055418745 0.039130196 4280163613
0.73309731 -0.056030042 0.039265886 4280163613
0.73331779 -0.056623764 0.039469734 4279703323
0.73353827 -0.057215944 0.039673612 4279900702
0.7336852 -0.057823606 0.039809301 4279507232
0.73383212 -0.058430247 0.039944991 4279375644
0.73397905 -0.059035838 0.040080681 4279769636
0.73412597 -0.059640393 0.040216386 4279572756
0.73434651 -0.060225829 0.040420264 4281810488
0.74915314 0.026057752 0.055007502 4280560181
0.74930036 0.02543583 0.05514279 4280560181
0.74937391 0.024832895 0.055210128 4280429099
0.74944746 0.024230467 0.055277452 4280561964
0.74959475 0.023611141 0.055412725 4280101429
0.74959457 0.023027169 0.055412129 4280233015
0.74974179 0.022409393 0.055547401 4280233265
0.74095994 -0.020422868 0.047416404 4286023051
0.74103349 -0.021034881 0.047483727 4286745995
0.74088591 -0.021653976 0.047347173 4287007112
0.74088573 -0.022268524 0.047346532 4285164908
0.74081188 -0.022886124 0.047277942 4281347639
0.74081171 -0.023500931 0.047277316 4280757301
0.74066418 -0.024122875 0.047140762 4280954680
0.7405166 -0.024745861 0.047004193 4281349186
0.74044275 -0.025365792 0.046935603 4281809737
0.74029517 -0.02599059 0.046799034 4281613893
0.74022132 -0.026611816 0.046730444 4280890420
0.74007374 -0.027238425 0.04659389 4280167459
0.73999989 -0.027860949 0.046525285 4280101666
0.73992598 -0.028483991 0.046456695 4280233250
0.73985213 -0.029107546 0.04638809 4278915097
0.73985195 -0.029725723 0.046387449 4278848530
0.7397781 -0.030350056 0.046318859 4279176979
0.73970425 -0.03097491 0.046250254 4278979600
0.73963034 -0.031600282 0.046181649 4278979339
0.73955655 -0.032226175 0.046113059 4279045139
0.73955637 -0.032845385 0.046112418 4278979089
0.73955619 -0.033464596 0.046111777 4278915610
0.73955607 -0.034083806 0.046111137 4279770919
0.7395559 -0.034703016 0.046110496 4279640616
0.73962939 -0.035313994 0.046177819 4280165160
0.73962927 -0.035932943 0.046177179 4282071610
0.73970282 -0.036543146 0.046244517 4281545268
0.73970264 -0.037161835 0.046243876 4281808440
0.73977619 -0.037771262 0.0463112 4282006074
0.73984975 -0.038380168 0.046378523 4282598716
0.7399233 -0.038988546 0.046445847 4281808438
0.73992312 -0.039606463 0.046445221 4280558632
0.73999667 -0.040214073 0.046512544 4280558632
0.73225427 -0.053548604 0.039363369 4280360999
0.73232782 -0.054177977 0.039430678 4280229413
0.73247504 -0.054791085 0.039565951 4280097827
0.73254859 -0.055419154 0.039633259 4280097054
0.73276955 -0.056014188 0.039836511 4280293146
0.73291683 -0.056624182 0.039971784 4279899675
0.73306406 -0.05723314 0.040107086 4279965468
0.73321134 -0.05784107 0.040242374 4280229156
0.73335856 -0.058447957 0.040377662 4279441691
0.73350585 -0.059053808 0.040512949 4279246622
0.73365307 -0.059658624 0.040648237 4282929732
0.74893516 0.024850449 0.055599302 4280494892
0.74900883 0.024247767 0.055666432 4280429867
0.74908257 0.023645597 0.055733562 4280298546
0.7491563 0.023043944 0.055800691 4280364339
0.74057645 -0.021037553 0.047895744 4286219649
0.74057627 -0.02165184 0.047895119 4285824123
0.74057615 -0.022266127 0.047894478 4285363572
0.74042821 -0.02288652 0.047758341 4281084726
0.74035418 -0.023504639 0.047689945 4280427312
0.74028015 -0.024123274 0.047621548 4280162343
0.74013227 -0.024746258 0.047485396 4280096552
0.73998439 -0.025370277 0.047349259 4280162345
0.73991036 -0.025990987 0.047280848 4281150519
0.73976243 -0.026616819 0.047144696 4280824627
0.7396884 -0.027238823 0.0470763 4280235301
0.73961437 -0.027861347 0.047007903 4280235301
0.7395404 -0.028484389 0.046939507 4279774748
0.73946637 -0.029107945 0.046871111 4279772953
0.73939234 -0.029732022 0.046802714 4280100902
0.73931831 -0.030356616 0.046734318 4279968546
0.73924428 -0.030981731 0.046665922 4279836960
0.73917025 -0.03160736 0.046597525 4279836950
0.73917007 -0.032226574 0.046596885 4279901203
0.73916996 -0.032845784 0.046596244 4279966742
0.73916978 -0.033464994 0.046595603 4279178778
0.7391696 -0.034084208 0.046594962 4279836708
0.73916948 -0.034703415 0.046594322 4279575335
0.73924315 -0.035314392 0.046661451 4280034339
0.73924297 -0.035933346 0.046660811 4281743150
0.7393167 -0.036543541 0.04672794 4282335035
0.73931658 -0.037162237 0.0467273 4281742126
0.73939025 -0.037771657 0.046794429 4281346608
0.73946393 -0.038380563 0.046861544 4281413432
0.73953766 -0.038988948 0.046928674 4280229163
0.73961139 -0.039596815 0.046995804 4279965468
0.73961121 -0.040214472 0.046995163 4281741879
0.73192573 -0.053533785 0.039935008 4279770135
0.73207331 -0.054147415 0.040069878 4279704342
0.73207313 -0.054791503 0.040069208 4279507230
0.73222065 -0.055403568 0.040204093 4280883236
0.73236823 -0.056014605 0.040338963 4280359960
0.73251581 -0.056624599 0.040473849 4280030744
0.73266339 -0.057233557 0.040608734 4280359709
0.73281097 -0.05784148 0.040743619 4280754730
0.73295856 -0.058448374 0.04087849 4282142795
0.7399708 -0.02165984 0.048172444 4283719517
0.74011874 -0.022269316 0.048306912 4283851103
0.74004453 -0.022886917 0.048238724 4280625715
0.74004436 -0.023501724 0.048238099 4280165164
0.73982215 -0.024127241 0.048034772 4279834398
0.73967391 -0.024750486 0.047899053 4279636253
0.7395997 -0.025370676 0.047830865 4279702046
0.73945153 -0.025995731 0.0476951 4280492328
0.73930329 -0.026621826 0.047559351 4281679154
0.73922908 -0.027244089 0.047491163 4281947198
0.73915493 -0.02786687 0.04742296 4282210370
0.73908073 -0.028490171 0.047354773 4282474056
0.73900652 -0.029113986 0.047286585 4283264078
0.73893237 -0.029738324 0.047218382 4282144577
0.73885816 -0.030363176 0.047150195 4282012741
0.73885798 -0.030982129 0.047149554 4282341706
0.73878384 -0.031607762 0.047081351 4282011211
0.73878366 -0.032226972 0.047080711 4282339142
0.73878348 -0.032846183 0.047080085 4280958507
0.73878336 -0.033465393 0.047079444 4283260746
0.73878318 -0.034084607 0.047078803 4282273851
0.73885703 -0.034695841 0.047145724 4281419310
0.73885691 -0.035314791 0.047145084 4280628008
0.73893076 -0.035925247 0.047212005 4280427036
0.73893058 -0.036543943 0.047211364 4280163096
0.73900449 -0.037153624 0.047278285 4280163096
0.73900431 -0.037772059 0.047277644 4280292898
0.73907816 -0.038380966 0.047344565 4280687404
0.73907804 -0.038999133 0.047343925 4280426285
0.7391519 -0.03960726 0.047410861 4279835153
0.73144937 -0.053549439 0.040371105 4279704089
0.73167133 -0.054147832 0.04057315 4279638296
0.73174518 -0.054776162 0.040640056 4279245595
0.73189306 -0.055387981 0.040774524 4280687908
0.73196697 -0.056015015 0.040841416 4280164118
0.73204082 -0.056641534 0.040908322 4280032278
0.73211467 -0.057267539 0.040975228 4280361243
0.73951232 -0.023508744 0.048583776 4281021485
0.73943794 -0.02412764 0.048515782 4281809196
0.73921525 -0.02475471 0.048313096 4281546028
0.73914087 -0.025375163 0.048245102 4281480235
0.73899233 -0.026000477 0.048109755 4281481005
0.7388438 -0.026626833 0.047974408 4280756510
0.73884362 -0.027244488 0.047973782 4281941552
0.73869509 -0.027872395 0.047838435 4281809966
0.73862076 -0.028495952 0.047770441 4280890147
0.73854637 -0.02912003 0.047702447 4281149726
0.73847204 -0.029744625 0.047634453 4281546024
0.73847187 -0.030363576 0.047633812 4281480235
0.73839754 -0.03098895 0.047565818 4281480235
0.73832321 -0.03161484 0.047497824 4281545774
0.73832303 -0.032234311 0.047497198 4281545266
0.73832285 -0.032853782 0.047496557 4281281324
0.73832273 -0.03347325 0.047495916 4281611819
0.73839676 -0.034085006 0.047562629 4281611819
0.73839658 -0.034704216 0.047561988 4281478945
0.73847061 -0.03531519 0.047628716 4281543718
0.73854464 -0.035925645 0.047695428 4280096788
0.73854446 -0.036544338 0.047694787 4279703062
0.73861849 -0.037154023 0.047761515 4279571476
0.73869252 -0.037763186 0.047828227 4280028697
0.7386924 -0.03838136 0.047827587 4280292637
0.73876643 -0.038989745 0.047894314 4280426019
0.73891467 -0.039587565 0.048028395 4282073390
0.73126936 -0.054148249 0.041076407 4279441448
0.73134339 -0.054776579 0.041143119 4279442722
0.73141742 -0.055404402 0.041209817 4279770917
