# .PCD v0.7 - Point Cloud Data file format
VERSION 0.7
FIELDS x y z rgb
SIZE 4 4 4 4
TYPE F F F U
COUNT 1 1 1 1
WIDTH 1025
HEIGHT 1
VIEWPOINT 0 0 0 1 0 0 0
POINTS 1025
DATA ascii
0.69888884 -0.056813404 0.037865683 4279638568
0.69934583 -0.056314081 0.037800282 4279638568
0.69968539 -0.055718511 0.03786552 4279638566
0.70008361 -0.055171072 0.03786543 4279245345
0.70048189 -0.054623634 0.037865356 4279377190
0.70070219 -0.053934306 0.038061276 4279574823
0.70487398 -0.029517628 0.047532052 4283056192
0.70499104 -0.028841339 0.047793329 4283187778
0.70536613 -0.028325744 0.047793239 4283582006
0.70567626 -0.027770601 0.047858492 4286014242
0.70605123 -0.027255215 0.047858417 4293252669
0.70642614 -0.026739828 0.047858343 4294967093
0.70686656 -0.026263356 0.047792941 4294770478
0.70724165 -0.025747761 0.047792867 4294573828
0.70748532 -0.025155172 0.047923461 4294835972
0.70779419 -0.024601705 0.047988713 4294704898
0.70823491 -0.024124816 0.047923297 4294704898
0.70847732 -0.023533896 0.048053905 4294967046
0.70885181 -0.023019142 0.048053831 4294967088
0.70922631 -0.022504382 0.048053756 4294967134
0.70960081 -0.021989621 0.048053682 4285159701
0.70997524 -0.021474868 0.048053607 4282530611
0.7103498 -0.020960107 0.048053533 4282135853
0.71072423 -0.020445347 0.048053458 4282137911
0.71123326 -0.020003393 0.047922701 4281810486
0.71160805 -0.019488215 0.047922626 4282270267
0.71205044 -0.019009024 0.04785721 4282599234
0.71256077 -0.018565178 0.047726467 4282599234
0.71307176 -0.018120497 0.04759571 4283058507
0.71358335 -0.017674983 0.047464967 4283848282
0.69923055 -0.05706194 0.0383946 4279967261
0.69962883 -0.056514487 0.038394526 4280033054
0.6999681 -0.055919021 0.038459584 4279703841
0.7003662 -0.055371791 0.038459495 4279703843
0.70070505 -0.054776967 0.038524538 4279573027
0.70110297 -0.054229945 0.038524464 4279638818
0.70502394 -0.031151138 0.047444969 4281413684
0.70527208 -0.030551866 0.047575176 4281676082
0.70551956 -0.02995342 0.047705352 4282793781
0.70576644 -0.029355824 0.047835559 4283254332
0.7061426 -0.028838761 0.047835484 4283187233
0.70651877 -0.028321698 0.047835395 4285289472
0.70689493 -0.027804635 0.04783532 4290157056
0.70720571 -0.027248353 0.047900379 4294967094
0.70751619 -0.02669248 0.047965437 4294967102
0.70795774 -0.026214644 0.04790023 4294573840
0.70820206 -0.02562061 0.048030421 4294770451
0.70857775 -0.02510418 0.048030347 4294901542
0.7089535 -0.024587743 0.048030257 4294573828
0.70932919 -0.024071306 0.048030183 4294573828
0.70963842 -0.023517117 0.048095241 4294901517
0.71001399 -0.023000896 0.048095152 4294966829
0.71038955 -0.022484668 0.048095077 4290226244
0.71069819 -0.021931313 0.048160136 4283188280
0.71114063 -0.021452218 0.048094928 4282069799
0.71151626 -0.02093599 0.048094854 4282072888
0.71195912 -0.020456269 0.048029661 4281811253
0.7124024 -0.019976109 0.047964439 4282402877
0.71284592 -0.019495547 0.047899246 4282271291
0.71335769 -0.019050427 0.047768891 4282598716
0.71380198 -0.018568814 0.047703683 4282006074
0.71417844 -0.018051334 0.047703609 4283190098
0.76217222 0.013831139 0.030502483 4280295709
0.76258892 0.014403932 0.030502394 4280033559
0.70560539 -0.031549573 0.047686055 4282265911
0.70591843 -0.030989841 0.04775092 4283773210
0.70629597 -0.030470893 0.047750846 4285089070
0.70654368 -0.029871643 0.04788062 4285612820
0.70698595 -0.029393055 0.047815606 4294962818
0.70736337 -0.028874315 0.047815531 4294967158
0.70767534 -0.028316051 0.047880381 4294967137
0.70805264 -0.02779752 0.047880307 4294967133
0.70842981 -0.02727899 0.047880232 4291412736
0.70880711 -0.026760459 0.047880158 4294967058
0.70911831 -0.026203245 0.047945008 4294967089
0.70949543 -0.02568493 0.047944933 4294967094
0.70987248 -0.025166608 0.047944844 4294704945
0.71018314 -0.024610229 0.048009709 4294835985
0.71049345 -0.024054267 0.048074573 4294704916
0.71087027 -0.023536369 0.048074484 4294573836
0.71124703 -0.023018464 0.048074409 4294967125
0.71155673 -0.022463344 0.048139274 4294242871
0.71186614 -0.021908641 0.048204109 4283909384
0.71230996 -0.021427959 0.048139125 4282860861
0.7126866 -0.020910271 0.048139051 4282467126
0.71313095 -0.020428963 0.048074037 4282598455
0.71350771 -0.019911058 0.048073962 4282466869
0.71408838 -0.019501045 0.047879085 4282466871
0.71439749 -0.018946767 0.047943935 4282532418
0.71518421 -0.01864171 0.047554284 4281085492
0.76007652 0.011492893 0.031705543 4280359974
0.76049173 0.012063593 0.031705454 4280162080
0.76106477 0.012592532 0.031575516 4279899423
0.76148027 0.013163649 0.031575426 4279769884
0.76213348 0.013673402 0.031380549 4279967263
0.76254946 0.014245145 0.031380475 4279903004
0.76296538 0.014816888 0.031380385 4279968536
0.76346111 0.015368789 0.031315356 4279836696
0.7065661 -0.031428784 0.047928661 4289760037
0.70694447 -0.030908786 0.047928587 4291602241
0.70725769 -0.030348539 0.047993228 4288245760
0.70763582 -0.029828757 0.047993153 4294966379
0.70814466 -0.029388629 0.047863632 4294967135
0.70845765 -0.0288288 0.047928289 4294967124
0.70883596 -0.028308809 0.047928214 4294967127
0.70921427 -0.02778881 0.04792814 4290819072
0.70959258 -0.027268812 0.04792805 4294967067
0.70997083 -0.026748821 0.047927976 4294967072
0.71041542 -0.026267394 0.047863171 4294967077
0.71072745 -0.025708824 0.047927827 4294704672
0.71110576 -0.025188833 0.047927752 4294770445
0.71135062 -0.024592943 0.048057124 4294835996
0.7116617 -0.024035633 0.04812178 4294573832
0.71197253 -0.023478739 0.048186436 4294967064
0.71228302 -0.022922263 0.048251092 4294967080
0.71266055 -0.022403315 0.048251018 4284765696
0.71303809 -0.021884367 0.048250943 4282661924
0.71341562 -0.021365419 0.048250854 4282268713
0.71379322 -0.020846471 0.04825078 4282859828
0.71430665 -0.020400055 0.048121244 4282465070
0.71482068 -0.019952804 0.047991708 4282530611
0.71513057 -0.019397169 0.048056364 4282465849
0.71591902 -0.019091427 0.047667921 4282138434
0.75928849 0.010179669 0.032516032 4280097831
0.75962448 0.010771126 0.032580659 4279637280
0.76027524 0.011276588 0.032386407 4280686881
0.76076901 0.011825688 0.032321572 4280293148
0.76102591 0.012438133 0.032450959 4279964953
0.76159912 0.01296667 0.032321408 4279770135
0.76201415 0.013537154 0.032321319 4279770135
0.76250869 0.014087297 0.032256514 4279772186
0.76300359 0.014637858 0.032191709 4279837463
0.76349878 0.015188836 0.032126889 4279640600
0.76407421 0.015720516 0.031997338 4279311649
0.70677131 -0.032348745 0.048173055 4294967071
0.70708537 -0.031787142 0.048237503 4294967057
0.70752919 -0.031307071 0.048172891 4294901262
0.70790803 -0.030786239 0.048172817 4292990985
0.70835233 -0.030305535 0.04810822 4293644820
0.70873141 -0.029784493 0.048108131 4294960683
0.70917606 -0.029303163 0.048043549 4293906458
0.70955533 -0.028781913 0.048043475 4291998464
0.70993453 -0.028260663 0.0480434 4294967111
0.71031374 -0.027739406 0.048043311 4294967104
0.71069294 -0.027218156 0.048043236 4294573830
0.71107221 -0.026696905 0.048043162 4294704896
0.71151793 -0.026214108 0.04797855 4294704896
0.71189731 -0.025692642 0.047978476 4294704896
0.71214294 -0.025095105 0.048107445 4294835976
0.71258903 -0.02461189 0.048042864 4294835982
0.71276677 -0.023977771 0.048236355 4294967065
0.7130782 -0.023419738 0.048300803 4294967064
0.71359175 -0.022973724 0.048171669 4293847841
0.71390307 -0.022415899 0.048236132 4287199759
0.71434957 -0.021932058 0.04817152 4282727715
0.71472847 -0.021411218 0.048171446 4282334506
0.71503931 -0.020854026 0.048235893 4282202920
0.71562278 -0.02044186 0.048042238 4282729010
0.71607041 -0.019956551 0.047977641 4281808423
0.71665537 -0.019542292 0.047783986 4282665797
0.75873679 0.0088035613 0.033131301 4279900193
0.75922966 0.0093510896 0.03306669 4280426539
0.75948703 0.0099647641 0.033195674 4281939006
0.75998008 0.010512508 0.033131048 4280820525
0.76039445 0.011082157 0.033130959 4280948768
0.76088798 0.01163052 0.033066362 4280358165
0.76138175 0.012179323 0.033001751 4280491800
0.76179647 0.012749389 0.033001661 4279966742
0.7622112 0.013319455 0.033001572 4280098328
0.76262593 0.013889529 0.033001497 4279510043
0.76304066 0.014459595 0.033001408 4279444250
0.76353538 0.015009642 0.032936811 4279246620
0.7640304 0.015560105 0.03287217 4279377179
0.76436514 0.016150191 0.032936648 4279442972
0.70735586 -0.032749467 0.048418969 4294901506
0.70780039 -0.032268658 0.048354566 4294901508
0.70824528 -0.03178741 0.048290178 4294967046
0.7086904 -0.03130576 0.048225775 4294967086
0.70907038 -0.03078346 0.048225701 4294240541
0.70951599 -0.030301183 0.048161313 4292725760
0.70989609 -0.029778674 0.048161238 4293252101
0.71034217 -0.029295765 0.048096836 4294896926
0.71072245 -0.02877304 0.048096761 4294967097
0.71110272 -0.028250322 0.048096672 4294967090
0.7115494 -0.027766578 0.048032269 4294704898
0.71186328 -0.027204886 0.048096523 4294704896
0.71224356 -0.026682168 0.048096448 4294704896
0.71262389 -0.026159443 0.048096374 4294704896
0.71293718 -0.025598586 0.048160627 4294704896
0.71331728 -0.025076076 0.048160538 4294967064
0.71363014 -0.024515852 0.048224777 4294967064
0.71394265 -0.023956046 0.048289031 4294967076
0.7143901 -0.023471251 0.048224628 4294967105
0.71477008 -0.022948951 0.048224553 4292398379
0.71515006 -0.02242665 0.048224479 4282921485
0.71559811 -0.021941014 0.048160076 4283316243
0.71597821 -0.021418504 0.048160002 4282335019
0.71642673 -0.020932242 0.048095599 4282467121
0.71660143 -0.020301402 0.048288494 4281743400
0.7167753 -0.019671828 0.04848139 4281941302
0.75834167 0.0073828027 0.033617526 4282668389
0.75875622 0.0079526603 0.033617452 4282472803
0.75909239 0.0085449442 0.033681676 4282407000
0.75950682 0.0091145933 0.033681601 4283062102
0.75984251 0.0097062439 0.033745855 4281546817
0.76025677 0.010275684 0.033745766 4280823094
0.76067102 0.010845125 0.033745691 4280752422
0.76108533 0.011414565 0.033745602 4280357912
0.76149958 0.011984006 0.033745527 4280293399
0.7619139 0.012553446 0.033745438 4280426015
0.76224852 0.013143629 0.033809662 4280754980
0.76266265 0.013712861 0.033809587 4279835677
0.76315665 0.01426176 0.033745185 4279902242
0.76357096 0.014831208 0.033745095 4279836195
0.76398522 0.015400641 0.033745021 4279965214
0.76464075 0.015910991 0.033551946 4280096800
0.70794147 -0.033150949 0.048666537 4294704902
0.70845187 -0.032710344 0.048538208 4294704896
0.70889765 -0.032228164 0.048474014 4294967044
0.70934367 -0.031745553 0.04840982 4294967062
0.70978999 -0.031262532 0.048345625 4294967062
0.71023667 -0.030779094 0.048281416 4294901529
0.71061772 -0.030255325 0.048281342 4294967066
0.71106482 -0.029771246 0.048217148 4294309898
0.71144599 -0.029247269 0.048217073 4294967064
0.71189356 -0.028762579 0.048152864 4294967052
0.71227491 -0.028238386 0.048152789 4294704896
0.71265626 -0.0277142 0.0481527 4294704896
0.71303761 -0.027190015 0.048152626 4294704896
0.71341896 -0.026665829 0.048152551 4294704896
0.7137332 -0.026103407 0.048216611 4294704898
0.71418166 -0.025617458 0.048152402 4294967083
0.71442819 -0.025017649 0.048280567 4294901544
0.71480918 -0.024493881 0.048280492 4294639396
0.71519029 -0.023970112 0.048280418 4294704922
0.71563917 -0.02348353 0.048216224 4294967060
0.71602035 -0.022959545 0.048216149 4288251665
0.71640158 -0.022435576 0.048216075 4283777792
0.71678281 -0.021911591 0.048216 4282334502
0.71723247 -0.021423966 0.048151776 4281678116
0.71754515 -0.020863637 0.048215836 4281940782
0.71806395 -0.020411514 0.048087507 4281348390
0.73316622 -0.013223983 0.041417345 4279771167
0.73392361 -0.012835413 0.041096672 4279376145
0.73417741 -0.012225568 0.041224822 4279376145
0.7580241 0.0059376583 0.034040049 4284969845
0.75836092 0.0065310895 0.034104079 4283064428
0.75885391 0.0070782229 0.03403987 4283985530
0.75911194 0.0076939464 0.034168035 4282869616
0.75952649 0.008263804 0.034167945 4282473057
0.7599411 0.0088336617 0.034167871 4282996573
0.76027679 0.0094256252 0.034231886 4280756277
0.76061225 0.010017164 0.034295946 4280690484
0.76094735 0.010608286 0.034359977 4280292898
0.76136148 0.011177503 0.034359902 4280358426
0.7616961 0.011767998 0.034423918 4280557088
0.76211011 0.012337029 0.034423843 4280426785
0.76244426 0.012926884 0.034487903 4280689957
0.76285809 0.013495691 0.034487814 4280558628
0.76327193 0.014064506 0.034487739 4280756009
0.7636857 0.01463332 0.03448765 4281282101
0.76409954 0.015202127 0.03448756 4281544248
0.76451337 0.015770942 0.034487486 4279570458
0.70859325 -0.033594459 0.048851773 4294704945
0.70910466 -0.03315299 0.048723876 4294573826
0.70961672 -0.032710694 0.04859595 4294901511
0.71006382 -0.032226935 0.04853195 4294835992
0.71051121 -0.031742737 0.048467964 4294573836
0.7109589 -0.031258129 0.048403978 4294573832
0.71134084 -0.030733109 0.048403904 4294573832
0.71172285 -0.030208081 0.048403829 4294573832
0.71217114 -0.029722646 0.048339814 4294967053
0.71255326 -0.02919741 0.048339739 4294967082
0.7130686 -0.028750502 0.048211828 4294965290
0.71345103 -0.028224848 0.048211753 4293582609
0.71383345 -0.027699195 0.048211679 4294964243
0.71414876 -0.027135 0.048275515 4294967059
0.7145983 -0.026647896 0.048211515 4294704929
0.71498072 -0.026122242 0.04821144 4294901542
0.71536314 -0.025596581 0.048211366 4294704931
0.71567786 -0.025033228 0.048275203 4294573834
0.7160601 -0.024507783 0.048275128 4294573826
0.71651042 -0.024019629 0.048211128 4294704898
0.71689284 -0.023493975 0.048211053 4294967103
0.7172069 -0.022931457 0.048274904 4291347712
0.7175892 -0.022406012 0.048274815 4283316997
0.71797144 -0.021880567 0.048274741 4282070828
0.71828496 -0.021318898 0.048338577 4281611817
0.73188603 -0.014915764 0.042328805 4280492330
0.73249745 -0.014467575 0.042136967 4280032029
0.73296618 -0.013954051 0.042072982 4280163615
0.73350716 -0.013471946 0.041945055 4279769884
0.73404884 -0.012988999 0.041817144 4279572756
0.73466331 -0.01253663 0.041625306 4279638549
0.73513389 -0.012020603 0.041561306 4279768607
0.73531437 -0.011380188 0.041752979 4279636774
0.75812107 0.0050611645 0.034463271 4282069048
0.7586143 0.0056084171 0.034399271 4281014826
0.75895143 0.0062025562 0.034463093 4280623666
0.75920987 0.0068193227 0.03459087 4279505185
0.75970328 0.007366769 0.03452684 4279117100
0.75996095 0.007982485 0.034654602 4279444780
0.76021802 0.0085973516 0.03478235 4280099630
0.7606324 0.0091670081 0.034782276 4279768362
0.76096773 0.0097586364 0.034846127 4279636776
0.76122344 0.010371625 0.03497386 4280953658
0.76163733 0.010940641 0.034973785 4281216036
0.76197171 0.011531025 0.035037637 4281214499
0.7623058 0.012120984 0.035101458 4280360996
0.76255965 0.012731455 0.035229221 4281347891
0.76297301 0.013299637 0.035229132 4280559651
0.76338637 0.013867818 0.035229042 4281874231
0.76379973 0.014436007 0.035228968 4282070081
0.76421309 0.015004188 0.035228878 4283914073
0.76462644 0.015572369 0.035228804 4283585108
0.7093116 -0.034080267 0.048975334 4294967133
0.70975876 -0.033596583 0.048911557 4294966347
0.71027184 -0.03315343 0.048784032 4294901514
0.71085125 -0.032750167 0.048592806 4294770445
0.71129984 -0.032264605 0.048529014 4294573832
0.71168268 -0.031738326 0.048528939 4294901539
0.71213174 -0.031252146 0.048465148 4294901539
0.71251482 -0.03072565 0.048465073 4294573840
0.7129643 -0.030238837 0.048401266 4294967064
0.71334743 -0.029712133 0.048401192 4292592397
0.71379745 -0.029224679 0.048337415 4289893888
0.7142477 -0.02873683 0.048273608 4290551808
0.71456409 -0.028170861 0.048337251 4293973257
0.71501464 -0.027682588 0.048273459 4291474688
0.71539813 -0.027155474 0.048273385 4294967102
0.71578163 -0.026628345 0.048273295 4294639390
0.71616513 -0.026101232 0.048273221 4294573853
0.71654856 -0.02557411 0.048273146 4294573830
0.71700007 -0.025084563 0.048209369 4294573824
0.71738368 -0.02455724 0.04820928 4294704900
0.71776736 -0.024029911 0.048209205 4294901511
0.71815097 -0.023502581 0.048209131 4294967107
0.71853459 -0.022975251 0.048209056 4283710976
0.71891826 -0.022447921 0.048208982 4282725162
0.71937078 -0.021956921 0.04814516 4282070312
0.71989274 -0.021501616 0.048017666 4282004519
0.73161519 -0.015609786 0.043046549 4279966238
0.73215449 -0.015130594 0.042919025 4280755754
0.73276621 -0.014682904 0.042727813 4280295199
0.73330688 -0.01420182 0.042600289 4280229663
0.73384815 -0.013719916 0.042472765 4279900698
0.73424548 -0.013173729 0.04247269 4279243540
0.73493254 -0.012753569 0.042217731 4279309333
0.73540306 -0.012237832 0.042153955 4279703841
0.73587388 -0.0117217 0.042090148 4280165164
0.73568916 -0.01092723 0.042599812 4280098597
0.75803566 0.0035398155 0.034696251 4281349436
0.75845158 0.0041115582 0.034696162 4282857026
0.75871146 0.0047308207 0.034823507 4281146662
0.75920534 0.0052785799 0.0347597 4281080106
0.75954276 0.0058734715 0.034823343 4280686891
0.75987989 0.0064679086 0.034886986 4279765789
0.76029539 0.007039018 0.034886897 4279050024
0.76047444 0.0076782629 0.035077944 4279574821
0.76073152 0.0082937479 0.035205305 4279835427
0.7609089 0.0089306757 0.035396397 4279836206
0.76124388 0.0095221996 0.03546001 4280296757
0.76157862 0.010113291 0.035523638 4281087297
0.761913 0.010703973 0.035587296 4280755481
0.76208758 0.011337139 0.035778344 4281016347
0.76242107 0.011926554 0.035842001 4280557092
0.76275426 0.01251556 0.035905629 4281017643
0.76316732 0.013083324 0.03590554 4280361502
0.76349998 0.013671689 0.035969183 4281676082
0.76391292 0.014239252 0.035969093 4280884522
0.76440644 0.014786616 0.035905287 4282859326
0.76473868 0.015374355 0.03596893 4283254084
0.71047974 -0.034082375 0.049037725 4294965379
0.71099401 -0.033638149 0.048910618 4294967092
0.71150887 -0.033193097 0.048783526 4294704914
0.71195829 -0.032706574 0.048719943 4294573828
0.71240807 -0.032219656 0.04865633 4294835996
0.71279192 -0.031692117 0.048656255 4294967070
0.71324211 -0.031204551 0.048592672 4294967106
0.71362603 -0.030676804 0.048592597 4290555142
0.71407676 -0.030188628 0.048528999 4294967140
0.71446085 -0.029660672 0.048528925 4294964037
0.71484494 -0.029132709 0.04852885 4290023936
0.71529627 -0.028643683 0.048465267 4294966608
0.71574789 -0.028154247 0.048401654 4292399911
0.71613228 -0.027625874 0.048401579 4294967125
0.71658432 -0.027135789 0.048337996 4294639439
0.71690106 -0.026569113 0.04840143 4294377238
0.71735346 -0.026078619 0.048337847 4294704896
0.71773803 -0.025550038 0.048337758 4294704896
0.71819079 -0.02505891 0.048274189 4294704898
0.71857554 -0.024530113 0.0482741 4294967051
0.71896023 -0.024001315 0.048274025 4294704908
0.71934491 -0.023472525 0.048273951 4293649196
0.71972966 -0.022943728 0.048273876 4286406697
0.72025239 -0.022487774 0.048146755 4282068513
0.72077584 -0.022030979 0.048019662 4282989615
0.73141605 -0.016335055 0.043699533 4282206539
0.73195499 -0.015856892 0.043572441 4281350967
0.73242277 -0.015345246 0.043508828 4281022002
0.73296279 -0.014865614 0.043381721 4282206007
0.73357546 -0.01441738 0.043191105 4282272572
0.73411685 -0.013935864 0.043063998 4284179048
0.73465884 -0.013453506 0.042936876 4284510580
0.73520142 -0.012970321 0.042809784 4285102717
0.73559928 -0.0124235 0.042809695 4283000419
0.73628843 -0.01200141 0.042555571 4282935141
0.75828755 0.002610594 0.034994677 4281084719
0.75870407 0.0031831786 0.034994587 4280821547
0.75904262 0.0037798062 0.035058007 4280622115
0.75945902 0.0043521747 0.035057932 4280423455
0.75987542 0.0049245507 0.035057843 4280226080
0.76013488 0.0055437908 0.035184801 4279766304
0.7604723 0.0061389804 0.035248235 4279700511
0.76073068 0.0067567453 0.035375178 4279899171
0.76098841 0.0073736683 0.035502136 4280162843
0.76108742 0.0080349371 0.035756096 4280428582
0.76142287 0.0086273924 0.03581953 4281681481
0.76159924 0.0092637762 0.036009997 4280891965
0.7619338 0.0098549649 0.036073416 4280428082
0.76218837 0.010467485 0.036200374 4280426516
0.76220268 0.011143818 0.036517873 4280885021
0.76253557 0.011732712 0.036581293 4280490795
0.76286817 0.012321174 0.036644712 4280622381
0.7633611 0.012867391 0.036581129 4280295458
0.7637738 0.013434738 0.036581039 4280624669
0.76402533 0.014043085 0.036707997 4281148958
0.76443779 0.014610015 0.036707923 4282661168
0.76485026 0.015176937 0.036707833 4282990133
0.71165186 -0.03408289 0.049102962 4294967122
0.71216774 -0.033636972 0.048976272 4294835999
0.71261811 -0.033149518 0.048912868 4294573828
0.71306878 -0.032661632 0.048849478 4294835982
0.71351975 -0.032173321 0.048786104 4294835982
0.71390444 -0.031644523 0.048786029 4294967117
0.71435589 -0.031155601 0.04872264 4293122612
0.71480763 -0.030666254 0.048659235 4294960178
0.71519268 -0.030137032 0.048659161 4294499113
0.71564484 -0.029647067 0.048595771 4290681600
0.71609735 -0.02915667 0.048532397 4294967104
0.71648264 -0.028627031 0.048532322 4294967116
0.71686798 -0.028097399 0.048532233 4294967122
0.7173211 -0.027606174 0.048468828 4294967120
0.71770656 -0.027076334 0.048468754 4294377242
0.71809202 -0.026546486 0.048468679 4294835974
0.71854573 -0.026054412 0.04840529 4294835976
0.7189998 -0.025561929 0.0483419 4294704898
0.71938556 -0.025031663 0.048341826 4294967046
0.71977133 -0.024501398 0.048341751 4294704898
0.72022593 -0.024008065 0.048278362 4294834986
0.72061187 -0.023477599 0.048278287 4291672661
0.72113615 -0.023020156 0.048151582 4282397467
0.72166103 -0.022561878 0.048024893 4283844913
0.72232544 -0.022174954 0.047771558 4282202414
0.7311455 -0.017025739 0.044415042 4283719017
0.73175555 -0.016581975 0.044225022 4283328614
0.73222303 -0.016071051 0.044161633 4283789417
0.73276269 -0.015592456 0.044034913 4284118382
0.73330295 -0.015113011 0.043908224 4283722076
0.73391604 -0.014665052 0.043718204 4283261012
0.73445767 -0.01418373 0.043591499 4283655523
0.7349999 -0.013701566 0.043464795 4284379509
0.73547006 -0.013186857 0.043401405 4284511095
0.73601341 -0.012703232 0.043274701 4282999919
0.73641139 -0.012156211 0.043274611 4283065712
0.75835472 0.0010305345 0.035104871 4281083697
0.75869465 0.0016293675 0.035168082 4279966243
0.75895637 0.0022523552 0.035294637 4280755759
0.75937355 0.0028257817 0.035294548 4280361001
0.75971258 0.0034233481 0.035357788 4279834148
0.76005125 0.0040204972 0.035420999 4279965993
0.76038969 0.004617244 0.035484254 4279505958
0.76072776 0.0052135587 0.035547465 4279374878
0.7609868 0.0058327764 0.035674006 4279374878
0.76124513 0.0064511448 0.035800561 4280031781
0.76134479 0.0071144849 0.036053732 4279637526
0.76168096 0.0077080578 0.036116943 4282272320
0.76185799 0.0083462074 0.036306798 4280494640
0.76195455 0.0090053454 0.036559969 4280297261
0.76212966 0.0096407458 0.036749825 4280754230
0.76222396 0.010296747 0.037002996 4280951577
0.76247698 0.010907792 0.037129536 4280818727
0.7626493 0.011539422 0.037319392 4280423469
0.7629813 0.01212737 0.037382618 4280686641
0.76347393 0.012672849 0.037319213 4280753188
0.76380557 0.013260372 0.037382454 4280819730
0.76421773 0.013826884 0.037382364 4280885259
0.76462984 0.014393397 0.03738229 4281147161
0.71237695 -0.0345698 0.049234211 4294370149
0.71282792 -0.034081802 0.049171031 4294967090
0.71334541 -0.033634186 0.049044728 4294836007
0.71373075 -0.033104554 0.049044654 4294639396
0.71418262 -0.032615304 0.048981458 4294770478
0.71463484 -0.032125629 0.048918277 4294770494
0.71508729 -0.031635545 0.048855081 4294573365
0.71547306 -0.03110528 0.048855007 4294967109
0.71592599 -0.030614555 0.048791826 4294967114
0.71637923 -0.030123413 0.04872866 4294967091
0.71683282 -0.029631868 0.048665449 4294966833
0.7171514 -0.029062055 0.048728496 4294967116
0.717673 -0.028608784 0.048602194 4292005139
0.71805942 -0.028077684 0.048602119 4290623488
0.71844578 -0.027546585 0.048602045 4294967078
0.71890044 -0.027053565 0.048538849 4294835968
0.71928692 -0.026522256 0.048538774 4294967044
0.719742 -0.026028603 0.048475593 4294835968
0.72019744 -0.025534533 0.048412383 4294835968
0.72058427 -0.025002807 0.048412308 4294835968
0.72110909 -0.024545133 0.048286021 4294704910
0.72149622 -0.024012983 0.048285946 4294967131
0.72209126 -0.023590662 0.048096538 4294900560
0.72261775 -0.023130685 0.047970235 4284039685
0.72335368 -0.022778444 0.047654629 4282593322
0.73048031 -0.018257223 0.045129403 4279900692
0.73094654 -0.017748274 0.045066223 4279834650
0.73155618 -0.017305836 0.044876814 4284047460
0.73202336 -0.016795643 0.044813603 4284970095
0.73256266 -0.016318068 0.044687316 4284576621
0.7330305 -0.015806809 0.044624135 4284313449
0.73364311 -0.0153604 0.044434711 4283458403
0.73425657 -0.014912732 0.044245303 4283589991
0.73479849 -0.014431596 0.044119015 4282930012
0.73526835 -0.013917617 0.04405582 4282070608
0.73573852 -0.013403237 0.043992624 4281610057
0.73635489 -0.012951583 0.043803215 4280886859
0.75860554 9.4681978e-05 0.035407141 4280687145
0.75894606 0.00069466978 0.035470173 4280229158
0.75936419 0.0012693405 0.035470083 4279835425
0.75970429 0.0018686876 0.035533115 4280032806
0.7600441 0.0024676099 0.035596132 4279967013
0.76038355 0.0030661076 0.035659164 4279900200
0.76072276 0.0036641955 0.035722181 4280163372
0.76098299 0.0042857081 0.03584832 4279637546
0.76116395 0.0049299896 0.036037579 4279703589
0.76142287 0.0055495948 0.036163703 4279572003
0.76183927 0.0061219633 0.036163613 4280558382
0.76193881 0.0067863017 0.036415979 4280297509
0.76195782 0.0074717551 0.036731437 4282140483
0.76221383 0.0080873966 0.03685759 4280757299
0.76230991 0.008746922 0.037109941 4280099369
0.76232493 0.0094269142 0.037425414 4280555318
0.76249838 0.010060921 0.037614673 4282004017
0.76267087 0.010693684 0.037803918 4280620848
0.76284254 0.011325188 0.037993163 4280686127
0.76317406 0.0119128 0.038056195 4281210918
0.76342475 0.012521096 0.038182333 4281013539
0.76383626 0.013086766 0.038182244 4281015060
0.76440954 0.013611071 0.038055941 4281015566
0.71348947 -0.034527592 0.0493678 4290552602
0.71387523 -0.033997327 0.049367726 4294967123
0.71439403 -0.03354843 0.049241856 4294967115
0.71484685 -0.033058226 0.049178854 4294704945
0.7152999 -0.032567598 0.049115881 4294442546
0.71568626 -0.032036498 0.049115807 4294376990
0.71620691 -0.031585097 0.048989922 4294967104
0.71666098 -0.031093225 0.04892692 4292401167
0.71704781 -0.030561492 0.04892683 4291076096
0.71756983 -0.030108199 0.048800945 4291667202
0.71795696 -0.029576056 0.048800871 4292392708
0.71841204 -0.029082701 0.048737884 4294169880
0.71886736 -0.028588928 0.048674911 4290814464
0.71925479 -0.028056361 0.048674837 4294967085
0.71971059 -0.027561978 0.04861185 4294967072
0.72016674 -0.027067155 0.048548877 4294835994
0.72055447 -0.02653417 0.048548788 4294704898
0.72101104 -0.026038736 0.048485786 4294704898
0.72139895 -0.025505535 0.048485711 4294704896
0.72192514 -0.025046594 0.048359826 4294704898
0.72238261 -0.024549887 0.048296854 4294967098
0.72290987 -0.024089471 0.048170954 4294967102
0.72343767 -0.02362822 0.048045069 4290096402
0.72403586 -0.023202412 0.047856271 4284696331
0.72477472 -0.022847503 0.047541663 4282200619
0.73021048 -0.018943615 0.045842484 4281877828
0.73081911 -0.018503569 0.045653671 4281219898
0.73128539 -0.017994717 0.045590684 4280428847
0.73189545 -0.017552562 0.045401886 4281152820
0.73243457 -0.017075807 0.045275986 4280757299
0.73297429 -0.016598217 0.045150101 4284247158
0.73351467 -0.016119793 0.045024201 4282470747
0.73405558 -0.01564052 0.044898316 4283129442
0.73459715 -0.015160412 0.044772401 4282800477
0.73513931 -0.014679469 0.044646516 4282996057
0.73568207 -0.014197685 0.044520617 4280886584
0.73615253 -0.01368317 0.044457644 4281347135
0.75877869 -0.00081799924 0.035773948 4280226092
0.75919741 -0.00024247169 0.035773858 4280752686
0.75961608 0.00033304095 0.035773769 4280031779
0.75995684 0.00093351305 0.035836592 4279703841
0.76029724 0.0015335977 0.035899431 4279506462
0.7607156 0.0021086931 0.035899341 4279835425
0.76097715 0.0027324781 0.036025077 4280097827
0.76115954 0.0033795461 0.036213711 4279638046
0.76149845 0.0039775223 0.036276519 4279835945
0.76175815 0.0045987964 0.036402255 4280493627
0.76201725 0.005219236 0.036527991 4280756799
0.76211739 0.0058854222 0.036779538 4280625209
0.76213694 0.0065730065 0.037093997 4282469448
0.76231396 0.0072127506 0.037282631 4281085742
0.7624104 0.0078739226 0.037534177 4280425755
0.76250565 0.0085334107 0.037785754 4280030997
0.76251972 0.0092134625 0.038100198 4279372575
0.76269245 0.0098473355 0.038288817 4281740360
0.762784 0.010501795 0.038540393 4280883768
0.76303518 0.011111334 0.038666114 4280950053
0.76328576 0.011720039 0.038791865 4280947984
0.76345503 0.012349091 0.038980484 4281079570
0.76394677 0.012892932 0.038917512 4281079570
0.76419586 0.013499551 0.039043248 4280883728
0.71440578 -0.034361035 0.049691945 4294967117
0.71492529 -0.033911705 0.049566463 4294964023
0.71537864 -0.033420958 0.049503699 4294573836
0.71583235 -0.032929808 0.049440891 4294967098
0.71621919 -0.032398082 0.049440816 4294770462
0.71680784 -0.031986177 0.049252629 4294967085
0.71726257 -0.031493545 0.049189851 4294967090
0.71771759 -0.03100051 0.049127072 4292460548
0.71824068 -0.03054636 0.049001575 4294966609
0.71869648 -0.030052267 0.048938811 4294305554
0.71915257 -0.029557765 0.048876017 4294042380
0.71954077 -0.029024146 0.048875943 4294965538
0.71999729 -0.028529003 0.048813164 4294967079
0.72045422 -0.02803345 0.048750371 4294835984
0.72091132 -0.027537473 0.048687592 4294967059
0.72136879 -0.027041078 0.048624828 4294901521
0.72175765 -0.026506618 0.048624739 4294704900
0.72214645 -0.025972173 0.048624665 4294704898
0.72267377 -0.025512151 0.048499167 4294704896
0.72313231 -0.025014296 0.048436388 4294967064
0.72373027 -0.024589613 0.048248202 4294967068
0.72425944 -0.024127088 0.048122719 4294967083
0.72485906 -0.023700096 0.047934532 4288711183
0.72545964 -0.023271866 0.047746316 4282724901
0.72606111 -0.022842363 0.047558129 4283119659
0.72666347 -0.0224116 0.047369957 4282137138
0.72894031 -0.020606183 0.046742588 4281483068
0.72961807 -0.020204253 0.046491697 4281415994
0.73008329 -0.019697182 0.046428919 4281678653
0.73062027 -0.019223966 0.046303421 4282534475
0.73122931 -0.018783987 0.046115234 4282073924
0.73176765 -0.018308893 0.045989737 4280560433
0.73230654 -0.017832957 0.045864239 4280296998
0.73284608 -0.017356187 0.045738757 4280295208
0.73338622 -0.016878575 0.045613259 4282534743
0.73399925 -0.01643315 0.045425087 4282600536
0.73446834 -0.015920818 0.045362309 4282537303
0.73508292 -0.015473314 0.045174107 4282603094
0.73555291 -0.014959738 0.045111313 4282339663
0.73602319 -0.014445744 0.045048535 4282138180
0.75860989 -0.0023347661 0.036079332 4280093740
0.75895178 -0.0017325133 0.036141947 4280291119
0.75944853 -0.001182057 0.036079168 4280226855
0.75979006 -0.00058023632 0.036141783 4280425767
0.7602092 -4.0829182e-06 0.036141694 4279967013
0.76055026 0.00059713423 0.036204338 4280032806
0.76081276 0.0012227893 0.036329657 4279703841
0.7610746 0.0018476024 0.036454991 4279901988
0.76141447 0.0024471283 0.036517605 4280428586
0.76167524 0.0030704737 0.036642939 4281021236
0.76193547 0.0036929846 0.036768258 4283325286
0.76219511 0.004314661 0.036893591 4281482580
0.76237494 0.0049590915 0.037081614 4280561478
0.76247454 0.0056256652 0.037332356 4280888381
0.76249343 0.0063137263 0.037645802 4282271051
0.76259041 0.0069767311 0.037896544 4281215784
0.76268619 0.007638067 0.038147286 4280688146
0.76270086 0.0083202869 0.038460732 4279964423
0.76279402 0.0089780316 0.038711473 4279504152
0.76272553 0.0096784011 0.039087623 4282003016
0.76297677 0.010288551 0.039212942 4280818992
0.76298577 0.010963008 0.039526373 4280819743
0.76339674 0.011527836 0.039526299 4280753939
0.76372677 0.012113966 0.039588943 4280556560
0.71487045 -0.034684226 0.050079882 4287722755
0.71539056 -0.034234665 0.049954787 4294961784
0.7157774 -0.03370294 0.049954712 4294900506
0.71636558 -0.033292577 0.049767137 4294835968
0.71688735 -0.032840714 0.049642056 4294835968
0.71734238 -0.03234797 0.049579486 4294835982
0.71793282 -0.031934477 0.049391896 4294967057
0.71845645 -0.031480104 0.0492668 4294966824
0.71891284 -0.030985475 0.049204245 4294967081
0.71936953 -0.030490428 0.049141675 4294967080
0.71982646 -0.029994965 0.04907909 4294967089
0.72028375 -0.029499084 0.049016505 4294967084
0.72074139 -0.029002786 0.048953921 4294966560
0.72113067 -0.028467707 0.048953831 4294967081
0.72158873 -0.027970776 0.048891261 4294967076
0.72204709 -0.027473435 0.048828676 4294967070
0.72250575 -0.026975662 0.048766106 4294704898
0.7228955 -0.02643995 0.048766017 4294835968
0.72342402 -0.025978871 0.048640952 4294967042
0.72395313 -0.025516957 0.048515856 4294967048
0.72448289 -0.025054201 0.048390776 4294704900
0.7250132 -0.024590604 0.048265696 4294704904
0.72561413 -0.024162643 0.048078105 4294967120
0.72614586 -0.023697168 0.047953025 4286472756
0.72674847 -0.023266897 0.047765449 4283248899
0.72728157 -0.022799537 0.047640368 4282792754
0.72788584 -0.022366963 0.047452793 4281415462
0.72842032 -0.021897711 0.047327697 4281285427
0.72895539 -0.021427624 0.047202617 4281746756
0.7295621 -0.020991698 0.047015041 4281417791
0.73002732 -0.020484932 0.046952456 4281285951
0.73063564 -0.02004692 0.046764866 4282074694
0.73117328 -0.019573264 0.046639785 4282666057
0.73171151 -0.019098774 0.046514705 4282337092
0.73225039 -0.018623449 0.04638961 4281153841
0.73278987 -0.01814729 0.046264529 4280297247
0.73325789 -0.017636731 0.046201959 4280492580
0.73387069 -0.017192446 0.046014354 4280887086
0.73441201 -0.016713753 0.045889303 4280887086
0.73495388 -0.016234234 0.045764208 4282597188
0.73556924 -0.015786596 0.045576602 4281942336
0.73596668 -0.0152402 0.045576528 4281549373
0.75855041 -0.003172785 0.036636278 4279964966
0.75904715 -0.0026226491 0.036573708 4280031527
0.75938898 -0.0020200759 0.036636114 4279834148
0.75973058 -0.0014179498 0.03669852 4280295199
0.76014972 -0.0008417964 0.036698431 4280032027
0.76056886 -0.0002656579 0.036698356 4280295206
0.76090974 0.00033566356 0.036760792 4282338375
0.76125038 0.00093654543 0.036823198 4282140996
0.76159072 0.001537025 0.036885619 4282604099
0.76185203 0.0021616071 0.03701055 4283261262
0.76219153 0.0027610138 0.037072957 4282796362
0.76245183 0.0033841282 0.037197888 4281284426
0.76271147 0.0040064156 0.037322804 4280430142
0.7628119 0.0046752468 0.037572742 4280627521
0.76283169 0.0053659081 0.037885159 4280626996
0.76284993 0.0060544387 0.038197607 4281151289
0.76278687 0.0067639649 0.038572535 4281939006
0.76288188 0.0074252635 0.038822457 4281082652
0.76281548 0.0081301704 0.0391974 4280819480
0.76290768 0.008787699 0.039447337 4280094221
0.76291835 0.0094657615 0.039759755 4281210920
0.76300794 0.010119736 0.040009692 4280949801
0.71637768 -0.034107372 0.050219283 4294965321
0.71683234 -0.033615366 0.050156891 4294835986
0.71735471 -0.033163279 0.050032213 4294704904
0.71787775 -0.032710351 0.049907535 4294704900
0.71840131 -0.032256581 0.049782857 4294835974
0.71899331 -0.031841688 0.049595892 4294967090
0.7195183 -0.031386033 0.049471214 4294967083
0.7200439 -0.030929543 0.049346521 4293447168
0.72050178 -0.030433126 0.04928416 4292591872
0.72102839 -0.029975168 0.049159497 4291341312
0.72148705 -0.029477701 0.049097121 4291804416
0.72201473 -0.029018283 0.048972443 4290883840
0.72247416 -0.028519779 0.048910052 4290491904
0.72293389 -0.028020844 0.04884769 4294967087
0.72339392 -0.027521506 0.048785299 4294835970
0.7237848 -0.026984118 0.04878521 4294835968
0.72431481 -0.026521534 0.048660561 4294835968
0.72477573 -0.026020944 0.048598155 4294967056
0.72530681 -0.025556907 0.048473492 4294901517
0.72576851 -0.025055245 0.048411116 4294901521
0.72637075 -0.02462633 0.048224136 4294967081
0.72683334 -0.024123415 0.04816176 4290157625
0.72736669 -0.023656242 0.048037082 4285354752
0.72790062 -0.023188226 0.047912404 4283513383
0.72843522 -0.022719376 0.047787726 4282072363
0.72897041 -0.022249684 0.047663033 4281349937
0.72950619 -0.02177915 0.04753837 4281745477
0.72997141 -0.021272682 0.047475994 4281613891
0.73057961 -0.020835578 0.047289014 4281746504
0.73118871 -0.020397231 0.047102019 4282404170
0.73172706 -0.019923128 0.046977371 4282601285
0.73226607 -0.019448206 0.046852678 4281548597
0.73280567 -0.018972442 0.046728 4281482804
0.73327374 -0.018461995 0.046665609 4279968795
0.73388666 -0.018018395 0.046478644 4280230435
0.73442811 -0.017540112 0.046353951 4280624425
0.73497015 -0.017061003 0.046229288 4280361253
0.73544008 -0.01654803 0.046166897 4282003768
0.73598313 -0.016067445 0.046042234 4281282351
0.73645383 -0.015553445 0.045979843 4280890669
0.75856817 -0.0040375292 0.037130937 4280490025
0.75898761 -0.0034609661 0.037130848 4280096550
0.75948465 -0.0029107034 0.037068456 4279966245
0.75982654 -0.0023078322 0.037130684 4279900452
0.76016808 -0.0017053783 0.037192881 4279835675
0.76058739 -0.0011290312 0.037192807 4282927172
0.76100671 -0.00055266917 0.037192717 4283454294
0.76126927 7.4192882e-05 0.037317246 4283850836
0.76168829 0.00065013021 0.037317157 4284048215
0.76202863 0.0012508929 0.037379369 4283326791
0.76228982 0.0018758774 0.037503868 4282404669
0.76255041 0.0025000125 0.037628397 4281676602
0.76281041 0.0031233281 0.037752926 4280756797
0.76314908 0.0037218034 0.037815124 4280495671
0.76324916 0.0043912232 0.038064256 4280495671
0.76271135 0.0052476376 0.038811788 4280887597
0.76280779 0.0059120208 0.039060891 4281676086
0.68073678 -0.075402096 0.054652289 4283058012
0.68106002 -0.074824482 0.054714307 4282466647
0.68138301 -0.074247286 0.054776326 4281679947
0.71729964 -0.033938542 0.050547451 4294967143
0.71782261 -0.033486217 0.05042319 4294836021
0.71841383 -0.033073284 0.050236821 4294704929
0.71907377 -0.032699123 0.049988359 4294377244
0.71966696 -0.032283463 0.04980199 4294508298
0.72026104 -0.03186655 0.049615636 4294573830
0.72078782 -0.031408988 0.049491361 4294967054
0.72131515 -0.030950591 0.049367085 4294967065
0.72184312 -0.030491367 0.049242809 4291803392
0.72230297 -0.029992521 0.049180642 4294301998
0.72276312 -0.02949328 0.049118444 4291346182
0.72322357 -0.028993599 0.049056292 4294967104
0.72368431 -0.028493524 0.048994109 4294770228
0.72414541 -0.027993008 0.048931941 4294573836
0.72453725 -0.027454361 0.048931867 4294704900
0.72499883 -0.026953228 0.048869669 4294573842
0.72553039 -0.026488967 0.048745394 4294901527
0.72599268 -0.025986776 0.048683241 4294967083
0.72652537 -0.025521047 0.04855895 4294573834
0.72705865 -0.025054485 0.04843469 4294704898
0.72752219 -0.024550617 0.048372507 4294967120
0.72805655 -0.024082586 0.048248246 4294504759
0.72852081 -0.023577683 0.048186049 4283447808
0.72905624 -0.023108169 0.048061788 4282399264
0.72959232 -0.022637837 0.047937527 4282006318
0.73012894 -0.022166662 0.047813237 4282072890
0.73066622 -0.021694645 0.047688976 4282007097
0.73120409 -0.021221802 0.047564685 4281809718
0.73174256 -0.020748109 0.04744041 4281808946
0.73235345 -0.020308144 0.047254056 4281546796
0.7328214 -0.019798212 0.047191858 4281086245
0.73336172 -0.019322008 0.047067598 4281481771
0.73397487 -0.018878907 0.046881229 4281284657
0.73451656 -0.018400818 0.046756953 4279706144
0.73498631 -0.017888367 0.04669477 4280297762
0.73552907 -0.017408803 0.04657051 4280100383
0.73599958 -0.016895309 0.046508327 4281216806
0.73668939 -0.016480073 0.046259865 4280888346
0.75850862 -0.0048758388 0.037688076 4280097831
0.75885063 -0.0042724609 0.03775008 4281216051
0.7594251 -0.0037493259 0.037625805 4281412660
0.75984472 -0.0031725541 0.03762573 4283914591
0.76026434 -0.0025957823 0.037625641 4284177763
0.76068389 -0.0020190105 0.037625551 4283917409
0.76102531 -0.0014164671 0.03768757 4283717462
0.76136649 -0.00081433356 0.037749574 4283649872
0.76170731 -0.00021263957 0.037811577 4283054144
0.76204777 0.00038865954 0.037873611 4282593593
0.76246679 0.00096459687 0.037873521 4281740843
0.76264894 0.0016146898 0.038059726 4281478705
0.76243466 0.0023861229 0.038556442 4281610811
0.68117261 -0.076686099 0.054597154 4282403157
0.68144274 -0.076047733 0.054720849 4282137680
0.68176699 -0.075468555 0.054782674 4281348164
0.68209088 -0.074889809 0.054844484 4281744457
0.68246949 -0.074369386 0.054844409 4281876043
0.71842629 -0.033890598 0.050691187 4294178609
0.71901846 -0.033477128 0.050505415 4294901314
0.71961164 -0.033062384 0.050319657 4294967110
0.72027379 -0.032686286 0.050071999 4294310706
0.72086889 -0.032268822 0.049886256 4294377224
0.72146493 -0.0318501 0.049700499 4294573828
0.72199333 -0.031390846 0.049576625 4294967058
0.72252226 -0.030930758 0.049452767 4291081216
0.72298306 -0.030430973 0.049390763 4294967116
0.72351313 -0.029969417 0.049266905 4294836037
0.72397459 -0.029468581 0.049204946 4294967121
0.7244364 -0.028967321 0.049142987 4294967109
0.72482902 -0.028427631 0.049142897 4294967091
0.72536087 -0.027963564 0.049019024 4294900756
0.72582364 -0.027461059 0.04895705 4294967065
0.72628665 -0.026958123 0.048895076 4294835986
0.72675002 -0.026454784 0.048833087 4294704904
0.72728384 -0.02598799 0.048709214 4294704896
0.72774792 -0.025483593 0.048647255 4294704896
0.7282123 -0.024978772 0.048585281 4294836000
0.72874773 -0.024509877 0.048461422 4294967078
0.72928369 -0.024040155 0.048337549 4290426634
0.72982031 -0.023569584 0.048213691 4283711488
0.73028642 -0.023062475 0.048151687 4282399016
0.73075277 -0.022554934 0.048089728 4282530602
0.73129094 -0.022082269 0.047965854 4282006318
0.73182964 -0.021608777 0.047841981 4281940784
0.73236901 -0.021134436 0.047718108 4281743153
0.73298091 -0.020693921 0.047532365 4282007097
0.73352158 -0.020217702 0.047408491 4281678132
0.73406297 -0.019740641 0.047284618 4281218349
0.7346049 -0.019262746 0.047160745 4281480753
0.73514748 -0.018784001 0.047036886 4281084972
0.73569059 -0.018304422 0.046913013 4280295452
0.73608875 -0.017757192 0.046912938 4280427038
0.73663282 -0.017276354 0.046789065 4281214501
0.75855893 -0.0050291121 0.038492709 4282473041
0.75921041 -0.0045341253 0.038306937 4283525469
0.75970745 -0.0039844811 0.038244978 4283718497
0.7599712 -0.0033549294 0.038368657 4283716192
0.68215054 -0.076694712 0.054792255 4281745227
0.68247569 -0.076113969 0.054853871 4282074190
0.68285549 -0.075591877 0.054853782 4281613639
0.72094989 -0.033129871 0.050281942 4294770513
0.72154617 -0.03271164 0.050096795 4294573854
0.72207481 -0.03225258 0.049973339 4294639364
0.72274143 -0.031871423 0.049726501 4294967049
0.72327161 -0.031410262 0.04960303 4294967066
0.72387135 -0.030987218 0.049417868 4294967101
0.7244029 -0.030524172 0.049294412 4294967095
0.72486579 -0.030021764 0.049232617 4293980712
0.72532892 -0.029518932 0.049170867 4290289920
0.72579235 -0.029015675 0.049109101 4290883072
0.72625613 -0.028512008 0.049047321 4290950912
0.72672021 -0.02800791 0.048985571 4294967049
0.72718459 -0.027503408 0.048923776 4294967048
0.72764921 -0.026998475 0.04886201 4294835968
0.72811425 -0.026493132 0.048800245 4294835968
0.72865003 -0.026024222 0.048676759 4294835968
0.72904509 -0.025481179 0.048676684 4294836006
0.72958183 -0.025011003 0.048553243 4294967083
0.72997719 -0.024467543 0.048553169 4294967123
0.73051482 -0.023996122 0.048429698 4287988753
0.73098183 -0.02348806 0.048367918 4282594848
0.73144907 -0.022979558 0.048306152 4282726434
0.73191667 -0.022470653 0.048244357 4282137906
0.73252797 -0.022031687 0.048059225 4281875763
0.73306835 -0.021556497 0.047935754 4281481775
0.73360938 -0.021080457 0.047812283 4281876281
0.73415101 -0.02060359 0.047688812 4281744695
0.73469317 -0.020125881 0.047565356 4281021485
0.73530853 -0.019681469 0.047380209 4281611316
0.7357794 -0.019167945 0.047318444 4281677103
0.73625064 -0.018654011 0.047256649 4280427036
0.7369411 -0.018240169 0.047009796 4280426266
0.75400758 -0.011505365 0.039296672 4279638296
0.75450182 -0.010959774 0.039234906 4279704089
0.75499636 -0.010413811 0.039173111 4280227355
0.75549126 -0.009867385 0.039111346 4280685075
0.75606287 -0.0093492419 0.038987875 4280423455
0.75648183 -0.0087733045 0.038987786 4280687906
0.72229326 -0.033195302 0.050247893 4294573826
0.72289169 -0.032774843 0.050063342 4294573826
0.72355998 -0.032392606 0.049817309 4294704896
0.72416043 -0.031969421 0.049632758 4294967056
0.72462356 -0.031466901 0.049571186 4290753024
0.72529483 -0.031080462 0.049325138 4294967110
0.72575903 -0.030576468 0.049263582 4294967106
0.72622353 -0.030072056 0.049201995 4290093312
0.72668833 -0.029567219 0.049140438 4293187083
0.72715342 -0.029061958 0.049078882 4294967101
0.72761887 -0.028556295 0.049017295 4294770463
0.72801441 -0.028012626 0.049017206 4294967077
0.72848022 -0.027506322 0.048955649 4294967095
0.72894645 -0.026999608 0.048894078 4294573840
0.72941291 -0.026492462 0.048832521 4294967066
0.72987974 -0.025984913 0.048770934 4294967069
0.7303468 -0.025476933 0.048709378 4294967097
0.73081422 -0.024968542 0.048647806 4294441515
0.73128188 -0.02445972 0.048586234 4294967086
0.73174989 -0.023950487 0.048524678 4284764160
0.73221827 -0.023440838 0.048463091 4283579904
0.73275858 -0.022966251 0.048340037 4282006827
0.73322761 -0.022455551 0.048278466 4281022253
0.73384106 -0.022014573 0.048093915 4281350702
0.73438323 -0.02153746 0.047970861 4282203704
0.73485368 -0.021024883 0.04790929 4282006325
0.7354694 -0.020580754 0.047724739 4281612339
0.73601341 -0.020101137 0.047601685 4280759083
0.73648524 -0.019586667 0.047540098 4281218603
0.73703027 -0.019105583 0.04741706 4281218603
0.73764902 -0.018657267 0.047232494 4280492561
0.75250745 -0.01324904 0.040344298 4279440935
0.7530002 -0.012705863 0.040282711 4280095254
0.75364482 -0.012221932 0.040098161 4279900193
0.75421447 -0.011707127 0.039975107 4279769116
0.7547847 -0.011191472 0.039852023 4279966495
0.75520289 -0.010616586 0.039851949 4279704091
0.75577402 -0.010099679 0.039728865 4279967261
0.75626916 -0.0095531419 0.039667308 4282466876
0.75684136 -0.0090347752 0.03954424 4283455813
0.72364169 -0.033258677 0.05021745 4294704902
0.72438031 -0.032915115 0.049910948 4294704896
0.72498226 -0.03249076 0.049726993 4294704902
0.72565436 -0.032104276 0.049481779 4294175263
0.72618884 -0.031638265 0.049359128 4294170148
0.72665441 -0.031132691 0.04929775 4293643804
0.72712028 -0.030626692 0.049236387 4291014144
0.72758639 -0.030120283 0.049175024 4294967103
0.72798288 -0.029575363 0.049174935 4294967109
0.72851962 -0.029106185 0.049052298 4294967113
0.72891635 -0.02856084 0.049052224 4294967097
0.72931314 -0.028015494 0.049052149 4294967116
0.7297805 -0.027507409 0.048990756 4294573851
0.7301774 -0.026961856 0.048990682 4294835986
0.73064524 -0.026453137 0.048929319 4294967060
0.73111337 -0.025944002 0.048867956 4294967095
0.73151058 -0.025398023 0.048867866 4294507806
0.73197913 -0.024888255 0.048806503 4294835982
0.7324481 -0.024378076 0.048745126 4290489367
0.73291731 -0.023867466 0.048683763 4285028608
0.73345864 -0.023392022 0.048561111 4282662186
0.73400062 -0.022915743 0.04843846 4281351220
0.7345432 -0.022438623 0.048315793 4281415982
0.73508638 -0.021960668 0.048193142 4282334517
0.73563015 -0.021481872 0.048070475 4282005552
0.73617458 -0.021002233 0.047947839 4282268470
0.73671961 -0.02052176 0.047825173 4281678130
0.73726523 -0.020040452 0.047702536 4280954661
0.7379576 -0.019626118 0.047457293 4281612591
0.75086224 -0.014919207 0.041511253 4279179548
0.75135303 -0.014378831 0.041449875 4279442974
0.75199527 -0.013899177 0.04126592 4279640353
0.75263834 -0.013418242 0.04108198 4279179811
0.75320649 -0.012905926 0.040959314 4279638046
0.7536993 -0.012362853 0.040897951 4279703069
0.75442082 -0.011908501 0.040652707 4279243540
0.75499099 -0.011393458 0.040530056 4279309333
0.75556177 -0.010877587 0.040407389 4280760631
0.75605655 -0.010331765 0.040346026 4283063897
0.75662839 -0.0098144263 0.04022336 4284246877
0.72534066 -0.03351827 0.049885258 4294835968
0.7259444 -0.03309232 0.049701914 4294704902
0.72661835 -0.032704331 0.049457505 4294836006
0.72715449 -0.032236621 0.049335256 4294836006
0.72762156 -0.031729259 0.049274087 4294967108
0.72801906 -0.031182863 0.049273998 4293316638
0.72848654 -0.03067486 0.049212843 4291736320
0.72888422 -0.030128255 0.049212769 4292922632
0.7292819 -0.029581659 0.049212694 4294964528
0.72975004 -0.029072829 0.049151525 4292527385
0.73014784 -0.028526016 0.049151435 4294967102
