# .PCD v0.7 - Point Cloud Data file format
VERSION 0.7
FIELDS x y z rgb
SIZE 4 4 4 4
TYPE F F F U
COUNT 1 1 1 1
WIDTH 1024
HEIGHT 1
VIEWPOINT 0 0 0 1 0 0 0
POINTS 1024
DATA ascii
0.70362806 -0.042822018 0.039685786 4278782221
0.70306742 -0.043162704 0.039816946 4278454544
0.70239955 -0.043300331 0.039750621 4278718479
0.70173115 -0.043438122 0.039684311 4278586893
0.70102566 -0.043508664 0.039552152 4279965202
0.70031923 -0.043579519 0.039420009 4279442724
0.69964886 -0.043717965 0.039353698 4281619031
0.69793093 -0.043324366 0.03856273 4283989628
0.68632013 -0.043130621 0.035263687 4278718479
0.68558824 -0.043209732 0.035131499 4278652424
0.68489724 -0.043354914 0.035065174 4278784010
0.68424767 -0.043565884 0.035064667 4278456338
0.68368262 -0.043908 0.035195842 4278391840
0.68307608 -0.044184282 0.035261169 4278655255
0.68247008 -0.044460431 0.035326511 4278720294
0.73730773 -0.038917452 0.046398312 4281619801
0.73660427 -0.03882806 0.046135366 4281291349
0.73599416 -0.039026231 0.046134889 4281159763
0.73535997 -0.039152741 0.046068817 4280105538
0.73474962 -0.039350986 0.046068341 4280038716
0.73413926 -0.039549232 0.046067864 4279710521
0.73350406 -0.039676055 0.046001762 4279776314
0.73286837 -0.039803058 0.045935676 4279776314
0.73225754 -0.040001467 0.045935199 4279645493
0.73159558 -0.040057525 0.045803502 4279513392
0.73098421 -0.040256098 0.045803025 4279447599
0.73034686 -0.040383652 0.045736924 4279973171
0.72970897 -0.04051137 0.045670837 4280038964
0.7290706 -0.040639251 0.045604751 4280103984
0.72840494 -0.040696517 0.045473039 4280364335
0.72776532 -0.040824801 0.045406938 4280890691
0.72712523 -0.040953234 0.045340851 4281482828
0.72642958 -0.040940776 0.0451435 4281880154
0.725788 -0.041069686 0.045077413 4281817957
0.72508991 -0.041058034 0.044880092 4284056452
0.72436202 -0.040976554 0.044617116 4283465596
0.72368926 -0.041036159 0.044485405 4283268217
0.72301549 -0.041096061 0.044353694 4282083430
0.7223407 -0.041156292 0.044221967 4280107589
0.72160643 -0.041076899 0.043958992 4280567624
0.72084075 -0.040928259 0.043630421 4280238659
0.72010231 -0.040850237 0.043367445 4280501570
0.71939188 -0.040842578 0.043170094 4280369214
0.71867996 -0.04083541 0.042972758 4280300089
0.7179361 -0.040759146 0.042709783 4279707952
0.71722102 -0.040752992 0.042512417 4279181347
0.71634954 -0.040400311 0.041986972 4279313698
0.71559906 -0.040326193 0.041723996 4278455825
0.71484655 -0.040252715 0.041461006 4278191883
0.71412385 -0.040249079 0.041263655 4278191626
0.71336764 -0.040176809 0.041000664 4278191370
0.71270609 -0.040312201 0.040934578 4278453254
0.71197915 -0.040309921 0.040737212 4278190863
0.71125078 -0.040308088 0.040539846 4278190863
0.71055382 -0.040375516 0.040408105 4278257428
0.70988905 -0.040511981 0.040342003 4278782221
0.70922381 -0.040648565 0.040275872 4278782221
0.70859176 -0.040853858 0.04027538 4278584842
0.70799363 -0.041127607 0.040340528 4278782221
0.70732766 -0.04126443 0.040274397 4279110155
0.70669562 -0.041469723 0.04027392 4279175950
0.70606357 -0.041675016 0.040273428 4279439890
0.70543152 -0.041880295 0.040272936 4278653971
0.70483464 -0.042153642 0.040338084 4278653971
0.70420283 -0.04235886 0.040337592 4278522133
0.70360672 -0.042631939 0.040402725 4278652173
0.70297515 -0.042837068 0.040402234 4278521102
0.70234358 -0.043042198 0.040401757 4278915076
0.70167565 -0.043179691 0.04033564 4278783490
0.70097059 -0.043249756 0.040203899 4281283358
0.68975317 -0.042204544 0.036324888 4279110159
0.6890257 -0.042281896 0.036193117 4278717445
0.68829721 -0.042359576 0.036061361 4278783238
0.68748605 -0.042305142 0.035798341 4278520838
0.68683726 -0.042515874 0.035797834 4278455057
0.68618846 -0.042726606 0.035797343 4278586895
0.68553966 -0.042937338 0.035796836 4278456077
0.68489087 -0.043148071 0.035796329 4278587663
0.68424207 -0.043358803 0.035795838 4278391063
0.68363559 -0.043635264 0.035860971 4278391329
0.68302953 -0.043911561 0.035926089 4278720527
0.68250966 -0.04431884 0.036122486 4278918175
0.73711401 -0.038322002 0.046703085 4281486150
0.7364096 -0.038232237 0.046440959 4281354314
0.73577487 -0.038358763 0.046375081 4281617486
0.73516375 -0.038557246 0.046374604 4281749332
0.73457706 -0.038827449 0.046439543 4280962123
0.73394156 -0.038954213 0.04637365 4280896843
0.73335534 -0.039224267 0.04643859 4280436290
0.73271936 -0.03935118 0.046372712 4280370497
0.7320829 -0.039478272 0.046306819 4279712819
0.73147154 -0.03967683 0.046306357 4279647026
0.73083436 -0.039804161 0.046240449 4279185710
0.73019665 -0.03993164 0.046174571 4279711032
0.72958481 -0.040130377 0.046174094 4279842618
0.7289198 -0.040187091 0.0460428 4280038968
0.72825384 -0.040244132 0.045911476 4280103732
0.72758681 -0.040301487 0.045780182 4280169527
0.72694618 -0.040429935 0.045714274 4279840562
0.72627747 -0.040487856 0.045582965 4280235068
0.72563559 -0.040616706 0.045517087 4281417287
0.72493708 -0.040604666 0.045320347 4281086765
0.72420883 -0.04052265 0.045058206 4282402635
0.72353566 -0.040582016 0.044926882 4282665807
0.72283274 -0.040571421 0.044730157 4283591284
0.72215736 -0.040631488 0.044598833 4281358176
0.72148103 -0.040691897 0.044467524 4280765517
0.72080368 -0.04075262 0.0443362 4280699724
0.72006577 -0.040673763 0.044074059 4280633667
0.71935594 -0.040665373 0.043877319 4280633667
0.71861434 -0.040587708 0.043615162 4280962121
0.71790129 -0.040580392 0.043418407 4280895560
0.71718681 -0.040573552 0.043221682 4280763974
0.71643978 -0.040497631 0.042959526 4280434242
0.7156595 -0.040352881 0.042631939 4280367679
0.71487677 -0.040208921 0.042304352 4279841589
0.71415514 -0.040204391 0.042107582 4279578417
0.71340001 -0.040131107 0.041845411 4278723104
0.7127074 -0.040196806 0.041714117 4279510295
0.7119813 -0.040193722 0.041517347 4278784010
0.71128643 -0.040260121 0.041386023 4278455045
0.71059066 -0.040326878 0.041254699 4278258198
0.70989382 -0.040393904 0.041123375 4278652175
0.70922953 -0.040530026 0.041057453 4278848014
0.70856476 -0.040666327 0.040991545 4278781964
0.70793343 -0.040871367 0.040991053 4278847757
0.70730209 -0.041076422 0.040990561 4279045136
0.70667082 -0.041281462 0.040990084 4278848532
0.70603949 -0.041486517 0.040989593 4279243538
0.70537323 -0.041623265 0.04092367 4278785042
0.70477688 -0.041896611 0.040988609 4278785042
0.70414555 -0.042101666 0.040988117 4278522383
0.70354998 -0.042374745 0.041053057 4278782989
0.70295489 -0.042647675 0.041118011 4278261780
0.70232403 -0.042852566 0.041117519 4282016088
0.69240505 -0.04129599 0.037186056 4279044637
0.69175947 -0.041505679 0.037185565 4278978844
0.69095528 -0.04144831 0.036923349 4278913823
0.69022888 -0.041524976 0.036791995 4279240208
0.6895417 -0.041668534 0.036726072 4279241228
0.68889439 -0.04187879 0.036725566 4278716424
0.68820643 -0.042022601 0.036659643 4278848010
0.68747711 -0.042100236 0.036528289 4278455045
0.68682903 -0.04231073 0.036527783 4278717196
0.68618095 -0.042521209 0.036527291 4278455577
0.68553287 -0.042731702 0.036526784 4278259745
0.68488485 -0.042942196 0.036526293 4278522917
0.68427885 -0.043218628 0.036591202 4278655012
0.68367338 -0.043494925 0.036656126 4278587940
0.68311101 -0.043836847 0.036786482 4278982924
0.7362383 -0.037707612 0.046812981 4281223238
0.73555517 -0.037690073 0.046616882 4280960066
0.73499143 -0.038032785 0.04674682 4280762691
0.73437983 -0.038231432 0.046746343 4280763461
0.73376822 -0.03843008 0.046745867 4281423187
0.73318154 -0.038700446 0.046810627 4280962632
0.73257023 -0.038899004 0.04681015 4280567874
0.73195887 -0.039097577 0.046809673 4279712817
0.73132187 -0.039224669 0.046743974 4279975991
0.73068434 -0.03935191 0.04667829 4279186223
0.7300725 -0.039550647 0.046677828 4279712567
0.7293815 -0.039535657 0.046481714 4279778360
0.7287423 -0.039663479 0.046416014 4280041019
0.72807568 -0.039720356 0.046285123 4279513142
0.72740811 -0.039777577 0.046154216 4279514173
0.72676694 -0.039906025 0.046088532 4279316794
0.72609764 -0.039963797 0.045957625 4278986796
0.72539949 -0.039951146 0.045761511 4279904302
0.72469985 -0.039938956 0.045565382 4280692019
0.7240271 -0.039997861 0.04543446 4281415744
0.72335333 -0.040057063 0.045303568 4281744709
0.72267866 -0.040116608 0.045172662 4280497470
0.72200292 -0.040176466 0.045041755 4280366402
0.72129691 -0.040166363 0.044845611 4280826172
0.72064853 -0.040297136 0.044779941 4280760379
0.71994007 -0.040287852 0.044583797 4281154868
0.71923006 -0.040279001 0.044387668 4281090358
0.71854889 -0.040340632 0.044256747 4281354828
0.71780562 -0.040262833 0.04399541 4281223769
0.7170912 -0.040255427 0.043799281 4281092183
0.71634424 -0.04017882 0.043537915 4281158230
0.7156266 -0.040172487 0.043341786 4281619031
0.71487594 -0.040097058 0.043080419 4280696632
0.71412331 -0.040022314 0.042819083 4281025597
0.71336871 -0.039948165 0.042557731 4280369202
0.71267676 -0.040013313 0.042426795 4280631852
0.7119838 -0.040078774 0.042295873 4280893229
0.71128982 -0.040144533 0.042164952 4280301092
0.71062797 -0.040279731 0.042099252 4281023020
0.70989901 -0.040277049 0.041903093 4279773732
0.70923561 -0.040412709 0.041837394 4279311136
0.70860553 -0.040617362 0.041836902 4278981140
0.70790744 -0.040684506 0.041705981 4278717968
0.70727682 -0.040889308 0.041705489 4278979598
0.70661175 -0.041025534 0.04163979 4278782737
0.70598096 -0.04123041 0.041639313 4279177998
0.70531511 -0.04136686 0.041573584 4279046679
0.70468402 -0.041571826 0.041573107 4279046679
0.70408851 -0.041845083 0.041637838 4281484885
0.70349342 -0.042118162 0.041702554 4281951855
0.69299757 -0.040818572 0.03784804 4278785569
0.69231325 -0.040961012 0.037782311 4278782487
0.69154954 -0.04096967 0.037586123 4279045659
0.69082409 -0.041045681 0.037455186 4278980890
0.69013757 -0.041188866 0.037389472 4278847760
0.6894505 -0.0413322 0.037323728 4279109394
0.68876302 -0.041475698 0.037258014 4278716946
0.68815637 -0.041752532 0.03732273 4278716946
0.68742746 -0.04182969 0.037191778 4278454542
0.68677986 -0.042040005 0.037191287 4278781967
0.68613231 -0.04225035 0.03719078 4278586909
0.68552637 -0.042526945 0.037255511 4278391331
0.68487906 -0.042737201 0.037255004 4278457124
0.68423176 -0.042947441 0.037254497 4278655014
0.68366921 -0.043289781 0.037384465 4278719776
0.68310773 -0.043631777 0.037514418 4279440149
0.73535907 -0.037092343 0.046925306 4281092424
0.73477048 -0.037363499 0.046989858 4280894793
0.73418236 -0.037634492 0.04705438 4280960586
0.73356998 -0.037833378 0.047053903 4280895306
0.73295766 -0.038032264 0.047053441 4280762175
0.73232013 -0.03815937 0.046987951 4280696382
0.73163116 -0.038143203 0.046792448 4280760379
0.73104358 -0.038414031 0.046856984 4280565312
0.73040456 -0.0385416 0.046791494 4280369216
0.72976506 -0.038669348 0.046726003 4280369216
0.72909856 -0.038725853 0.046595514 4280303423
0.72843117 -0.038782686 0.046465024 4280172605
0.72778964 -0.038911059 0.046399534 4279843388
0.72717488 -0.03911075 0.046399057 4279318073
0.72650522 -0.039168298 0.046268553 4279318073
0.72583461 -0.039226159 0.046138048 4279249448
0.72516298 -0.039284363 0.046007544 4279970345
0.72449034 -0.039342865 0.045877054 4279641130
0.72381675 -0.039401695 0.04574655 4280693818
0.72314221 -0.039460823 0.045616031 4281154115
0.72246665 -0.039520293 0.045485541 4279970613
0.72179008 -0.039580092 0.045355022 4280234044
0.72111255 -0.039640188 0.045224518 4280365369
0.72043401 -0.039700642 0.045094028 4280496955
0.71978438 -0.039831653 0.045028523 4280497708
0.71907401 -0.039822459 0.044833004 4280957489
0.71839255 -0.039883837 0.0447025 4280893511
0.71771008 -0.039945543 0.044571996 4281420637
0.71699578 -0.03993763 0.044376478 4281091672
0.7163111 -0.040000066 0.044245958 4281091670
0.7155627 -0.039923236 0.043985412 4282012506
0.71484393 -0.039916754 0.043789878 4281156670
0.71412367 -0.039910749 0.043594345 4281222463
0.71336985 -0.039835706 0.043333814 4280960569
0.71264642 -0.039830729 0.043138266 4280369967
0.71195412 -0.039895639 0.043007761 4280894774
0.7112608 -0.039960861 0.042877227 4280960567
0.71056652 -0.040026441 0.042746738 4281287474
0.70990455 -0.040161446 0.042681217 4281353269
0.70920855 -0.040227562 0.042550698 4280300593
0.70854539 -0.040362984 0.042485207 4280035888
0.70791578 -0.040567473 0.042484716 4280035888
0.70728624 -0.040771961 0.042484239 4278587665
0.70662206 -0.040907681 0.042418718 4278717964
0.7059226 -0.040974945 0.042288199 4279243791
0.70532733 -0.041248247 0.042352721 4278523415
0.70466197 -0.041384399 0.04228723 4280694584
0.70410275 -0.041725948 0.042416766 4283330169
0.70365191 -0.042272285 0.042741388 4283728520
0.69286668 -0.040416852 0.038378656 4281025357
0.69210386 -0.040424719 0.038183093 4280693312
0.69141847 -0.040567338 0.038117558 4279245866
0.69077241 -0.040777192 0.038117066 4278850585
0.69008631 -0.040920049 0.038051561 4278455829
0.68939972 -0.041063055 0.037986025 4278979093
0.68871266 -0.041206256 0.037920505 4278716948
0.68806583 -0.041416347 0.037919998 4278782741
0.68737799 -0.041559756 0.037854463 4278454292
0.68673092 -0.041769937 0.037853971 4278650901
0.68620825 -0.042179629 0.03804855 4278652184
0.68543679 -0.042190269 0.037852973 4278391327
0.68487364 -0.042533129 0.037982523 4278259741
0.68422705 -0.042743146 0.037982017 4278850848
0.68353802 -0.042886987 0.037916496 4278785305
0.73565733 -0.035932302 0.046911404 4282143828
0.73506653 -0.036204323 0.046975732 4280697166
0.73457336 -0.036765248 0.047299296 4280630337
0.73386192 -0.036675721 0.047039583 4281289035
0.73329717 -0.037019446 0.047168717 4280893763
0.73263335 -0.037074775 0.047038645 4280959556
0.73137921 -0.037401959 0.046972886 4281153853
0.72943062 -0.037714288 0.04671222 4280694334
0.72881508 -0.037914202 0.046711743 4280496957
0.72814608 -0.037971213 0.046581641 4280761412
0.72753 -0.038171291 0.046581164 4280893511
0.72685951 -0.03822878 0.046451062 4280829515
0.72624302 -0.038429022 0.046450585 4280434757
0.72559875 -0.03855814 0.046385318 4280501572
0.72492605 -0.038616344 0.046255216 4280170802
0.72425234 -0.038674846 0.046125114 4280237630
0.72357768 -0.038733691 0.045995012 4280566595
0.722902 -0.038792863 0.04586491 4279908413
0.72222537 -0.038852319 0.045734823 4279708724
0.72157693 -0.038982809 0.045669526 4279839540
0.72092801 -0.039113447 0.045604244 4279905585
0.72024888 -0.039173722 0.045474157 4280168757
0.71956879 -0.039234325 0.04534404 4280168755
0.71891791 -0.039365575 0.045278743 4279971628
0.71826649 -0.039497003 0.045213446 4279643183
0.71755326 -0.039488241 0.045018554 4279840319
0.71686947 -0.039550036 0.044888452 4280432456
0.71618468 -0.039612159 0.044758335 4280430914
0.71546751 -0.039604649 0.044563398 4281352014
0.71474886 -0.039597631 0.044368491 4280958273
0.71402872 -0.039591104 0.044173583 4281155652
0.71330708 -0.039585039 0.043978631 4281683012
0.71261638 -0.039649084 0.043848544 4280960053
0.71189207 -0.039643899 0.043653607 4281289532
0.71119916 -0.039708659 0.04352349 4281486911
0.71053839 -0.039843142 0.043458208 4281420345
0.70987713 -0.039977744 0.043392897 4281682747
0.70918179 -0.040043339 0.043262795 4281288256
0.70848542 -0.040109217 0.043132678 4281024836
0.70789045 -0.040382594 0.043197006 4281485387
0.70719284 -0.040448889 0.043066874 4280695619
0.7065289 -0.040584385 0.043001592 4279776566
0.7058993 -0.040788874 0.0430011 4281029959
0.70523459 -0.040924609 0.042935789 4283399542
0.70460474 -0.041129187 0.042935312 4283925886
0.70418859 -0.04174526 0.043323711 4280368199
0.70356023 -0.041949347 0.043323219 4278523948
0.69338089 -0.039805606 0.038909778 4279045157
0.69273579 -0.040015131 0.038909271 4279243306
0.69201207 -0.040089905 0.03877914 4279901740
0.69136649 -0.040299594 0.038778633 4280559670
0.69072092 -0.040509284 0.038778141 4280496435
0.68999523 -0.040584698 0.038647994 4281420357
0.68934911 -0.040794551 0.038647488 4280301874
0.688703 -0.041004404 0.038646996 4278980888
0.68801618 -0.041147351 0.038581684 4278586130
0.68736982 -0.041357279 0.038581192 4278520346
0.68672347 -0.041567221 0.038580686 4278651169
0.68607712 -0.041777149 0.038580194 4278848534
0.68547255 -0.042053655 0.038644493 4279046683
0.68478447 -0.042197004 0.038579196 4279178269
0.68422264 -0.04253979 0.038708329 4279373849
0.73538959 -0.035114005 0.047029465 4281419594
0.73477334 -0.035314173 0.047028989 4280827982
0.73413271 -0.035441905 0.0469639 4280432706
0.73351622 -0.035642147 0.046963423 4281024582
0.73292446 -0.035914674 0.047027558 4280958019
0.73225808 -0.035970464 0.046897873 4281155398
0.73035616 -0.036427572 0.046767235 4281483080
0.72850442 -0.037029043 0.046765804 4280760127
0.72786033 -0.037157908 0.046700716 4280892228
0.72724283 -0.037358478 0.046700239 4280695878
0.72659802 -0.037487581 0.046635151 4280499783
0.72598028 -0.037688226 0.046634659 4280631369
0.72530699 -0.03774628 0.046504974 4281092174
0.72463268 -0.037804648 0.046375275 4280960318
0.72398567 -0.037934482 0.046310216 4282737764
0.72336674 -0.038135529 0.046309739 4281882455
0.72269022 -0.038194627 0.04618004 4280436040
0.7220127 -0.038254052 0.046050325 4279776060
0.72136348 -0.038384601 0.045985267 4279709749
0.72068429 -0.038444579 0.045855552 4279775282
0.72003382 -0.038575515 0.045790464 4279841075
0.71938288 -0.03870663 0.045725375 4280168757
0.7187314 -0.03883791 0.045660287 4279971374
0.71804905 -0.03889893 0.045530602 4279839788
0.71739638 -0.039030597 0.045465499 4279576616
0.71671224 -0.039092168 0.045335799 4280430144
0.71602708 -0.039154053 0.045206085 4280560703
0.71534097 -0.03921628 0.045076385 4280626496
0.71465385 -0.039278835 0.0449467 4280101175
0.71393383 -0.039271742 0.044752374 4280232761
0.7132445 -0.039334983 0.044622675 4280892215
0.71252173 -0.039328799 0.044428363 4280760878
0.7118302 -0.039392769 0.044298649 4281352247
0.71113771 -0.039457068 0.044168949 4281878338
0.71047741 -0.039591223 0.044103861 4281878338
0.70978314 -0.039656088 0.043974146 4281813317
0.70912158 -0.03979063 0.043909043 4281222211
0.70842564 -0.039856061 0.043779358 4281222728
0.70779705 -0.040060237 0.043778867 4281617486
0.70709956 -0.04012613 0.043649152 4281290064
0.70647049 -0.040330455 0.04364866 4284254081
0.70580649 -0.040465802 0.043583557 4283991410
0.70514196 -0.040601313 0.043518469 4283069292
0.70451242 -0.040805802 0.043517977 4281227088
0.70406109 -0.041353971 0.043840542 4280101177
0.70343274 -0.041558057 0.043840051 4279640114
0.69328886 -0.039471582 0.03950499 4278781208
0.69268316 -0.039748654 0.039569125 4278913046
0.69199914 -0.039890483 0.039503992 4279305753
0.69127512 -0.039965019 0.039374277 4279700511
0.69062972 -0.040174618 0.03937377 4279968296
0.68998438 -0.040384233 0.039373279 4281548609
0.68933904 -0.040593848 0.039372772 4281287488
0.68865311 -0.040736333 0.039307654 4279639331
0.68800747 -0.040946022 0.039307162 4278586643
0.6873619 -0.041155711 0.039306656 4278783259
0.68675762 -0.041432291 0.039370775 4278717212
0.68607068 -0.041575089 0.039305657 4278783511
0.68534148 -0.041651323 0.039175913 4279111704
0.68482155 -0.04206112 0.039369285 4279309083
0.73573905 -0.034093186 0.047150433 4281749582
0.73514515 -0.034366578 0.047214374 4280762687
0.73445529 -0.034349188 0.047020689 4280170302
0.73388577 -0.034695134 0.047149003 4280564031
0.73326802 -0.034895778 0.047148526 4280760640
0.73257565 -0.034879208 0.046954855 4280892226
0.73118651 -0.034847483 0.04656747 4280892480
0.7262814 -0.036601633 0.046692446 4280630339
0.72566193 -0.036802843 0.046691969 4280301888
0.72504246 -0.037004039 0.046691492 4280499267
0.72436684 -0.037062511 0.046562195 4280894275
0.72371852 -0.037192598 0.04649733 4281091404
0.72306973 -0.037322819 0.046432436 4280959818
0.7224493 -0.037524343 0.046431959 4280501068
0.72179979 -0.037654832 0.046367079 4280238409
0.72112048 -0.037714496 0.046237767 4280172355
0.72049928 -0.037916258 0.04623729 4280566341
0.71984828 -0.038047224 0.04617241 4280368962
0.71916676 -0.038107634 0.046043128 4279908152
0.71854478 -0.038309634 0.046042651 4280170804
0.71786177 -0.03837049 0.045913354 4280302639
0.71720856 -0.038502157 0.045848459 4279513123
0.71655482 -0.038634017 0.045783579 4280036917
0.71586937 -0.038695678 0.045654267 4280231736
0.7151829 -0.038757667 0.045524985 4279967796
0.71449548 -0.038819969 0.045395672 4280231470
0.71380705 -0.038882613 0.045266375 4279836712
0.7131176 -0.038945541 0.045137078 4280100900
0.7124272 -0.039008811 0.045007765 4279969565
0.71173584 -0.039072424 0.044878498 4280100130
0.71104348 -0.039136335 0.044749185 4280362793
0.71038336 -0.039270237 0.044684276 4280428586
0.70968926 -0.0393347 0.044554979 4280627257
0.70899415 -0.03939949 0.044425666 4280694336
0.70833206 -0.039534077 0.044360787 4280694849
0.70770371 -0.039738163 0.044360295 4280892228
0.70700639 -0.039803654 0.044230998 4281945684
0.70634288 -0.039938718 0.044166103 4280894275
0.70567882 -0.040073901 0.044101194 4280561718
0.70497906 -0.040140197 0.043971896 4279837230
0.70445561 -0.040551692 0.044164643 4279837230
0.7039336 -0.040962696 0.044357374 4279442722
0.69323587 -0.039205715 0.040164247 4278781462
0.69259149 -0.039415002 0.040163741 4278715149
0.69190776 -0.039556608 0.040098831 4278912276
0.69126314 -0.039765984 0.040098339 4278780690
0.6905387 -0.039840296 0.039969012 4278584338
0.6898936 -0.040049821 0.03996852 4279635736
0.6892485 -0.040259346 0.039968014 4279637278
0.6886034 -0.040468886 0.039967522 4279507745
0.68791741 -0.040611193 0.039902598 4278915608
0.68727207 -0.040820807 0.039902091 4278915095
0.68658531 -0.040963382 0.039837182 4278849813
0.68602294 -0.041307002 0.039965525 4279046163
0.68537784 -0.041516528 0.039965019 4279310618
0.73542422 -0.033124819 0.047144979 4282145364
0.73475665 -0.033180326 0.047016114 4281355848
0.73411226 -0.033308953 0.046951428 4280302140
0.7334674 -0.033437774 0.046886742 4280629054
0.73284668 -0.033639386 0.046886265 4280694847
0.73222595 -0.033840984 0.046885788 4280300089
0.73158008 -0.033970103 0.046821102 4280826174
0.73093373 -0.034099385 0.046756417 4280760377
0.73031253 -0.034301147 0.04675594 4280760890
0.72969127 -0.034502923 0.046755463 4280498488
0.72909623 -0.034776852 0.04681918 4280630074
0.72847527 -0.034978539 0.046818703 4280630076
0.72785431 -0.035180226 0.046818212 4280826687
0.72723335 -0.035381913 0.046817735 4280564033
0.72663951 -0.035655454 0.046881467 4280630337
0.72599143 -0.035785288 0.046816781 4280630337
0.72539812 -0.036058664 0.046880513 4280432958
0.7247774 -0.036260277 0.046880022 4280630591
0.72412854 -0.036390349 0.046815336 4280959039
0.72347927 -0.036520585 0.04675065 4280959043
0.7228294 -0.036651 0.046685979 4281024836
0.72217911 -0.036781564 0.046621293 4280235331
0.72155744 -0.03698349 0.046620816 4279973189
0.72090638 -0.037114307 0.04655613 4280302404
0.72025484 -0.037245259 0.046491444 4280565058
0.71960282 -0.037376389 0.046426773 4280565058
0.71895027 -0.037507653 0.046362072 4280171324
0.71829724 -0.037639126 0.046297401 4280237367
0.71764374 -0.037770718 0.0462327 4280632885
0.71695888 -0.037831843 0.046103805 4280567092
0.71630418 -0.037963837 0.046039134 4280237117
0.71564889 -0.038096026 0.045974448 4280365371
0.71496165 -0.03815794 0.045845553 4280363833
0.71427333 -0.038220182 0.045716673 4279772200
0.71361613 -0.038352981 0.045651972 4279245856
0.71295846 -0.038485959 0.045587286 4279904036
0.7122677 -0.038548991 0.045458391 4279706395
0.71157593 -0.038612351 0.045329496 4279968797
0.71091628 -0.03874597 0.04526481 4280362793
0.7102561 -0.038879722 0.045200109 4280165414
0.70952839 -0.038874134 0.045007005 4280494390
0.70886672 -0.039008364 0.044942304 4280626492
0.7082386 -0.039212376 0.044941828 4279771437
0.70757622 -0.039346874 0.044877127 4279968816
0.70687884 -0.039412066 0.044748247 4280561978
0.7062152 -0.039546967 0.044683546 4281088574
0.7055161 -0.039612725 0.044554651 4280560183
0.70485127 -0.039747998 0.04448995 4279639079
0.69326097 -0.039076462 0.040951088 4278785067
0.6925 -0.039081678 0.040757969 4278652713
0.69181639 -0.03922303 0.040693253 4278258198
0.691172 -0.039432317 0.040692762 4278258198
0.69048774 -0.039573938 0.040628046 4278192649
0.68984312 -0.039783314 0.040627554 4278716428
0.68919849 -0.03999269 0.040627047 4279047446
0.68851316 -0.040134609 0.040562332 4279178778
0.6878683 -0.040344045 0.04056184 4279376157
0.68718231 -0.040486231 0.040497139 4279311651
0.68649578 -0.040628538 0.040432423 4278981401
0.68589211 -0.040905282 0.040496141 4279179800
0.66895521 -0.063989311 0.054474235 4283192925
0.66831106 -0.064117864 0.054409549 4286356379
0.73446298 -0.032282859 0.047078282 4281489744
0.733841 -0.032484859 0.047077805 4280302136
0.73321909 -0.032686874 0.047077328 4280431925
0.7325477 -0.032743275 0.046948865 4280956988
0.73195022 -0.033018157 0.047012359 4280825402
0.73127759 -0.03307496 0.046883881 4281022267
0.73062944 -0.03320466 0.046819419 4281088060
0.72998083 -0.033334494 0.046754926 4280891193
0.72935766 -0.033536911 0.046754435 4280630074
0.72873449 -0.033739313 0.046753958 4280564281
0.72813773 -0.034013972 0.046817482 4280302136
0.7275148 -0.0342163 0.046817005 4280564535
0.72691882 -0.03449069 0.046880513 4280695351
0.72629613 -0.034692928 0.046880037 4280761144
0.72570086 -0.03496711 0.04694356 4280826937
0.72510612 -0.035241112 0.047007054 4281156168
0.72448391 -0.035443202 0.047006577 4281419594
0.72383356 -0.035573617 0.046942115 4281613119
0.72321111 -0.035775781 0.046941638 4281414457
0.72256005 -0.035906419 0.046877146 4281019699
0.72193736 -0.036108673 0.046876669 4280822592
0.72128552 -0.036239579 0.046812177 4280628554
0.72066259 -0.036441907 0.0468117 4280301888
0.72000998 -0.036573023 0.046747208 4280433474
0.71935695 -0.036704332 0.04668273 4280433722
0.71870339 -0.03683576 0.046618238 4280170552
0.71804929 -0.036967382 0.046553776 4280696634
0.71742541 -0.037170023 0.046553284 4280368181
0.71673971 -0.037231088 0.046424791 4280565560
0.71608418 -0.037363172 0.046360314 4280762691
0.71545953 -0.037566066 0.046359837 4280630337
0.71474004 -0.037557274 0.046167344 4281483334
0.71408278 -0.037689939 0.046102852 4281879121
0.71342504 -0.037822738 0.046038359 4282668637
0.7127344 -0.037885413 0.045909896 4284317566
0.71207541 -0.038018614 0.045845389 4285961619
0.71144879 -0.038222149 0.045844913 4283134848
0.710756 -0.038285524 0.045716405 4281618014
0.71006215 -0.038349211 0.045587927 4280367947
0.70940095 -0.038483158 0.045523435 4279640374
0.70877314 -0.03868708 0.045522958 4280231734
0.70811117 -0.038821235 0.045458451 4279837228
0.70741439 -0.038885921 0.045329988 4279771435
0.70675123 -0.039020479 0.045265481 4279443499
0.70605278 -0.039085701 0.045136973 4279443237
0.70535326 -0.039151222 0.045008495 4279770915
0.70451158 -0.038939685 0.044623986 4279508515
0.70380914 -0.039006189 0.044495478 4279376929
0.69521368 -0.038322493 0.04173781 4279640866
0.69457126 -0.038531139 0.041737318 4279376942
0.69389009 -0.038671553 0.041672796 4279179563
0.69316941 -0.038743958 0.041544303 4279114800
0.69248706 -0.038884789 0.041479796 4279050803
0.69180417 -0.039025769 0.041415289 4278787370
0.69116056 -0.039234817 0.041414797 4278328346
0.6904369 -0.039308205 0.04128629 4278196760
0.68975258 -0.039449647 0.041221768 4278391313
0.68910819 -0.039658934 0.041221276 4278852893
0.6884231 -0.039800644 0.041156769 4279181097
0.68777847 -0.04001002 0.041156277 4281023301
0.6870926 -0.040151939 0.041091755 4281091922
0.68648922 -0.040428758 0.041155279 4279906355
0.66851985 -0.063238516 0.054576576 4283387481
0.66787416 -0.063367411 0.054512084 4285696137
0.66717494 -0.063432872 0.054383591 4282736481
0.73486358 -0.031400457 0.047335163 4281159248
0.73419261 -0.031456411 0.047207087 4281224525
0.73354489 -0.031585783 0.047142804 4281092422
0.73294574 -0.03186138 0.047206119 4280829767
0.7322728 -0.031917959 0.047078058 4280764492
0.73164886 -0.032120615 0.047077581 4280435527
0.73102498 -0.032323256 0.04707709 4281021752
0.73032451 -0.032307774 0.046885222 4284440158
0.72969985 -0.032510668 0.046884745 4281348918
0.72904921 -0.032641008 0.046820447 4281285953
0.72842431 -0.032843977 0.04681997 4281351746
0.72779942 -0.033046946 0.046819493 4280761662
0.72720122 -0.033322215 0.046882808 4280630328
0.72657657 -0.033525109 0.046882331 4280761142
0.72597915 -0.03380014 0.046945632 4281023549
0.72535473 -0.034002945 0.046945155 4281023549
0.72475809 -0.034277752 0.047008485 4281614920
0.72416186 -0.03455238 0.047071785 4281745992
0.72350973 -0.034683213 0.047007516 4281348666
0.72291404 -0.034957677 0.047070816 4280954160
0.72229016 -0.035160318 0.047070339 4280690988
0.72166622 -0.035362974 0.047069862 4280692019
0.72101307 -0.035494119 0.047005579 4280693304
0.72038895 -0.035696849 0.047005102 4280433462
0.71976477 -0.03589958 0.04700461 4280696634
0.71911067 -0.036031023 0.046940327 4279908402
0.71845609 -0.036162645 0.046876043 4279907898
0.71780097 -0.036294416 0.046811745 4280891713
0.71717608 -0.036497384 0.046811268 4280760379
0.71652025 -0.036629409 0.046746999 4280694586
0.71586394 -0.036761582 0.046682715 4280826174
0.71517569 -0.036823124 0.046554625 4280497468
0.71451813 -0.036955699 0.046490356 4280431416
0.71386009 -0.037088469 0.046426073 4280431425
0.71323371 -0.037291914 0.046425596 4281155148
0.7125749 -0.037424877 0.046361297 4281224539
0.71188295 -0.037487626 0.046233207 4282409317
0.71122295 -0.037621006 0.046168938 4281620062
0.71056247 -0.037754536 0.04610464 4282014820
0.70990145 -0.037888244 0.046040356 4283067004
0.70927358 -0.038092181 0.046039879 4283592065
0.70857793 -0.038156122 0.045911774 4283003503
0.70791548 -0.038290307 0.045847505 4280766539
0.70721811 -0.038354829 0.045719415 4280569160
0.70651978 -0.038419649 0.045591339 4279055151
0.70582044 -0.038484797 0.045463234 4278658081
0.70508504 -0.038480684 0.045271352 4278853917
0.7042774 -0.03833802 0.044951826 4279116835
0.70350289 -0.038265601 0.044696152 4278853663
0.70276231 -0.038263157 0.04450424 4278656284
0.70202023 -0.03826119 0.044312358 4278985001
0.69523662 -0.038196653 0.042521432 4279573538
0.69451809 -0.038268045 0.042393327 4279310886
0.69387615 -0.038476542 0.04239282 4279310886
0.69311708 -0.038480088 0.042200893 4278983464
0.69243515 -0.038620591 0.04213661 4279049772
0.69175267 -0.038761243 0.042072296 4279444528
0.69110954 -0.038970143 0.042071804 4279380011
0.6903863 -0.039043069 0.041943699 4279708976
0.6896621 -0.039116308 0.041815594 4279971378
0.68901801 -0.03932552 0.041815102 4280564798
0.68833309 -0.039466962 0.041750789 4280761671
0.6876477 -0.039608598 0.04168649 4281353808
0.68696177 -0.039750367 0.041622162 4281154635
0.66803122 -0.062421992 0.054617509 4282927448
0.66738379 -0.062551305 0.054553241 4282136406
0.66678894 -0.062744498 0.054552779 4280959066
0.66603404 -0.062746689 0.054360867 4280237896
0.73445117 -0.030131459 0.047084451 4281289035
0.73392165 -0.03062813 0.047338322 4281485898
0.73327243 -0.03075783 0.047274262 4281420619
0.73264724 -0.030960873 0.047273785 4282342504
0.7320469 -0.031237036 0.047336876 4285438634
0.73139697 -0.031366974 0.047272816 4284978083
0.73074651 -0.031497061 0.047208726 4284247671
0.73006999 -0.031554475 0.047081053 4287268988
0.72944409 -0.031757757 0.047080576 4282595881
0.72881818 -0.031961039 0.047080085 4281873712
0.72813976 -0.032019109 0.046952441 4282268470
0.72756642 -0.032367617 0.047079116 4281219385
0.72696733 -0.032643378 0.047142237 4281088308
0.72634172 -0.032846585 0.047141746 4281023033
0.72566152 -0.032905176 0.047014087 4281023033
0.72506291 -0.033180773 0.047077179 4281154367
0.72446477 -0.033456221 0.0471403 4281680197
0.72389519 -0.033803552 0.047267005 4281811270
0.72324175 -0.033934593 0.047202915 4281613121
0.72264487 -0.034209639 0.047266051 4280889398
0.72201973 -0.034412697 0.047265559 4280690988
0.7213946 -0.03461574 0.047265083 4280625965
0.7207402 -0.034747109 0.047200993 4280692017
0.72011477 -0.034950241 0.047200501 4280891445
0.7194894 -0.035153359 0.047200024 4281088824
0.718804 -0.035213649 0.047072336 4280235568
0.71817815 -0.035416931 0.047071859 4280169527
0.71752179 -0.03554897 0.047007799 4281088322
0.71689564 -0.035752326 0.047007307 4281088062
0.7162385 -0.035884604 0.046943232 4280956476
0.71558094 -0.03601703 0.046879143 4281022017
0.71492279 -0.036149621 0.046815068 4280496703
0.71429592 -0.03635323 0.046814576 4280497209
0.71363711 -0.036486045 0.046750486 4280629574
0.71300995 -0.036689728 0.046749994 4281090125
0.71235043 -0.036822796 0.046685934 4281355357
0.71169031 -0.036956012 0.046621844 4281684572
0.71102977 -0.037089407 0.046557769 4280763470
0.71040189 -0.037293345 0.046557277 4279776575
0.70970714 -0.03735666 0.046429589 4282207332
0.70904511 -0.037490532 0.046365529 4282997350
0.70834863 -0.037554428 0.046237826 4282211936
0.7076512 -0.037618607 0.046110153 4281029974
0.7069872 -0.037753105 0.046046063 4280766802
0.70618397 -0.037608162 0.045727581 4280964431
0.70544815 -0.037603691 0.045536295 4279516470
0.70471084 -0.037599668 0.045345023 4279449909
0.7039721 -0.037596107 0.045153722 4278594600
0.70319617 -0.037523478 0.044898823 4278921770
0.70238233 -0.037381977 0.04458034 4279775280
0.70167452 -0.037449539 0.044452652 4279314729
0.69657868 -0.037724882 0.043367997 4279181076
0.69582415 -0.037726447 0.043176696 4279508515
0.69518322 -0.037934616 0.043176189 4279442720
0.69446504 -0.038005561 0.043048516 4279508515
0.69378477 -0.038145348 0.042984411 4279640101
0.69310403 -0.0382853 0.042920321 4279312165
0.69242275 -0.038425401 0.042856202 4279378476
0.69170141 -0.038497373 0.042728499 4279575085
0.69105875 -0.038706094 0.042727992 4280430644
0.69029582 -0.0387104 0.042536706 4280496437
0.68961209 -0.038851321 0.042472601 4280496439
0.6888873 -0.038924411 0.042344913 4280694082
0.68824315 -0.039133623 0.042344406 4280760390
0.68755794 -0.039274991 0.042280301 4280826183
0.66754198 -0.061603308 0.054661289 4282074705
0.66694564 -0.061796993 0.054660827 4281875028
0.66624302 -0.061862886 0.054533139 4281090136
0.66553938 -0.061929092 0.054405451 4280172616
0.66494209 -0.06212309 0.054404989 4279909444
0.73418093 -0.029300243 0.047218949 4283925386
0.73357767 -0.029577509 0.047281832 4281155900
0.73297495 -0.029854625 0.047344744 4281615168
0.7323727 -0.030131564 0.047407642 4282930001
0.73174608 -0.030335084 0.047407165 4284045651
0.73111945 -0.030538619 0.047406673 4284835167
0.73049283 -0.030742139 0.047406197 4294967241
0.72986615 -0.030945674 0.047405705 4294967195
0.72923958 -0.031149194 0.047405228 4294178680
0.72858679 -0.031279892 0.047341347 4292270683
0.72795993 -0.031483501 0.04734087 4288980265
0.72733307 -0.031687096 0.047340378 4285228054
0.72670621 -0.031890705 0.047339901 4283581712
0.72605222 -0.032021776 0.047276005 4282463775
0.72545248 -0.032297924 0.047338933 4282266396
0.72482562 -0.032501534 0.047338441 4281546024
0.72422653 -0.032777429 0.047401339 4281153071
0.72362798 -0.033053175 0.047464266 4281350717
0.7230016 -0.033256635 0.047463775 4280626998
0.72237521 -0.033460081 0.047463298 4280758584
0.72174883 -0.033663526 0.047462806 4280560683
0.72112244 -0.033866972 0.047462329 4280889135
0.72049606 -0.034070417 0.047461838 4281152568
0.71986973 -0.034273863 0.047461361 4281087545
0.71921355 -0.034405649 0.047397465 4281087545
0.71858692 -0.034609169 0.047396988 4280628273
0.7179603 -0.034812704 0.047396496 4280431412
0.7173031 -0.034944832 0.04733263 4280497209
0.71664548 -0.03507708 0.047268733 4280956476
0.71601832 -0.035280779 0.047268242 4281022269
0.71535993 -0.035413295 0.04720439 4280824123
0.71473259 -0.035617054 0.047203898 4281221191
0.71407342 -0.035749793 0.047140017 4281420619
0.71344584 -0.035953641 0.047139525 4280959302
0.71278596 -0.036086649 0.047075644 4280959302
0.7121256 -0.036219791 0.047011763 4280826183
0.71146476 -0.036353126 0.046947882 4280958539
0.71077037 -0.036415964 0.046820611 4280433210
0.71010828 -0.036549687 0.046756744 4280564796
0.70941222 -0.036613092 0.046629474 4280959302
0.70871514 -0.036676839 0.046502188 4281220939
0.70801711 -0.036740899 0.046374902 4282073938
0.70728385 -0.036735058 0.046184227 4281483600
0.70654911 -0.036729693 0.045993537 4281483600
0.70581287 -0.036724821 0.045802876 4282273881
0.70511013 -0.036790386 0.045675606 4281683791
0.70433599 -0.036716491 0.045421511 4281422672
0.70359534 -0.036713064 0.045230836 4281554258
0.7028175 -0.036640361 0.044976756 4280368703
0.70207363 -0.036637962 0.044786096 4280564283
0.70136452 -0.036705628 0.044658795 4280565048
0.70061791 -0.036704108 0.04446812 4279251251
0.69712663 -0.037187397 0.043958455 4279313432
0.69641089 -0.037257209 0.04383117 4279443986
0.69577044 -0.03746523 0.043830663 4279640349
0.69509161 -0.037604377 0.043766782 4279639583
0.6944896 -0.03788124 0.043829679 4279836449
0.6936546 -0.037745774 0.043512195 4279902242
0.69301295 -0.037954181 0.043511689 4279836447
0.69229245 -0.038025528 0.043384388 4279969064
0.69161069 -0.038165644 0.043320492 4279969064
0.69088846 -0.038237542 0.043193206 4280758832
0.69020545 -0.038378045 0.043129295 4280758832
0.68952191 -0.038518742 0.043065399 4280757812
0.68887854 -0.038727701 0.043064907 4280954176
0.68815339 -0.038800552 0.042937621 4280560703
0.6873861 -0.038805783 0.042746916 4279902773
0.6666128 -0.061169133 0.054897666 4281352525
0.66585588 -0.061170965 0.054706976 4280894023
0.66520441 -0.061301231 0.054643109 4280038189
0.66449869 -0.06136778 0.054515809 4280301361
0.66379201 -0.061434641 0.054388538 4281022781
0.73444414 -0.027967691 0.047103614 4286951360
0.73388612 -0.028393477 0.04729268 4284055698
0.7332812 -0.028671429 0.047355369 4280958539
0.73270118 -0.029022843 0.047481254 4281945938
0.73209751 -0.029300392 0.047543943 4284248689
0.73146939 -0.029504403 0.047543466 4283590759
0.73084128 -0.029708415 0.047542974 4286744177
0.73021317 -0.029912427 0.047542483 4294638740
0.72958511 -0.030116424 0.047542006 4294770545
0.728957 -0.030320436 0.047541514 4294967164
0.72832888 -0.030524448 0.047541022 4294967171
0.72767437 -0.030655548 0.047477365 4294967174
0.72704601 -0.030859634 0.047476873 4292533085
0.72641766 -0.031063721 0.047476381 4290689334
0.72578931 -0.031267807 0.047475904 4286740237
0.72518837 -0.031544492 0.047538593 4285358592
0.7245326 -0.031675979 0.047474936 4282466563
0.72393215 -0.0319525 0.047537625 4282139167
0.72333217 -0.032228902 0.047600344 4281808939
0.72270429 -0.032432824 0.047599852 4280887846
0.72210503 -0.032708943 0.047662556 4281479983
0.72147745 -0.032912791 0.047662064 4281020454
0.72084981 -0.033116639 0.047661588 4281019181
0.72019285 -0.033248529 0.047597915 4281152568
0.71956503 -0.033452466 0.047597423 4281087545
0.71893716 -0.033656389 0.047596946 4280890166
0.71827918 -0.033788577 0.047533259 4280693554
0.71762073 -0.033920959 0.047469586 4280562228
0.71699238 -0.034125045 0.047469094 4280563000
0.71633321 -0.034257635 0.047405437 4280956990
0.71567357 -0.03439039 0.047341749 4281022783
0.71504468 -0.03459464 0.047341257 4281812299
0.71438432 -0.034727648 0.047277585 4281550156
0.71372336 -0.03486079 0.047213897 4280565312
0.71309406 -0.035065204 0.04721342 4280631105
0.71243238 -0.035198599 0.047149748 4280694847
0.71177024 -0.035332143 0.04708606 4280890943
0.71110761 -0.035465881 0.047022387 4280299830
0.71041143 -0.035528988 0.046895504 4280564784
0.70974755 -0.035663113 0.046831846 4280498991
0.70901614 -0.035656169 0.046641767 4280762689
0.70831698 -0.035720244 0.046514884 4281156168
0.70761687 -0.035784647 0.04638803 4281546563
0.7069158 -0.035849348 0.046261147 4281350215
0.70617914 -0.035844073 0.046071082 4281350215
0.70547581 -0.035909504 0.045944184 4281547594
0.70473647 -0.035905138 0.045754135 4282403920
0.7039957 -0.035901234 0.04556407 4281682762
0.70325339 -0.035897806 0.045373976 4282143313
0.7025454 -0.035964772 0.045247123 4280960066
0.7017644 -0.035892427 0.044993848 4281024834
0.70105392 -0.035960183 0.044866964 4280499001
0.70034248 -0.036028251 0.044740066 4280630587
0.6996668 -0.036166206 0.044676393 4280173118
0.69891661 -0.036165342 0.044486299 4280369464
0.6982767 -0.036373198 0.044485807 4279972909
0.69763672 -0.036581039 0.044485316 4279905831
0.69692135 -0.036650404 0.044358432 4279313694
0.69624293 -0.036789238 0.044294745 4279575834
0.6956405 -0.037066415 0.044357434 4279312161
0.69492316 -0.037136406 0.044230551 4279377442
0.69420481 -0.037206724 0.044103682 4279640101
0.69360232 -0.037483901 0.044166356 4279837480
0.69284356 -0.037485853 0.043976277 4279902501
0.69224107 -0.037763014 0.044038981 4279903523
0.69148034 -0.037765622 0.043848887 4280166695
0.69079798 -0.037905738 0.043785185 4280692269
0.69011515 -0.038046017 0.043721512 4280889648
0.68943179 -0.038186446 0.043657795 4280559918
0.68870729 -0.038258776 0.043530911 4280822842
0.66606754 -0.060282886 0.054883316 4281681492
0.66546828 -0.060477525 0.054882854 4280827978
0.6647085 -0.060479775 0.054692775 4280499015
0.66405475 -0.060610622 0.054629087 4280564808
0.66345447 -0.060805589 0.054628626 4281156433
0.66269147 -0.060808897 0.054438531 4280695878
0.73468781 -0.026556462 0.046929359 4286295229
0.73417389 -0.027131721 0.047243774 4286755780
0.73356658 -0.027410641 0.047306269 4281288029
0.73300821 -0.027837038 0.047494724 4287145393
0.73240238 -0.028115481 0.04755722 4284252798
0.73179704 -0.02839376 0.047619715 4287213217
0.73119217 -0.028671905 0.047682211 4285568392
0.73056257 -0.028876394 0.047681734 4294311878
0.72993302 -0.029080883 0.047681242 4294639477
0.72930342 -0.029285371 0.04768075 4294639456
0.72867382 -0.02948986 0.047680274 4294967144
0.72801805 -0.029621169 0.04761678 4294967147
0.7273882 -0.029825732 0.047616303 4294770547
0.72675836 -0.030030295 0.047615811 4294705004
0.72612858 -0.030234873 0.047615319 4294901617
0.72549874 -0.030439436 0.047614843 4294967164
0.72486889 -0.030644 0.047614351 4294967168
0.72423905 -0.030848578 0.047613859 4294967166
0.72360921 -0.031053141 0.047613382 4294573420
0.72297943 -0.031257704 0.047612891 4291743821
0.72237802 -0.031534731 0.047675401 4286808079
0.72174841 -0.03173922 0.047674909 4286281735
0.72111881 -0.031943709 0.047674417 4283712512
0.72048926 -0.032148197 0.047673941 4283186456
0.71985966 -0.032352686 0.047673449 4282005539
0.71923006 -0.032557175 0.047672957 4281546026
0.71860051 -0.032761663 0.04767248 4281546026
0.71794075 -0.032894254 0.047608986 4281349937
0.71728057 -0.033027038 0.047545522 4281284404
0.71661985 -0.033159986 0.047482044 4281350199
0.71598953 -0.033364713 0.047481567 4281284406
0.71532804 -0.033497855 0.047418073 4281021236
0.71469748 -0.033702672 0.047417581 4281022781
0.71403527 -0.033836082 0.047354132 4280300861
0.71337259 -0.033969626 0.047290638 4280367427
0.71274155 -0.034174591 0.047290146 4280301634
0.71204579 -0.034237236 0.04716368 4280693566
0.71141422 -0.034442365 0.047163188 4280758332
0.71071696 -0.034505501 0.047036722 4281154103
0.71005177 -0.034639865 0.046973258 4280759846
0.70935285 -0.034703553 0.046846777 4281023018
0.70865285 -0.034767538 0.046720326 4280695351
0.70791805 -0.034761205 0.046530858 4281023551
0.70721585 -0.034825906 0.046404392 4281481533
0.70647836 -0.034820452 0.046214923 4281481533
0.70577395 -0.034885883 0.046088457 4281087547
0.70506853 -0.034951642 0.045961976 4280295978
0.70436215 -0.035017714 0.04583551 4281349438
0.70365483 -0.035084128 0.045709029 4280826687
0.70287532 -0.035010591 0.045456573 4281287238
0.70216548 -0.03507781 0.045330092 4280697668
0.7014547 -0.035145342 0.045203641 4280894277
0.7007792 -0.035283059 0.045140132 4280960070
0.70006663 -0.035351142 0.045013651 4280960070
0.6993531 -0.035419554 0.044887185 4280960840
0.69867563 -0.035557926 0.044823691 4281224010
0.698035 -0.03576602 0.0448232 4281355594
0.69739431 -0.0359741 0.044822708 4281355859
0.69671583 -0.036112785 0.044759199 4281158480
0.69599891 -0.036182314 0.044632748 4281552975
0.69543403 -0.036529124 0.044758216 4281092422
0.6947161 -0.03659898 0.044631749 4281092676
0.69403589 -0.036738217 0.044568256 4280630839
0.69339418 -0.036946625 0.044567749 4280236081
0.69271332 -0.037086129 0.04450427 4280365871
0.69203186 -0.037225768 0.044440761 4280167973
0.69134998 -0.037365586 0.044377282 4280888868
0.69066757 -0.037505552 0.044313774 4280821796
0.68998468 -0.037645668 0.044250295 4281742898
0.68926084 -0.037717447 0.044123814 4280625713
0.66502684 -0.059718177 0.054997742 4281156433
0.66426545 -0.059720472 0.054808259 4280893261
0.66361016 -0.059851632 0.054744795 4280761169
0.66295439 -0.059982955 0.054681331 4281024343
0.66224378 -0.060050398 0.05455485 4280694345
0.6616413 -0.06024608 0.054554373 4280760392
0.73500562 -0.025362879 0.046947896 4286361531
0.73444176 -0.025791556 0.047135726 4286883764
0.73385555 -0.026145637 0.047260806 4281817703
0.73329437 -0.026573464 0.047448665 4283262573
0.7326861 -0.026852846 0.047510952 4285567127
0.73210287 -0.027205989 0.047636017 4283986280
0.73147106 -0.027411193 0.047635525 4286419285
0.73086429 -0.027690098 0.047697812 4293327550
0.73023272 -0.027895227 0.047697321 4294442643
0.72960114 -0.028100356 0.047696829 4294573933
0.72896957 -0.028305486 0.047696337 4294704991
0.72833806 -0.028510615 0.04769586 4294704989
0.72770649 -0.028715745 0.047695369 4294573915
0.72707492 -0.028920874 0.047694877 4294442810
0.72644341 -0.029126003 0.047694385 4294179624
0.72578484 -0.029258072 0.04763113 4294967114
0.72515303 -0.029463276 0.047630638 4294901597
0.72452122 -0.029668495 0.047630146 4294967134
0.72386169 -0.029800847 0.047566861 4294507853
0.72322965 -0.03000614 0.047566369 4294704964
0.72262585 -0.030284122 0.047628671 4294441822
0.72199404 -0.030489326 0.047628194 4294967142
0.7213335 -0.030622005 0.047564909 4294836072
0.72070146 -0.030827284 0.047564417 4294967170
0.72006941 -0.031032577 0.047563925 4294967181
0.71946681 -0.031310156 0.047626227 4291941200
0.71883506 -0.03151536 0.04762575 4290164789
0.71820325 -0.031720579 0.047625259 4285888000
0.71754122 -0.031853735 0.047561973 4283451392
0.71687877 -0.031987071 0.047498718 4282726414
0.71624649 -0.032192439 0.047498226 4282530850
0.71561414 -0.032397807 0.047497734 4282070299
0.71495068 -0.03253147 0.047434464 4281282852
0.71431816 -0.032736927 0.047433972 4281021234
0.71368563 -0.03294237 0.047433496 4280627509
0.71302116 -0.033076331 0.04737021 4280299828
0.71235621 -0.033210456 0.047306925 4280299828
0.71169078 -0.033344746 0.047243655 4280496437
0.71102482 -0.033479214 0.047180384 4280562230
0.71032548 -0.033542663 0.047054321 4280693554
0.70959204 -0.033535376 0.046865478 4280627761
0.70889044 -0.033599555 0.046739399 4280825128
0.70822155 -0.033734947 0.046676114 4280235301
0.70751828 -0.033799678 0.04655005 4280366382
0.70681405 -0.033864737 0.046423987 4280826422
0.70610881 -0.033930138 0.046297938 4280826422
0.70536792 -0.03392522 0.046109065 4280365873
0.70466048 -0.033991307 0.045983002 4280627761
0.70395201 -0.034057721 0.045856923 4281021754
0.7032426 -0.034124479 0.045730874 4281482316
0.70256776 -0.034261808 0.045667574 4281679695
0.70182073 -0.034258902 0.045478716 4280826185
0.70114446 -0.034396723 0.045415431 4280761673
0.70046771 -0.034534693 0.045352161 4281090888
0.69975382 -0.03460288 0.045226067 4280893509
0.69907582 -0.034741253 0.045162812 4280696130
0.69843441 -0.034949586 0.045162305 4281025097
0.69775563 -0.035088181 0.045099005 4280761412
0.69707638 -0.035226971 0.045035735 4280957769
0.69647229 -0.035505012 0.045098022 4280957769
0.69579256 -0.03564395 0.045034736 4280959564
0.69511235 -0.035783038 0.044971436 4280763209
0.69447023 -0.035991609 0.044970945 4280763972
0.69382805 -0.036200181 0.044970438 4281222976
0.69318593 -0.036408752 0.044969946 4281222976
0.69250447 -0.036548257 0.044906661 4281353279
0.69190162 -0.03682588 0.044968948 4281156420
0.69117987 -0.036896631 0.044842869 4282074953
0.69049716 -0.037036523 0.044779599 4283060315
0.66463816 -0.059021518 0.055177882 4281155918
0.6638754 -0.059023738 0.054988995 4281090125
0.66316497 -0.059090808 0.054862931 4281615449
0.66250765 -0.059222445 0.054799646 4280958289
0.66184986 -0.059354261 0.054736391 4281022799
0.66102779 -0.059293881 0.05448471 4281021513
0.66031343 -0.059362233 0.054358631 4281416271
0.74307817 -0.016809091 0.043284759 4280627248
0.74244708 -0.017096102 0.043346822 4280364074
