# .PCD v0.7 - Point Cloud Data file format
VERSION 0.7
FIELDS x y z rgb
SIZE 4 4 4 4
TYPE F F F U
COUNT 1 1 1 1
WIDTH 1028
HEIGHT 1
VIEWPOINT 0 0 0 1 0 0 0
POINTS 1028
DATA ascii
0.7629891 0.013133422 0.037168771 4280822298
0.76331156 0.012689412 0.037168801 4280625692
0.76094931 0.015035152 0.037355334 4279968282
0.76132226 0.014629766 0.037436068 4279838233
0.76169485 0.014224805 0.037516788 4279837452
0.7620672 0.013820261 0.037597537 4279704842
0.76234007 0.013336375 0.037516847 4279703822
0.76271206 0.012932248 0.037597597 4279769615
0.76303452 0.012488246 0.037597626 4279967261
0.76335698 0.012044244 0.037597656 4279836447
0.76377732 0.011681676 0.037759081 4279902238
0.76395309 0.011115305 0.037516996 4279902240
0.76029849 0.015239403 0.037704244 4280298264
0.76067185 0.014833696 0.03778477 4279771920
0.76104492 0.014428407 0.037865296 4279898126
0.76141769 0.014023542 0.037945822 4279375879
0.76174033 0.013579324 0.037945852 4279310616
0.76206291 0.013135113 0.037945881 4279243292
0.76238549 0.012690902 0.037945911 4279309085
0.76270813 0.012246683 0.037945941 4279111454
0.76307994 0.01184307 0.038026482 4279373851
0.76335335 0.011358254 0.037946001 4279897875
0.76372486 0.010955065 0.038026541 4279899922
0.76399851 0.010469824 0.03794606 4279834129
0.76007152 0.015076876 0.038214192 4280428567
0.76039445 0.01463224 0.038214222 4279244293
0.76076764 0.014227048 0.038294539 4280094221
0.7610904 0.013782628 0.038294569 4279374855
0.76146311 0.013378069 0.038374886 4279047695
0.76178575 0.01293385 0.038374916 4279176477
0.76210833 0.012489639 0.038374946 4279176477
0.76243091 0.012045421 0.038374975 4278913053
0.76275355 0.01160121 0.038375005 4279306775
0.76307613 0.011156991 0.038375035 4279437589
0.76339877 0.01071278 0.038375065 4279766291
0.76372135 0.010268569 0.038375095 4280095256
0.76011699 0.014430791 0.038643643 4279836946
0.76054072 0.014065228 0.038803861 4279376658
0.76081312 0.013581268 0.038723812 4279179533
0.76113588 0.013136849 0.038723841 4279112453
0.76145864 0.012692422 0.038723871 4278913555
0.76183116 0.012288369 0.03880398 4278847762
0.76210415 0.011803575 0.038723931 4278782235
0.76247638 0.01139994 0.038804039 4278913305
0.76279896 0.010955729 0.038804069 4278847258
0.76307237 0.010470301 0.03872402 4279108890
0.76339519 0.010025881 0.03872405 4279240476
0.76366901 0.0095398203 0.038643986 4279372827
0.76021302 0.013824336 0.03915301 4278786067
0.76053578 0.013379909 0.039153039 4278981649
0.76090878 0.012975536 0.039232954 4279243016
0.76123136 0.012531325 0.039232984 4278979089
0.761554 0.012087107 0.039233014 4278913296
0.76182681 0.011602215 0.039153159 4278520600
0.76219922 0.011198685 0.039233074 4278651671
0.76247233 0.010713369 0.039153218 4278716444
0.76284444 0.010310255 0.039233133 4279043610
0.76311785 0.0098245218 0.039153278 4279109403
0.76334256 0.0092966408 0.038993537 4279109403
0.7602585 0.01317855 0.039582267 4278848012
0.76058125 0.01273413 0.039582297 4279110155
0.76090401 0.012289703 0.039582327 4279306255
0.76127684 0.011885844 0.039662048 4279306255
0.76159942 0.011441633 0.039662078 4278716176
0.761922 0.010997415 0.039662108 4278322960
0.76224464 0.010553204 0.039662138 4278454292
0.76256722 0.010108992 0.039662167 4278847762
0.76284057 0.0096231624 0.039582506 4278716176
0.76035446 0.012573011 0.040091023 4278848010
0.76067704 0.0121288 0.040091053 4279175185
0.76099968 0.011684582 0.040091082 4279175185
0.76132226 0.011240371 0.040091112 4278584338
0.76164484 0.01079616 0.040091142 4278322706
0.76196748 0.010351941 0.040091172 4278322958
0.76229006 0.0099077225 0.040091202 4278848012
0.76256323 0.0094218031 0.040011749 4278716426
0.76039988 0.01192753 0.040520087 4278586128
0.76077282 0.011524074 0.040599406 4278520335
0.7610451 0.011039108 0.040520146 4278520087
0.76136768 0.01059489 0.040520176 4278258450
0.76169032 0.010150678 0.040520206 4278257163
0.7620129 0.0097064599 0.040520236 4278650376
0.76112789 0.013470456 0.053712502 4278455810
0.76154077 0.013129696 0.053865418 4278256393
0.7619009 0.01274769 0.053941905 4278782737
0.76215672 0.012281522 0.053865477 4279112222
0.76246476 0.011857435 0.053865492 4279045141
0.76282442 0.011476055 0.053941995 4279110675
0.76308072 0.011009254 0.053865552 4279174156
0.76066017 0.013785735 0.054274961 4282470726
0.76086301 0.013278127 0.054122493 4279641881
0.76148593 0.01310543 0.054580003 4278191372
0.76174098 0.012639999 0.054503784 4278520337
0.76204854 0.012216538 0.054503813 4278651925
0.76230407 0.011750482 0.054427594 4279045143
0.7626636 0.011369623 0.054503873 4278978319
0.76286781 0.010860123 0.054351404 4278978569
0.76322716 0.010479473 0.054427683 4278912776
0.76353484 0.010055803 0.054427713 4280951598
0.76101154 0.01274541 0.054684609 4278192137
0.76152921 0.012490414 0.054988816 4278257930
0.76183659 0.012067162 0.054988846 4278782991
0.76214397 0.011643916 0.054988876 4278848532
0.76239938 0.011177763 0.05491285 4278782221
0.76275873 0.010797411 0.054988921 4278912776
0.76306611 0.010374159 0.05498895 4278912776
0.74274027 -0.017532341 0.044039071 4279443723
0.74320316 -0.017924875 0.044179425 4279707672
0.74361253 -0.018366195 0.044249624 4280365604
0.74407434 -0.018757246 0.044390008 4281614654
0.74448299 -0.019197524 0.044460207 4282075205
0.74483895 -0.019687645 0.044460252 4282072888
0.74519491 -0.020177767 0.044460282 4282598709
0.74555087 -0.020667888 0.044460312 4280625696
0.74585485 -0.021208912 0.044390172 4279573776
0.74139833 -0.017065592 0.044093788 4279047962
0.74180955 -0.017509125 0.044163778 4281153573
0.74227375 -0.017902926 0.044303745 4280693790
0.74279052 -0.01824636 0.044513687 4280890147
0.74320036 -0.018688008 0.044583693 4281087013
0.74366271 -0.019079298 0.044723645 4281679154
0.74401915 -0.019570045 0.044723675 4281810740
0.7444281 -0.020010434 0.04479368 4283586897
0.74478436 -0.02050098 0.044793725 4282731322
0.74514055 -0.020991527 0.044793755 4281285675
0.74544477 -0.021533057 0.044723809 4281088296
0.74580115 -0.022023812 0.044723839 4280498219
0.74046379 -0.017040066 0.044220731 4281088813
0.74087602 -0.017484754 0.044290528 4280496676
0.74134159 -0.017879829 0.044430092 4281024554
0.74180651 -0.018274076 0.044569656 4280363555
0.74227083 -0.018667474 0.044709221 4280295959
0.74278766 -0.019010209 0.044918537 4280886808
0.74314463 -0.019501798 0.044918567 4281084187
0.74355447 -0.019943133 0.044988379 4280295704
0.74396402 -0.020384058 0.045058176 4284771686
0.74432075 -0.02087523 0.045058206 4281940532
0.74467742 -0.021366403 0.045058236 4281349686
0.74503416 -0.021857575 0.04505828 4281415479
0.74528676 -0.022451341 0.044918776 4281153590
0.74559188 -0.022994444 0.044849038 4281022507
0.7458455 -0.023589678 0.044709548 4280495139
0.73947221 -0.017062053 0.044280142 4279969565
0.73999369 -0.017410375 0.044488862 4281154354
0.7404604 -0.017806515 0.044628009 4280759596
0.7409265 -0.018201821 0.044767171 4280102178
0.74133843 -0.018645793 0.044836774 4280034339
0.74180347 -0.019039638 0.044975922 4280230168
0.74226791 -0.019432634 0.045115083 4280624147
0.74267864 -0.01987493 0.045184687 4280624147
0.74314201 -0.020266458 0.045323834 4280690460
0.74349916 -0.020758256 0.045323864 4282468418
0.74385631 -0.021250062 0.045323893 4282464820
0.74421346 -0.02174186 0.045323938 4281083436
0.74451828 -0.02228485 0.045254409 4281412401
0.74482346 -0.022828251 0.04518488 4281873465
0.74512887 -0.023372069 0.045115352 4281348395
0.74538273 -0.02396813 0.044976249 4280561704
0.74568892 -0.024512991 0.044906735 4279378978
0.73858613 -0.016985565 0.044480696 4280891171
0.7390548 -0.017383821 0.044619441 4281153839
0.73952281 -0.017781243 0.044758201 4280100134
0.74004424 -0.018128648 0.04496631 4279836962
0.74045706 -0.018573575 0.045035705 4279441691
0.74092329 -0.018968478 0.04517445 4279900702
0.74133539 -0.019412361 0.045243844 4280295199
0.74174714 -0.019855812 0.045313254 4280295452
0.74215859 -0.020298854 0.045382649 4279834901
0.74256974 -0.020741485 0.045452014 4282927427
0.7429806 -0.021183684 0.045521423 4282006320
0.74333835 -0.021676317 0.045521468 4282267178
0.74369615 -0.022168957 0.045521498 4281280542
0.74400145 -0.022712879 0.045452163 4281017370
0.74430704 -0.023257211 0.045382842 4281609259
0.74466515 -0.023750268 0.045382872 4281545266
0.74486721 -0.024399042 0.045174822 4279837728
0.74517387 -0.024944849 0.045105502 4279508765
0.74542916 -0.025543399 0.044966817 4279706144
0.73397577 -0.015249453 0.042746261 4278522131
0.7345627 -0.015562385 0.043022916 4279241994
0.73764312 -0.01695659 0.044613719 4280955431
0.73816764 -0.01730749 0.044821218 4281285159
0.73863685 -0.017705977 0.04495956 4281019432
0.73910546 -0.018103629 0.045097917 4280098079
0.73951936 -0.018549711 0.045167118 4279834907
0.7399869 -0.018945903 0.045305446 4279505944
0.74045384 -0.019341245 0.045443803 4279965466
0.74086648 -0.019785658 0.045512989 4280229406
0.74133235 -0.020179532 0.045651332 4279966491
0.74174422 -0.020622894 0.045720533 4279834905
0.74210262 -0.021116376 0.045720562 4283520085
0.74246097 -0.02160985 0.045720592 4282662967
0.74281937 -0.022103332 0.045720622 4282202150
0.74317777 -0.022596806 0.045720667 4281938978
0.74348354 -0.02314166 0.04565154 4281412634
0.74378961 -0.023686931 0.045582414 4281018653
0.74409604 -0.024232619 0.045513287 4281217581
0.74435055 -0.024830729 0.045375019 4280100900
0.74460572 -0.025429673 0.045236737 4279508763
0.74491334 -0.025977038 0.04516761 4279968031
0.74516958 -0.026577458 0.045029327 4280100134
0.73394114 -0.015240751 0.043576345 4278849311
0.73452783 -0.015552253 0.04385221 4279506961
0.73505777 -0.015909776 0.044059113 4280097555
0.73680723 -0.016829833 0.044886664 4281085746
0.73727822 -0.017230228 0.045024619 4281151018
0.73769391 -0.017678529 0.045093611 4280426003
0.73821843 -0.018028513 0.045300499 4279701779
0.73868757 -0.018426389 0.045438439 4279900445
0.73915613 -0.01882343 0.045576379 4279834652
0.73957002 -0.019269213 0.045645386 4279834659
0.73998356 -0.019714579 0.045714363 4279900951
0.74045056 -0.020109534 0.045852304 4279966744
0.74086338 -0.020553842 0.045921296 4279377179
0.74127585 -0.02099774 0.045990288 4281943106
0.74163467 -0.021491848 0.045990318 4282072637
0.74199355 -0.021985956 0.045990348 4282663228
0.74235237 -0.022480063 0.045990378 4282202929
0.74265832 -0.023025423 0.04592146 4281874214
0.74296457 -0.023571208 0.045852542 4281808421
0.74321854 -0.024169087 0.045714661 4281414433
0.74352562 -0.024715915 0.045645744 4280560421
0.74383295 -0.025263168 0.045576811 4280099870
0.74408841 -0.025863148 0.045438945 4279836698
0.74439651 -0.026411444 0.045370027 4280034077
0.74460125 -0.027065605 0.045163199 4280099619
0.74485862 -0.027668104 0.045025319 4280098849
0.73309588 -0.015107974 0.043854371 4279308308
0.73374009 -0.0153732 0.04419817 4278915858
0.73427117 -0.015731491 0.044404462 4279510295
0.73485702 -0.016040727 0.044679493 4280036385
0.73538613 -0.016396284 0.044885799 4281218615
0.7358591 -0.016798794 0.045023337 4282139717
0.73638654 -0.017152056 0.045229629 4280493607
0.73685813 -0.017552681 0.045367166 4280096539
0.73732907 -0.017952472 0.045504704 4279898126
0.73779941 -0.018351413 0.045642242 4279570959
0.73826915 -0.018749535 0.04577978 4279769112
0.7387383 -0.0191468 0.045917317 4279900698
0.73920679 -0.019543231 0.046054855 4280098328
0.73962063 -0.019988716 0.046123654 4280098582
0.74003416 -0.020433769 0.046192437 4279968035
0.74039364 -0.020928718 0.046192467 4280298292
0.7408067 -0.021373153 0.046261236 4280956222
0.741166 -0.021867894 0.046261266 4281612088
0.74147195 -0.022413552 0.046192572 4282335033
0.74183142 -0.022908494 0.046192601 4282072118
0.74213785 -0.023454793 0.046123877 4281743150
0.74244457 -0.024001516 0.046055153 4281808943
0.74269891 -0.024600424 0.045917675 4280822048
0.74300641 -0.025148191 0.045848966 4280163872
0.74326181 -0.025748566 0.045711502 4279835158
0.74351782 -0.026349775 0.045574024 4279966744
0.74377441 -0.026951827 0.045436561 4280098330
0.74408364 -0.027501896 0.045367837 4280229657
0.74434131 -0.028105423 0.045230359 4280427290
0.74465126 -0.028656542 0.04516165 4280295957
0.73300743 -0.015146442 0.044613481 4279438870
0.73348349 -0.015552744 0.044750631 4279444001
0.73395896 -0.015958205 0.044887766 4279775266
0.73443383 -0.016362831 0.045024887 4279906082
0.73496366 -0.016718529 0.045230567 4281219385
0.73543715 -0.01712127 0.045367718 4281482557
0.7358548 -0.01757168 0.045436293 4279966493
0.73638237 -0.017924242 0.045641974 4279899671
0.73690903 -0.018275537 0.045847654 4279701009
0.73737991 -0.018674709 0.045984805 4279505936
0.73785019 -0.019073047 0.046121925 4279769108
0.73831987 -0.01947055 0.046259061 4279900694
0.73878896 -0.019867212 0.046396196 4280229909
0.73920327 -0.020313017 0.046464771 4280098580
0.73961723 -0.020758398 0.046533346 4280099621
0.739977 -0.021253765 0.046533391 4280364599
0.74033672 -0.021749131 0.046533421 4280693564
0.74069649 -0.022244498 0.04653345 4281481020
0.7410562 -0.022739857 0.04653348 4282466619
0.74136269 -0.023286462 0.046464965 4282137911
0.74161631 -0.02388493 0.046327904 4282072118
0.74192351 -0.024432585 0.046259388 4281742896
0.7421782 -0.025032513 0.046122327 4280229914
0.74243349 -0.02563329 0.045985267 4280163870
0.74274194 -0.026182622 0.045916751 4279769363
0.7429983 -0.026784867 0.045779675 4279835156
0.74325526 -0.027387947 0.045642614 4279900949
0.74351287 -0.027991861 0.045505553 4280164118
0.74377102 -0.028596625 0.045368493 4280493081
0.74402982 -0.029202223 0.045231417 4280624667
0.73216122 -0.015013717 0.04489252 4278654231
0.73269463 -0.015373535 0.045097589 4279246368
0.73305869 -0.015874773 0.045097619 4279842609
0.73359072 -0.016232692 0.045302704 4279907630
0.73406601 -0.01663734 0.045439437 4279840038
0.73448497 -0.017089337 0.045507804 4280032804
0.73495919 -0.017492518 0.045644537 4279769632
0.73554361 -0.017797641 0.045917973 4279506460
0.73596108 -0.018247545 0.045986354 4279766542
0.73643327 -0.018648006 0.046123073 4279242511
0.73690492 -0.019047618 0.046259806 4279571478
0.73743075 -0.019396946 0.04646489 4279900443
0.73784637 -0.019844331 0.046533272 4280294682
0.73831618 -0.020241439 0.04666999 4280031762
0.73873103 -0.020687774 0.046738371 4280230168
0.73919976 -0.021083407 0.046875089 4280560685
0.73955977 -0.021579191 0.046875134 4280758843
0.73991984 -0.022074975 0.046875164 4280758843
0.74022621 -0.022621676 0.046806857 4281482307
0.74053282 -0.023168787 0.046738535 4282204993
0.74083972 -0.023716331 0.046670228 4282137913
0.74114698 -0.024264276 0.046601921 4282072120
0.74140143 -0.024864405 0.046465263 4281808440
0.74170941 -0.025413409 0.046396941 4280163874
0.74196494 -0.026015006 0.046260267 4279900698
0.742221 -0.026617438 0.046123609 4279375629
0.74247772 -0.027220696 0.04598695 4279770387
0.74273503 -0.027824819 0.045850292 4279769617
0.74299294 -0.028429762 0.045713618 4279638801
0.7432515 -0.029035553 0.045576975 4279769882
0.74345875 -0.029695615 0.045371965 4279835675
0.74371862 -0.030303285 0.045235306 4279901988
0.73131335 -0.014880314 0.045172766 4279047693
0.7317915 -0.015288338 0.045309082 4279841826
0.73221254 -0.015742965 0.045377254 4279710240
0.73268962 -0.016149521 0.045513585 4279646509
0.73310995 -0.016603105 0.045581758 4279841837
0.73364192 -0.016960114 0.045786232 4279772450
0.73411715 -0.017364152 0.045922562 4279572005
0.73459178 -0.017767347 0.046058878 4279572005
0.73506582 -0.018169709 0.046195194 4279308058
0.73553926 -0.018571228 0.04633154 4279700498
0.7360673 -0.018922798 0.046535999 4279046159
0.7365393 -0.019322433 0.046672314 4279703323
0.73701072 -0.019721232 0.046808645 4279703323
0.73742682 -0.020168938 0.046876833 4280229410
0.73795182 -0.020516306 0.047081292 4279834905
0.73836696 -0.020962767 0.047149479 4280164644
0.73872745 -0.021459177 0.047149509 4280758582
0.73908794 -0.021955594 0.047149539 4280824375
0.73950249 -0.022401206 0.047217712 4281021502
0.73980898 -0.022948414 0.047149613 4281087549
0.74011576 -0.023496039 0.0470815 4281810239
0.7404229 -0.024044089 0.047013387 4282071871
0.74067688 -0.024644203 0.046877131 4282006078
0.7409848 -0.025193304 0.046809018 4281479480
0.74123985 -0.025794879 0.046672761 4280360999
0.74144262 -0.026449546 0.046468362 4280164123
0.74169904 -0.027053013 0.046332106 4279966996
0.74195611 -0.027657315 0.046195835 4279966996
0.74221373 -0.028262451 0.046059594 4279834129
0.74247199 -0.028868437 0.045923337 4279834901
0.74273092 -0.029475242 0.045787081 4279441439
0.74293834 -0.030136436 0.045582667 4279573025
0.74319857 -0.030745119 0.045446426 4279901988
0.74340773 -0.031408608 0.045242026 4279704361
0.7309429 -0.015155107 0.045590147 4280235049
0.73136473 -0.015610479 0.045658112 4280369452
0.73178625 -0.016065426 0.045726091 4280172073
0.73226386 -0.016472213 0.045862004 4279842340
0.73274088 -0.016878158 0.045997918 4280033574
0.73321736 -0.017283261 0.046133861 4279831834
0.73369312 -0.017687529 0.046269774 4279241759
0.73416829 -0.018090963 0.046405688 4279373345
0.73464292 -0.018493548 0.046541601 4279505435
0.73517239 -0.018846288 0.046745479 4279637528
0.73830879 -0.021785036 0.04749307 4280824627
0.73872393 -0.022231184 0.047561049 4280824627
0.73903048 -0.022778705 0.047493145 4280823603
0.73939127 -0.023275532 0.047493175 4282073922
0.73969823 -0.023823678 0.04742527 4282139964
0.74000549 -0.024372242 0.047357365 4281547314
0.74025959 -0.02497296 0.047221497 4281547314
0.74051422 -0.02557452 0.047085643 4280756781
0.74076951 -0.0261769 0.046949804 4280624175
0.74102539 -0.026780136 0.04681395 4280690736
0.74128187 -0.027384207 0.046678096 4280295456
0.74153894 -0.027989119 0.046542242 4280098077
0.74179667 -0.028594866 0.046406388 4279703565
0.74200249 -0.02925466 0.046202615 4279899922
0.74220926 -0.029915705 0.045998797 4279637028
0.74246907 -0.030524373 0.045862958 4279702821
0.74267757 -0.031187728 0.04565917 4279702812
0.7428869 -0.031852335 0.045455381 4279835427
0.74304545 -0.032572448 0.045183644 4279442218
0.68110341 0.018112205 0.02737622 4279044114
0.68151051 0.017551646 0.027376264 4278520589
0.68184829 0.016960852 0.027308568 4278520850
0.68232471 0.016430527 0.027376339 4278455057
0.68286991 0.015931278 0.027511865 4278586643
0.68320781 0.015340269 0.027444169 4278390034
0.68354601 0.014748842 0.027376443 4278324239
0.68388456 0.014156997 0.027308762 4278258446
0.68436021 0.013627723 0.027376518 4278586380
0.68476731 0.013067156 0.027376562 4278455827
0.72992116 -0.0151622 0.045669183 4281350967
0.7304582 -0.015524514 0.045872435 4280497455
0.73093748 -0.015932992 0.046007961 4280630575
0.73135942 -0.016388267 0.046075732 4280630575
0.73178107 -0.016843125 0.046143502 4280496424
0.7322588 -0.01724951 0.046279013 4280227873
0.73273593 -0.017655052 0.046414524 4279831832
0.73321247 -0.018059768 0.046550035 4279242016
0.73374432 -0.018414952 0.046753302 4279373602
0.73421949 -0.018817768 0.046888813 4279439897
0.734694 -0.019219749 0.047024325 4279243789
0.73825073 -0.022608534 0.047837481 4280627244
0.73861188 -0.023105785 0.047837511 4280692770
0.7389189 -0.023654237 0.0477698 4281679152
0.73928016 -0.02415169 0.04776983 4282008117
0.73958766 -0.024700776 0.047702134 4281415982
0.7398417 -0.025302105 0.047566682 4281481775
0.74004292 -0.025956295 0.047363505 4281612086
0.74035174 -0.026507258 0.047295794 4280423709
0.74060762 -0.027111106 0.047160342 4280293150
0.74086416 -0.027715787 0.047024891 4280491808
0.74106842 -0.02837418 0.046821713 4280426015
0.74132633 -0.028980747 0.046686277 4280360473
0.74153221 -0.029641449 0.04648307 4279832345
0.74173903 -0.030303404 0.046279892 4279702562
0.74194682 -0.030966625 0.046076715 4279505183
0.74215543 -0.031631097 0.045873523 4279439899
0.74241698 -0.0322427 0.045738071 4279375646
0.74262732 -0.032909468 0.045534894 4279049759
0.74278688 -0.03363207 0.045263961 4279181345
0.68131196 0.01809752 0.028457955 4279110157
0.68164819 0.017508514 0.028390437 4279044362
0.68205422 0.016949415 0.028390482 4278914056
0.68246025 0.016390324 0.028390512 4278914056
0.68286628 0.015831232 0.028390557 4278652171
0.6832723 0.015272141 0.028390586 4278586378
0.68360949 0.014681883 0.028323084 4278520838
0.68394697 0.014091194 0.028255582 4278782217
0.6844219 0.013563275 0.028323159 4278848010
0.68482804 0.013003975 0.028323203 4278456090
0.685166 0.012412652 0.028255686 4278719512
0.72960675 -0.01539053 0.046155915 4281614918
0.72997272 -0.015894488 0.046155959 4280695099
0.73039567 -0.01635094 0.046223521 4280300341
0.73087525 -0.016759224 0.04635863 4280695351
0.73129743 -0.017214619 0.046426222 4280296228
0.73177588 -0.017621435 0.046561316 4280422675
0.73225379 -0.018027417 0.046696424 4280095256
0.73273098 -0.018432565 0.046831533 4279373856
0.73320764 -0.018836878 0.046966642 4279439649
0.73368371 -0.019240342 0.047101766 4279375377
0.73415911 -0.019642971 0.04723686 4279310086
0.73783141 -0.022935577 0.048182651 4280759848
0.7381928 -0.023433246 0.048182681 4280363803
0.73844576 -0.024033502 0.048047647 4281809196
0.73886156 -0.02448009 0.048115224 4282401335
0.73911524 -0.025081396 0.047980174 4281282353
0.73936951 -0.025683537 0.04784514 4281940283
0.73962444 -0.02628652 0.047710106 4282137407
0.73993343 -0.026838005 0.047642589 4280950049
0.74018943 -0.027442455 0.047507554 4280162583
0.7403928 -0.028100505 0.047304973 4280952099
0.74065012 -0.028706849 0.047169939 4280755483
0.74085516 -0.029367194 0.046967357 4280492311
0.74106115 -0.030028805 0.046764776 4279898140
0.74126804 -0.030691683 0.04656221 4279306005
0.74152827 -0.031302005 0.046427161 4279437591
0.74168456 -0.032021195 0.046157047 4279505433
0.74194634 -0.032633618 0.046022013 4279178519
0.74210471 -0.033355743 0.045751885 4278788633
0.74236798 -0.033970267 0.04561685 4278854426
0.74258018 -0.034640461 0.045414269 4279509790
0.74274182 -0.035367012 0.045144156 4279573786
0.68110305 0.017904311 0.029132411 4278783759
0.68164814 0.01740627 0.029267102 4278782470
0.68198383 0.016817808 0.029199809 4278848263
0.6823892 0.016259551 0.029199839 4278782470
0.68279463 0.015701294 0.029199883 4278848012
0.68313092 0.015111998 0.02913259 4278913805
0.68353653 0.014553532 0.029132634 4278652422
0.68387324 0.013963588 0.029065326 4278455307
0.68434763 0.013436601 0.029132709 4278586893
0.68468469 0.012846231 0.0290654 4278719262
0.68515885 0.012319669 0.029132783 4278982171
0.68549615 0.01172889 0.029065475 4278721829
0.7290051 -0.015854843 0.046305984 4281747274
0.72948641 -0.016265042 0.046440691 4280824888
0.72991002 -0.016722016 0.046508059 4280627509
0.73039025 -0.01713074 0.046642765 4280628023
0.73081303 -0.017586671 0.046710119 4280098079
0.73123556 -0.018042177 0.046777502 4280162061
0.73177081 -0.018400356 0.046979547 4280226827
0.73224878 -0.018805936 0.047114238 4279769106
0.73266995 -0.019259557 0.047181621 4279769106
0.73314679 -0.019663677 0.047316313 4279703313
0.73362309 -0.020066962 0.047451019 4279703822
0.73766416 -0.023863442 0.048394024 4280164121
0.73797178 -0.02441334 0.048326716 4281084187
0.73838824 -0.024860457 0.048394084 4281939242
0.7386421 -0.025462583 0.048259452 4281348144
0.73889661 -0.026065543 0.048124805 4281282351
0.73920548 -0.026617125 0.048057511 4281479730
0.739461 -0.02722156 0.047922865 4281412902
0.73971713 -0.027826831 0.047788233 4281214751
0.7399739 -0.028432935 0.047653601 4280951579
0.74017811 -0.029092953 0.04745163 4281544486
0.74038327 -0.029754221 0.04724966 4281216804
0.74064213 -0.030363262 0.047115028 4280360725
0.74084896 -0.03102684 0.046913058 4279044366
0.74100411 -0.031745568 0.046643749 4278912780
0.7412653 -0.032357752 0.046509117 4278847760
0.74142253 -0.03307943 0.046239793 4278783757
0.74168527 -0.033693716 0.046105161 4279048214
0.74184465 -0.034418315 0.045835868 4279311386
0.74205709 -0.035089657 0.045633882 4279244308
0.74237376 -0.035651922 0.045566589 4279703567
0.74253625 -0.036380723 0.045297295 4279901988
0.74269986 -0.037111193 0.045027986 4279967781
0.74301839 -0.037675977 0.044960678 4279903021
0.74323505 -0.038353175 0.044758707 4279706144
0.68110478 0.017801791 0.030007452 4278717968
0.68157947 0.017274678 0.030074626 4278717447
0.68198419 0.016717471 0.030074656 4278783240
0.68238884 0.016160265 0.030074701 4278783240
0.68272406 0.015572123 0.030007601 4278913803
0.68312889 0.015014708 0.030007631 4278913805
0.68346459 0.014425926 0.029940531 4278587144
0.68386954 0.013868302 0.02994056 4278324752
0.68420565 0.013278902 0.02987349 4278456338
0.68454212 0.012689076 0.029806376 4278719260
0.68487889 0.012098834 0.029739276 4279046944
0.68528432 0.011540584 0.02973932 4278785317
0.68582618 0.011047564 0.029873639 4278983716
0.72851729 -0.016225532 0.046592325 4281878340
0.72899938 -0.016636163 0.046726629 4280890166
0.7294808 -0.01704596 0.046860933 4280824373
0.72990447 -0.017502837 0.046928108 4280364335
0.7303279 -0.017959297 0.046995267 4279966744
0.73075098 -0.018415332 0.047062427 4279966217
0.731457 -0.01862821 0.047465265 4280227081
0.73176575 -0.019179881 0.047398165 4280424460
0.73671699 -0.02384612 0.048539788 4280233515
0.73713446 -0.024294399 0.048606947 4280099098
0.73749709 -0.024793744 0.048606992 4281084446
0.73791409 -0.025241405 0.048674166 4281874214
0.73816812 -0.02584435 0.048539922 4281152040
0.73847687 -0.026396021 0.048472822 4281086247
0.73878592 -0.026948109 0.048405722 4281020970
0.73904151 -0.027553141 0.048271492 4281018655
0.73929775 -0.028159022 0.048137277 4281280544
0.73955452 -0.028765753 0.048003033 4281148958
0.73975867 -0.029426455 0.047801673 4281609509
0.74001682 -0.030035064 0.047667444 4281610277
0.74022263 -0.030698091 0.047466084 4281019934
0.74037647 -0.031416163 0.04719758 4279506712
0.74058425 -0.032081902 0.046996221 4279638298
0.74079299 -0.032748908 0.046794862 4278454544
0.74100256 -0.033417165 0.046593487 4278717196
0.74116087 -0.034141317 0.046324998 4279045913
0.7414245 -0.034757465 0.046190768 4279506464
0.7415849 -0.035484552 0.045922279 4279505942
0.74185014 -0.036102802 0.04578805 4279703822
0.7420643 -0.036777347 0.04558669 4279439899
0.74233085 -0.037397489 0.045452446 4280229415
0.742598 -0.03801845 0.045318231 4279901738
0.7428658 -0.038640261 0.045183986 4279902753
0.74308312 -0.039319217 0.044982627 4279903521
0.74335229 -0.03994292 0.044848397 4279573786
0.74362206 -0.040567458 0.044714183 4279639579
0.74389237 -0.04119283 0.044579938 4279441700
0.74416333 -0.041819036 0.044445708 4279442220
0.74443495 -0.042446092 0.044311479 4279508515
0.68070382 0.018256582 0.030880421 4279045139
0.68117803 0.017730407 0.030947402 4278848530
0.68158197 0.017174244 0.030947432 4278584840
0.68198586 0.016618088 0.030947477 4278848780
0.68232006 0.016031109 0.030880585 4278914573
0.68272412 0.015474744 0.030880615 4278718217
0.68305874 0.014887132 0.030813739 4278520838
0.68346298 0.014330551 0.030813783 4278454022
0.68372893 0.013710648 0.030679956 4278390032
0.68406451 0.013121776 0.03061305 4278587411
0.68440032 0.012532488 0.030546159 4278521870
0.68480515 0.01197508 0.030546188 4278849815
0.68527848 0.011450157 0.030613154 4278849565
0.68561482 0.010860242 0.030546263 4278981921
0.68601966 0.010302827 0.030546308 4279245093
0.68662858 0.0098447949 0.030747131 4279508263
0.68710083 0.0093213618 0.030814111 4279901738
0.72814417 -0.016502 0.047013775 4282468666
0.72862661 -0.016912661 0.047147647 4281743407
0.72899365 -0.017418087 0.047147676 4281348649
0.72941792 -0.0178755 0.047214642 4280033828
0.72984195 -0.018332489 0.047281623 4279833878
0.73020869 -0.018837497 0.047281653 4279571211
0.73074579 -0.01919657 0.047482476 4279571727
0.73122531 -0.019603245 0.047616363 4279703313
0.73159134 -0.020107202 0.047616407 4279442192
0.73624039 -0.024225935 0.048821494 4280233263
0.73660362 -0.024726123 0.048821524 4279903004
0.73696691 -0.02522631 0.048821554 4280756512
0.73743916 -0.025622919 0.048955441 4280953632
0.73774779 -0.026174679 0.048888549 4280493081
0.73805666 -0.026726864 0.048821658 4280361495
0.73831183 -0.027331889 0.048687831 4281610277
0.73862153 -0.027885124 0.048620939 4281085977
0.73887777 -0.028491616 0.048487097 4280625428
0.73908103 -0.029151976 0.048286349 4280296463
0.73933864 -0.029760361 0.048152521 4281018907
0.73954362 -0.03042303 0.047951773 4281018907
0.73974943 -0.031086966 0.047751009 4281216286
0.73995626 -0.031752154 0.047550261 4281415462
0.74011111 -0.0324727 0.047282577 4281086497
0.74037254 -0.03308633 0.047148749 4278983424
0.74058205 -0.033755288 0.046947986 4278917381
0.74074006 -0.034480244 0.046680316 4279045911
0.7409516 -0.035151929 0.046479538 4279374876
0.74116403 -0.03582488 0.04627879 4279703073
0.74142921 -0.03644374 0.046144977 4279702814
0.74164331 -0.037119001 0.045944214 4279831593
0.74196148 -0.037683964 0.045877308 4280226351
0.74222857 -0.038305327 0.045743495 4279834659
0.74244493 -0.038983732 0.045542747 4279902491
0.74271333 -0.039606988 0.045408919 4279640862
0.74298239 -0.040231094 0.045275077 4279575073
0.74330288 -0.040799201 0.045208201 4279443487
0.74357295 -0.041424766 0.045074373 4278851112
0.74384367 -0.042051166 0.044940546 4278982184
0.74416536 -0.042620972 0.044873655 4279437337
0.74443716 -0.043248832 0.044739813 4279437337
0.74460936 -0.043993279 0.044472143 4279504150
0.6807794 0.01818499 0.031818166 4279044112
0.68111223 0.017599583 0.031751469 4278913553
0.68151557 0.017044269 0.031751513 4278651403
0.68184888 0.016458243 0.031684816 4278717964
0.68225229 0.015902713 0.031684861 4278915343
0.68258601 0.015316054 0.031618148 4278652424
0.6829201 0.014728971 0.03155148 4278520836
0.68325448 0.01414147 0.031484768 4278585091
0.6835891 0.01355356 0.031418085 4278586380
0.68392408 0.012965232 0.031351402 4278652173
0.68432832 0.012408651 0.031351447 4278586380
0.68466371 0.011819676 0.031284735 4278520850
0.68506807 0.011262894 0.031284779 4278848534
0.68547243 0.010706104 0.031284824 4278849817
0.68587679 0.010149315 0.031284854 4279047196
0.68648565 0.009692207 0.031485066 4279441950
0.68682158 0.0091026202 0.031418383 4280096804
0.68736136 0.0086135417 0.031551898 4279769636
0.68790054 0.0081252977 0.031685382 4279640103
0.68857425 0.0077060312 0.031952351 4279508517
0.69246042 0.003625907 0.032619908 4280233263
0.69279557 0.0030373707 0.032553241 4280101175
0.69319701 0.00248456 0.03255327 4280035382
0.69366437 0.0019681305 0.032620028 4280299578
0.69406569 0.0014155284 0.032620057 4280365871
0.69440144 0.00082615018 0.03255339 4280431145
0.69480288 0.0002733469 0.032553434 4280037419
0.69526964 -0.00024224818 0.032620177 4280366384
0.72765505 -0.016873628 0.047302142 4282927677
0.72813821 -0.017284721 0.047435626 4281347620
0.72856325 -0.01774288 0.047502398 4280426518
0.72898793 -0.018200621 0.047569141 4279836449
0.72941244 -0.018657938 0.047635913 4279636501
0.72977948 -0.01916337 0.047635943 4279505683
0.73026037 -0.019571312 0.047769442 4279176975
0.73068386 -0.020027369 0.047836199 4279176975
0.73110706 -0.02048301 0.047902957 4284511592
0.73152995 -0.020938233 0.047969729 4279839529
0.73195255 -0.021393031 0.048036486 4279904300
0.73559785 -0.02476009 0.04890421 4279969064
0.73607183 -0.025158599 0.04903771 4280033824
0.73643571 -0.025659628 0.04903774 4280756009
0.7368542 -0.026108772 0.049104497 4280689959
0.7372179 -0.026609585 0.049104542 4280295201
0.73752731 -0.027162701 0.049037844 4280229408
0.73783696 -0.027716234 0.048971131 4281608996
0.73814702 -0.0282702 0.048904449 4281480733
0.73840344 -0.028877497 0.048771024 4280561688
0.73866045 -0.029485643 0.048637614 4280232723
0.73891813 -0.030094624 0.048504189 4280560153
0.73912299 -0.030758008 0.048304036 4280559133
0.73932874 -0.031422645 0.048103884 4280822048
0.73948234 -0.03214252 0.047837019 4280822048
0.73974305 -0.032755703 0.047703594 4281414185
0.7398988 -0.033478513 0.047436714 4280165647
0.74010837 -0.034148395 0.047236577 4279576076
0.74031883 -0.034819543 0.047036424 4279048465
0.74053025 -0.035491928 0.046836272 4279311637
0.74074256 -0.036165595 0.046636134 4279572257
0.7410078 -0.036785051 0.046502709 4279506210
0.74132562 -0.037349701 0.046436012 4279700777
0.74154019 -0.038026497 0.046235859 4279898156
0.74180728 -0.038648471 0.046102449 4279703071
0.74207497 -0.039271295 0.045969024 4279769882
0.74234331 -0.039894953 0.045835599 4279706142
0.74261224 -0.040519446 0.045702204 4279377440
0.74293274 -0.041087866 0.045635507 4279180061
0.74325353 -0.041656703 0.045568794 4278916391
0.74352401 -0.042283297 0.045435384 4279046431
0.74384558 -0.042853191 0.045368686 4279306771
0.74411708 -0.043481261 0.045235261 4279438357
0.74448961 -0.043994233 0.045235291 4279244310
0.74481213 -0.044565365 0.045168623 4278784794
0.68064481 0.018024012 0.032553881 4278716178
0.6810475 0.017469525 0.032553911 4278716174
0.68137991 0.016884461 0.032487437 4278848263
0.68178272 0.016329765 0.032487482 4278914306
0.68211561 0.015744053 0.032420978 4278980099
0.68244874 0.015157938 0.032354489 4278586629
0.68271255 0.014539957 0.032221481 4278586629
0.68304646 0.013952777 0.032154977 4278782987
0.6834501 0.013397038 0.032155007 4278717196
0.68371522 0.012777172 0.032021999 4278651403
0.68411911 0.012221009 0.032022044 4278717194
0.68445414 0.011632383 0.031955555 4278520848
0.6848582 0.011076011 0.031955585 4278716946
0.6852622 0.010519639 0.03195563 4278848012
0.68573475 0.0099963844 0.032022193 4278979598
0.68613863 0.0094402209 0.032022223 4279243540
0.68667889 0.0089511275 0.03215532 4279308581
0.68715048 0.0084291324 0.032221898 4278981149
0.68775749 0.0079754442 0.032421499 4278459420
0.68829584 0.0074888691 0.032554582 4278656799
0.68876606 0.0069687515 0.032621145 4279507743
0.6893034 0.0064836293 0.032754242 4279441950
0.68984008 0.0059993565 0.03288734 4279901988
0.69037622 0.0055159256 0.033020422 4279836195
0.69091171 0.0050333291 0.033153519 4279836195
0.69131303 0.0044807345 0.033153549 4279704863
0.69178092 0.0039637536 0.033220112 4279573023
0.69218212 0.0034113675 0.033220157 4279638318
0.6926496 0.0028950423 0.033286721 4279901497
0.69305062 0.0023428649 0.033286765 4279638325
0.69345164 0.0017906874 0.033286795 4279836726
0.69378674 0.0012018308 0.033220306 4279836976
0.69425368 0.00068634003 0.03328687 4279969066
0.69458914 9.7066164e-05 0.033220381 4279112985
0.69499028 -0.00045531988 0.03322041 4279770915
0.69545668 -0.0009701848 0.033286989 4279114786
0.6958577 -0.0015223622 0.033287019 4279510060
0.69625872 -0.0020745397 0.033287063 4279443237
0.69665974 -0.0026267171 0.033287093 4279969066
0.69719005 -0.0031021833 0.03342019 4279771687
0.69765526 -0.0036153793 0.033486754 4279310886
0.69818449 -0.0040893853 0.033619836 4280100654
0.69871312 -0.0045625567 0.033752918 4279771685
0.69924116 -0.0050348788 0.033886015 4280035370
0.70235354 -0.0086836144 0.034218907 4280627757
0.70275241 -0.0092328489 0.034218937 4280496439
0.72716516 -0.017245837 0.047591716 4281543455
0.72764903 -0.017657369 0.047724813 4279964171
0.72807467 -0.018116057 0.047791377 4280095757
0.72850001 -0.018574327 0.047857925 4279243021
0.72892499 -0.019032173 0.047924489 4279177228
0.72934973 -0.019489601 0.047991067 4279572754
0.72983116 -0.019897789 0.048124135 4283456858
0.7301982 -0.020403221 0.048124164 4284246374
0.73062199 -0.02085939 0.048190728 4281415490
0.73104548 -0.021315143 0.048257291 4280360492
0.73141229 -0.02182015 0.048257321 4279967531
0.73506409 -0.025192671 0.049122423 4280429095
0.73553896 -0.025591835 0.049255505 4280296228
0.73590344 -0.026093699 0.049255535 4281019703
0.73632264 -0.02654358 0.049322098 4280560435
0.736687 -0.027045235 0.049322128 4280231470
0.73705131 -0.027546898 0.049322158 4280232490
0.73736131 -0.028101146 0.049255669 4281348649
0.73761749 -0.028708652 0.049122661 4281283101
0.73792827 -0.029263958 0.049056172 4280627999
0.73818552 -0.029872924 0.04892315 4280430620
0.73844337 -0.030482739 0.048790127 4280234534
0.7386483 -0.031147018 0.048590586 4279839527
0.73885417 -0.031812578 0.048391059 4280033578
0.73906088 -0.032479391 0.048191503 4280494129
0.73932165 -0.033093184 0.048058495 4281215801
0.73947716 -0.033816785 0.047792435 4281216310
0.73968661 -0.034487367 0.047592878 4281613622
0.73989707 -0.0351592 0.047393367 4279970069
0.74010837 -0.035832316 0.04719381 4279838483
0.74032056 -0.036506668 0.046994269 4280164373
0.74063808 -0.037071213 0.046927765 4280363553
0.74090385 -0.037691906 0.046794772 4279641126
0.74117023 -0.038313448 0.046661749 4279114782
0.7414372 -0.038935825 0.046528742 4279179550
0.74170482 -0.039559051 0.046395719 4279507480
0.74197298 -0.040183112 0.046262696 4279443223
0.74224186 -0.040807992 0.046129704 4279640602
0.74256235 -0.041376725 0.0460632 4279311637
0.74288321 -0.041945875 0.045996711 4279377181
0.74315351 -0.042572871 0.045863703 4279904026
0.74352574 -0.043085426 0.045863733 4280101403
0.743797 -0.043713674 0.045730695 4280364575
0.74411923 -0.044284701 0.045664236 4280367405
0.74449193 -0.044797882 0.045664266 4281090610
0.68091321 0.01730974 0.033288419 4278651405
0.68124509 0.016725212 0.033222139 4278848515
0.68157715 0.016140237 0.033155844 4278914051
0.68190956 0.01555486 0.033089563 4278586631
0.68224233 0.014969066 0.033023283 4278520838
0.68257535 0.014382839 0.032956988 4278913803
0.68283904 0.013764463 0.032824382 4278914575
0.68317282 0.013177194 0.032758102 4278848012
0.68350691 0.012589507 0.032691792 4278782219
0.68384135 0.012001403 0.032625526 4278782989
0.68417603 0.011412874 0.032559231 4278718477
0.68457991 0.010856718 0.032559261 4278717196
0.68498385 0.010300554 0.032559305 4278913546
0.68545634 0.009777613 0.032625675 4279045132
0.68592852 0.009255074 0.032692015 4279177745
0.68640041 0.0087329671 0.0327584 4279111704
0.68694007 0.0082451031 0.03289108 4278717716
0.68754721 0.0077921301 0.033090085 4278458135
0.68801773 0.0072718933 0.03315644 4278523928
0.6885556 0.0067865476 0.03328912 4279505944
0.68909287 0.0063020438 0.033421829 4279309081
0.68969691 0.0058532655 0.033620849 4279769116
0.69016558 0.0053355545 0.033687189 4279572505
0.69063395 0.0048182532 0.033753544 4279572505
0.69110203 0.0043013841 0.033819914 4279769114
0.69156981 0.0037849247 0.033886269 4279768862
0.69203728 0.0032688975 0.033952639 4279506480
0.69243801 0.0027171448 0.033952683 4279770165
0.69290501 0.002201736 0.034019038 4279506993
0.69323939 0.0016136318 0.033952758 4279573038
0.69364011 0.0010618791 0.033952788 4279638568
0.69404083 0.0005101189 0.033952832 4279441954
0.69444156 -4.1633844e-05 0.033952862 4279179798
0.69477665 -0.00063079596 0.033886567 4279311384
0.69524294 -0.0011451468 0.033952937 4279114020
0.69564366 -0.0016968995 0.033952981 4278719008
0.69610941 -0.0022106394 0.034019336 4279047196
0.6966399 -0.0026857108 0.034152016 4279372827
0.69710487 -0.0031983927 0.034218356 4279570206
0.69756961 -0.0037106499 0.034284726 4279111200
0.69809854 -0.0041836202 0.034417436 4279044637
0.6985625 -0.0046948418 0.034483775 4279242522
0.69902617 -0.0052056313 0.034550145 4278520848
0.69961756 -0.0056370199 0.03474915 4279112985
0.70001644 -0.0061862618 0.034749195 4279505944
0.70047903 -0.0066955909 0.034815535 4278848784
0.70100486 -0.007164374 0.03494823 4279111452
0.70140332 -0.0077129826 0.03494826 4279503902
0.70186502 -0.0082210451 0.035014644 4279701281
0.70238948 -0.0086879432 0.035147324 4280097829
0.70278746 -0.0092359185 0.035147354 4279575085
0.7032482 -0.0097427368 0.035213694 4278981667
0.70377135 -0.010207742 0.035346389 4278784288
0.70435631 -0.010630324 0.035545394 4278915874
0.70487809 -0.011093453 0.035678074 4278982686
0.70539922 -0.011555739 0.035810754 4279243292
0.70598179 -0.011974961 0.036009759 4279178778
0.70656347 -0.012392923 0.036208779 4279112989
0.7071442 -0.012809634 0.036407784 4279047196
0.70772403 -0.013225086 0.036606774 4279112985
0.70830297 -0.013639271 0.036805794 4279178265
0.72618932 -0.01720579 0.047749847 4281214499
0.7266745 -0.017618597 0.047882542 4280491028
0.72710115 -0.018078454 0.047948882 4280162063
0.72758532 -0.0184898 0.048081562 4280030477
0.72801119 -0.0189486 0.048147932 4279571209
0.72843683 -0.019406989 0.048214287 4279704091
0.72886211 -0.019864954 0.048280641 4283720296
0.72928715 -0.020322502 0.048346996 4280362302
0.72982585 -0.020681351 0.048546001 4280822853
0.73019302 -0.021186993 0.048546031 4280164142
0.73061699 -0.021643072 0.048612386 4280493355
0.73098403 -0.022148497 0.048612416 4280296746
0.73458463 -0.02557458 0.04940857 4280429346
0.73500508 -0.026025839 0.049474925 4279968544
0.73542517 -0.026476674 0.04954128 4280693304
0.73584503 -0.026927091 0.049607635 4280759345
0.73620975 -0.027429372 0.049607679 4280561966
0.73651999 -0.027984142 0.049541384 4280561702
0.73683047 -0.028539345 0.049475104 4280954407
0.73714125 -0.029094964 0.049408808 4280887844
0.73739827 -0.029704124 0.049276188 4280295707
0.73770982 -0.030260772 0.049209908 4281216809
0.73796785 -0.030871391 0.049077302 4280625444
0.73817289 -0.031536609 0.048878372 4280429348
0.73843229 -0.032149106 0.048745766 4280363306
0.73863894 -0.032816634 0.048546821 4280494892
0.73884654 -0.033485398 0.04834789 4280689966
0.73905504 -0.034155428 0.04814896 4280755761
0.73926437 -0.034826726 0.047950014 4280295208
0.73947471 -0.035499275 0.047751084 4281348138
0.73968595 -0.036173075 0.047552153 4281611310
0.73995054 -0.03679271 0.047419533 4280427545
0.74021578 -0.03741318 0.047286943 4280033555
0.74048156 -0.038034499 0.047154322 4280298281
0.74074799 -0.038656652 0.047021717 4280232488
0.74101502 -0.03927964 0.046889111 4281154619
0.74128264 -0.039903462 0.046756491 4280299295
0.74155092 -0.040528134 0.046623886 4280562206
0.74187112 -0.041096747 0.04655759 4279969819
0.74219167 -0.041665778 0.04649131 4280232991
0.74251252 -0.042235225 0.046425015 4279903004
0.74283373 -0.042805091 0.046358734 4280164893
0.74315518 -0.043375373 0.046292454 4280100122
0.74347693 -0.043946087 0.046226144 4280363294
0.74379897 -0.044517204 0.046159878 4280430116
0.68077976 0.017150536 0.03402172 4279306771
0.68104041 0.016535744 0.033889517 4278914573
0.68130171 0.01592011 0.033757314 4278914573
0.68156362 0.015303642 0.033625096 4278848780
0.6819663 0.014749154 0.033625126 4278520589
0.68229908 0.014163062 0.033559069 4278782991
0.68256235 0.013544701 0.033426851 4278651419
0.68282622 0.012925498 0.033294648 4279046683
0.68316019 0.012337714 0.033228546 4279112476
0.68349445 0.011749513 0.033162475 4279178517
0.68389821 0.011193566 0.033162519 4279375894
0.68430197 0.010637626 0.033162549 4279243290
0.68470567 0.010081671 0.033162594 4279637276
0.68517816 0.0095590204 0.033228725 4279703069
0.68558174 0.0090032816 0.03322877 4279243540
0.68605375 0.0084812641 0.033294946 4279507465
0.68666202 0.0080275238 0.03349334 4278850065
0.6872012 0.007540904 0.033625618 4278784790
0.68773985 0.0070551187 0.03375791 4278718997
0.68821001 0.006535612 0.033824056 4279111702
0.68881524 0.0060860738 0.034022465 4279177499
0.68935198 0.0056028068 0.034154758 4279438870
0.68988812 0.0051203668 0.034287021 4278981138
0.69035649 0.0046033859 0.034353182 4278981138
0.69082451 0.0040868074 0.034419328 4279374607
0.69129229 0.0035706684 0.034485504 4279439892
0.69169301 0.0030189157 0.034485534 4278980890
0.69216031 0.0025033876 0.034551695 4279046429
0.69262731 0.0019882917 0.034617856 4279112222
0.69296139 0.0014002919 0.034551769 4279703843
0.6934281 0.00088562071 0.034617931 4279637278
0.69376254 0.00029720366 0.034551844 4279178782
0.69416308 -0.00025434792 0.034551889 4279311635
0.69456363 -0.00080589205 0.034551919 4279245842
0.69496417 -0.0013574362 0.034551963 4279114018
0.69536471 -0.0019089878 0.034551993 4278785307
0.69589573 -0.0023842901 0.034684271 4278784792
0.69636106 -0.0028970838 0.034750417 4278914327
0.6968261 -0.0034094527 0.034816578 4279243292
0.6974203 -0.003843911 0.035014972 4278981140
0.69788438 -0.0043550208 0.035081148 4278717466
0.69847709 -0.0047873855 0.035279542 4279045911
0.69894028 -0.005297251 0.035345688 4278651151
0.69940317 -0.0058066845 0.035411865 4279111702
0.69992971 -0.0062759072 0.035544157 4279046681
0.70039183 -0.006784305 0.035610288 4278914325
0.70085371 -0.0072922707 0.035676464 4278913821
0.70131516 -0.0077998266 0.035742611 4279306005
0.70177639 -0.0083069578 0.035808772 4280687658
0.70223731 -0.0088136792 0.035874933 4279770915
0.70276099 -0.0092789158 0.036007211 4279245604
0.70322108 -0.0097845793 0.036073372 4278981151
0.7037437 -0.010248363 0.036205634 4278914845
0.70426571 -0.01071129 0.036337912 4279046431
0.7048496 -0.011131488 0.036536306 4279114270
0.70537025 -0.01159253 0.036668599 4279112474
0.70595247 -0.012010425 0.036867008 4279112472
0.70653373 -0.012427054 0.037065402 4279047196
0.7071141 -0.012842439 0.037263796 4279047196
0.70763183 -0.013299495 0.037396073 4279047196
0.70821059 -0.01371257 0.037594482 4279244060
0.70878834 -0.014124379 0.037792876 4279179802
0.70930398 -0.014578506 0.037925154 4279047444
0.72569716 -0.017578691 0.048042282 4280755750
0.72618306 -0.017991938 0.04817456 4280557852
0.7266103 -0.018452324 0.048240706 4280030479
0.72709519 -0.018864103 0.048372999 4280293651
0.72752166 -0.019323453 0.04843913 4280426518
0.72800547 -0.019733764 0.048571408 4280625193
0.72848868 -0.020143241 0.048703685 4282336090
0.7289139 -0.0206009 0.048769847 4280098363
0.72933888 -0.021058142 0.048835993 4280427328
0.72970659 -0.021564409 0.048836038 4280296244
0.73024476 -0.021921724 0.049034417 4280494127
0.7305553 -0.02247721 0.048968345 4280099369
0.7309792 -0.022932991 0.049034491 4280427562
0.73272771 -0.024700984 0.049365237 4279903521
0.73314995 -0.025154449 0.049431384 4280363553
0.73357189 -0.025607497 0.049497545 4280429346
0.73399347 -0.026060134 0.049563691 4280429348
0.73441482 -0.026512347 0.049629852 4279903523
0.7348358 -0.026964143 0.049695998 4280102449
0.73520148 -0.027467683 0.049696028 4280562482
0.73556721 -0.027971223 0.049696073 4280365103
0.73593289 -0.028474763 0.049696103 4280496424
0.73629856 -0.028978303 0.049696133 4280758313
0.73660982 -0.029534847 0.049630046 4280296479
0.73686719 -0.030145019 0.049497843 4280229657
0.73717922 -0.030702621 0.049431756 4281216552
0.73743761 -0.031314269 0.049299553 4280624674
0.73769665 -0.031926766 0.049167335 4280559649
0.73795623 -0.032540083 0.049035132 4280493858
0.73816299 -0.033208519 0.048836812 4280691237
0.73842394 -0.033823729 0.048704609 4280493607
0.73863232 -0.03449446 0.048506275 4280558378
0.73884165 -0.035166457 0.048307955 4280492582
0.73905188 -0.035839707 0.048109636 4281280811
0.73931575 -0.03645891 0.047977433 4280622881
0.73958027 -0.037078947 0.047845215 4280623897
0.73984534 -0.037699819 0.047713012 4279965967
0.74011105 -0.038321525 0.047580808 4280031777
0.74037737 -0.03894408 0.047448605 4280755500
0.74064428 -0.039567471 0.047316387 4280427562
0.74096364 -0.04013513 0.047250316 4279902491
0.74123162 -0.040759981 0.047118127 4280429087
0.74150026 -0.04138568 0.046985909 4279902491
0.74182081 -0.041955009 0.046919823 4280099870
0.74219286 -0.042467356 0.046919852 4279836445
0.74246281 -0.043094933 0.046787649 4279769882
0.74278432 -0.043665528 0.046721548 4280165661
0.74315685 -0.044178501 0.046721593 4280428833
0.680695 0.016284905 0.03442423 4279112474
0.68095601 0.015669078 0.034292445 4279178780
0.681288 0.015083708 0.034226537 4279048463
0.68162036 0.014497936 0.034160659 4279180049
0.68188286 0.013880014 0.034028858 4278652684
0.68221593 0.013293192 0.03396298 4278718231
0.68247956 0.012673795 0.033831194 4279245091
0.68281341 0.012085922 0.033765286 4279442470
0.68314755 0.011497632 0.033699423 4279771937
0.68355131 0.010941684 0.033699468 4279903772
0.68395507 0.010385737 0.033699498 4280889386
0.68435884 0.0098297819 0.033699542 4281022768
0.68483138 0.0093072206 0.03376548 4280956975
0.68523502 0.0087514818 0.03376551 4280628271
0.6857757 0.0082633793 0.0338974 4280891944
0.68631577 0.0077761114 0.034029275 4280235038
0.68685526 0.0072896779 0.03416115 4279445020
0.68739414 0.0068040863 0.034293041 4279379227
0.68793237 0.0063193291 0.034424916 4279445282
0.68847001 0.0058354139 0.034556776 4279114784
0.68893939 0.0053172633 0.034622729 4279703071
0.68947601 0.0048348159 0.034754604 4279046679
0.68994462 0.0043177083 0.034820557 4278980886
0.69048011 0.0038367286 0.034952432 4279112726
