# .PCD v0.7 - Point Cloud Data file format
VERSION 0.7
FIELDS x y z rgb
SIZE 4 4 4 4
TYPE F F F U
COUNT 1 1 1 1
WIDTH 1024
HEIGHT 1
VIEWPOINT 0 0 0 1 0 0 0
POINTS 1024
DATA ascii
0.711079 -0.015276968 0.040524095 4279179279
0.71165049 -0.015618324 0.040388718 4279179028
0.71220309 -0.016031325 0.04018563 4279113235
0.71279645 -0.016302034 0.040117934 4278783761
0.71333212 -0.016787261 0.039847195 4278914824
0.71392721 -0.017058551 0.039779469 4279111176
0.71452278 -0.017330006 0.039711758 4279045383
0.71510017 -0.017673299 0.039576367 4278519298
0.71567857 -0.018016919 0.039440975 4278323208
0.71627611 -0.018289015 0.039373249 4278256645
0.71683836 -0.018705115 0.039170191 4278190848
0.71745503 -0.018905684 0.039170146 4284771171
0.71803689 -0.019250408 0.039034754 4278194688
0.73037994 -0.015878409 0.04546316 4285628539
0.73098642 -0.015997902 0.045530781 4283653722
0.73157996 -0.016190946 0.045530751 4283913816
0.73218572 -0.0163102 0.045598388 4282927178
0.73279101 -0.01642932 0.045666024 4283124557
0.73338407 -0.016622201 0.045665979 4282404673
0.73398858 -0.016741067 0.045733616 4282405183
0.73458141 -0.016933858 0.045733586 4282141499
0.73517418 -0.01712665 0.045733541 4281350201
0.73577774 -0.017245203 0.045801178 4281744959
0.73635978 -0.017512247 0.045733467 4282402376
0.73695254 -0.017705038 0.045733422 4282467397
0.73753536 -0.01797232 0.045665696 4282268989
0.73812836 -0.018165201 0.045665652 4281611059
0.73871189 -0.018432721 0.045597956 4279965969
0.73930514 -0.018625677 0.045597911 4280360464
0.73989844 -0.018818632 0.045597866 4280952599
0.74049175 -0.019011587 0.045597836 4280952864
0.74108505 -0.019204542 0.045597792 4280821278
0.74167001 -0.019472539 0.045530066 4281412900
0.74226356 -0.019665584 0.045530021 4281478691
0.74284923 -0.019933835 0.04546231 4281676837
0.74345058 -0.020051658 0.045529947 4281412902
0.74403679 -0.020320058 0.045462236 4281939246
0.70070273 -0.011856347 0.041432723 4278850568
0.70138609 -0.011844844 0.041635096 4279111178
0.70199567 -0.012043089 0.041635051 4279110173
0.70265293 -0.012101009 0.041769952 4280159011
0.7033093 -0.012158632 0.041904852 4280619301
0.70391786 -0.012356564 0.041904822 4280290336
0.70452636 -0.012554482 0.041904777 4283582296
0.70513493 -0.012752414 0.041904733 4283653987
0.70574349 -0.012950331 0.041904688 4284113773
0.70635206 -0.013148248 0.041904658 4282468948
0.70696062 -0.01334618 0.041904613 4279177495
0.70754731 -0.013614908 0.041837111 4278979091
0.70813441 -0.01388377 0.041769579 4278979598
0.70872205 -0.01415281 0.041702077 4278652688
0.70931023 -0.014422014 0.04163456 4279179032
0.70987791 -0.014762491 0.041499585 4278983196
0.71046728 -0.015032098 0.041432068 4278984218
0.71103674 -0.015373141 0.041297078 4279441689
0.7116273 -0.01564315 0.041229561 4279309331
0.71215862 -0.016127601 0.040959626 4279111952
0.71275091 -0.016398177 0.040892124 4279241741
0.71332431 -0.016740501 0.040757135 4278652424
0.71389866 -0.017083123 0.040622145 4278914826
0.71449292 -0.017354339 0.040554628 4278783240
0.71505034 -0.017769381 0.040352181 4278453504
0.71566457 -0.017969146 0.040352151 4278453254
0.71626055 -0.018240914 0.040284619 4278453002
0.71683913 -0.018584922 0.040149629 4278388231
0.71741867 -0.018929243 0.040014654 4278848782
0.72963923 -0.016202569 0.045816556 4285693572
0.73023349 -0.016395837 0.045816511 4285101172
0.73084056 -0.016515359 0.045883939 4284112992
0.73144716 -0.016634703 0.045951381 4283256913
0.73205322 -0.016753897 0.046018794 4282862153
0.7326588 -0.016872928 0.046086237 4283059532
0.73325211 -0.017065883 0.046086207 4282733123
0.73385692 -0.01718469 0.046153635 4283457357
0.73444998 -0.017377555 0.04615359 4281415728
0.73504299 -0.017570436 0.046153545 4281218349
0.73564684 -0.0176889 0.046220988 4280888367
0.73623967 -0.017881706 0.046220943 4281348148
0.73683244 -0.018074498 0.046220914 4281084972
0.73741513 -0.018341944 0.046153381 4281348138
0.7380082 -0.018534809 0.046153352 4281216552
0.73860127 -0.01872769 0.046153307 4280162833
0.73918492 -0.018995434 0.046085805 4280623382
0.73977822 -0.019188389 0.04608576 4280888346
0.74037153 -0.019381344 0.046085715 4281085220
0.74096477 -0.019574299 0.046085685 4280822048
0.74154973 -0.019842461 0.046018153 4281018655
0.74214327 -0.02003549 0.046018124 4281084448
0.74273682 -0.020228535 0.046018079 4281216286
0.74332273 -0.020497009 0.045950577 4281213722
0.69971961 -0.012738109 0.041261956 4278786568
0.70040637 -0.012727171 0.041463718 4278785042
0.70111609 -0.012645647 0.041732743 4279113488
0.70240992 -0.01283215 0.041934475 4279768607
0.70306754 -0.012889847 0.042068973 4280426537
0.70372421 -0.012947246 0.042203471 4280426792
0.70433348 -0.013145417 0.042203426 4280427562
0.70496577 -0.013272941 0.042270645 4280558380
0.70559752 -0.013400331 0.04233788 4283387477
0.70622873 -0.013527542 0.042405114 4283650649
0.7068373 -0.01372546 0.042405069 4283063647
0.70744586 -0.013923392 0.042405024 4280562480
0.70805442 -0.014121309 0.042404979 4279835410
0.70866299 -0.014319226 0.04240495 4278979849
0.70925033 -0.014588356 0.042337641 4279308814
0.70983815 -0.014857605 0.042270318 4279244312
0.71040577 -0.01519841 0.042135745 4279245842
0.71099484 -0.015468076 0.042068437 4279310364
0.71158445 -0.015737906 0.042001128 4278981138
0.71215451 -0.0160795 0.041866556 4278652173
0.71272552 -0.016421407 0.041731969 4279437324
0.71329761 -0.016763628 0.041597381 4279045389
0.71390909 -0.016962513 0.041597337 4278520836
0.71448261 -0.017305225 0.041462764 4278323457
0.71509463 -0.01750426 0.041462719 4278191872
0.71565109 -0.01791954 0.041260868 4278584331
0.71626389 -0.018118814 0.041260824 4278387209
0.71685863 -0.018390343 0.041193515 4278387461
0.71743608 -0.018734321 0.041058928 4278453254
0.72824734 -0.016627952 0.045901716 4284772466
0.72887021 -0.016674355 0.046036229 4286548877
0.72946548 -0.016867951 0.046036184 4285628541
0.73008692 -0.016913876 0.046170682 4283717464
0.73070735 -0.016959503 0.046305165 4282862925
0.73130161 -0.017152771 0.046305135 4282731854
0.73190826 -0.017271966 0.046372354 4282600268
0.73250228 -0.017465159 0.046372309 4282666310
0.73310816 -0.01758413 0.046439558 4282469953
0.73371351 -0.017702922 0.046506777 4281809469
0.73430705 -0.017895952 0.046506733 4280954156
0.73491174 -0.018014506 0.046573982 4281019949
0.73550498 -0.018207461 0.046573937 4279638296
0.7361089 -0.018325791 0.046641156 4279702292
0.73670197 -0.018518671 0.046641126 4279505437
0.73729497 -0.018711552 0.046641082 4279898140
0.73788804 -0.018904418 0.046641037 4280095519
0.73847145 -0.019172236 0.046573743 4279832597
0.73906469 -0.019365206 0.046573699 4279900694
0.739658 -0.019558147 0.046573654 4280428833
0.7402513 -0.019751102 0.046573624 4280166693
0.74083591 -0.020019338 0.046506301 4279903521
0.74142945 -0.020212382 0.046506256 4280297762
0.74201483 -0.020480856 0.046438947 4280165913
0.74260861 -0.020673975 0.046438918 4280165143
0.68965912 -0.011923164 0.040022731 4279703062
0.69033509 -0.011986494 0.040156826 4278784010
0.6909256 -0.012256786 0.040089726 4278652688
0.69157243 -0.012388915 0.040156737 4278717466
0.69221872 -0.01252085 0.040223777 4279110677
0.69816631 -0.013281286 0.041229397 4279179279
0.69873059 -0.01362133 0.041095227 4279312662
0.69944566 -0.013540849 0.041363463 4279773213
0.70013404 -0.013529956 0.041564599 4279840038
0.70084542 -0.013448268 0.04183282 4280563248
0.70150638 -0.013506696 0.041966915 4280431145
0.70216632 -0.013564825 0.042101011 4281088312
0.70284903 -0.013552085 0.042302161 4280956726
0.70353031 -0.013538852 0.042503342 4280626994
0.70416355 -0.013666555 0.042570353 4280363822
0.70479631 -0.013794109 0.042637378 4280362541
0.70545137 -0.013850614 0.042771474 4282268739
0.70608294 -0.013977766 0.042838499 4282992462
0.70671397 -0.014104739 0.042905524 4283982437
0.70734453 -0.014231563 0.042972565 4282602831
0.70795286 -0.014429405 0.04297252 4282139966
0.70856118 -0.014627248 0.042972475 4278979341
0.70916951 -0.014825091 0.042972431 4279110927
0.70975679 -0.01509437 0.042905316 4279571478
0.71036536 -0.015292287 0.042905271 4279376145
0.71093285 -0.015633374 0.042771101 4278982169
0.71154189 -0.015831456 0.042771056 4278981649
0.71211088 -0.016173035 0.042636886 4278455305
0.71270066 -0.016443089 0.042569786 4279110155
0.71329093 -0.016713321 0.042502671 4278979596
0.71388167 -0.016983718 0.042435557 4278586629
0.71449196 -0.017182201 0.042435527 4278388480
0.71506464 -0.017524987 0.042301342 4278388480
0.71565688 -0.017795861 0.042234242 4278518795
0.71626788 -0.017994583 0.042234197 4278453256
0.71687889 -0.018193305 0.042234153 4278518788
0.71745431 -0.018536955 0.042099983 4278584581
0.72750258 -0.016952842 0.046257541 4280428586
0.72809887 -0.017146751 0.046257511 4284773234
0.72870874 -0.01726684 0.046324521 4286089094
0.72931808 -0.017386764 0.046391562 4285891197
0.729927 -0.017506525 0.046458587 4284047450
0.73053539 -0.017626137 0.046525612 4282930250
0.7311433 -0.017745599 0.046592638 4282009926
0.73175067 -0.017864868 0.046659678 4282207305
0.73235762 -0.017984003 0.046726689 4282469448
0.7329759 -0.018028587 0.046860769 4282402885
0.73356992 -0.018221781 0.04686074 4281480254
0.73417538 -0.018340424 0.046927765 4281150510
0.73478031 -0.018458903 0.04699479 4281282096
0.73537385 -0.018651947 0.046994761 4280162845
0.73597807 -0.018770188 0.047061786 4279702292
0.73657131 -0.018963143 0.047061756 4279569954
0.73716462 -0.019156098 0.047061712 4279897375
0.73775792 -0.019349054 0.047061667 4279963168
0.73835123 -0.019542009 0.047061637 4279898910
0.73893505 -0.019810155 0.046994507 4279900448
0.7395286 -0.020003185 0.046994478 4279835425
0.74012208 -0.020196229 0.046994433 4279638818
0.74072433 -0.020313829 0.047061473 4279573025
0.74130917 -0.020582303 0.046994358 4279969316
0.74189448 -0.020850927 0.046927258 4280034075
0.74248827 -0.021044046 0.046927214 4280230168
0.68894345 -0.012038663 0.04059881 4279374099
0.68961978 -0.012101755 0.040732503 4279571478
0.69020969 -0.012372077 0.040665582 4279111954
0.69082838 -0.012573287 0.040665537 4278652438
0.69144702 -0.012774497 0.040665507 4278586911
0.692038 -0.013045102 0.040598601 4278717729
0.69265687 -0.013246387 0.040598556 4278915108
0.69327581 -0.013447687 0.040598527 4279639331
0.69394869 -0.013509661 0.040732205 4280561716
0.69459385 -0.013641059 0.040799022 4279839025
0.69521201 -0.013842106 0.040798977 4280299576
0.6959089 -0.013833463 0.040999547 4279970613
0.6966303 -0.013754383 0.041266948 4280431677
0.69727254 -0.013884798 0.04133378 4280235066
0.69788873 -0.014085203 0.041333735 4279970093
0.6985302 -0.01421541 0.041400552 4280693302
0.69922113 -0.014204845 0.041601107 4280298544
0.6999107 -0.014193803 0.041801661 4280166447
0.70059872 -0.014182284 0.042002201 4279834402
0.70128524 -0.014170289 0.042202756 4279768612
0.70194632 -0.014228418 0.042336434 4279833632
0.70263016 -0.014215544 0.042536989 4279570460
0.70331252 -0.014202178 0.042737544 4279043099
0.70397013 -0.014259189 0.042871237 4278651673
0.70462674 -0.014315873 0.04300493 4278651671
0.70528239 -0.014372244 0.043138608 4280294181
0.70593703 -0.014428288 0.043272287 4280952111
0.70659065 -0.014484033 0.04340598 4281674286
0.70722127 -0.014610693 0.043472812 4284572252
0.70785141 -0.014737189 0.043539628 4284048731
0.70848107 -0.014863536 0.04360646 4283127629
0.70908886 -0.015061215 0.043606415 4280693288
0.70969671 -0.015258908 0.043606386 4279767823
0.7102837 -0.015528247 0.043539464 4279506710
0.71087116 -0.015797749 0.043472558 4278981399
0.71149981 -0.015923768 0.04353939 4278652175
0.71206772 -0.016265348 0.043405607 4278586382
0.71265644 -0.016535252 0.043338716 4278783757
0.71324563 -0.016805291 0.043271795 4279110159
0.71385473 -0.017003387 0.04327175 4278652171
0.71444464 -0.017273679 0.043204859 4278585089
0.71503514 -0.01754415 0.043137938 4278782468
0.71564466 -0.017742395 0.043137908 4278913546
0.71627259 -0.017868176 0.04320474 4279505433
0.71688187 -0.018066347 0.043204695 4279439892
0.71749115 -0.018264502 0.04320465 4279573778
0.72614527 -0.017157584 0.046547368 4281814081
0.72674227 -0.017351747 0.046547323 4281747524
0.72735345 -0.017472073 0.04661414 4282996309
0.7279641 -0.017592266 0.046680957 4285365367
0.72856057 -0.017786264 0.046680912 4285628539
0.7291705 -0.017906189 0.046747744 4285168758
0.72977996 -0.018025964 0.046814561 4283194202
0.73038888 -0.018145576 0.046881393 4282536270
0.73099732 -0.018265024 0.046948224 4282009160
0.73160523 -0.018384323 0.047015056 4281943367
0.73222494 -0.018428996 0.047148749 4281218613
0.73281968 -0.018622428 0.047148705 4280889650
0.73343784 -0.018666625 0.047282383 4281084726
0.7340436 -0.018785194 0.0473492 4281279532
0.73463762 -0.018978402 0.047349155 4281147946
0.73524261 -0.019096732 0.047415987 4280883488
0.73583639 -0.019289836 0.047415957 4280293148
0.73644066 -0.019407928 0.047482774 4280426015
0.7370342 -0.019600973 0.047482729 4280099617
0.73762769 -0.019794002 0.047482684 4279968031
0.73822123 -0.019987032 0.047482654 4279837211
0.73881477 -0.020180076 0.04748261 4279769882
0.73940831 -0.020373106 0.047482565 4280163874
0.74000186 -0.020566136 0.047482535 4279769634
0.74058664 -0.020834774 0.047415629 4279769634
0.7411719 -0.021103546 0.047348723 4279835429
0.74175763 -0.021372497 0.047281817 4280491045
0.68887603 -0.012286052 0.041241109 4280494375
0.68952322 -0.012417942 0.041307718 4279704859
0.69011283 -0.012688309 0.04124102 4279374099
0.69073129 -0.012889445 0.041240975 4278783509
0.69132167 -0.01316008 0.041174263 4278653721
0.69194031 -0.01336129 0.041174218 4278850335
0.692559 -0.013562486 0.041174188 4278784542
0.69317764 -0.013763696 0.041174144 4280298029
0.69379634 -0.013964906 0.041174099 4281023551
0.6944418 -0.014096215 0.041240722 4280760642
0.69508672 -0.014227375 0.041307345 4280365884
0.69573116 -0.014358371 0.041373968 4279838773
0.69640124 -0.014419079 0.041507259 4279706417
0.69701862 -0.014619887 0.041507214 4279574581
0.69771272 -0.014609843 0.041707143 4279507495
0.69838005 -0.014669657 0.041840434 4279439142
0.69904637 -0.014729172 0.04197371 4279373349
0.69971168 -0.014788359 0.042107001 4279174683
0.70037603 -0.014847234 0.042240277 4279502103
0.70106375 -0.014835089 0.042440221 4279044632
0.70174998 -0.014822468 0.042640164 4279043349
0.70243472 -0.01480937 0.042840093 4279043349
0.70311797 -0.01479578 0.043040037 4278780692
0.70377636 -0.014852718 0.043173313 4278453524
0.70448005 -0.01476717 0.043439925 4278387729
0.70515883 -0.01475215 0.043639868 4279438872
0.70581359 -0.01480788 0.043773144 4280031009
0.70644498 -0.014934644 0.043839782 4281147428
0.70709801 -0.014989823 0.043973058 4283584079
0.70772821 -0.01511617 0.044039682 4283915864
0.70837951 -0.015170783 0.044172958 4282997324
0.70898706 -0.015368387 0.044172928 4283194703
0.70961577 -0.015494272 0.044239536 4279771670
0.71022308 -0.015691802 0.044239491 4279442200
0.71080977 -0.0159612 0.044172794 4279244312
0.71141738 -0.016158804 0.044172764 4278717968
0.71200478 -0.016428456 0.044106066 4278783761
0.71261263 -0.016626149 0.044106022 4278981653
0.71322048 -0.016823828 0.044105977 4279374106
0.71380889 -0.017093807 0.044039264 4279047446
0.71441692 -0.017291561 0.044039235 4279572754
0.71502501 -0.017489329 0.04403919 4279309582
0.71563309 -0.017687097 0.044039145 4280624415
0.71625954 -0.017812237 0.044105768 4280427814
0.71688557 -0.017937228 0.044172391 4280889899
0.71752894 -0.017989293 0.044305667 4280891423
0.71818906 -0.017968178 0.044505611 4281023009
0.72476953 -0.017435953 0.04677172 4282538826
0.72536749 -0.017630428 0.046771675 4282078275
0.72596544 -0.017824918 0.046771646 4281683012
0.72660685 -0.017797709 0.046971574 4282933083
0.72718984 -0.018065915 0.046904892 4285036406
0.72780132 -0.018186182 0.0469715 4285298547
0.72841227 -0.018306285 0.047038138 4286285442
0.72902274 -0.018426225 0.047104746 4285035628
0.72963268 -0.018546015 0.047171369 4282732887
0.73024213 -0.018665627 0.047237992 4282206030
0.73085117 -0.018785089 0.047304615 4281613121
0.73145962 -0.018904388 0.047371238 4281613121
0.73206764 -0.019023523 0.047437862 4280821796
0.73267514 -0.019142509 0.047504485 4281151018
0.73329389 -0.019186556 0.047637776 4281084717
0.73388869 -0.019379988 0.047637731 4281016609
0.73450595 -0.019423559 0.047771007 4281082402
0.73511124 -0.019541815 0.047837615 4280884509
0.73570526 -0.019735008 0.047837585 4280687644
0.73629934 -0.019928202 0.047837541 4280295452
0.73690361 -0.020046145 0.047904164 4279902238
0.73749739 -0.020239264 0.047904134 4280099617
0.73809117 -0.020432368 0.047904089 4279640349
0.73868495 -0.020625487 0.047904044 4279967514
0.73926944 -0.020894185 0.047837332 4280163870
0.73986346 -0.021087378 0.047837302 4280098081
0.7404663 -0.021204844 0.047903925 4280098081
0.7410515 -0.02147378 0.047837213 4280097829
0.68939793 -0.012803212 0.041816071 4282009412
0.69001609 -0.013004273 0.041816026 4279308807
0.69060594 -0.013274863 0.041749537 4279242515
0.69122434 -0.013475999 0.041749492 4278915858
0.69184279 -0.01367712 0.041749448 4279177499
0.69246119 -0.013878256 0.041749418 4279309085
0.69307959 -0.014079377 0.041749373 4280034087
0.69369805 -0.014280513 0.041749328 4279444519
0.69431645 -0.014481634 0.041749284 4278781985
0.69498807 -0.01454252 0.041882172 4278781985
0.69560599 -0.014743492 0.041882128 4278977304
0.69627607 -0.014803901 0.042015001 4278912278
0.69691938 -0.014934346 0.042081416 4278584856
0.69756216 -0.015064642 0.042147815 4278585110
0.69822979 -0.015124246 0.042280704 4278715676
0.69887137 -0.01525411 0.042347118 4278584090
0.69953728 -0.015313163 0.042480007 4278583831
0.70020223 -0.015371874 0.04261288 4278714897
0.7008906 -0.015359446 0.042812213 4278518540
0.70155334 -0.015417427 0.042945087 4278387209
0.70226282 -0.015333116 0.043210879 4278518795
0.70292306 -0.015390307 0.043343753 4278518795
0.70362914 -0.015304863 0.043609545 4278452752
0.70431006 -0.015290022 0.043808877 4278584083
0.70498955 -0.015274689 0.044008225 4279437587
0.7056675 -0.015258878 0.044207558 4280029724
0.7063216 -0.015314087 0.044340447 4280094475
0.70699692 -0.015297383 0.044539765 4280557088
0.70762688 -0.015423506 0.044606194 4281216051
0.70825636 -0.015549451 0.044672608 4282467145
0.70888537 -0.015675262 0.044739023 4283519833
0.70951384 -0.015800908 0.044805452 4283391577
0.71012092 -0.015998349 0.044805408 4281551430
0.71072805 -0.016195789 0.044805363 4279839277
0.71135557 -0.016321108 0.044871777 4279904302
0.7119422 -0.01659067 0.044805288 4280628025
0.71254927 -0.01678811 0.044805244 4281548613
0.71315634 -0.016985551 0.044805199 4281219133
0.71376342 -0.017183006 0.044805154 4281153592
0.71437049 -0.017380446 0.044805124 4281482553
0.71497762 -0.017577887 0.04480508 4281614139
0.7155847 -0.017775327 0.044805035 4281745978
0.71622866 -0.017827243 0.044937924 4281549624
0.7168535 -0.017951682 0.045004323 4281353265
0.7174958 -0.018003017 0.045137212 4281813802
0.71813709 -0.018054053 0.045270085 4281616423
0.71879482 -0.018031687 0.045469418 4282207013
0.72337365 -0.017787918 0.046931252 4282336830
0.72400385 -0.017835349 0.047064111 4282138681
0.72460258 -0.018030077 0.047064081 4282795335
0.72521627 -0.018150896 0.04713051 4282334784
0.72582954 -0.018271565 0.04719691 4281614404
0.72642773 -0.018466115 0.04719688 4281088572
0.72704023 -0.018586546 0.047263309 4282270269
0.72763819 -0.018781021 0.047263265 4282728508
0.72824991 -0.018901214 0.047329679 4282728508
0.72886121 -0.019021243 0.047396109 4281806125
0.72947192 -0.019141123 0.047462508 4281148457
0.73008221 -0.019260824 0.047528937 4280689959
0.73070478 -0.019305766 0.047661811 4280298010
0.73131382 -0.019425079 0.04772824 4280232217
0.73192239 -0.019544214 0.047794655 4280756505
0.73253042 -0.0196632 0.047861084 4280754200
0.73313797 -0.019782022 0.047927484 4280952349
0.7337566 -0.019825682 0.048060372 4280821265
0.73435158 -0.020019203 0.048060328 4280821265
0.73496878 -0.020062372 0.048193216 4280557841
0.73557407 -0.020180494 0.048259631 4280361493
0.73616838 -0.020373762 0.048259586 4280230936
0.73676264 -0.020567045 0.048259541 4279639331
0.7373569 -0.020760313 0.048259512 4279639331
0.73795116 -0.020953596 0.048259467 4279837228
0.73855501 -0.021071211 0.048325881 4281809985
0.73914909 -0.021264419 0.048325837 4281483070
0.73973399 -0.021533415 0.048259348 4281287224
0.74033713 -0.021650806 0.048325762 4280760880
0.74092251 -0.021919981 0.048259273 4280891443
0.68921494 -0.013327613 0.042191923 4283190352
0.68986219 -0.013459161 0.042258143 4282862136
0.69045228 -0.013730019 0.042191833 4280165145
0.69112718 -0.013791636 0.042324305 4278981389
0.69174534 -0.013992682 0.04232426 4279376147
0.6923635 -0.014193729 0.042324215 4279178768
0.69298166 -0.014394775 0.042324185 4279179028
0.69359982 -0.014595836 0.042324141 4278784790
0.69421804 -0.014796883 0.042324096 4278387981
0.69488949 -0.014857367 0.042456567 4278518547
0.69553351 -0.014987901 0.042522788 4278518547
0.69615096 -0.015188709 0.042522743 4278518288
0.69679427 -0.01531899 0.042588964 4278453002
0.6974628 -0.015378535 0.042721435 4278323210
0.69810492 -0.015508443 0.042787641 4278389014
0.69877166 -0.015567407 0.042920113 4278190864
0.69941252 -0.015696898 0.042986333 4278192384
0.70007759 -0.015755311 0.043118805 4278520848
0.70076609 -0.015742406 0.043317527 4278652688
0.70142889 -0.015800089 0.043449998 4278193936
0.70211464 -0.01578632 0.04364872 4278523415
0.70279896 -0.01577206 0.043847457 4278983446
0.70348179 -0.015757307 0.044046178 4278981651
0.70418632 -0.015670687 0.044311166 4278915606
0.70484298 -0.015726373 0.044443637 4279178519
0.70552135 -0.01571019 0.044642359 4279441691
0.70619828 -0.01569353 0.044841096 4279899924
0.70685148 -0.015748084 0.044973567 4279966236
0.70750368 -0.015802324 0.045106038 4279834907
0.70813322 -0.015928134 0.045172259 4280163620
0.70878375 -0.015981823 0.045304731 4279966241
0.70941204 -0.016107231 0.045370936 4282332479
0.71001887 -0.016304597 0.045370892 4284114025
0.71064645 -0.016429767 0.045437112 4283459423
0.71125305 -0.016627043 0.045437083 4281419844
0.71185964 -0.01682432 0.045437038 4281288258
0.71246624 -0.017021611 0.045436993 4281286721
0.71309257 -0.017146364 0.045503199 4281417791
0.71369892 -0.017343566 0.045503169 4281549112
0.71432447 -0.017468095 0.04556939 4281680185
0.71493059 -0.017665207 0.045569345 4281943357
0.71553671 -0.017862335 0.045569301 4282139453
0.71616131 -0.017986536 0.045635521 4282205244
0.71676713 -0.018183574 0.045635477 4281680435
0.71740901 -0.018234462 0.045767948 4281877294
0.71806771 -0.018211871 0.04596667 4281943087
0.71870738 -0.018262029 0.046099156 4281745449
0.71936333 -0.01823853 0.046297878 4281678132
0.72001779 -0.018214583 0.0464966 4281808943
0.72130579 -0.018238768 0.046827808 4282137138
0.7219398 -0.018287092 0.046960279 4282202931
0.72260493 -0.018187657 0.047225267 4280691489
0.72320485 -0.018382773 0.047225222 4280757282
0.72382033 -0.018504009 0.047291458 4282002472
0.72443533 -0.018625081 0.047357664 4282067762
0.72504985 -0.018746004 0.047423884 4281475625
0.72566384 -0.018866763 0.04749009 4280887345
0.72626281 -0.019061565 0.04749006 4280363824
0.72687608 -0.019182086 0.047556266 4281282353
0.72748888 -0.019302443 0.047622487 4282335287
0.72810113 -0.019422635 0.047688693 4281611564
0.72871298 -0.019542664 0.047754928 4281608484
0.72931093 -0.019737139 0.047754884 4281674537
0.729922 -0.01985693 0.04782109 4280819743
0.73053253 -0.019976556 0.047887325 4280558608
0.73114264 -0.020096049 0.047953531 4280427022
0.73176455 -0.020140439 0.048086002 4280821780
0.73237336 -0.020259514 0.048152223 4280622885
0.73298174 -0.020378426 0.048218444 4280426520
0.73360121 -0.020422012 0.048350915 4280492048
0.73420829 -0.020540521 0.048417121 4280821013
0.73481494 -0.020658866 0.048483357 4280361229
0.73542106 -0.020777076 0.048549563 4280888343
0.73601604 -0.020970598 0.048549518 4281019932
0.73662144 -0.021088541 0.048615754 4280494379
0.73721623 -0.021281973 0.048615709 4280889137
0.73781097 -0.021475419 0.048615664 4282797145
0.73842502 -0.021517247 0.048748136 4290293935
0.7390005 -0.021862283 0.04861559 4284832867
0.73960441 -0.021979749 0.048681796 4281940031
0.74019003 -0.022249162 0.0486155 4281808445
0.66531634 0.0043819994 0.051355541 4280693037
0.68970823 -0.013914391 0.042700633 4283653455
0.69038373 -0.013975859 0.042832702 4280890921
0.69103009 -0.014106944 0.042898729 4279970846
0.69162005 -0.014377952 0.042832628 4280431913
0.69223821 -0.014579013 0.042832583 4280431913
0.69288385 -0.014709845 0.042898595 4278918425
0.69350177 -0.014910817 0.042898551 4278917139
0.69411969 -0.015111789 0.042898521 4278191620
0.69479102 -0.0151719 0.04303059 4278453776
0.69543487 -0.015302196 0.043096587 4278387983
0.69607824 -0.015432343 0.043162599 4278781714
0.69672114 -0.015562326 0.043228611 4278717198
0.69736356 -0.01569216 0.043294623 4278652171
0.69800544 -0.0158218 0.043360636 4278586641
0.69867206 -0.015880391 0.043492705 4278652434
0.69931275 -0.016009644 0.043558717 4278522383
0.69997764 -0.016067684 0.043690786 4279115802
0.70064157 -0.016125381 0.043822855 4278589973
0.70132869 -0.016111538 0.044020966 4278591520
0.70199037 -0.01616852 0.044153035 4278920485
0.70267487 -0.016153798 0.044351146 4278722842
0.70335782 -0.016138598 0.044549257 4278984467
0.70403928 -0.016122907 0.044747397 4279179798
0.70471931 -0.016106725 0.044945508 4279245341
0.70539784 -0.01609008 0.045143619 4279376927
0.70607489 -0.016072959 0.04534176 4279507484
0.70672822 -0.016127214 0.045473829 4279572507
0.70738053 -0.016181156 0.045605898 4279637526
0.70801014 -0.016306803 0.045671895 4279966491
0.70866072 -0.016360179 0.045803964 4279769112
0.70928907 -0.016485453 0.045869976 4280622115
0.70991695 -0.016610533 0.045936003 4282005826
0.71054429 -0.016735464 0.046002001 4282665546
0.71115065 -0.016932666 0.046001956 4282667090
0.711757 -0.017129868 0.046001926 4281943367
0.71236336 -0.01732707 0.046001881 4281220928
0.71298945 -0.017451599 0.046067894 4281418040
0.71359557 -0.017648712 0.046067864 4281219884
0.71420169 -0.017845839 0.046067819 4281021222
0.71480775 -0.018042952 0.046067774 4281547566
0.71543264 -0.018167078 0.046133786 4282072115
0.71605706 -0.018291056 0.046199813 4281282602
0.716681 -0.01841487 0.046265811 4281087017
0.71730441 -0.01853852 0.046331823 4281415212
0.71794516 -0.018588692 0.046463892 4280296731
0.71858495 -0.018638536 0.046595961 4281019684
0.71924108 -0.01861459 0.046794072 4281282094
0.71987861 -0.018663749 0.046926141 4281348390
0.72051519 -0.01871255 0.04705821 4281017624
0.72113419 -0.018834755 0.047124222 4281149476
0.72176898 -0.018883005 0.047256291 4281281062
0.72240287 -0.018930942 0.04738836 4280690462
0.7230199 -0.019052491 0.047454372 4280624926
0.72365201 -0.019099876 0.047586441 4281213726
0.72425246 -0.019295156 0.047586396 4281607981
0.724868 -0.019416228 0.047652423 4281147430
0.72548306 -0.019537151 0.047718421 4280690736
0.72609758 -0.01965791 0.047784448 4280363054
0.72671163 -0.01977852 0.04785046 4281150258
0.72731107 -0.019973472 0.047850415 4282597435
0.72792441 -0.020093843 0.047916442 4281676333
0.72853726 -0.020214051 0.047982439 4281279519
0.72916299 -0.020259336 0.048114523 4281214499
0.72977459 -0.020379141 0.048180521 4280688676
0.73038566 -0.020498782 0.048246548 4280887069
0.73099631 -0.02061826 0.04831256 4280492311
0.73160642 -0.020737574 0.048378572 4281018905
0.73221606 -0.020856738 0.048444584 4280952612
0.73283708 -0.020900503 0.048576653 4281414958
0.73344547 -0.02101928 0.048642665 4281151013
0.73406482 -0.021062464 0.048774734 4281151013
0.73467195 -0.021180823 0.048840761 4282335789
0.73527861 -0.021299019 0.048906758 4281546528
0.73587412 -0.021492705 0.048906729 4281085725
0.73646963 -0.021686375 0.048906684 4281217833
0.73706514 -0.021880046 0.048906639 4281152040
0.7376706 -0.021997839 0.048972666 4281479480
0.73826581 -0.022191435 0.048972622 4283118643
0.73886108 -0.022385031 0.048972592 4282856763
0.73946553 -0.022502527 0.049038589 4282003768
0.66390163 0.0042001456 0.051640287 4280298281
0.6646111 0.0042072386 0.051837802 4280298794
0.66523802 0.004082635 0.05190362 4280364587
0.66594505 0.0040905178 0.05210112 4280232999
0.69028693 -0.014291093 0.043406919 4281745206
0.6908766 -0.014562175 0.043341026 4280692518
0.69152278 -0.014693037 0.043406844 4280759848
0.6921407 -0.014893994 0.043406799 4281154606
0.6927861 -0.015024632 0.043472603 4280366120
0.69340378 -0.01522553 0.043472558 4280170789
0.69402146 -0.015426412 0.043472514 4279772436
0.69469261 -0.015486136 0.04360418 4279443223
0.69533628 -0.015616208 0.043669984 4279772188
0.69597948 -0.015746102 0.043735802 4278851098
0.69662213 -0.015875861 0.043801606 4279442972
0.69726437 -0.016005427 0.043867424 4279311889
0.69793159 -0.016063884 0.043999076 4279311117
0.69857258 -0.016193062 0.044064879 4279574289
0.69923806 -0.016250953 0.044196546 4279376399
0.6998778 -0.016379729 0.044262365 4279377428
0.70054156 -0.016437039 0.044394031 4278787354
0.7012043 -0.016494051 0.044525668 4278919710
0.70189017 -0.016479269 0.044723183 4278919710
0.70255071 -0.016535535 0.04485485 4278985503
0.70323384 -0.016519874 0.04505235 4278984982
0.70391548 -0.016503736 0.045249879 4279246871
0.70459563 -0.016487092 0.045447379 4279505690
0.70525151 -0.016541839 0.045579046 4279768862
0.70592898 -0.01652433 0.045776561 4279310616
0.70658261 -0.016578376 0.045908213 4279833880
0.70725739 -0.016559973 0.046105742 4279637252
0.70790881 -0.01661329 0.046237394 4279769108
0.7085377 -0.016738549 0.046303213 4279703315
0.70916611 -0.016863659 0.046369016 4279900441
0.70979404 -0.01698859 0.046434835 4280559400
0.71042144 -0.017113358 0.046500638 4280756009
0.7110278 -0.01731056 0.046500593 4280624425
0.71165448 -0.017435104 0.046566412 4280558632
0.71226054 -0.017632216 0.046566367 4280559400
0.71286666 -0.017829344 0.046566322 4280626464
0.71349233 -0.01795356 0.046632141 4280626462
0.71409822 -0.018150598 0.046632096 4280295959
0.71472317 -0.018274561 0.046697915 4280164373
0.71530992 -0.018544674 0.046632007 4280163094
0.71593434 -0.018668488 0.046697825 4280557854
0.71655834 -0.018792152 0.046763629 4280230433
0.71716368 -0.018989041 0.046763599 4279900443
0.71780479 -0.01903899 0.046895251 4280163615
0.7184273 -0.019162163 0.046961054 4280360222
0.71906662 -0.019211546 0.047092721 4280820773
0.71968794 -0.019334316 0.047158524 4280756003
0.72032559 -0.019383132 0.047290191 4280756253
0.72096223 -0.019431666 0.047421858 4280624667
0.72158152 -0.019553795 0.047487661 4280690462
0.72221643 -0.019601732 0.047619328 4280295961
0.72283453 -0.01972346 0.047685146 4280165143
0.72345209 -0.019845024 0.04775095 4280559131
0.72406912 -0.019966424 0.047816768 4280361251
0.72468573 -0.020087689 0.047882572 4280756009
0.7253018 -0.020208776 0.047948375 4279966241
0.7259174 -0.020329729 0.048014194 4280757551
0.72653246 -0.020450488 0.048080012 4281875258
0.7271471 -0.020571098 0.048145831 4282402873
0.72776121 -0.020691544 0.048211634 4282337080
0.72837484 -0.020811826 0.048277453 4281546278
0.72898793 -0.020931959 0.048343256 4281679154
0.72961378 -0.020976946 0.048474923 4281415990
0.73022568 -0.021096677 0.048540726 4281284406
0.73083705 -0.021216244 0.048606545 4282271301
0.73144799 -0.021335647 0.048672348 4282073142
0.73207062 -0.021379575 0.048804015 4281808941
0.73268026 -0.021498576 0.048869833 4282333752
0.73330116 -0.021541968 0.0490015 4281543985
0.73390961 -0.021660566 0.049067304 4281741364
0.73451757 -0.021779031 0.049133107 4281544486
0.73513603 -0.021821588 0.049264774 4280952860
0.73572129 -0.022091225 0.049198896 4280822305
0.73631752 -0.022285149 0.049198851 4281217059
0.73691374 -0.022479057 0.049198806 4281217059
0.73751003 -0.022672981 0.049198762 4281544484
0.73811597 -0.022790775 0.04926458 4282069033
0.73870248 -0.023060814 0.049198687 4281806375
0.739308 -0.023178458 0.049264491 4281807660
0.66370046 0.0037020445 0.05199182 4280233003
0.66436976 0.0036432743 0.052123085 4280364589
0.66503811 0.0035848171 0.052254334 4280167722
0.66570538 0.0035266876 0.052385598 4280233515
0.69010466 -0.014816567 0.043783784 4281086514
0.69080788 -0.014806941 0.043980673 4280034075
0.69139755 -0.015078142 0.043914989 4280889384
0.69204324 -0.015208706 0.043980598 4281415728
0.69268847 -0.015339106 0.044046208 4280563499
0.69330591 -0.015539914 0.044046164 4280366887
0.69395036 -0.015670061 0.044111773 4280495389
0.69456756 -0.015870795 0.044111729 4279641367
0.69523782 -0.015929893 0.044242978 4279772953
0.69588077 -0.016059577 0.044308588 4279180829
0.69652331 -0.016189069 0.044374198 4279377692
0.69719112 -0.016247362 0.044505447 4279443221
0.69783235 -0.01637648 0.044571057 4279640852
0.69849849 -0.016434222 0.044702306 4279640852
0.69913852 -0.016562924 0.044767931 4279640080
0.69980288 -0.016620085 0.044899181 4279772440
0.70044166 -0.016748399 0.04496479 4278655253
0.70110428 -0.016805008 0.045096025 4278984731
0.70179003 -0.01678969 0.045292944 4279050524
0.70245045 -0.016845569 0.045424193 4279050524
0.70310986 -0.01690115 0.045555443 4279050009
0.70379162 -0.01688455 0.045752361 4279377690
0.70447195 -0.016867444 0.04594925 4279570193
0.70515078 -0.016849875 0.046146154 4280096537
0.70580554 -0.016903922 0.046277419 4279638549
0.70645928 -0.016957656 0.046408668 4279834129
0.70711207 -0.017011061 0.046539932 4279571461
0.70776385 -0.017064139 0.046671182 4279703064
0.70841467 -0.017116904 0.046802446 4279505685
0.70904315 -0.017241865 0.046868041 4279703323
0.70964998 -0.017439231 0.046868011 4279902240
0.71027768 -0.017563924 0.046933621 4279572503
0.7109049 -0.017688468 0.046999231 4280098847
0.71151125 -0.01788567 0.046999186 4280164640
0.71211761 -0.018082872 0.046999142 4280230433
0.71274382 -0.018207088 0.047064766 4280559901
0.71336955 -0.018331155 0.047130361 4280428313
0.713956 -0.018601328 0.047064677 4280165145
0.71456212 -0.018798456 0.047064632 4279967766
0.71518713 -0.018922269 0.047130242 4280163348
0.71579295 -0.019119322 0.047130197 4280229914
0.71641725 -0.019242898 0.047195807 4280033054
0.71702284 -0.019439861 0.047195777 4279834648
0.71764636 -0.019563213 0.047261372 4279966234
0.71825171 -0.019760087 0.047261328 4280294429
0.71889192 -0.01980941 0.047392577 4280820773
0.71951401 -0.01993227 0.047458187 4280821794
0.72013557 -0.020054966 0.047523797 4280822298
0.72075659 -0.020177513 0.047589406 4280822298
0.72139364 -0.020225778 0.047720671 4280756510
0.72202963 -0.020273745 0.047851935 4280758050
0.72263277 -0.020469904 0.04785189 4280494878
0.72326732 -0.020517394 0.04798314 4281020452
0.72388542 -0.020638958 0.04804875 4281086245
0.72448784 -0.020834878 0.048048705 4281085995
0.72510523 -0.020956218 0.048114315 4281284154
0.7257368 -0.021002725 0.048245579 4281415740
0.72635293 -0.021123663 0.048311189 4282402625
0.72696859 -0.021244451 0.048376784 4282665797
0.72758371 -0.021365061 0.048442394 4282469951
0.72819835 -0.021485522 0.048508003 4281809966
0.72881252 -0.021605819 0.048573613 4281809970
0.72943944 -0.021650806 0.048704877 4281612086
0.73005235 -0.021770701 0.048770487 4281085744
0.73067755 -0.021815136 0.048901752 4281414709
0.73128927 -0.021934628 0.048967347 4281676852
0.73191273 -0.021978512 0.049098611 4281676335
0.7325232 -0.022097602 0.049164221 4281675050
0.73313314 -0.022216529 0.049229831 4281411627
0.73375416 -0.022259593 0.049361095 4281609006
0.7343629 -0.022378132 0.04942669 4281872683
0.73497117 -0.022496507 0.049492314 4281741095
0.73556811 -0.022690669 0.04949227 4281479208
0.73616511 -0.022884816 0.049492225 4281282597
0.73675179 -0.023155078 0.049426541 4281216804
0.73734903 -0.023349315 0.049426496 4281808423
0.73794627 -0.023543552 0.049426451 4282070310
0.73852444 -0.02389048 0.049295112 4281478693
0.73914075 -0.02393204 0.049426377 4281544234
0.66270417 0.003063798 0.052016988 4279970095
0.66349912 0.0032033324 0.052344158 4279970095
0.6642099 0.0032110214 0.052540451 4280429615
0.6648379 0.003086403 0.052605867 4280494892
0.66550583 0.0030284077 0.052736714 4280298542
0.66605234 0.0027710497 0.052671224 4279970093
0.69059777 -0.015403122 0.044292301 4279836962
0.69130039 -0.015392795 0.044488594 4280099100
0.69191808 -0.015593678 0.044488549 4280230686
0.69256335 -0.015723914 0.04455395 4280954156
0.6932081 -0.015853986 0.044619352 4280494379
0.69385237 -0.015983924 0.044684753 4280755750
0.69449615 -0.016113684 0.044750169 4280229914
0.69513941 -0.016243279 0.044815555 4280164121
0.69578224 -0.01637271 0.044880971 4279377179
0.69645065 -0.016430855 0.045011833 4279442972
0.69709218 -0.016559899 0.04507722 4279639830
0.69773328 -0.016688764 0.045142636 4279443475
0.69837385 -0.016817495 0.045208037 4279377682
0.69903904 -0.016874596 0.045338884 4279508244
0.69970328 -0.01693137 0.045469746 4279704859
0.70034188 -0.01705946 0.045535132 4278982934
0.70100433 -0.017115667 0.045665994 4279180827
0.70166582 -0.017171592 0.045796841 4279246620
0.70232636 -0.017227158 0.045927688 4279375894
0.70298588 -0.017282441 0.046058536 4279179028
0.70366782 -0.017265365 0.046254843 4279505440
0.70432514 -0.017319903 0.046385691 4279440151
0.70498145 -0.017374113 0.046516538 4280427046
0.7056368 -0.017428026 0.046647385 4279639317
0.7062912 -0.017481595 0.046778232 4279639317
0.70694453 -0.017534867 0.046909094 4279638547
0.70759696 -0.017587796 0.047039941 4279308058
0.70824832 -0.017640412 0.047170788 4279571230
0.70887733 -0.017765373 0.047236189 4279244310
0.70950586 -0.017890155 0.047301605 4279442453
0.71013385 -0.018014804 0.047367007 4279113488
0.71076137 -0.018139258 0.047432423 4279574039
0.71136796 -0.018336549 0.047432378 4279639832
0.71197456 -0.018533826 0.047432333 4279903004
0.71258116 -0.018731117 0.047432289 4280230168
0.71320742 -0.018855184 0.04749769 4280231186
0.71381378 -0.019052386 0.047497645 4280494358
0.71442008 -0.019249588 0.047497615 4281086495
0.71502644 -0.01944679 0.047497571 4279770637
0.7156328 -0.019643992 0.047497526 4279968532
0.71623915 -0.019841194 0.047497496 4280758048
0.71686369 -0.019964695 0.047562897 4280888864
0.71746981 -0.020161822 0.047562867 4280230934
0.71809363 -0.020285085 0.047628254 4280887841
0.71869946 -0.020482123 0.047628224 4281216811
0.71932256 -0.020605147 0.04769364 4281480235
0.71994513 -0.020728022 0.047759026 4281876263
0.72056723 -0.020850733 0.047824427 4281613091
0.72120535 -0.020899028 0.047955289 4281153571
0.7218262 -0.021021321 0.048020691 4281285929
0.72244656 -0.021143466 0.048086092 4281220395
0.72306645 -0.021265447 0.048151493 4281807660
0.72368586 -0.021387279 0.048216909 4282070832
0.72430474 -0.021508932 0.04828231 4281479206
0.72492313 -0.021630451 0.048347726 4281611316
0.72555578 -0.021676987 0.048478559 4281348918
0.72617298 -0.021798089 0.048543975 4281875509
0.72678965 -0.021919027 0.048609376 4282401853
0.72740585 -0.022039816 0.048674792 4282795834
0.7280215 -0.022160426 0.048740193 4281742378
0.72863674 -0.022280887 0.048805609 4281413163
0.72925144 -0.022401199 0.048871011 4281347370
0.72987866 -0.022445977 0.049001858 4281215784
0.73050493 -0.022490412 0.04913272 4281544749
0.73110515 -0.022685617 0.049132675 4281478190
0.73172992 -0.022729576 0.049263522 4281478703
0.73235375 -0.022773221 0.049394384 4281544234
0.73296475 -0.022892326 0.049459785 4281411878
0.73357528 -0.023011267 0.049525186 4281280292
0.73418528 -0.023130044 0.049590603 4281543718
0.7347948 -0.023248658 0.049656004 4281345826
0.7353822 -0.023519322 0.049590513 4281740582
0.73599124 -0.023637787 0.049655914 4281413411
0.73657912 -0.0239086 0.049590439 4281281825
0.73717755 -0.024103239 0.049590394 4281742378
0.73776621 -0.024374291 0.049524903 4281807910
0.73834574 -0.02472201 0.049393982 4281085220
0.66250187 0.0025638491 0.052371144 4279839279
0.66333878 0.0027703941 0.052762568 4280036658
0.66396809 0.0026455224 0.052827761 4280364849
0.66463757 0.0025873631 0.052958205 4280560685
0.66530609 0.0025295168 0.05308865 4280561203
0.69120336 -0.015707105 0.045061797 4279770135
0.69179291 -0.015978649 0.0449965 4279572756
0.69243824 -0.016108721 0.045061707 4279638046
0.69308305 -0.016238645 0.0451269 4279965991
0.69372737 -0.016368419 0.045192093 4280294183
0.69437116 -0.016498029 0.0452573 4280294431
0.69504118 -0.016556337 0.04538776 4280097052
0.69568378 -0.01668556 0.045452952 4279179802
0.6963259 -0.01681459 0.04551816 4279375644
0.69696748 -0.01694347 0.045583352 4279835158
0.69763422 -0.017000765 0.045713797 4279507733
0.69827461 -0.017129242 0.045779005 4279507733
0.69893968 -0.017185956 0.045909464 4279572503
0.69960374 -0.017242357 0.046039894 4279769116
0.70024216 -0.017370194 0.046105087 4279507482
0.70088005 -0.017497882 0.046170294 4279377181
0.70154166 -0.017553478 0.046300739 4279377181
0.70220232 -0.017608747 0.046431184 4279441940
0.70286191 -0.017663717 0.046561614 4279244559
0.70352054 -0.017718345 0.046692073 4279376411
0.70417821 -0.01777266 0.046822518 4279507743
0.70483488 -0.017826647 0.046952963 4280034087
0.70549059 -0.017880321 0.047083408 4279640600
0.70612282 -0.018006161 0.0471486 4279903002
0.7067768 -0.018059269 0.04727906 4279968797
0.70742977 -0.018112078 0.047409505 4280560168
0.70808178 -0.01816453 0.047539949 4280757547
0.70871133 -0.018289492 0.047605157 4279442200
0.70931911 -0.01848717 0.047605127 4279574039
0.70996892 -0.018538937 0.047735557 4279443734
0.71057624 -0.018736452 0.047735512 4280694834
0.71118355 -0.018933982 0.047735468 4280563248
0.71181113 -0.019058287 0.047800675 4280300080
0.7124182 -0.019255728 0.047800645 4280825389
0.71304506 -0.019379824 0.047865838 4280955942
0.7136519 -0.019577175 0.047865793 4281809966
0.71423948 -0.019848064 0.047800511 4281546794
0.71486557 -0.019971907 0.047865719 4282137906
0.7154724 -0.020169273 0.047865674 4281677353
0.71607924 -0.020366639 0.047865629 4281282847
0.71668607 -0.02056399 0.047865584 4281283104
0.71731091 -0.020687431 0.047930807 4281283104
0.7179175 -0.020884708 0.047930762 4281216554
0.71854162 -0.021007895 0.047995955 4281084717
0.71916527 -0.021130934 0.048061162 4281216301
0.71977139 -0.021328047 0.048061132 4281611310
0.72039425 -0.021450847 0.048126325 4280756001
0.72101665 -0.021573469 0.048191532 4281612591
0.72163856 -0.021695957 0.048256725 4280232221
0.72225994 -0.021818265 0.048321933 4280560419
0.72288084 -0.021940425 0.048387125 4280954409
0.72350127 -0.022062421 0.048452333 4280888616
0.72412121 -0.022184253 0.04851754 4280690462
0.72474062 -0.022305921 0.048582748 4281282599
0.72535956 -0.022427425 0.04864794 4280820775
0.72599262 -0.022473723 0.048778385 4281413931
0.7266103 -0.022594839 0.048843607 4281874482
0.72722757 -0.022715807 0.0489088 4283648831
0.7278443 -0.022836581 0.048973992 4281740834
0.72846049 -0.022957221 0.0490392 4281543201
0.72907627 -0.023077682 0.049104407 4281478693
0.72970462 -0.02312246 0.049234852 4281544486
0.73031908 -0.023242518 0.04930006 4281412900
0.73093313 -0.023362443 0.049365267 4281675302
0.73154664 -0.023482189 0.04943046 4281477925
0.73217177 -0.023525923 0.049560905 4281609509
0.73277223 -0.023721203 0.04956086 4281741095
0.73338425 -0.023840472 0.049626082 4281609507
0.73400718 -0.023883477 0.049756527 4281478691
0.73461801 -0.024002343 0.04982172 4281478691
0.73520654 -0.024273559 0.049756452 4281478945
0.7358169 -0.024392262 0.049821645 4281610531
0.73639554 -0.024740055 0.049691111 4281151011
0.73699552 -0.024935171 0.049691066 4280888113
0.73758554 -0.025206864 0.049625799 4281216560
0.73816645 -0.025555372 0.049495265 4281216809
0.73876709 -0.025750741 0.04949522 4281085223
0.66170907 0.0022553056 0.052726164 4279641896
0.66250676 0.0023956448 0.053051323 4280168755
0.66321957 0.0024037063 0.053246409 4280366134
0.66380793 0.0022123605 0.053246364 4280365871
0.664437 0.0020877123 0.053311363 4280365099
0.66510612 0.002030015 0.053441405 4280233263
0.66565347 0.0017720312 0.053376317 4280101931
0.69172359 -0.016221851 0.045634538 4280558881
0.69231308 -0.016493544 0.045569465 4280294949
0.692958 -0.016623303 0.045634449 4280360744
0.69360232 -0.016752928 0.045699447 4279966243
0.69424623 -0.016882375 0.045764446 4279900448
0.69488961 -0.017011687 0.045829445 4279374104
0.69555897 -0.017069444 0.045959488 4279638818
0.69620109 -0.017198339 0.046024486 4279703841
0.69684279 -0.017327055 0.046089485 4279769114
0.69750965 -0.017384037 0.046219528 4280033826
0.69815004 -0.017512366 0.046284527 4279639068
0.69881523 -0.017568767 0.046414569 4279902755
0.69945443 -0.017696694 0.046479568 4280231718
0.70011783 -0.017752558 0.046609595 4280363304
0.70075577 -0.017880082 0.046674594 4279771937
0.70141751 -0.01793538 0.046804637 4279837730
0.70205426 -0.018062502 0.046869636 4279969314
0.70273793 -0.018044993 0.047064707 4279772699
0.70339668 -0.018099323 0.047194749 4280299043
0.70403123 -0.018225729 0.047259763 4279706906
0.70471126 -0.018207014 0.047454834 4279904285
0.70534426 -0.018332928 0.047519848 4280101405
0.70595431 -0.018531337 0.047519803 4279969817
0.70660889 -0.018584311 0.047649831 4280101916
0.7072404 -0.018709749 0.047714844 4280232737
0.70789325 -0.018762156 0.047844887 4280561702
0.70852357 -0.018887207 0.047909871 4280628010
0.70915341 -0.019012079 0.047974885 4281154103
0.70978278 -0.019136801 0.048039883 4281155648
0.71039081 -0.01933457 0.048039839 4281089855
0.71103996 -0.01938577 0.048169881 4280760890
0.71164757 -0.019583359 0.048169836 4280629308
0.71223509 -0.019854411 0.048104763 4280826422
0.71286267 -0.019978568 0.048169762 4281022766
0.71347028 -0.020176172 0.048169717 4281416243
0.71407783 -0.020373777 0.048169672 4281218864
0.71468544 -0.020571381 0.048169628 4282005300
0.71529299 -0.020768985 0.048169598 4282005548
0.7159006 -0.020966589 0.048169553 4281875238
0.71650815 -0.021164194 0.048169509 4281480485
0.7171157 -0.021361798 0.048169464 4280888348
0.71774113 -0.021485239 0.048234463 4281215784
0.71836603 -0.021608517 0.048299477 4281083432
0.7189731 -0.021805972 0.048299432 4281281577
0.71959728 -0.021929011 0.048364416 4281413161
0.72022098 -0.022051901 0.04842943 4280623645
0.72084415 -0.022174612 0.048494428 4281940532
0.72146684 -0.022297174 0.048559427 4280756260
0.72208905 -0.022419557 0.048624426 4280690984
0.72269487 -0.02261661 0.048624381 4280756779
0.72331631 -0.022738755 0.048689395 4280625193
0.72393727 -0.022860765 0.048754394 4280756007
0.72455776 -0.022982612 0.048819378 4280887846
0.72517776 -0.023104295 0.048884377 4280820773
0.72579724 -0.023225814 0.048949391 4281281829
0.72643059 -0.023271874 0.049079433 4281808173
0.72704887 -0.02339299 0.049144432 4283252789
0.72766662 -0.023513943 0.049209431 4282857518
0.72828388 -0.023634747 0.04927443 4281607962
0.72890067 -0.023755386 0.049339443 4281674787
0.72951698 -0.023875877 0.049404427 4281543201
0.73014563 -0.023920417 0.04953447 4281345824
0.73074806 -0.024116337 0.04953444 4281870884
0.73136282 -0.024236336 0.049599424 4281740068
0.73198932 -0.024280161 0.049729466 4281543455
0.73259097 -0.024475843 0.049729437 4281609248
0.73320431 -0.02459535 0.049794436 4281609759
0.73380572 -0.024790943 0.049794406 4281544738
0.73441833 -0.024910226 0.04985939 4281347105
0.73501951 -0.02510576 0.04985936 4281347872
0.73563135 -0.02522479 0.049924344 4281347872
0.73621136 -0.025573343 0.049794242 4281084968
0.73681283 -0.025768951 0.049794197 4280953910
0.73740429 -0.026041269 0.049729109 4280954158
0.73799622 -0.026313767 0.049664035 4280559649
0.73858869 -0.026586413 0.049598947 4281349165
0.66154766 0.0018208325 0.053146794 4279904548
0.66238737 0.0020284951 0.053535774 4280102699
0.6629765 0.0018368959 0.05353573 4280234285
0.66364765 0.0017788708 0.05366537 4280234285
0.66427708 0.001654312 0.053730175 4280036136
0.66482484 0.0013960153 0.05366528 4280101931
0.69216025 -0.01694946 0.046012357 4281744705
0.69280541 -0.01707916 0.046077162 4280954926
0.69345009 -0.017208695 0.046141952 4280363304
0.69409424 -0.017338082 0.046206743 4280100134
0.69473791 -0.01746729 0.046271548 4280231720
0.6953811 -0.017596364 0.046336338 4280560433
0.69605005 -0.017653659 0.046465978 4280494890
0.69669205 -0.017782316 0.046530783 4279706908
0.69735926 -0.017839059 0.046660408 4280101415
0.69799995 -0.017967328 0.046725199 4279772450
