# .PCD v0.7 - Point Cloud Data file format
VERSION 0.7
FIELDS x y z rgb
SIZE 4 4 4 4
TYPE F F F U
COUNT 1 1 1 1
WIDTH 1025
HEIGHT 1
VIEWPOINT 0 0 0 1 0 0 0
POINTS 1025
DATA ascii
0.68532932 -0.074715145 0.057857126 4280895306
0.68500906 -0.074274339 0.057857513 4281420103
0.68468881 -0.07383354 0.057857916 4281419844
0.68436855 -0.073392734 0.057858303 4281156931
0.68399233 -0.07299526 0.057930395 4280959552
0.68586743 -0.074999109 0.058354497 4280763209
0.68560404 -0.074515931 0.058283389 4280697416
0.68528378 -0.074075125 0.058283791 4281156935
0.68501991 -0.073591322 0.058212683 4280696380
0.68335593 -0.038487539 0.038788825 4279833878
0.68319046 -0.037777275 0.038503364 4279834405
0.68287694 -0.037225127 0.038432345 4279965991
0.68496364 -0.040410914 0.039482489 4279442202
0.68470192 -0.039808869 0.039340377 4279310616
0.68438995 -0.039258525 0.039269537 4279309832
0.68407768 -0.038707763 0.039198726 4280094223
0.6837157 -0.038209513 0.039199173 4279439901
0.68340296 -0.03765814 0.039128333 4279373851
0.68308985 -0.03710632 0.039057493 4279571230
0.6826787 -0.036661252 0.039129227 4280031779
0.68251163 -0.035947651 0.038844571 4279704091
0.6821003 -0.035502359 0.03891629 4279507482
0.68594593 -0.041232698 0.040033683 4279311386
0.68568528 -0.040631518 0.039891958 4278982684
0.68527365 -0.040186122 0.039963484 4278785044
0.68501222 -0.039583892 0.039821774 4278850837
0.68465054 -0.039086074 0.039822221 4279046410
0.68428886 -0.038588256 0.039822668 4279175700
0.68397671 -0.03803739 0.039752036 4278979600
0.68366426 -0.037486121 0.03968142 4279110159
0.68335146 -0.036934435 0.039610788 4279044366
0.68303841 -0.036382318 0.039540157 4279571228
0.68267614 -0.03588365 0.039540589 4279703572
0.68241131 -0.035276815 0.039398909 4279639317
0.68204874 -0.034777746 0.039399356 4279705110
0.68671846 -0.041401848 0.040372267 4278915347
0.68630636 -0.040956125 0.040443584 4279442972
0.68594503 -0.040458724 0.040444031 4278916639
0.68558365 -0.039961331 0.040444478 4278719764
0.6852724 -0.039411418 0.040374041 4278785557
0.68491089 -0.038913816 0.040374488 4278850564
0.68459916 -0.038363278 0.040304065 4278848784
0.68428707 -0.037812322 0.040233627 4278652937
0.68392527 -0.037314296 0.040234074 4278848010
0.68361282 -0.036762714 0.040163666 4278782217
0.68330002 -0.036210716 0.040093228 4279505437
0.68303591 -0.035604313 0.039951935 4279834907
0.68272239 -0.035051256 0.039881513 4279836950
0.68240851 -0.034497797 0.03981109 4279836950
0.68214297 -0.033889294 0.039669797 4280823845
0.68702859 -0.04117696 0.040853471 4280296496
0.68671775 -0.040627375 0.040783241 4280759345
0.68635607 -0.040129557 0.040783688 4279376677
0.68599439 -0.039631747 0.040784121 4278917143
0.68563271 -0.039133929 0.040784568 4278982936
0.68527108 -0.038636118 0.040785015 4278787603
0.68495929 -0.038085267 0.040714785 4278721295
0.68459749 -0.03758724 0.040715232 4278983951
0.68428528 -0.037035778 0.040645018 4278916361
0.68397278 -0.036483899 0.040574789 4278587396
0.68365997 -0.035931587 0.040504575 4280098081
0.68339598 -0.035324782 0.040363684 4279771935
0.68308246 -0.034771428 0.040293455 4280036637
0.68276858 -0.034217656 0.040223241 4279576086
0.6825031 -0.033608764 0.04008235 4280495391
0.68223697 -0.032999039 0.03994146 4281349935
0.6818251 -0.032553822 0.040012568 4281417524
0.68780243 -0.041346379 0.041193277 4278453522
0.6874916 -0.040796489 0.041123271 4281218111
0.68707883 -0.040350325 0.041194171 4281022517
0.68671697 -0.039852299 0.041194618 4279639583
0.68635517 -0.039354272 0.04119505 4278982672
0.68599337 -0.038856253 0.041195497 4279180051
0.68568176 -0.038305312 0.041125491 4278852630
0.68531978 -0.037807077 0.041125938 4279312664
0.68500769 -0.037255526 0.041055918 4279444502
0.68464559 -0.036757082 0.041056365 4279969819
0.68438262 -0.036151141 0.040915862 4278982924
0.68411911 -0.035544351 0.040775388 4280033054
0.68375635 -0.035045072 0.040775836 4279772450
0.68344277 -0.03449142 0.040705815 4280037155
0.68312883 -0.033937335 0.040635794 4279116053
0.68286347 -0.033328041 0.040495306 4279904026
0.68250012 -0.032827914 0.040495753 4281021234
0.68228239 -0.03216216 0.040284812 4280759347
0.68196696 -0.031605989 0.040214792 4281746491
0.68826658 -0.040966079 0.04146409 4279313183
0.68785322 -0.040519379 0.041534811 4281483334
0.68754202 -0.039968766 0.041464984 4281022267
0.68712896 -0.039522484 0.04153569 4279769114
0.68676686 -0.03902404 0.041536137 4279179018
0.68640471 -0.038525596 0.041536584 4279113225
0.68604261 -0.038027152 0.041537032 4279374099
0.68573064 -0.037475497 0.041467205 4280032532
0.68546844 -0.036869988 0.041327134 4279904026
0.68510586 -0.036370918 0.041327581 4279969819
0.68474329 -0.035871834 0.041328028 4279442192
0.68443024 -0.035318717 0.041258201 4279639068
0.68411696 -0.034765169 0.041188389 4279836712
0.68385261 -0.03415674 0.041048303 4279770919
0.68358767 -0.033547461 0.040908232 4279902505
0.68327314 -0.032992244 0.04083842 4279508515
0.68300712 -0.032381505 0.040698335 4280099117
0.68269181 -0.03182523 0.040628523 4280428595
0.68242472 -0.03121303 0.040488437 4280758580
0.68210864 -0.030655712 0.04041864 4281021752
0.68179232 -0.030097976 0.040348813 4280825136
0.6891973 -0.040981218 0.041595548 4283789154
0.68873149 -0.04058519 0.041736126 4280696883
0.6883688 -0.040085912 0.041736573 4281220928
0.68795496 -0.039638884 0.041807085 4280956224
0.68759239 -0.039139807 0.041807517 4279443235
0.68717903 -0.038693413 0.041878015 4279640586
0.68681663 -0.038194552 0.041878462 4279311621
0.68650466 -0.037642598 0.041808859 4279178248
0.68619239 -0.037090197 0.04173924 4280361745
0.68582964 -0.036590919 0.041739687 4280034838
0.68546689 -0.036091641 0.041740134 4279903252
0.68515402 -0.035538405 0.041670516 4279638799
0.68489057 -0.034930632 0.041530833 4279967514
0.68462646 -0.034322023 0.041391164 4279968044
0.68431234 -0.033767119 0.041321561 4279901999
0.68399799 -0.033211797 0.041251943 4279901999
0.68373239 -0.032601088 0.041112259 4279771183
0.6834172 -0.032044709 0.041042656 4279968562
0.68315053 -0.031432524 0.040902987 4280362804
0.68283463 -0.030875117 0.040833369 4280888885
0.68251836 -0.030317292 0.040763766 4281086264
0.68225014 -0.029703006 0.040624097 4280823855
0.681885 -0.029200375 0.040624559 4280693300
0.68156785 -0.028641284 0.040554941 4280366382
0.68950874 -0.040755384 0.042078778 4285236611
0.68919724 -0.040203743 0.042009354 4282078547
0.68878269 -0.039755978 0.042079657 4281023301
0.68841964 -0.039256275 0.042080104 4281285199
0.68800557 -0.038809136 0.042150408 4279771689
0.68759179 -0.038362414 0.042220727 4279640353
0.68733054 -0.037757158 0.042081445 4279245595
0.68686628 -0.037363842 0.042221606 4279705894
0.68655401 -0.036811158 0.042152196 4280428317
0.68624139 -0.036258057 0.042082787 4281414958
0.68592852 -0.035704523 0.042013362 4281480751
0.68566531 -0.035096556 0.041874111 4283388497
0.68535161 -0.034541979 0.041804701 4280427036
0.68503767 -0.033986986 0.041735291 4280887340
0.68477291 -0.033376932 0.04159601 4281084472
0.68440884 -0.032875761 0.041596457 4281347644
0.68414319 -0.032264426 0.041457191 4280363837
0.68382782 -0.03170754 0.041387796 4280034872
0.68356109 -0.03109476 0.041248515 4280427830
0.683245 -0.03053683 0.041179106 4280887863
0.68292862 -0.029978484 0.041109711 4280887863
0.68261188 -0.02941972 0.041040301 4280888115
0.68234318 -0.028804198 0.040901035 4280757297
0.68197757 -0.028300941 0.040901482 4280429346
0.68165994 -0.027740911 0.040832072 4280955690
0.6906507 -0.040564761 0.041934624 4283589993
0.68997556 -0.040374093 0.042353034 4283195235
0.68971539 -0.039769702 0.042214155 4281482580
0.68924856 -0.039373428 0.042353928 4281417816
0.68888509 -0.038873106 0.042354375 4280761675
0.68852156 -0.03837277 0.042354822 4279970863
0.68815809 -0.037872434 0.042355269 4279905070
0.68774372 -0.037425175 0.042425349 4279443747
0.68738037 -0.036925048 0.042425796 4279509808
0.68701702 -0.036424935 0.042426243 4280100150
0.68665373 -0.035924807 0.04242669 4286746272
0.68634063 -0.035370782 0.042357489 4289509578
0.68602723 -0.03481631 0.042288274 4293525247
0.68571353 -0.034261435 0.042219073 4291224548
0.68544936 -0.033651605 0.042080209 4288654241
0.68523425 -0.032986164 0.041871697 4284309351
0.68496871 -0.032374442 0.041732833 4280690736
0.68460387 -0.031872228 0.04173328 4280561216
0.68423897 -0.031370014 0.041733727 4280099380
0.68397224 -0.030756593 0.041594878 4280493625
0.68365598 -0.030198157 0.041525662 4280625209
0.68338811 -0.02958329 0.041386813 4280756795
0.68307108 -0.029023796 0.041317597 4280625715
0.68275374 -0.0284639 0.041248396 4280098601
0.68238783 -0.027960211 0.041248843 4280754982
0.68202192 -0.027456522 0.04124929 4281347119
0.68179989 -0.026781648 0.041040793 4280690988
0.6814335 -0.026277348 0.04104124 4280758595
0.69065082 -0.039784566 0.04235068 4281747276
0.69018275 -0.039387017 0.04249002 4281151818
0.68976688 -0.038937971 0.042559922 4280825420
0.68935132 -0.038489357 0.042629838 4280497986
0.68893605 -0.038041145 0.042699739 4280036658
0.68857223 -0.037540391 0.042700186 4279576107
0.68820846 -0.037039638 0.042700619 4280035886
0.68784463 -0.036538884 0.042701066 4280431414
0.68743014 -0.03609173 0.042770982 4281087808
0.6870665 -0.035591185 0.042771429 4282798692
0.68675327 -0.035036638 0.042702407 4283193450
0.68643969 -0.03448166 0.042633399 4288719044
0.68612587 -0.033926278 0.042564392 4292471292
0.68586165 -0.033315822 0.042425931 4293591039
0.68559682 -0.032704532 0.042287484 4290168526
0.68528175 -0.032147467 0.042218477 4283062882
0.68506533 -0.031479448 0.04201059 4280232511
0.68474931 -0.030921116 0.041941583 4280165943
0.68438387 -0.030418053 0.04194203 4280559933
0.68406743 -0.029859111 0.041873023 4280559933
0.68375063 -0.029299736 0.041804016 4280888894
0.68343359 -0.028739944 0.041735023 4280625461
0.68316483 -0.028123215 0.041596577 4280163372
0.68284702 -0.027562365 0.041527569 4280754980
0.68252885 -0.027001113 0.041458577 4281018152
0.68216234 -0.026496589 0.041459024 4280625193
0.68189174 -0.025877327 0.041320562 4280560701
0.68152487 -0.025372386 0.041321024 4281023049
0.69205922 -0.040200263 0.042350262 4282077772
0.69148481 -0.0399042 0.042627722 4281943371
0.69101566 -0.03950578 0.042766675 4280232753
0.69059902 -0.039055988 0.042836368 4280885816
0.69023448 -0.038554192 0.042836815 4280757049
0.68981832 -0.038105026 0.042906508 4280628524
0.68940246 -0.037656292 0.042976201 4280167720
0.6889869 -0.037207961 0.043045908 4280430892
0.68862283 -0.036706805 0.043046355 4281219894
0.68825871 -0.036205634 0.043046802 4283325521
0.68789464 -0.035704464 0.043047249 4282866518
0.68747985 -0.03525719 0.043116957 4281881949
0.68716639 -0.034702122 0.043048143 4280829261
0.68685269 -0.034146622 0.042979345 4282207584
0.68658888 -0.033536196 0.0428413 4282995042
0.68627441 -0.032979667 0.042772487 4283127643
0.68595958 -0.032422721 0.042703688 4284442988
0.68564451 -0.031865358 0.042634889 4283061335
0.68537873 -0.03125219 0.042496845 4280957256
0.68511236 -0.030638203 0.042358801 4281416525
0.68494391 -0.029911801 0.04208225 4280692550
0.68447942 -0.029519677 0.042221189 4280692550
0.68421149 -0.028903604 0.042083159 4280627005
0.6838941 -0.028343081 0.04201436 4280494127
0.68357641 -0.027782142 0.041945562 4279967781
0.68325841 -0.027220786 0.041876763 4280558102
0.68294013 -0.026659027 0.04180795 4280755481
0.68262154 -0.026096821 0.041739166 4280558879
0.68225455 -0.025591671 0.041739613 4280232501
0.68193549 -0.02502884 0.041670829 4280561214
0.68156832 -0.024523482 0.041671276 4280889666
0.69305432 -0.040167242 0.04242219 4280431664
0.69253033 -0.039817765 0.042629793 4281946186
0.69200724 -0.039469555 0.042837381 4282140235
0.69153726 -0.039070487 0.042975932 4280298031
0.69101584 -0.038724586 0.04318352 4280689205
0.690651 -0.038222373 0.043183967 4280953908
0.69023442 -0.037772879 0.043253466 4280694567
0.6898697 -0.037270874 0.043253914 4280628262
0.68945354 -0.036822006 0.043323413 4281615157
0.689089 -0.03632021 0.04332386 4282732101
0.6887244 -0.035818413 0.043324307 4283326037
0.68835986 -0.035316616 0.043324754 4282539868
0.68799531 -0.03481482 0.043325201 4281160795
0.68668771 -0.032643139 0.043119848 4282733399
0.68642277 -0.032030627 0.042982221 4281417537
0.68610734 -0.031472534 0.042913616 4281088572
0.68579161 -0.030914024 0.042845011 4281090629
0.68552518 -0.030299425 0.042707369 4280958021
0.68525815 -0.029683977 0.042569742 4280496707
0.68494117 -0.029123783 0.042501137 4280562500
0.68462396 -0.028563187 0.042432547 4280364347
0.68425739 -0.028058663 0.042432994 4280560433
0.68398851 -0.027440697 0.042295352 4280100132
0.68367034 -0.026878834 0.042226747 4280099352
0.68335187 -0.026316538 0.042158172 4279836180
0.68303311 -0.025753841 0.042089567 4280493856
0.68266582 -0.025248274 0.042090029 4280166708
0.68239468 -0.024627179 0.041952386 4280560699
0.68207496 -0.024063215 0.041883796 4280824123
0.7007702 -0.043295518 0.039118007 4278586391
0.69347435 -0.039836079 0.042772382 4280827425
0.69294965 -0.039486475 0.042979375 4281617722
0.69226849 -0.039294094 0.043392897 4281548098
0.69195533 -0.038738847 0.0433245 4280166445
0.69143319 -0.038392797 0.043531492 4281020219
0.69106799 -0.037890166 0.043531939 4280231986
0.690651 -0.03744036 0.04360123 4280561451
0.69028598 -0.036937922 0.043601677 4283846989
0.68992096 -0.0364355 0.043602124 4284833884
0.68950456 -0.035986528 0.043671414 4285756269
0.68919092 -0.03543064 0.043603018 4284905069
0.68877482 -0.0349821 0.043672308 4283919978
0.68846089 -0.03442578 0.043603912 4282210135
0.68809587 -0.033923358 0.043604359 4281815377
0.68715179 -0.032251298 0.043399185 4282009674
0.68683654 -0.031693116 0.043330789 4281353029
0.68657094 -0.031079158 0.043193549 4281221443
0.68625492 -0.030519933 0.043125153 4280630841
0.68598831 -0.0299045 0.042987913 4280630839
0.68540376 -0.028727338 0.042782277 4280301874
0.6850369 -0.028222382 0.042782739 4280300343
0.68467009 -0.027717441 0.042783186 4280430642
0.68435222 -0.027155697 0.04271479 4280561964
0.68408287 -0.026536494 0.042577565 4280757547
0.68371552 -0.026030928 0.042578012 4280099617
0.6833967 -0.025467917 0.04250963 4280559918
0.68307763 -0.02490449 0.042441234 4280560951
0.68275821 -0.02434063 0.042372853 4280561726
0.68248653 -0.023718297 0.042235613 4280694334
0.70119238 -0.043823048 0.039959803 4279045911
0.70065403 -0.043455489 0.040166199 4278586380
0.70044404 -0.042793036 0.039960727 4278259723
0.69384193 -0.039556213 0.043192014 4281483308
0.69326395 -0.039258555 0.04346706 4281484335
0.69273978 -0.038910493 0.043673426 4281811522
0.69226897 -0.038511395 0.043811172 4281087799
0.69179875 -0.038113132 0.043948904 4281415242
0.69143343 -0.037610292 0.043949351 4281485394
0.69106811 -0.037107438 0.043949813 4285172621
0.69065094 -0.036657721 0.044018894 4294639614
0.69033748 -0.036101744 0.043950707 4294639614
0.68997216 -0.035598904 0.043951154 4294704376
0.68965816 -0.035042286 0.043882951 4292665561
0.68924147 -0.03459321 0.043952048 4285167975
0.68892723 -0.034036174 0.043883845 4283655254
0.6886127 -0.033478737 0.043815657 4283984219
0.6881963 -0.033030063 0.043884754 4282142280
0.68761677 -0.031858891 0.043679714 4281943117
0.68745208 -0.031134307 0.043405607 4281877324
0.686719 -0.03012526 0.043406516 4280957767
0.68608534 -0.029004067 0.043270126 4281090105
0.68576801 -0.028442845 0.043201938 4280695347
0.68540102 -0.027937695 0.043202385 4280760631
0.68503404 -0.027432546 0.043202832 4281022267
0.68476522 -0.026813582 0.04306601 4281020723
0.68439794 -0.026308015 0.043066472 4280954930
0.68412822 -0.025687799 0.042929634 4281086516
0.68380922 -0.025124267 0.042861462 4281218111
0.68348998 -0.024560332 0.042793274 4281284158
0.68317038 -0.023995966 0.042725086 4281284154
0.68285048 -0.023431182 0.042656898 4280891193
0.68253028 -0.022865981 0.042588711 4280628021
0.70145833 -0.043639325 0.040526256 4279373847
0.70097458 -0.043223023 0.040663615 4279045132
0.7007103 -0.042609736 0.04052718 4279181595
0.70017266 -0.042243943 0.040732965 4280762937
0.6995815 -0.041929267 0.041007206 4280894523
0.69468331 -0.039678432 0.043474749 4280232991
0.69415677 -0.039327919 0.043680519 4280758561
0.69357824 -0.039030641 0.04395473 4281745710
0.69305372 -0.038682863 0.0441605 4281941573
0.69263518 -0.038231567 0.044229388 4281349436
0.69221699 -0.037780687 0.044298291 4282008149
0.6917991 -0.037330225 0.044367179 4282079328
0.69143361 -0.036827177 0.044367626 4287411128
0.69112015 -0.036270887 0.044299632 4293786111
0.69075447 -0.035767615 0.044300079 4294377471
0.69038886 -0.035264358 0.044300526 4294770683
0.69007474 -0.034707233 0.044232532 4294770683
0.68970895 -0.034203768 0.044232979 4287799697
0.68939441 -0.033646002 0.044164985 4284182116
0.68907952 -0.03308785 0.044097021 4283787358
0.68871343 -0.032583952 0.044097468 4282602831
0.68839812 -0.032025144 0.044029474 4281746754
0.68718386 -0.029730022 0.043689072 4281089103
0.68649971 -0.028663546 0.043621555 4281550660
0.68613255 -0.028158188 0.043622002 4280892730
0.68576539 -0.027652815 0.043622449 4280824888
0.68539822 -0.027147457 0.043622896 4280758330
0.68512952 -0.026528105 0.043486476 4280954939
0.68481117 -0.025965109 0.043418482 4281022015
0.6845414 -0.025344282 0.043282077 4281285187
0.68417346 -0.024837866 0.043282524 4280890943
0.6839028 -0.024215788 0.043146104 4281350717
0.68358308 -0.023650914 0.04307811 4281482034
0.683263 -0.023085609 0.043010131 4281482034
0.68294263 -0.022519886 0.042942137 4281219634
0.70172399 -0.043455802 0.041092321 4278916641
0.70129514 -0.042990565 0.041161016 4281747272
0.7008118 -0.042575285 0.041297957 4281156935
0.70043838 -0.042061329 0.041298419 4280956736
0.6999014 -0.041697271 0.041503608 4279180325
0.69941974 -0.041284293 0.041640535 4278584590
0.69888437 -0.040922552 0.041845709 4278845704
0.69824183 -0.040663242 0.042187348 4278650376
0.6975469 -0.040456854 0.042597264 4279049492
0.69690752 -0.040201955 0.042938918 4279184408
0.69626969 -0.039949156 0.043280557 4279381787
0.69557989 -0.039749891 0.043690443 4279578137
0.69489193 -0.039553128 0.044100329 4279775000
0.69441849 -0.039151475 0.044237241 4280299032
0.69394559 -0.038750663 0.044374183 4281877294
0.69347334 -0.038350686 0.04451111 4281745227
0.69300169 -0.037951544 0.044648021 4281547848
0.6925832 -0.037500545 0.044716716 4281287502
0.69221747 -0.03699708 0.044717163 4282739559
0.69185168 -0.036493599 0.04471761 4285108625
0.69148588 -0.035990119 0.044718057 4285962662
0.69117206 -0.035433114 0.044650272 4286028455
0.69085789 -0.034875691 0.044582486 4288720048
0.69054347 -0.034317851 0.044514701 4291281082
0.6901772 -0.033813745 0.044515148 4285756797
0.68991363 -0.033200905 0.04437913 4285164660
0.68954712 -0.032696381 0.044379577 4283327587
0.68923163 -0.032137066 0.044311792 4282933081
0.68891579 -0.031577334 0.044243991 4282537553
0.68833387 -0.030401185 0.044040203 4280891715
0.68764949 -0.029334217 0.043972865 4281482828
0.68723196 -0.02888447 0.044041559 4281220426
0.68686461 -0.028378904 0.044042006 4281090375
0.68654716 -0.027816862 0.043974221 4280958789
0.6861797 -0.027311087 0.043974668 4280497209
0.68581223 -0.026805311 0.043975115 4280758080
0.68554348 -0.026185334 0.043839112 4280562248
0.68522495 -0.025621831 0.043771327 4280431427
0.68495512 -0.025000393 0.043635309 4280760392
0.68458688 -0.02449356 0.043635756 4280892226
0.68431616 -0.023870856 0.043499738 4281285953
0.68399626 -0.023305476 0.043431953 4281482804
0.683676 -0.022739664 0.043364197 4281614390
0.68335551 -0.022173434 0.043296412 4281483056
0.70193422 -0.043321699 0.041726008 4279379003
0.70167089 -0.042708658 0.041590393 4281354314
0.70124209 -0.042243719 0.041658893 4280957760
0.70081353 -0.041779205 0.041727379 4279177245
0.70033067 -0.041365154 0.041863918 4278650901
0.69979388 -0.041002229 0.042068481 4278518795
0.69920367 -0.040691033 0.042341083 4278518020
0.69861466 -0.040381521 0.0426137 4279112975
0.69786471 -0.040226378 0.043090418 4279444767
0.69717079 -0.040023066 0.043499082 4279512356
0.69658619 -0.039719626 0.043771684 4279512356
0.69589567 -0.039520927 0.044180349 4279513123
0.69526041 -0.039273001 0.044520989 4279709723
0.69473314 -0.038923278 0.044725537 4280562971
0.69426006 -0.038522661 0.044862062 4281549101
0.69378752 -0.038122863 0.044998586 4281482828
0.69336843 -0.037671342 0.045067072 4281088070
0.69294971 -0.037220225 0.045135543 4281684572
0.69263625 -0.036663547 0.045067966 4282542952
0.69227022 -0.036159649 0.045068428 4285240726
0.69195634 -0.035602331 0.045000836 4284254097
0.69164217 -0.035044611 0.044933245 4284254097
0.69127584 -0.034540296 0.044933692 4285565074
0.69101298 -0.033927888 0.044798076 4286150783
0.69064629 -0.033423156 0.044798523 4284244326
0.69033104 -0.03286396 0.044730932 4284178533
0.69001549 -0.032304347 0.044663355 4283524196
0.68969965 -0.031744301 0.044595778 4282998874
0.68933254 -0.031238943 0.044596225 4282340174
0.6883322 -0.029611424 0.044461519 4281155148
0.68796474 -0.029105633 0.044461966 4281879375
0.68764752 -0.028543711 0.044394389 4281221961
0.68727994 -0.028037727 0.044394836 4280828232
0.6869123 -0.027531728 0.044395283 4280828232
0.68659449 -0.026968971 0.044327721 4280498238
0.68627638 -0.026405782 0.044260129 4280562750
0.68595797 -0.02584219 0.044192553 4280562500
0.68558991 -0.025335565 0.044193 4280431173
0.68527102 -0.024771348 0.044125423 4280760138
0.68504989 -0.02409105 0.043921769 4280694336
0.68473005 -0.023525566 0.043854207 4281088062
0.68440998 -0.022959664 0.04378663 4281678649
0.6840896 -0.022393346 0.043719053 4281810235
0.68376887 -0.021826595 0.043651477 4281548851
0.68344784 -0.021259427 0.0435839 4280298794
0.70236546 -0.042990685 0.04208754 4281420369
0.70210207 -0.042377047 0.041952342 4278980890
0.70161772 -0.041961513 0.042088464 4279698966
0.70113403 -0.041546829 0.042224586 4278976786
0.70070565 -0.041082822 0.042292893 4278910993
0.70022297 -0.040669598 0.04242903 4278848784
0.69974089 -0.040257215 0.042565137 4280233513
0.69909644 -0.039998025 0.042904764 4279970341
0.69823676 -0.03994491 0.043515742 4279904548
0.69759595 -0.039690755 0.043855354 4279840042
0.69690275 -0.039490104 0.044262812 4279840042
0.6962114 -0.03929197 0.044670269 4279971628
0.69568264 -0.038940847 0.044874206 4279773215
0.69515473 -0.038590983 0.045078158 4280759585
0.69468105 -0.038190126 0.045214266 4281351744
0.69420797 -0.03779012 0.045350388 4283921786
0.69378841 -0.037338257 0.04541868 4283724407
0.69336927 -0.036886826 0.045486957 4282870129
0.69305569 -0.036329627 0.045419574 4283068790
0.6926893 -0.035825312 0.045420021 4283595388
0.69242764 -0.035213977 0.045284808 4282937458
0.69206095 -0.034709245 0.045285255 4283528571
0.69179833 -0.034096658 0.045150042 4282935920
0.69143134 -0.033591494 0.045150489 4283788663
0.69111609 -0.033032 0.04508312 4284115052
0.69074893 -0.032526627 0.045083568 4283983466
0.69038182 -0.032021269 0.045084029 4283327069
0.69006592 -0.031460941 0.045016646 4283854183
0.68938231 -0.030394405 0.04494971 4281552207
0.68906569 -0.029833019 0.044882327 4282802274
0.68869811 -0.02932702 0.044882789 4281814873
0.68838102 -0.028764993 0.044815421 4284313980
0.68806362 -0.028202564 0.044748038 4282079582
0.68769574 -0.027696148 0.044748485 4280040515
0.68737787 -0.027133077 0.044681102 4280435273
0.68700981 -0.026626468 0.044681564 4281156935
0.68664175 -0.026119843 0.044682011 4281090629
0.68637294 -0.025498658 0.044546798 4280629576
0.68605405 -0.024934128 0.04447943 4280497736
0.68573481 -0.024369165 0.044412047 4280366150
0.68541533 -0.0238038 0.044344679 4280561212
0.68514448 -0.023179904 0.04420948 4280823342
0.6848731 -0.022555143 0.044074267 4281415477
0.68455237 -0.021988094 0.044006884 4281218098
0.68418276 -0.021479368 0.044007346 4280758060
0.68391001 -0.020852745 0.043872148 4280298794
0.70236766 -0.042193919 0.042517975 4279109142
0.7019937 -0.041679122 0.042518437 4279436564
0.70150954 -0.041264415 0.042654172 4278977040
0.70108092 -0.040800296 0.042722255 4278977040
0.70059782 -0.040387049 0.04285799 4279178267
0.70006073 -0.040025324 0.043061331 4280232240
0.69668877 -0.038907856 0.04495728 4279970865
0.69605172 -0.038660243 0.045295894 4280429869
0.69557679 -0.038258329 0.045431599 4280759345
0.69510257 -0.037857234 0.045567319 4283326817
0.69462889 -0.037456989 0.045703009 4283986032
0.69420898 -0.037004814 0.045771092 4284512376
0.69389522 -0.036447108 0.045703918 4283725175
0.69352835 -0.035942167 0.045704365 4281490271
0.69316149 -0.035437211 0.045704812 4283263602
0.69289964 -0.034825057 0.045570016 4283132016
0.69253254 -0.034319699 0.045570463 4283131757
0.69216537 -0.033814341 0.04557091 4282867815
0.69185024 -0.033254743 0.045503736 4282605926
0.69153482 -0.032694727 0.045436561 4283461233
0.69121909 -0.032134295 0.045369372 4283395440
0.69079989 -0.031683162 0.045437455 4283854962
0.69053531 -0.031067237 0.045302659 4283853933
0.69021881 -0.030505747 0.045235485 4282930778
0.68985093 -0.029999346 0.045235932 4283722360
0.68948299 -0.02949293 0.045236394 4282867051
0.68916589 -0.028930604 0.045169204 4288395458
0.6888485 -0.028367877 0.04510203 4289184713
0.68848026 -0.027861044 0.045102492 4282998887
0.68811208 -0.027354211 0.045102939 4283330419
0.68774384 -0.026847377 0.045103386 4283264626
0.68742567 -0.026283592 0.045036212 4280437574
0.68710721 -0.025719374 0.044969037 4281027662
0.68678844 -0.025154755 0.044901863 4281091920
0.68646938 -0.024589702 0.044834703 4280697162
0.68614995 -0.024024248 0.044767529 4280564806
0.68587959 -0.023400351 0.044632718 4280498488
0.68560863 -0.02277562 0.044497922 4281021733
0.68528801 -0.022208467 0.044430763 4281086763
0.6849671 -0.021640912 0.044363588 4280757798
0.68464589 -0.021072939 0.044296414 4280692787
0.6843729 -0.020445481 0.044161633 4280494642
0.70231456 -0.04144647 0.043016255 4278781194
0.70188534 -0.040981814 0.043084145 4279771167
0.70145643 -0.040517576 0.043152034 4279771167
0.69716686 -0.038523167 0.045245513 4280101679
0.69652867 -0.038275406 0.045583099 4280694068
0.69599938 -0.037925273 0.045785844 4282011729
0.69552457 -0.03752397 0.045921147 4282868833
0.69505036 -0.037123471 0.046056449 4283592556
0.69468319 -0.036618114 0.046056911 4283987314
0.69431609 -0.036112756 0.046057358 4283593589
0.69400185 -0.035554111 0.045990378 4282937456
0.69363457 -0.035048544 0.045990825 4282079582
0.69326723 -0.034542978 0.045991287 4283000684
0.69295239 -0.033983499 0.045924306 4283459952
0.6926896 -0.033369467 0.045789912 4282671206
0.69232184 -0.032863274 0.045790359 4282540133
0.69195408 -0.032357067 0.045790821 4283265391
0.69163817 -0.031796113 0.045723841 4283331184
0.69127023 -0.031289712 0.045724288 4283592558
0.69095391 -0.030728132 0.045657322 4283853935
0.69063723 -0.030166134 0.045590341 4283721066
0.69026899 -0.029659301 0.045590788 4283327602
0.6899519 -0.029096678 0.045523822 4283261809
0.68958354 -0.028589636 0.045524269 4288857029
0.68921518 -0.028082594 0.045524716 4286420385
0.68884683 -0.027575552 0.045525178 4282733665
0.6885289 -0.027011871 0.045458198 4282143578
0.68821073 -0.026447788 0.045391232 4283262059
0.68789226 -0.025883287 0.045324266 4281491543
0.68757343 -0.025318354 0.0452573 4281489492
0.68725437 -0.024753004 0.045190319 4281617484
0.68693495 -0.024187222 0.045123354 4281025347
0.68666482 -0.023563147 0.04498896 4280957506
0.68634468 -0.022996321 0.044921994 4280760892
0.68597496 -0.022487402 0.044922456 4281219116
0.6857034 -0.021861434 0.044788048 4281152040
0.6854313 -0.021234632 0.044653669 4281152040
0.68515861 -0.02060698 0.044519275 4280625715
0.68483657 -0.020037651 0.04445231 4280428084
0.70187402 -0.04105065 0.043985128 4280232737
0.70081007 -0.039459802 0.04391928 4279903521
0.70021808 -0.039150551 0.044188634 4279771937
0.69828653 -0.038387939 0.045198381 4280233263
0.69775403 -0.038034096 0.045400515 4280892977
0.69716835 -0.037733644 0.045669869 4284777593
0.69663781 -0.037382543 0.045871988 4283464302
0.6961081 -0.037032694 0.046074122 4283333747
0.6956864 -0.036578611 0.046141803 4283794298
0.69521165 -0.036177903 0.046276718 4281685846
0.69484389 -0.035671711 0.046277165 4281485396
0.69452918 -0.035112128 0.046210393 4284055167
0.6941613 -0.034605712 0.04621084 4283199596
0.69379336 -0.034099311 0.046211287 4283199596
0.69347799 -0.033538893 0.046144515 4281815895
0.69316244 -0.032978058 0.046077743 4282605161
0.6927942 -0.032471225 0.04607819 4282736745
0.69237387 -0.032019034 0.046145871 4282736999
0.69210976 -0.031402722 0.046011865 4282736999
0.69174141 -0.03089568 0.046012327 4282602844
0.69142473 -0.03033337 0.045945555 4282864231
0.69105619 -0.029826134 0.045946002 4282538084
0.69068766 -0.029318884 0.045946449 4288395962
0.69031918 -0.028811634 0.045946911 4287474860
0.69000173 -0.02824828 0.045880139 4282404686
0.68968391 -0.027684525 0.045813382 4281813076
0.68931514 -0.027176857 0.045813829 4281548625
0.68899691 -0.026612446 0.045747057 4281681229
0.68862796 -0.026104569 0.045747519 4282273366
0.68835962 -0.025482401 0.045613527 4282606426
0.68804049 -0.024916738 0.045546755 4282936163
0.68772107 -0.024350673 0.045479983 4283719768
0.68740129 -0.023784176 0.045413226 4282601287
0.68708128 -0.023217261 0.045346454 4282272322
0.68681049 -0.02259174 0.045212477 4281219646
0.68653911 -0.02196537 0.045078501 4281088824
0.68616861 -0.021455392 0.045078948 4280824876
0.68589628 -0.02082777 0.044944957 4280693290
0.68567234 -0.02014026 0.044743747 4280888363
0.68539864 -0.019510761 0.044609785 4281018154
0.68512434 -0.018880412 0.044475794 4280624423
0.70139289 -0.039842755 0.04454945 4279837981
0.70091009 -0.039431542 0.044683963 4280035873
0.70070219 -0.038765341 0.044483364 4279969314
0.70016515 -0.038406134 0.044684887 4280166697
0.69951987 -0.038151368 0.045020446 4279837732
0.69898498 -0.037795082 0.045221969 4280366122
0.69839668 -0.037492082 0.045490518 4282275650
0.69722378 -0.036891088 0.046027601 4284187506
0.69680059 -0.036435217 0.046095088 4283399540
0.69627035 -0.036085442 0.046296611 4283465333
0.69584805 -0.035630822 0.046364069 4282410082
0.69542605 -0.035176635 0.046431541 4281815645
0.69511068 -0.034615904 0.046364978 4283660409
0.69474208 -0.034108445 0.046365425 4282805090
0.6943205 -0.033654884 0.046432897 4283660399
0.6940574 -0.033039436 0.046299323 4281883221
0.69363606 -0.032586068 0.046366781 4282144862
0.6933198 -0.0320241 0.046300232 4283262057
0.69289869 -0.03157115 0.04636769 4282407262
0.69253004 -0.031063691 0.046368137 4282275676
0.69216132 -0.030556232 0.046368599 4282537053
0.69179267 -0.030048773 0.046369046 4282536549
0.69147563 -0.029485762 0.046302497 4285106576
0.6911068 -0.028978094 0.046302944 4286683809
0.69073802 -0.028470427 0.046303391 4283196780
0.69036919 -0.027962759 0.046303853 4282862673
0.69005144 -0.027398676 0.04623729 4281681231
0.68978423 -0.02677758 0.046103701 4281352527
0.6894657 -0.026212454 0.046037123 4281681492
0.68914688 -0.02564691 0.045970559 4282076754
0.68877727 -0.025138199 0.045971006 4282077772
0.68845797 -0.024572015 0.045904458 4283260765
0.68818855 -0.023947775 0.045770869 4284113756
0.68786848 -0.023380563 0.045704305 4283192654
0.68759793 -0.022754848 0.045570731 4282927679
0.68727714 -0.022186577 0.045504168 4281613371
0.68700552 -0.021559387 0.045370594 4281088824
0.68673337 -0.020931363 0.045237005 4280889899
0.68646049 -0.020302504 0.045103446 4280824106
0.68608898 -0.019791067 0.045103893 4281084972
0.68576634 -0.019220293 0.045037329 4280887589
0.68568724 -0.018351346 0.044635698 4280230686
0.70080221 -0.038738385 0.045247033 4279839529
0.7006492 -0.03802003 0.044980213 4280036134
0.70011222 -0.037661731 0.045181125 4279904548
0.6995216 -0.037356585 0.045448855 4283130963
0.69904095 -0.036948919 0.045582965 4283790168
0.69797337 -0.036241144 0.04598479 4283527017
0.69738698 -0.035941869 0.046252519 4282737512
0.69690943 -0.03553839 0.046386614 4282079582
0.69643247 -0.035135761 0.046520695 4283723122
0.69600952 -0.034680605 0.046587974 4283196778
0.69564027 -0.034172311 0.046588421 4282145627
0.69521779 -0.033717796 0.0466557 4282474838
0.69484866 -0.033209711 0.046656162 4282014287
0.69453239 -0.032647431 0.046589792 4283329634
0.69411039 -0.032193542 0.046657056 4283656034
0.69374132 -0.031685442 0.046657518 4281813065
0.69342458 -0.031122535 0.046591148 4281486414
0.69300306 -0.030669272 0.046658427 4281749586
0.69268602 -0.030105934 0.046592057 4282604129
0.69231671 -0.02959764 0.046592504 4284251792
0.69194746 -0.029089347 0.046592966 4284383368
0.69157815 -0.028581053 0.046593413 4282930794
0.6912089 -0.028072745 0.04659386 4282272864
0.69089091 -0.027508169 0.046527505 4281612869
0.69057268 -0.026943147 0.046461135 4281944655
0.69020307 -0.026434436 0.046461582 4283064167
0.68988442 -0.025868803 0.046395242 4283458925
0.68956542 -0.025302753 0.046328872 4282538321
0.68929666 -0.024678946 0.046195701 4282271301
0.68897688 -0.024111837 0.046129346 4283189059
0.68870705 -0.023486555 0.045996159 4287727702
0.6883865 -0.022918403 0.045929804 4293122728
0.68811566 -0.02229166 0.045796633 4288385595
0.68779433 -0.021722466 0.045730263 4284897042
0.68752241 -0.021094248 0.045597106 4281087795
0.68720037 -0.02052401 0.045530736 4280824890
0.68692738 -0.019894332 0.045397565 4280759097
0.68660456 -0.019323021 0.04533121 4280888367
0.6863305 -0.018691882 0.045198038 4280757547
0.68605578 -0.018059909 0.045064867 4280035620
0.68597549 -0.017187655 0.044664443 4280101413
0.7011767 -0.038455427 0.045676008 4280365871
0.70113403 -0.037633345 0.045276746 4280235047
0.70065105 -0.037222937 0.045410454 4282340423
0.70011395 -0.036865339 0.045610756 4285367925
0.69963229 -0.036456823 0.045744449 4283855709
0.69920558 -0.035996735 0.045811519 4284184424
0.69867074 -0.035642296 0.04601182 4283131239
0.69813693 -0.035289109 0.046212122 4282802274
0.69771171 -0.034831107 0.046279207 4281881438
0.69728684 -0.034373537 0.046346277 4283260774
0.69664794 -0.034130186 0.04667981 4282997856
0.69622433 -0.0336743 0.04674688 4281947735
0.69590753 -0.033111081 0.046680719 4281946961
0.69543105 -0.032709688 0.046814412 4281683789
0.69506121 -0.032200545 0.046814859 4282868315
0.6946913 -0.031691417 0.046815321 4283130458
0.6942687 -0.031236976 0.046882391 4281551176
0.69384646 -0.030782983 0.046949446 4281487697
0.69342446 -0.030329391 0.047016516 4281553490
0.69310725 -0.029765546 0.046950355 4283133813
0.6927377 -0.029256821 0.046950802 4283331975
0.69236809 -0.02874811 0.046951264 4282999919
0.69199848 -0.028239399 0.046951711 4281815645
0.69168055 -0.027674496 0.046885565 4282075989
0.69131082 -0.027165577 0.046886012 4282996059
0.69099236 -0.026600063 0.046819851 4282472793
0.69067365 -0.026034117 0.04675369 4282737251
0.69040561 -0.025410742 0.046620935 4283000423
0.69008613 -0.024843767 0.046554774 4282538836
0.68981707 -0.024218917 0.046422005 4282139453
0.68949676 -0.023650885 0.046355844 4282991662
0.68922663 -0.023024574 0.046223059 4294967190
0.6889056 -0.022455484 0.046156898 4294967199
0.6886344 -0.021827728 0.046024144 4294967176
0.68831265 -0.021257594 0.045957983 4291084122
0.68804038 -0.020628348 0.045825213 4282926123
0.68776745 -0.019998267 0.045692459 4281676056
0.68744445 -0.019426465 0.045626312 4281086262
0.6873185 -0.018616974 0.045293719 4280823090
0.68689597 -0.018162534 0.045360789 4280692019
0.68657172 -0.017589048 0.045294628 4280101167
0.68629611 -0.016955197 0.045161858 4282076754
0.70177251 -0.037966475 0.045839712 4279774765
0.70156455 -0.037297755 0.045640916 4284381026
0.70124578 -0.036731511 0.045574963 4284709991
0.70070755 -0.036373168 0.045774668 4284315235
0.70022488 -0.035963774 0.045907974 4283194968
0.69979733 -0.035502732 0.045974836 4282473043
0.69920707 -0.035200223 0.046240956 4283197798
0.69878054 -0.034740657 0.046307802 4283000419
0.6983543 -0.034281507 0.046374679 4282606696
0.69787455 -0.033876106 0.046507969 4282605672
0.69728792 -0.033578634 0.046774074 4282473057
0.69686317 -0.033121586 0.046840951 4282079067
0.69643879 -0.03266494 0.046907812 4281947481
0.69601476 -0.032208711 0.046974689 4281750869
0.69564408 -0.03169854 0.046975151 4280632384
0.69516748 -0.031297535 0.047108427 4281354060
0.69469154 -0.030897379 0.047241703 4281948766
0.69426882 -0.030443043 0.047308564 4282346350
0.69389892 -0.029933915 0.047309026 4282741108
0.69352901 -0.029424787 0.047309473 4282346354
0.69315916 -0.028915644 0.047309935 4282212213
0.69278926 -0.028406501 0.047310382 4282538598
0.69247127 -0.027841315 0.04724443 4281749082
0.69215298 -0.027275696 0.047178462 4282209883
0.69183439 -0.026709661 0.047112525 4283131757
0.69156694 -0.026086509 0.046980143 4283329134
0.69124758 -0.025519431 0.04691419 4282671717
0.69092786 -0.024951935 0.046848238 4282474338
0.69065893 -0.024326697 0.04671587 4282210135
0.69038934 -0.023700625 0.046583503 4282797645
0.69006842 -0.023131445 0.046517551 4293849065
0.68979782 -0.022503898 0.046385184 4294836148
0.68947613 -0.021933675 0.046319231 4294244523
0.68920445 -0.021304667 0.046186879 4294441832
0.68888205 -0.020733386 0.046120927 4294770513
0.68860924 -0.020102918 0.045988575 4294966650
0.68833584 -0.019471586 0.045856208 4291939401
0.68806183 -0.018839434 0.045723841 4283054592
0.68788618 -0.018087626 0.045458674 4281805863
0.68761063 -0.017453372 0.045326322 4281153338
0.6872853 -0.016878113 0.04526037 4284709757
0.68686169 -0.01642251 0.045327231 4284380792
0.70279914 -0.03794004 0.04593879 4280499517
0.70248038 -0.037373498 0.045873031 4285302404
0.70210606 -0.036858276 0.045873493 4283723374
0.70167673 -0.036395028 0.045940161 4283591788
0.70124757 -0.035932183 0.046006814 4282340176
0.70087361 -0.035417393 0.046007276 4282737497
0.70039034 -0.03500779 0.046140164 4283265124
0.6999622 -0.034546211 0.046206832 4282803805
0.69948 -0.034138069 0.04633972 4283001184
0.69899845 -0.03373076 0.046472609 4282869087
0.6985175 -0.033324286 0.046605483 4282341469
0.69798326 -0.032972306 0.046804562 4282866520
0.69755739 -0.032513872 0.04687123 4281484100
0.69713181 -0.03205587 0.046937898 4281878858
0.69670653 -0.03159827 0.047004566 4282143317
0.6961751 -0.031250045 0.047203645 4280565310
0.69575071 -0.030793726 0.047270313 4282343522
0.69522077 -0.030447602 0.047469407 4282541414
0.69474453 -0.03004764 0.047602296 4282344035
0.6943742 -0.029537871 0.047602743 4282211938
0.69405633 -0.028972581 0.047536984 4282076252
0.6936335 -0.028518334 0.047603652 4281747551
0.69331533 -0.027952626 0.047537893 4282341219
0.69304889 -0.027330354 0.047405928 4283130735
0.69272995 -0.026763588 0.04734017 4282671458
0.69241071 -0.026196405 0.047274411 4283000682
0.69209123 -0.025628805 0.047208667 4282670952
0.69177139 -0.025060788 0.047142908 4282670182
0.69150245 -0.024435163 0.047010958 4282012252
0.69123304 -0.023808688 0.046878994 4286944930
0.69096291 -0.023181364 0.046747044 4293982455
0.6906414 -0.022611052 0.0466813 4294770686
0.69037026 -0.021982282 0.046549335 4294770686
0.69004798 -0.021410897 0.046483591 4294770419
0.68977576 -0.020780653 0.046351641 4294377131
0.68950295 -0.020149559 0.046219677 4294770534
0.68922949 -0.01951763 0.046087712 4294244663
0.68895543 -0.018884867 0.045955777 4294967108
0.68863106 -0.018310577 0.045890033 4294967142
0.68840551 -0.017616838 0.045691863 4292396661
0.68812966 -0.016981542 0.045559928 4280889648
0.68785316 -0.016345426 0.045427963 4283192430
0.68733037 -0.016009167 0.045627058 4280100159
0.70403636 -0.038584277 0.046237841 4279904552
0.70366174 -0.038068637 0.046238303 4282339924
0.70323145 -0.037604436 0.046304777 4282936938
0.70291251 -0.037037373 0.046239227 4284448632
0.70253789 -0.036521733 0.046239689 4283524716
0.70210809 -0.036058173 0.046306163 4282603614
0.70173359 -0.035542741 0.04630661 4282472028
0.70135915 -0.035027325 0.046307072 4282672739
0.70098472 -0.034511894 0.046307534 4282804323
0.70050108 -0.034102261 0.04644002 4282341719
0.70012689 -0.033587247 0.046440482 4282210133
0.69964415 -0.033178881 0.046572939 4282406485
0.69916201 -0.032771349 0.046705425 4282076752
0.69878846 -0.032257184 0.046705887 4282668628
0.69825339 -0.031904846 0.04690437 4281615688
0.69782662 -0.031445459 0.046970844 4281747274
0.69734663 -0.031040862 0.047103301 4281615951
0.69686723 -0.030637085 0.047235787 4281025349
0.69644165 -0.030179396 0.047302231 4282804327
0.69606948 -0.029667109 0.047302693 4282671717
0.69564438 -0.029210031 0.047369152 4282540131
0.69521964 -0.02875337 0.047435626 4282602844
0.69468987 -0.028408363 0.047634095 4282009426
0.69421351 -0.028008804 0.047766566 4281814361
0.69389474 -0.027441949 0.047701001 4282408286
0.69362777 -0.026818424 0.047569469 4283460974
0.69325626 -0.026306987 0.047569916 4282539868
0.6929884 -0.025682211 0.047438353 4282605411
0.69271994 -0.025056586 0.047306806 4282340703
0.69239932 -0.024487227 0.047241271 4282799458
0.69207841 -0.023917437 0.047175705 4283786353
0.6918084 -0.02328974 0.047044158 4293655039
0.69153786 -0.022661179 0.046912611 4294639614
0.69121569 -0.02208972 0.04684706 4294639614
0.69094402 -0.021459699 0.046715513 4294639614
0.69067174 -0.020828828 0.046583951 4294770683
0.69034839 -0.020255685 0.046518415 4294376917
0.69007504 -0.019623369 0.046386868 4294573959
0.68975091 -0.019049183 0.046321332 4293982788
0.68942654 -0.018474579 0.046255782 4294311753
0.68910182 -0.017899543 0.046190232 4294836046
0.68897563 -0.017085701 0.045860693 4294966162
0.68869931 -0.016449168 0.045729145 4283386438
0.68842232 -0.015811816 0.045597598 4282267957
0.68665069 0.012620866 0.032213628 4279638816
0.68606424 0.012915909 0.032478094 4279770919
0.68556839 0.013342321 0.032610595 4279574569
0.68507314 0.013767868 0.032743081 4279706669
0.68453413 0.01412566 0.032941565 4280035634
0.7045821 -0.038146824 0.04647325 4281878869
0.70415097 -0.037681654 0.046539515 4283592308
0.70372009 -0.037216917 0.046605781 4284449663
0.70340085 -0.036649138 0.046540439 4283854962
0.70302576 -0.036132872 0.046540901 4282930780
0.70270604 -0.035564467 0.046475545 4282996573
0.70233083 -0.035047993 0.046476007 4283523937
0.70190054 -0.03458409 0.046542272 4283326554
0.70152545 -0.034067824 0.046542734 4282996821
0.70115042 -0.033551559 0.046543196 4282470477
0.70072079 -0.033088505 0.046609461 4282273100
0.70023698 -0.032679275 0.04674153 4282074190
0.69980812 -0.032217264 0.046807796 4282073422
0.6993795 -0.031755671 0.046874061 4281679684
0.6988433 -0.031402558 0.047071934 4281351494
0.69852328 -0.030833721 0.047006577 4281417287
0.69798827 -0.030482307 0.047204465 4282604377
0.69750774 -0.030077472 0.047336534 4283328354
0.69708109 -0.029618606 0.047402799 4282472280
0.6966548 -0.029160172 0.047469065 4281941834
0.69622886 -0.02870214 0.047535315 4282336592
0.69580317 -0.02824451 0.047601581 4282075471
0.69543052 -0.027731612 0.047602043 4281880145
0.6950053 -0.027274624 0.047668308 4282670684
0.69468522 -0.026705787 0.047602952 4282539868
0.69426036 -0.02624923 0.047669217 4282342489
0.69388783 -0.025736526 0.047669679 4282079069
0.69361937 -0.025110304 0.047538519 4282799973
0.6932984 -0.024540216 0.047473192 4284115831
0.69297713 -0.02396971 0.047407836 4284115831
0.69270712 -0.023341388 0.047276691 4294246399
0.69243646 -0.022712216 0.047145545 4294639614
0.69216526 -0.02208221 0.047014385 4294770686
0.69184232 -0.021509409 0.046949059 4294770686
0.69151908 -0.020936176 0.046883717 4294770686
0.69119555 -0.020362526 0.046818376 4294770686
0.69087172 -0.019788444 0.046753019 4294770683
0.69059801 -0.019155085 0.046621889 4294574044
0.69027346 -0.01857996 0.046556547 4294573974
0.68994856 -0.018004417 0.046491206 4294442900
0.68972337 -0.017309487 0.046294272 4290029873
0.6894474 -0.016672999 0.046163127 4286012988
0.68822104 0.011193231 0.032753929 4281947983
0.6877231 0.011621982 0.032885998 4283328100
0.68722576 0.012049854 0.033018082 4283328100
0.68668395 0.0124107 0.033215985 4283194981
0.68627793 0.012969524 0.033216491 4283982452
0.68578231 0.013395086 0.03334856 4282996319
0.6852873 0.013819858 0.033480644 4282008910
0.68483734 0.014310777 0.033546939 4281614152
0.68443215 0.014868543 0.033547446 4281217859
0.75422341 -0.074935302 0.031183511 4279114020
0.75381166 -0.074368529 0.031184018 4279179813
0.75319237 -0.073901892 0.031381384 4278983981
0.7529881 -0.073234975 0.031185031 4278853163
0.7527141 -0.072600588 0.031054288 4278787620
0.7047531 -0.037191302 0.04671073 4283592567
0.70437729 -0.036673993 0.046711192 4283724405
0.70400143 -0.036156684 0.046711653 4283524716
0.70362562 -0.035639375 0.046712115 4282077270
0.70319432 -0.03517431 0.046778172 4283521118
0.70281863 -0.03465721 0.046778634 4283982168
0.702443 -0.03414011 0.046779096 4283719246
0.70206726 -0.03362301 0.046779558 4283455313
0.70169163 -0.03310591 0.04678002 4282139453
0.70126122 -0.032642111 0.046846092 4282073924
0.70077658 -0.032232225 0.046977744 4281548100
0.70040137 -0.031715751 0.046978205 4281810248
0.69997191 -0.031253189 0.047044277 4281612869
0.69948864 -0.03084521 0.047175929 4281349697
0.69911385 -0.030329362 0.047176391 4281418570
0.69868529 -0.029868066 0.047242463 4283131235
0.69574666 -0.026594758 0.047639281 4282210903
0.69521523 -0.026249066 0.047836542 4282078547
0.69494683 -0.025622457 0.047705799 4281881168
0.69457328 -0.025108278 0.047706261 4281814877
0.69425189 -0.024537265 0.047641113 4282601831
0.69398212 -0.023908734 0.047510371 4284051575
0.69360811 -0.023393944 0.047510833 4289907152
0.69333744 -0.022764191 0.04738009 4294443007
0.69301462 -0.022191271 0.047314957 4294639614
0.69269156 -0.021617949 0.047249809 4294639614
0.69241935 -0.02098608 0.047119081 4294770686
0.69209546 -0.0204117 0.047053948 4294770686
0.69177133 -0.019836903 0.0469888 4294770686
0.69144684 -0.019261688 0.046923667 4294770686
0.69107145 -0.018745005 0.046924129 4294770679
0.69079697 -0.018109992 0.046793401 4294967237
0.69047159 -0.017533511 0.046728253 4293981621
0.6895684 0.010586858 0.033032343 4283131487
0.68902314 0.010951623 0.033229619 4282867036
0.68847877 0.011315137 0.033426896 4282537571
0.68807203 0.011875004 0.033427402 4281614416
0.68757445 0.012302697 0.033559069 4282864483
0.68712276 0.012795836 0.033625185 4281349186
0.6866262 0.013222069 0.033756867 4279505458
0.68613029 0.013647437 0.033888534 4279440935
0.68563503 0.014072031 0.0340202 4279506212
0.68518502 0.014562845 0.034086317 4279506212
0.6847353 0.015053287 0.034152389 4279833646
0.68424147 0.01547575 0.03428407 4280094494
0.75470936 -0.07537733 0.031992778 4278917673
0.75415903 -0.074877501 0.032124102 4278982432
0.75374818 -0.074311979 0.032124594 4279245604
0.75333732 -0.073746458 0.0321251 4279048739
0.75306475 -0.073113576 0.031994805 4279378989
0.75279158 -0.072479837 0.031864464 4279115815
0.75231129 -0.071947582 0.031930372 4279311136
0.70492393 -0.036233351 0.046949819 4283724659
0.70449162 -0.035767123 0.047015682 4283262823
0.70417106 -0.035197049 0.046950743 4282736479
0.7037946 -0.034678906 0.046951205 4282140734
0.7034182 -0.034160763 0.046951666 4283124799
0.70298648 -0.03369537 0.04701753 4282993472
0.70261014 -0.033177435 0.047017992 4282006076
0.70223391 -0.032659501 0.047018453 4282137662
0.70185757 -0.032141551 0.047018915 4282269250
0.70137191 -0.031730816 0.047150195 4281875260
0.70094144 -0.031267107 0.047216058 4281612090
0.70061994 -0.030695781 0.047151104 4281088058
0.70013553 -0.030286714 0.047282383 4281548609
0.6998139 -0.029715165 0.047217429 4283987316
0.69938415 -0.029252514 0.047283292 4282537569
0.69890094 -0.028845116 0.047414541 4282075737
0.69847196 -0.028383508 0.047480404 4281942867
0.69643724 -0.02596949 0.047678903 4281355344
0.69595706 -0.02556631 0.047810167 4281355344
0.6956352 -0.024994344 0.047745213 4282077785
0.69526058 -0.024478704 0.047745675 4282733417
0.69488597 -0.023963079 0.047746137 4285101965
0.69456345 -0.023390278 0.047681198 4294180863
0.69424063 -0.02281706 0.047616273 4294246399
0.69396931 -0.022185847 0.047485933 4294574078
0.69364572 -0.021611586 0.047420993 4294639614
0.69332182 -0.021036908 0.047356069 4294639614
0.69299763 -0.020461798 0.047291145 4294639614
0.69267315 -0.019886285 0.047226205 4294639614
0.69229734 -0.019368976 0.047226667 4294639614
0.69202328 -0.018733978 0.047096327 4294639614
