# .PCD v0.7 - Point Cloud Data file format
VERSION 0.7
FIELDS x y z rgb
SIZE 4 4 4 4
TYPE F F F U
COUNT 1 1 1 1
WIDTH 1024
HEIGHT 1
VIEWPOINT 0 0 0 1 0 0 0
POINTS 1024
DATA ascii
0.70595515 -0.01326099 0.042768523 4280954676
0.70655006 -0.013068065 0.04276897 4279709224
0.72008169 -0.016827896 0.035494938 4280889918
0.72080022 -0.016825482 0.035289347 4281482055
0.72142202 -0.016623855 0.035289809 4280627771
0.72214276 -0.01662071 0.035084203 4280429869
0.72279853 -0.016484931 0.03501597 4280823603
0.72345477 -0.016348988 0.034947738 4280494638
0.72411156 -0.016212896 0.034879506 4280297009
0.72476876 -0.016076624 0.034811288 4280757310
0.72535807 -0.015808657 0.034880444 4280758082
0.72608471 -0.015803605 0.034674838 4280822601
0.72670871 -0.015601248 0.0346753 4279967292
0.7273677 -0.015464425 0.034607083 4280229683
0.72792155 -0.015131101 0.034744918 4280426542
0.68844932 -0.01796104 0.044477642 4280169523
0.68903983 -0.01776956 0.044478089 4280035624
0.68963033 -0.017578065 0.044478536 4280363826
0.69022083 -0.017386585 0.044478983 4281284928
0.69081128 -0.017195091 0.044479415 4285825936
0.69140178 -0.017003611 0.044479862 4293787135
0.69199228 -0.016812116 0.044480309 4294639100
0.6926052 -0.016690403 0.04441224 4289639604
0.69321865 -0.016568512 0.044344187 4283389269
0.69383258 -0.016446456 0.044276118 4280889899
0.69444698 -0.016324267 0.044208065 4280297497
0.69506186 -0.016201898 0.044140011 4280955177
0.69567728 -0.016079366 0.044071957 4282006327
0.69629312 -0.015956685 0.044003904 4281808948
0.69690955 -0.01583384 0.043935865 4281544236
0.6975264 -0.015710831 0.043867797 4281413161
0.69814378 -0.015587658 0.043799758 4281019432
0.6987865 -0.015533298 0.043663204 4280626214
0.69940513 -0.015409738 0.043595135 4280165663
0.6999988 -0.015217215 0.043595582 4279838243
0.70061815 -0.015093416 0.043527544 4279311899
0.70123798 -0.014969438 0.043459475 4279838494
0.70183218 -0.014776766 0.043459922 4278983185
0.70245272 -0.014652565 0.043391883 4278521351
0.70304716 -0.014459789 0.04339233 4278323210
0.70364159 -0.014267027 0.043392763 4278650128
0.70423603 -0.014074266 0.04339321 4280694051
0.70485783 -0.013949648 0.043325171 4278193152
0.7054525 -0.013756812 0.043325618 4279175702
0.70607507 -0.01363197 0.043257564 4279767326
0.70669812 -0.013506949 0.043189511 4280102699
0.7072649 -0.013246119 0.043258443 4279578667
0.72020692 -0.017215163 0.036005452 4280755000
0.72086048 -0.017080233 0.035937458 4281412930
0.72154737 -0.017011568 0.035800934 4281087297
0.7222352 -0.01694259 0.035664409 4281153851
0.72285753 -0.016740784 0.035664871 4280693300
0.72354686 -0.016671315 0.035528362 4280495921
0.72420341 -0.016535431 0.035460338 4280166193
0.7248264 -0.016333401 0.035460815 4280362550
0.72548372 -0.016197309 0.035392776 4280033335
0.72614151 -0.016061023 0.035324752 4280163638
0.72676504 -0.015858829 0.035325229 4280032052
0.7273885 -0.015656635 0.035325691 4280032304
0.72801203 -0.015454441 0.035326153 4279966763
0.72863555 -0.015252233 0.03532663 4279310366
0.72922337 -0.014984608 0.035395578 4279637280
0.7298106 -0.014717102 0.03546454 4279505694
0.73043364 -0.014515072 0.035465002 4279376161
0.73102021 -0.014247835 0.035533965 4279769634
0.73164296 -0.014045864 0.035534427 4280292646
0.75814128 -0.0039891601 0.03685607 4279638314
0.6892429 -0.018419355 0.044690281 4279972911
0.68983436 -0.018227547 0.044690728 4280759093
0.69040436 -0.017965496 0.044759467 4280956472
0.69099557 -0.017773762 0.044759899 4282205008
0.69158679 -0.017582044 0.044760346 4291876831
0.69217807 -0.017390311 0.044760793 4291152843
0.69276929 -0.017198578 0.044761226 4292404193
0.69338322 -0.017076701 0.044693381 4285759100
0.69399768 -0.01695466 0.044625521 4286155653
0.69458944 -0.016762763 0.044625968 4286684560
0.69520462 -0.016640469 0.044558123 4284512877
0.69582033 -0.016518027 0.044490278 4285564282
0.69643652 -0.016395405 0.044422433 4284051043
0.69705319 -0.016272634 0.044354573 4280623134
0.69767034 -0.0161497 0.044286728 4281148708
0.69826329 -0.015957415 0.044287175 4280756779
0.69890612 -0.015903354 0.044151023 4280560168
0.69952482 -0.015779942 0.044083163 4280428582
0.70011848 -0.015587419 0.04408361 4280297249
0.70073789 -0.015463769 0.044015765 4279903525
0.70133185 -0.015271172 0.044016212 4279706407
0.70195198 -0.015147269 0.043948352 4279837993
0.70254612 -0.014954582 0.043948799 4279640612
0.70316702 -0.014830455 0.043880954 4279966241
0.70376146 -0.014637694 0.043881401 4279638801
0.70438302 -0.014513314 0.043813556 4279307274
0.70500517 -0.014388785 0.043745697 4279109895
0.70560008 -0.014195859 0.043746144 4279044366
0.70622289 -0.014071092 0.043678313 4279371546
0.7068181 -0.013878077 0.043678761 4279635488
0.70747006 -0.01382108 0.043542609 4282273620
0.72092056 -0.017334372 0.036584735 4279370517
0.72160703 -0.017266169 0.036448628 4279699494
0.72226143 -0.017131194 0.036380798 4279307809
0.72294962 -0.017062411 0.03624469 4280231216
0.72360528 -0.016927019 0.03617686 4280362802
0.72426134 -0.016791448 0.036109045 4279968044
0.72491795 -0.016655743 0.036041215 4279835945
0.72554076 -0.016453788 0.036041692 4279572271
0.72619808 -0.016317815 0.035973877 4279834925
0.72682106 -0.016115785 0.035974339 4279703339
0.72744411 -0.01591374 0.035974801 4279835177
0.72806716 -0.01571171 0.035975277 4279375394
0.72865462 -0.015443996 0.036044016 4279115535
0.72927737 -0.01524204 0.036044478 4279899673
0.72986412 -0.014974564 0.036113247 4279702294
0.73048669 -0.014772683 0.036113709 4279572505
0.73107266 -0.014505446 0.036182463 4280097052
0.73162138 -0.01417309 0.036319494 4279833378
0.73220617 -0.01390627 0.036388248 4279505437
0.73279041 -0.013639569 0.036457002 4279439644
0.7332992 -0.013242975 0.03666231 4279768866
0.73388195 -0.012976781 0.036731079 4279506464
0.73438823 -0.012580991 0.036936373 4279178276
0.73493129 -0.012250453 0.037073418 4279243810
0.75683355 -0.0055339336 0.036748275 4279966761
0.75731248 -0.0051470101 0.036953554 4279374122
0.75788468 -0.004884243 0.037022293 4279964966
0.75845641 -0.0046216249 0.037091032 4279572521
0.68889552 -0.019403741 0.044767469 4280037421
0.68946743 -0.019140914 0.044836015 4280300593
0.69006014 -0.018948704 0.044836462 4281286203
0.69060975 -0.018615723 0.04497309 4281088824
0.69120193 -0.018423676 0.044973537 4281942856
0.6917721 -0.018161401 0.045042068 4284045409
0.6923418 -0.01789929 0.045110598 4285690484
0.69295609 -0.017777458 0.045042947 4290299592
0.69354802 -0.017585501 0.045043394 4286220426
0.69414002 -0.017393529 0.045043841 4285367683
0.69473201 -0.017201558 0.045044288 4287474343
0.69534749 -0.017079353 0.044976637 4285828484
0.69596344 -0.01695697 0.044909 4289250754
0.69655591 -0.016764835 0.044909447 4290435028
0.69717264 -0.016642228 0.044841781 4285101945
0.69778985 -0.016519442 0.044774145 4281939258
0.69840759 -0.016396508 0.044706479 4280690984
0.69902581 -0.016273409 0.044638842 4280495141
0.69961923 -0.016080961 0.044639289 4280363555
0.70023817 -0.015957624 0.044571623 4280297762
0.70085764 -0.015834138 0.044503987 4279969064
0.70145154 -0.015641525 0.044504434 4279772200
0.70207173 -0.015517786 0.044436783 4279903786
0.70266593 -0.015325099 0.04443723 4279574821
0.70328683 -0.015201122 0.044369578 4279967013
0.70390826 -0.01507698 0.044301942 4279771418
0.70453012 -0.014952689 0.044234291 4280099352
0.70512509 -0.014759764 0.044234738 4279704594
0.70574772 -0.01463522 0.044167101 4279045642
0.70637083 -0.014510527 0.04409945 4279439390
0.70699447 -0.014385685 0.044031814 4279372829
0.70761859 -0.014260665 0.043964162 4281088062
0.70821452 -0.014067411 0.04396461 4281482820
0.72163367 -0.017453462 0.037163585 4279238943
0.72232044 -0.017385498 0.037027866 4278847258
0.72304165 -0.017383754 0.036824092 4278848280
0.72366345 -0.017182112 0.036824554 4278848280
0.72428524 -0.016980469 0.036825031 4279899173
0.72497529 -0.016911447 0.036689326 4279835429
0.72559756 -0.016709656 0.036689788 4279637544
0.72621983 -0.016507864 0.03669025 4279636774
0.72684211 -0.016306058 0.036690712 4279768360
0.72746444 -0.016104266 0.036691189 4279768612
0.72808671 -0.01590246 0.036691651 4279310114
0.72870898 -0.015700668 0.036692113 4278919441
0.72929543 -0.015433118 0.036760673 4279638296
0.72988135 -0.015165731 0.036829218 4279375124
0.73046684 -0.014898509 0.036897764 4279572503
0.7310518 -0.01463142 0.036966324 4279834648
0.73159945 -0.01429908 0.037102953 4279768862
0.73218316 -0.014032409 0.037171483 4279309333
0.73276639 -0.013765901 0.037240058 4279309333
0.73327398 -0.013369173 0.037444741 4279505944
0.73385578 -0.013103142 0.037513286 4279243288
0.73432285 -0.012642145 0.037786081 4279178269
0.73482627 -0.012246758 0.037990808 4279310116
0.73536676 -0.011916757 0.038127422 4279375909
0.73582864 -0.011457443 0.038400218 4278981919
0.7569117 -0.0058585703 0.037326232 4279573288
0.75748456 -0.0055954158 0.037394792 4279375657
0.75800955 -0.0052704364 0.037531376 4279769382
0.75858122 -0.0050076544 0.037599921 4279637796
0.75929612 -0.0049305856 0.037464231 4283783259
0.68909848 -0.02005662 0.044983312 4280627497
0.68967134 -0.019793317 0.045051649 4280496435
0.69024366 -0.019530162 0.045120001 4281880906
0.69079393 -0.01919663 0.045256227 4282407250
0.69138688 -0.019004345 0.045256674 4281682242
0.69195771 -0.018741682 0.045324996 4282862927
0.69252813 -0.018479168 0.045393348 4282663758
0.6931206 -0.018287033 0.045393795 4282668639
0.69371307 -0.018094912 0.045394227 4282668639
0.69430554 -0.017902777 0.045394674 4285500553
0.69489795 -0.017710656 0.045395121 4285959038
0.69549042 -0.017518535 0.045395568 4286025085
0.69608289 -0.0173264 0.045396 4289316031
0.69669944 -0.017204016 0.045328557 4288394929
0.69729215 -0.017011821 0.04532899 4292473591
0.69790941 -0.016889185 0.045261562 4291551714
0.69852716 -0.016766399 0.045194104 4283787618
0.6991204 -0.01657404 0.045194551 4279640600
0.69973886 -0.016451001 0.045127109 4279837979
0.70035785 -0.016327828 0.045059651 4280559651
0.70095158 -0.016135305 0.045060098 4280363052
0.70157129 -0.016011879 0.044992656 4279771685
0.70219153 -0.015888289 0.044925213 4279903271
0.70278573 -0.015695602 0.044925645 4279771685
0.70340669 -0.015571788 0.044858217 4279771685
0.70402813 -0.015447795 0.044790775 4279903523
0.7046501 -0.015323669 0.044723332 4279838494
0.70527256 -0.015199348 0.044655889 4279838494
0.70589548 -0.015074894 0.044588447 4279641115
0.70651889 -0.014950275 0.044521004 4279837728
0.70714283 -0.014825493 0.044453561 4279904298
0.70776725 -0.014700562 0.044386119 4280693550
0.70839214 -0.014575467 0.044318676 4280759343
0.72244567 -0.017772764 0.037538379 4278387477
0.72306669 -0.01757136 0.037538841 4278584590
0.72372144 -0.017436564 0.037471443 4278584590
0.72441059 -0.017368197 0.037336141 4279240728
0.72503239 -0.017166555 0.037336618 4279506710
0.72565418 -0.016964912 0.03733708 4279375896
0.72624129 -0.01669699 0.037405416 4279506212
0.72689778 -0.016561642 0.037338004 4279374626
0.72748441 -0.016293868 0.037406355 4279506210
0.72810596 -0.016092315 0.037406817 4279179550
0.72869182 -0.01582475 0.037475169 4278785821
0.72931314 -0.015623271 0.037475631 4279245593
0.72986215 -0.015290141 0.037611872 4279179800
0.73044658 -0.015023082 0.037680194 4279376409
0.73103052 -0.014756173 0.03774856 4279769882
0.73157704 -0.014423847 0.037884787 4279376409
0.73212266 -0.014091849 0.038020983 4279178768
0.73270458 -0.013825551 0.038089335 4279178768
0.73317319 -0.013363421 0.038361326 4279702292
0.73367769 -0.012967184 0.038565427 4279374108
0.73421884 -0.012636602 0.038701653 4279244062
0.73479736 -0.012371451 0.03876999 4279308833
0.73529816 -0.011976406 0.038974077 4278981669
0.73583633 -0.011646792 0.039110303 4278784290
0.73633444 -0.011252627 0.039314419 4279571226
0.75655687 -0.0066334605 0.037631854 4279507243
0.75708365 -0.0063075274 0.037768081 4279507243
0.75765675 -0.0060441494 0.037836388 4279573034
0.75822937 -0.0057809055 0.037904754 4281219133
0.75875372 -0.005455792 0.038040936 4285560436
0.68928093 -0.020639777 0.045268476 4280889899
0.6898545 -0.020376086 0.045336604 4281154619
0.69040608 -0.020041779 0.045472428 4281749836
0.69097841 -0.01977846 0.045540556 4282407766
0.69157207 -0.019585937 0.045541003 4281550656
0.69214368 -0.019322872 0.045609146 4282139713
0.69271469 -0.019059971 0.045677274 4282204745
0.69328529 -0.018797219 0.045745417 4282406237
0.69387823 -0.018604934 0.045745865 4282866788
0.69447118 -0.01841265 0.045746312 4283723374
0.69506419 -0.018220365 0.045746744 4284708458
0.69565713 -0.01802808 0.045747191 4284443743
0.69625008 -0.017835796 0.045747638 4287274138
0.69684303 -0.017643496 0.045748085 4287734689
0.69743598 -0.017451212 0.045748532 4291814888
0.69805354 -0.017328665 0.045681268 4292013544
0.69867158 -0.017205954 0.045614034 4288724662
0.69929016 -0.017083094 0.045546785 4281550909
0.69988388 -0.016890556 0.045547232 4279248154
0.70047754 -0.016698033 0.045547679 4280099868
0.70109707 -0.01657486 0.045480445 4280164640
0.70171714 -0.016451493 0.045413196 4280033056
0.70233762 -0.016327992 0.045345962 4280164642
0.70295864 -0.016204312 0.045278728 4280164644
0.70355332 -0.016011462 0.045279175 4280098849
0.70417511 -0.015887558 0.045211926 4279902238
0.70479733 -0.015763491 0.045144692 4279903774
0.70542008 -0.01563926 0.045077443 4279903774
0.7060433 -0.01551488 0.045010209 4279575583
0.70666701 -0.015390322 0.04494296 4279575583
0.70729125 -0.015265629 0.044875726 4279641380
0.70794451 -0.015209213 0.044740796 4280693803
0.70856994 -0.015084103 0.044673577 4280956975
0.70922494 -0.015027136 0.044538647 4281940285
0.72312498 -0.017824888 0.038184717 4278519049
0.72371179 -0.017556876 0.03825289 4278190084
0.72436607 -0.017422408 0.038185641 4279114240
0.72502089 -0.017287791 0.038118452 4279243542
0.72564167 -0.017086476 0.038118914 4279179798
0.72626245 -0.016885161 0.038119376 4279176725
0.72688329 -0.016683832 0.038119853 4279308311
0.72746891 -0.016416222 0.038187966 4279311388
0.72808945 -0.016214982 0.038188443 4279179018
0.72871 -0.016013741 0.038188905 4279179020
0.7292946 -0.015746444 0.038257062 4279443736
0.72984254 -0.015413329 0.038392887 4279312150
0.73042595 -0.015146434 0.038461015 4279114534
0.73100883 -0.014879704 0.038529158 4279180065
0.73155433 -0.014547378 0.038664967 4279179559
0.73209882 -0.01421538 0.038800791 4278850848
0.73260486 -0.0138181 0.039004296 4278785055
0.73314714 -0.013486847 0.039140105 4279177749
0.73368841 -0.013155878 0.039275929 4279310368
0.73419058 -0.012759879 0.03947942 4279178280
0.73472965 -0.01242964 0.039615229 4279307561
0.7352677 -0.012099728 0.039751053 4279046429
0.7358048 -0.011770099 0.039886862 4279112222
0.73630178 -0.011375815 0.040090352 4279505942
0.75782907 -0.006493181 0.038278446 4282604129
0.75835431 -0.0061674118 0.038414255 4284645507
0.75892633 -0.0059041977 0.038482368 4284574072
0.68948466 -0.021294966 0.045487359 4281021485
0.69003791 -0.02095978 0.045622781 4281548861
0.6905902 -0.020624906 0.045758203 4281748555
0.69116318 -0.020361215 0.045826122 4281682762
0.69175762 -0.020168453 0.045826569 4281090625
0.69230765 -0.01983431 0.045961991 4281813582
0.6928792 -0.019571096 0.046029925 4282273368
0.69347286 -0.019378558 0.046030357 4283327085
0.69406658 -0.019186035 0.046030805 4283392878
0.69466025 -0.018993512 0.046031252 4283526515
0.69523054 -0.018730685 0.046099186 4283854185
0.69582397 -0.018538237 0.046099633 4283585357
0.69641745 -0.018345788 0.04610008 4284110928
0.69701087 -0.01815334 0.046100527 4284308307
0.69760436 -0.017960891 0.046100974 4286874750
0.69822246 -0.017838344 0.046033919 4289115568
0.69881612 -0.017645821 0.046034366 4287803560
0.699435 -0.017523035 0.045967326 4283461222
0.70000356 -0.01726076 0.04603526 4281552706
0.70062286 -0.017137811 0.04596822 4281088559
0.70124269 -0.017014697 0.045901179 4282139453
0.70186305 -0.01689142 0.045834139 4280887841
0.70248383 -0.016767979 0.045767114 4280756255
0.70310515 -0.016644388 0.045700058 4280622362
0.70372695 -0.016520634 0.045633033 4280359960
0.70434928 -0.016396716 0.045565993 4280294932
0.70497203 -0.016272649 0.045498952 4280230168
0.70559531 -0.016148403 0.045431912 4280164375
0.70621908 -0.016024023 0.045364887 4279704863
0.70684338 -0.015899479 0.045297831 4279836958
0.70746815 -0.015774757 0.045230806 4279771416
0.7080934 -0.01564987 0.04516378 4280298012
0.70871913 -0.015524834 0.045096755 4280692770
0.70934534 -0.015399635 0.045029715 4280955177
0.72376931 -0.017809808 0.038897753 4284246528
0.7243551 -0.01754196 0.038965672 4278654208
0.72500896 -0.017407805 0.038898677 4279176979
0.72559428 -0.01714012 0.038966596 4279112726
0.72621381 -0.016939208 0.038967058 4279242772
0.7268334 -0.016738296 0.03896752 4279308565
0.72745299 -0.016537368 0.038967982 4279047446
0.72807252 -0.016336456 0.038968459 4279179018
0.72865641 -0.016069248 0.039036393 4279309064
0.7292397 -0.015802175 0.039104342 4279443734
0.72978634 -0.015469149 0.039239749 4279377941
0.73040491 -0.015268549 0.039240211 4279048993
0.73091328 -0.014870048 0.039443105 4279180325
0.73145717 -0.014537901 0.039578512 4279114534
0.73200011 -0.014206052 0.039713934 4278719522
0.73254204 -0.013874546 0.039849356 4278915095
0.73308295 -0.013543352 0.039984748 4278915095
0.73358494 -0.013146907 0.040187642 4279179298
0.73416185 -0.012881935 0.040255576 4279112737
0.73469985 -0.012551695 0.040390983 4279046179
0.73519814 -0.012156457 0.040593863 4279046681
0.73577285 -0.011892214 0.040661812 4279112474
0.73630786 -0.011562943 0.040797219 4279374348
0.68964678 -0.021808892 0.045842424 4281546771
0.69022167 -0.021544397 0.04591015 4281614392
0.69079608 -0.02128008 0.04597789 4281483330
0.69134825 -0.020944893 0.04611291 4281154365
0.69194341 -0.020751879 0.046113357 4281090629
0.69251639 -0.020488039 0.046181083 4281683279
0.69308883 -0.020224348 0.046248823 4283393382
0.69366074 -0.019960821 0.046316534 4283722858
0.69423223 -0.019697443 0.04638426 4283525479
0.69480318 -0.019434243 0.046452001 4283460202
0.69539714 -0.019241631 0.046452448 4283854181
0.6959911 -0.019049034 0.046452895 4283587147
0.696585 -0.018856421 0.046453327 4284374866
0.69717896 -0.018663824 0.046453774 4284177487
0.69777292 -0.018471211 0.046454221 4285822064
0.69836682 -0.018278599 0.046454668 4285229931
0.69898576 -0.018155947 0.046387821 4283323228
0.69957995 -0.01796326 0.046388268 4283257435
0.70019954 -0.017840385 0.046321437 4284051314
0.70079398 -0.017647624 0.046321884 4284051825
0.70138842 -0.017454863 0.046322331 4285301892
0.70200908 -0.017331645 0.046255499 4283920237
0.70263016 -0.017208293 0.046188653 4284841339
0.70327842 -0.017154172 0.046054542 4282009924
0.70390081 -0.017030418 0.04598771 4280823845
0.70452362 -0.016906485 0.045920864 4280295952
0.70514697 -0.016782418 0.045854032 4280230161
0.70577079 -0.016658172 0.0457872 4280230161
0.70639509 -0.016533762 0.045720369 4279769108
0.70701993 -0.016409203 0.045653537 4280626716
0.70761681 -0.016215637 0.045653984 4279838229
0.70827103 -0.016159594 0.045519873 4279771670
0.70886838 -0.015965879 0.045520321 4280100635
0.70955324 -0.015977964 0.045318931 4280824104
0.71015137 -0.015783995 0.045319393 4280955439
0.72434372 -0.01766026 0.039744064 4278911746
0.72492802 -0.017392755 0.039811805 4278979339
0.72558093 -0.017259061 0.039744988 4279045132
0.7261647 -0.016991705 0.039812729 4279506963
0.72678304 -0.016791195 0.039813191 4279245591
0.72740138 -0.01659067 0.039813653 4278982419
0.72801971 -0.016390145 0.039814115 4279179030
0.72860223 -0.016123176 0.039881855 4279508244
0.72918433 -0.015856385 0.039949596 4279311386
0.72972959 -0.015523449 0.0400846 4279178026
0.73031038 -0.015257046 0.040152326 4279375405
0.73089075 -0.014990777 0.040220082 4279114534
0.7313965 -0.014592603 0.04042235 4279180577
0.73193806 -0.014260873 0.040557355 4278589725
0.73251617 -0.013995335 0.040625095 4278981401
0.73301828 -0.013598353 0.040827379 4278981401
0.73359489 -0.013333291 0.040895104 4279178778
0.73413277 -0.013002768 0.041030109 4279112985
0.73466969 -0.012672558 0.041165113 4278981403
0.73520559 -0.012342647 0.041300118 4279375126
0.73577952 -0.012078494 0.041367844 4279177747
0.73635292 -0.011814475 0.041435584 4280029974
0.68925405 -0.022659853 0.046063706 4289172275
0.68983012 -0.022394806 0.046131238 4287068202
0.69038445 -0.022058621 0.046265826 4283123500
0.69098085 -0.021865219 0.046266273 4281416243
0.69155544 -0.021600649 0.04633382 4281350450
0.69212955 -0.021336243 0.046401337 4281222211
0.69270319 -0.021072015 0.046468869 4281617484
0.69327629 -0.020807922 0.046536401 4282733651
0.69384897 -0.020543993 0.046603933 4283458653
0.69442111 -0.020280242 0.04667145 4283984997
0.69501603 -0.020087302 0.046671897 4283458403
0.69561094 -0.019894376 0.046672344 4283852900
0.69618213 -0.019630939 0.046739876 4283851604
0.69677681 -0.019438088 0.046740323 4284180569
0.69737148 -0.019245237 0.04674077 4285495407
0.69796616 -0.019052386 0.046741217 4284179818
0.69856083 -0.01885955 0.046741664 4284968562
0.69915551 -0.0186667 0.046742111 4283257948
0.69975019 -0.018473849 0.046742544 4283257948
0.70037037 -0.018350974 0.046675906 4283721066
0.70099103 -0.01822792 0.046609282 4284381304
0.70161223 -0.018104717 0.046542645 4285564814
0.70223385 -0.01798135 0.046476007 4284512378
0.702856 -0.01785782 0.046409369 4285301894
0.70345193 -0.017664567 0.046409816 4284249970
0.70407486 -0.017540812 0.046343192 4283457109
0.7046982 -0.01741688 0.046276554 4281218853
0.70532209 -0.017292798 0.046209931 4280494358
0.70594645 -0.017168537 0.046143308 4279573256
0.70657134 -0.017044127 0.046076685 4279703570
0.70719665 -0.016919553 0.046010047 4280559131
0.7078225 -0.016794845 0.045943424 4280230166
0.70844883 -0.016669959 0.045876786 4280164373
0.70907569 -0.016544908 0.045810163 4279968282
0.70970297 -0.016419709 0.045743525 4280693037
0.7103014 -0.016225666 0.045743972 4280889648
0.71095914 -0.016168818 0.045610264 4281743944
0.72426373 -0.017643049 0.040654972 4278649604
0.72488081 -0.017442927 0.040655434 4278848006
0.72549796 -0.017242804 0.040655896 4279110408
0.72611505 -0.017042682 0.040656358 4279505940
0.72673213 -0.016842574 0.04065682 4279375894
0.72738463 -0.016709208 0.040590227 4279375894
0.72796637 -0.016442329 0.040657744 4279113237
0.72858346 -0.016242206 0.040658206 4279573786
0.72912842 -0.015909031 0.040792823 4279245595
0.72967231 -0.015576199 0.040927425 4279178276
0.73028851 -0.015376389 0.040927887 4279441448
0.73083091 -0.015044034 0.041062489 4279245854
0.73137242 -0.014711976 0.041197091 4279311647
0.73191291 -0.014380261 0.041331694 4278720024
0.73245239 -0.014048859 0.041466296 4279242263
0.73302877 -0.013783738 0.041533828 4279044884
0.73356652 -0.013452902 0.04166843 4279440151
0.73410332 -0.013122365 0.041803032 4279046931
0.73467767 -0.012857884 0.041870549 4278784288
0.73529035 -0.012659207 0.041871011 4279507234
0.73586398 -0.01239495 0.041938543 4279441441
0.73643708 -0.012130871 0.04200606 4282794565
0.73704928 -0.011932343 0.042006522 4285693568
0.68941617 -0.023175478 0.046420813 4294967127
0.68999267 -0.022910118 0.046488121 4294967151
0.69059008 -0.022716388 0.046488583 4292795753
0.69116586 -0.022451282 0.046555907 4291808858
0.69174117 -0.022186309 0.04662323 4288322167
0.692316 -0.02192153 0.046690553 4283519557
0.69291264 -0.021728039 0.046691 4282926652
0.69348669 -0.021463498 0.046758324 4282466619
0.69406027 -0.021199092 0.046825647 4283585100
0.69465643 -0.021005765 0.046826094 4282797643
0.69522929 -0.020741597 0.046893418 4282206793
0.69582516 -0.020548359 0.046893865 4282534741
0.69639724 -0.020284444 0.046961188 4283588192
0.69699293 -0.02009128 0.046961635 4283982950
0.6975643 -0.019827604 0.047028959 4286353047
0.69815969 -0.019634515 0.047029406 4286419610
0.69875515 -0.019441426 0.047029853 4285365639
0.6993506 -0.019248337 0.0470303 4285235847
0.69994599 -0.019055247 0.047030747 4284512124
0.70056695 -0.018932283 0.046964318 4282998622
0.70116264 -0.018739119 0.046964765 4284445550
0.70178431 -0.018615901 0.04689832 4282668637
0.70240653 -0.01849252 0.046831906 4282535768
0.70302922 -0.018369004 0.046765462 4283720042
0.70365238 -0.018245295 0.046699047 4284378476
0.70427608 -0.018121436 0.046632618 4284181346
0.70490026 -0.017997429 0.046566203 4283127879
0.70549738 -0.017803788 0.04656665 4282997574
0.70612228 -0.017679527 0.046500206 4284379227
0.70677572 -0.017624438 0.0463669 4283589977
0.70737362 -0.017430544 0.046367347 4282074955
0.708 -0.017305806 0.046300933 4279968544
0.70862687 -0.01718092 0.046234503 4280034337
0.70925426 -0.017055869 0.046168074 4279639319
0.70988214 -0.016930655 0.046101645 4280165412
0.71051049 -0.016805276 0.04603523 4280823857
0.71113932 -0.016679749 0.045968816 4281019951
0.71179867 -0.016622722 0.04583551 4281348916
0.72271609 -0.017550915 0.042030647 4278190856
0.72343177 -0.017554 0.041830495 4278453252
0.72411478 -0.017489314 0.041697219 4278453252
0.72479874 -0.017424315 0.041563928 4278585608
0.72544903 -0.017291814 0.041497514 4278849031
0.72606492 -0.017092094 0.041497976 4279045909
0.72671592 -0.016959384 0.041431576 4279177495
0.72733206 -0.016759574 0.041432038 4279309081
0.72791255 -0.016492933 0.041499361 4279703066
0.72852838 -0.016293228 0.041499823 4279507232
0.72910815 -0.01602684 0.041567162 4279375907
0.72965097 -0.015693992 0.041701362 4279441439
0.7302295 -0.015428007 0.041768685 4279441439
0.73080754 -0.01516217 0.041836023 4279244559
0.73138499 -0.014896482 0.041903347 4279245595
0.73192465 -0.014564708 0.042037547 4279115032
0.73250097 -0.014299423 0.042104855 4278981900
0.73307675 -0.014034316 0.042172194 4278718728
0.73365206 -0.013769358 0.042239517 4279899663
0.73422688 -0.01350455 0.042306855 4279769106
0.73480117 -0.01323992 0.042374179 4280362289
0.73537499 -0.012975439 0.042441502 4284444004
0.73598742 -0.012776837 0.042441964 4285891450
0.73659986 -0.012578234 0.042442426 4285629812
0.7372123 -0.012379646 0.042442888 4285757298
0.68957841 -0.023691699 0.046778709 4294835785
0.69017661 -0.023497745 0.046779156 4294638169
0.69077468 -0.023303777 0.046779603 4294967210
0.69137287 -0.023109809 0.046780065 4294967217
0.69194907 -0.022844389 0.04684718 4294441449
0.69256914 -0.022721872 0.046780959 4290363576
0.69312245 -0.022385299 0.046914756 4287467391
0.69369745 -0.022120267 0.046981871 4283518010
0.69427198 -0.021855414 0.047049001 4283057459
0.6948691 -0.021661758 0.047049448 4282795838
0.69544291 -0.021397129 0.047116578 4282139715
0.6960398 -0.021203563 0.047117025 4282271053
0.69661283 -0.020939171 0.047184139 4283257694
0.69720948 -0.020745695 0.047184587 4283520866
0.6977818 -0.020481542 0.047251701 4283786353
0.69837821 -0.02028814 0.047252148 4284838271
0.69897461 -0.020094737 0.047252595 4285429894
0.69957101 -0.019901335 0.047253042 4285696914
0.70016742 -0.019707918 0.047253489 4285762707
0.70076382 -0.019514516 0.047253937 4285961619
0.70138609 -0.019391283 0.047187716 4285434242
0.70200878 -0.019267902 0.047121495 4282800473
0.70260572 -0.019074336 0.047121942 4282075469
0.70322919 -0.018950716 0.047055721 4283391329
0.70385313 -0.018826932 0.046989486 4283653472
0.70447761 -0.018702999 0.046923265 4284575590
0.70510256 -0.018578902 0.046857029 4283128394
0.70570046 -0.018385023 0.046857476 4283064396
0.70632619 -0.018260673 0.046791255 4284248670
0.70695233 -0.018136173 0.04672502 4282933330
0.70757902 -0.018011525 0.046658814 4282208340
0.70817769 -0.017817408 0.046659261 4281220930
0.70883387 -0.017761722 0.046526358 4281220930
0.70946205 -0.017636582 0.046460152 4279773734
0.71006143 -0.017442212 0.046460599 4280035620
0.71066082 -0.017247856 0.046461046 4280692267
0.71134949 -0.017260209 0.046261474 4280821800
0.71197963 -0.017134428 0.046195254 4281084972
0.71257997 -0.016939744 0.046195701 4282201648
0.7132414 -0.016882405 0.046062812 4281875262
0.72182417 -0.017320305 0.043334827 4279117089
0.7226038 -0.017460302 0.04300195 4279048989
0.72331786 -0.017464429 0.042802408 4278191113
0.72396499 -0.01733315 0.042736202 4278257163
0.72468156 -0.017336473 0.042536661 4278585110
0.72539961 -0.017339319 0.04233712 4278717964
0.72604924 -0.01720722 0.042270899 4278783757
0.72669935 -0.017074972 0.042204708 4279111704
0.72731447 -0.016875491 0.04220517 4279111704
0.72792959 -0.016676009 0.042205632 4279635738
0.72850877 -0.016409621 0.042272747 4279637028
0.72908747 -0.016143382 0.042339891 4279309862
0.7296657 -0.015877321 0.042407006 4279573027
0.73024338 -0.01561141 0.042474136 4279441441
0.73082066 -0.015345678 0.042541251 4279244561
0.73139739 -0.015080079 0.04260838 4279245341
0.73197359 -0.01481466 0.04267551 4279246355
0.73251164 -0.01448302 0.042809293 4279180553
0.73312461 -0.014284268 0.042809755 4278785795
0.73369932 -0.014019325 0.042876869 4280295961
0.73431206 -0.013820648 0.042877331 4283585357
0.73492467 -0.013621956 0.042877793 4284771957
0.73553735 -0.013423279 0.042878255 4286550664
0.73615003 -0.013224602 0.042878717 4286024320
0.7367627 -0.013025925 0.042879164 4284642665
0.73741502 -0.012892932 0.042812973 4284437080
0.73806787 -0.01275982 0.042746753 4281937210
0.74952942 -0.015406758 0.037353233 4278784792
0.75016254 -0.015201449 0.037353709 4278916378
0.75083923 -0.015060589 0.037287503 4278916380
0.75142878 -0.014790818 0.037354648 4279179300
0.68974096 -0.024208561 0.047137439 4294967134
0.69036078 -0.024086282 0.047071397 4294836119
0.69093817 -0.023820311 0.047138333 4294967277
0.69155854 -0.023697883 0.047072291 4294967277
0.69215739 -0.023503676 0.047072738 4294901755
0.69277847 -0.023380995 0.047006726 4294770683
0.69335514 -0.023115262 0.047073632 4294770683
0.69395399 -0.022921056 0.047074094 4294443001
0.69452995 -0.022655562 0.047141016 4293522155
0.69512856 -0.022461444 0.047141463 4288324255
0.69568038 -0.022125021 0.047274858 4283389780
0.69625479 -0.021860003 0.047341779 4282860358
0.69685268 -0.021666124 0.047342226 4283190095
0.69742644 -0.021401331 0.047409162 4283913818
0.69802403 -0.021207526 0.047409609 4283519317
0.69862169 -0.021013722 0.047410056 4283322454
0.69919443 -0.020749241 0.047476962 4283586911
0.69979185 -0.020555526 0.047477409 4283851114
0.70038921 -0.020361796 0.047477856 4283851114
0.70098662 -0.020168066 0.047478303 4283590770
0.70160991 -0.020044684 0.047412291 4284972675
0.70220757 -0.01985088 0.047412738 4285696652
0.70283157 -0.01972726 0.047346711 4285826440
0.7034561 -0.019603476 0.047280684 4285036924
0.70405424 -0.019409508 0.047281131 4283257431
0.70467949 -0.019285485 0.047215104 4283784791
0.70527786 -0.019091442 0.047215551 4282076220
0.70584863 -0.018827617 0.047282487 4282867791
0.7065025 -0.018773064 0.047149986 4283394135
0.70715731 -0.018718153 0.0470175 4282736477
0.70778477 -0.018593416 0.046951488 4281750356
0.70838416 -0.01839906 0.046951935 4283263343
0.70904124 -0.018343449 0.046819434 4283000171
0.70967019 -0.018218234 0.046753407 4282671456
0.71029961 -0.018092841 0.046687394 4283001184
0.71092957 -0.017967299 0.046621367 4281155389
0.71153015 -0.017772526 0.046621814 4280624674
0.71216083 -0.01764676 0.046555802 4281611569
0.71282232 -0.017589688 0.046423331 4281609761
0.71342367 -0.017394692 0.046423793 4281873966
0.71405578 -0.017268434 0.046357766 4281480753
0.71465743 -0.017073348 0.046358213 4281350201
0.72249079 -0.017367557 0.043970421 4281881157
0.7232033 -0.017372712 0.04377149 4281419074
0.72391725 -0.017377377 0.043572545 4279970863
0.72463274 -0.017381579 0.043373615 4279049761
0.72531497 -0.017317817 0.043241143 4278850833
0.72599816 -0.017253727 0.043108672 4279046929
0.72664708 -0.017122045 0.043042675 4278717966
0.72729647 -0.016990185 0.042976677 4278717966
0.72791064 -0.016791016 0.042977139 4279308058
0.72852474 -0.016591862 0.042977601 4279178017
0.72910267 -0.016325712 0.043044508 4278981669
0.7297166 -0.016126633 0.043044969 4279836460
0.73025703 -0.01579392 0.043178365 4279507495
0.73087043 -0.015594989 0.043178812 4279572775
0.73144662 -0.015329406 0.043245733 4279047962
0.73202229 -0.015063971 0.043312669 4279637777
0.73263526 -0.01486522 0.043313131 4280494110
0.73321021 -0.014600039 0.043380037 4280888868
0.73382288 -0.014401361 0.043380499 4286479994
0.73443556 -0.014202684 0.043380961 4287337362
0.73504817 -0.014003992 0.043381423 4286681231
0.73569983 -0.013871416 0.043315426 4282797383
0.73635197 -0.013738677 0.043249413 4280955179
0.73696512 -0.013539851 0.043249875 4280493858
0.73765767 -0.013472736 0.043117404 4280820777
0.73831129 -0.01333952 0.043051407 4280096291
0.74876654 -0.015617937 0.038271934 4278195213
0.74944133 -0.015477836 0.038205951 4278523669
0.75007325 -0.01527293 0.038206428 4278721048
0.75070512 -0.015068009 0.038206905 4278981151
0.75129318 -0.014798611 0.038273826 4278981930
0.6899457 -0.024870202 0.047364414 4294967174
0.69056654 -0.024747759 0.047298595 4294967262
0.6911664 -0.024553239 0.047299042 4294967289
0.69176626 -0.024358705 0.047299489 4294967289
0.69236612 -0.024164185 0.047299951 4294901753
0.69298822 -0.024041355 0.047234118 4294901753
0.69356585 -0.023775131 0.047300845 4294901753
0.69416571 -0.023580611 0.047301292 4294770681
0.69474256 -0.02331464 0.047368005 4294770681
0.69534218 -0.023120195 0.047368452 4294508538
0.69591832 -0.022854462 0.047435179 4292804605
0.69651771 -0.022660092 0.047435626 4291950579
0.69711703 -0.022465721 0.047436088 4289708477
0.69769222 -0.022200301 0.047502801 4287471515
0.69824237 -0.021864086 0.047635779 4284043848
0.6988163 -0.021599069 0.047702491 4283516477
0.69941467 -0.021405026 0.047702938 4283320394
0.70001304 -0.021210968 0.047703385 4283059034
0.70061147 -0.021016926 0.047703832 4284506480
0.70120984 -0.020822883 0.047704294 4282205524
0.70183414 -0.020699337 0.047638476 4282470997
0.70243275 -0.02050522 0.047638923 4283127643
0.70305783 -0.020381406 0.04757309 4283718497
0.70368338 -0.020257458 0.047507286 4282534223
0.70428252 -0.020063162 0.047507733 4283125845
0.70490879 -0.019938976 0.047441915 4282139202
0.70550817 -0.01974462 0.047442362 4282337343
0.70613515 -0.019620195 0.047376543 4282929480
0.70673478 -0.01942575 0.04737699 4282274381
0.70736253 -0.019301072 0.047311172 4281814611
0.70799083 -0.019176245 0.047245353 4281682766
0.70861959 -0.019051239 0.047179535 4282665809
0.70924884 -0.018926099 0.047113717 4282402637
0.70987856 -0.018800795 0.047047913 4283785823
0.71053821 -0.018744677 0.046915844 4283788903
0.71113956 -0.018549681 0.046916291 4282603094
0.71177077 -0.0184239 0.046850458 4282339140
0.7123723 -0.018228814 0.04685092 4281549624
0.71300429 -0.01810278 0.046785101 4280824354
0.71363676 -0.017976582 0.046719283 4281743405
0.71423882 -0.017781347 0.04671973 4281282347
0.71490312 -0.017723739 0.046587646 4281282347
0.71550572 -0.01752834 0.046588108 4280757030
0.71613985 -0.017401576 0.046522304 4280428065
0.71648788 -0.016657501 0.04705286 4280756777
0.72251236 -0.017544419 0.044671014 4282998102
0.72322428 -0.01755026 0.044472679 4282406988
0.72393769 -0.017555624 0.04427436 4282208837
0.72461802 -0.017492831 0.044142291 4282208837
0.7252993 -0.01742968 0.044010222 4282009911
0.7260167 -0.017433777 0.043811902 4281879093
0.7266649 -0.017302483 0.043746084 4279970842
0.72731364 -0.017171025 0.043680295 4280036635
0.72792703 -0.016972095 0.043680757 4278717447
0.72854042 -0.016773179 0.043681204 4279177747
0.72911757 -0.016507119 0.043747932 4279374372
0.72973073 -0.016308278 0.043748379 4279507232
0.7303071 -0.016042441 0.043815106 4279967783
0.73092002 -0.015843689 0.043815568 4279377442
0.73153293 -0.015644938 0.04381603 4279905320
0.73210835 -0.015379444 0.043882743 4283656537
0.73272103 -0.015180767 0.043883204 4286483324
0.73333371 -0.014982074 0.043883666 4286351738
0.73394638 -0.014783397 0.043884113 4285293414
0.73459756 -0.01465112 0.043818325 4282067251
0.73524922 -0.014518708 0.043752521 4280620064
0.73590142 -0.014386132 0.043686718 4280295460
0.73655403 -0.014253378 0.043620914 4280295460
0.73720723 -0.014120489 0.043555126 4279047192
0.73790061 -0.014053419 0.043423072 4279178519
0.73855495 -0.013920128 0.043357268 4279639068
0.73929036 -0.013918385 0.043158948 4279769632
0.74800605 -0.015826285 0.039188221 4278652688
0.74867916 -0.015686899 0.039122447 4278522381
0.7493096 -0.01548247 0.039122924 4278786071
0.75002688 -0.015407667 0.038990885 4278786071
0.75057042 -0.015073597 0.039123863 4278981419
0.75128871 -0.014998481 0.038991824 4278981417
0.69017184 -0.025605321 0.047526956 4294836145
0.69079399 -0.02548264 0.047461331 4294967285
0.6913951 -0.025287718 0.047461778 4294901753
0.69201797 -0.025164783 0.047396183 4294901753
0.69261932 -0.024969786 0.04739663 4294901755
0.69319838 -0.024702936 0.047463119 4294901755
0.69379944 -0.024508014 0.047463581 4294901755
0.69437778 -0.024241418 0.0475301 4294901755
0.69497859 -0.02404657 0.047530547 4294901755
0.69555616 -0.023780197 0.047597066 4294311671
0.69615674 -0.023585424 0.047597513 4292673534
0.69673359 -0.023319289 0.047664046 4291029477
0.69733393 -0.023124605 0.047664493 4293918719
0.69791001 -0.022858724 0.047730997 4293459963
0.69851011 -0.022664115 0.047731444 4289903027
0.69908547 -0.022398457 0.047797978 4287926922
0.69968534 -0.022203937 0.047798425 4283846219
0.70025992 -0.021938533 0.047864929 4284044380
0.70085955 -0.021744087 0.047865391 4284175966
0.70145917 -0.021549642 0.047865838 4282796114
0.70208478 -0.021425843 0.047800228 4282404686
0.70268464 -0.021231309 0.047800675 4282338379
0.70331097 -0.021107286 0.04773505 4282338379
0.70391107 -0.020912677 0.047735497 4281415994
0.70451117 -0.020718068 0.047735944 4282270788
0.7051385 -0.020593703 0.047670335 4282204995
0.70573884 -0.020399019 0.047670782 4282072890
0.7063669 -0.020274431 0.047605157 4282928199
0.70699549 -0.020149678 0.047539547 4282601549
0.70762455 -0.020024747 0.047473937 4282209106
0.70822561 -0.019829825 0.047474384 4281748039
0.70885539 -0.01970467 0.047408789 4282336579
0.70948571 -0.019579351 0.047343165 4282599751
0.71011645 -0.019453883 0.047277555 4283719515
0.71074772 -0.019328237 0.047211945 4283457374
0.71137953 -0.019202441 0.047146335 4282799444
0.71201175 -0.019076496 0.047080711 4282931531
0.7126143 -0.018881097 0.047081158 4282997324
0.7132473 -0.018754885 0.047015563 4282471230
0.71385014 -0.018559411 0.04701601 4282666049
0.71448386 -0.018432975 0.046950385 4281019432
0.71511811 -0.018306375 0.04688479 4281348397
0.71575284 -0.01817961 0.04681918 4280889638
0.7163564 -0.017983884 0.046819642 4280296731
0.71699184 -0.017856896 0.046754017 4280821794
0.71759564 -0.017661095 0.046754465 4281216305
0.71832901 -0.017739579 0.046490669 4281150512
0.71899909 -0.017680436 0.046359003 4281281594
0.71967018 -0.017620966 0.046227351 4280887090
0.72037536 -0.017629504 0.046029627 4281742404
0.72108197 -0.017637581 0.045831889 4282268748
0.72182375 -0.017713308 0.045568109 4282667094
0.7225675 -0.01778844 0.045304328 4282209360
0.72331321 -0.017862916 0.045040533 4282209360
0.72399217 -0.017800882 0.044908866 4282603344
0.72467208 -0.017738536 0.044777215 4283327067
0.725353 -0.017675892 0.044645563 4282470978
0.72603488 -0.017612889 0.044513896 4282536771
0.72668242 -0.017481983 0.044448301 4281222196
0.72736609 -0.017418444 0.044316635 4281419575
0.727979 -0.017219692 0.044317096 4280368432
0.72859192 -0.017020926 0.044317558 4279115283
0.72920483 -0.016822159 0.04431802 4279112472
0.72981775 -0.016623408 0.044318482 4279769632
0.73043066 -0.016424641 0.044318944 4279572253
0.7310065 -0.016158834 0.044385448 4280562230
0.73161918 -0.015960157 0.04438591 4285630073
0.73223186 -0.01576148 0.044386357 4285566331
0.73288238 -0.015629604 0.044320777 4286484869
0.7334953 -0.015430838 0.044321239 4286419076
0.73410821 -0.015232086 0.044321686 4281937975
0.73475969 -0.015099898 0.044256091 4281605415
0.73541164 -0.014967546 0.044190496 4281015072
0.73606408 -0.01483503 0.044124886 4280295452
0.73675638 -0.01476869 0.04399325 4280163866
0.73741007 -0.014635772 0.04392764 4279573273
0.7381438 -0.014635056 0.043729946 4279573526
0.73883903 -0.014567763 0.043598294 4279639317
0.73957551 -0.014566153 0.043400586 4279705110
0.74039453 -0.014695913 0.043070778 4279835425
0.74724793 -0.016031832 0.040102065 4279179548
0.74796212 -0.015958384 0.039970428 4278586641
0.74863428 -0.01581949 0.039904848 4278718479
0.7492637 -0.015615374 0.03990531 4278982169
0.74993664 -0.015476227 0.039839759 4278982169
0.7505663 -0.015272036 0.039840221 4278981167
0.69100058 -0.026146725 0.047691971 4294901755
0.69162428 -0.026023716 0.047626555 4294901755
0.69224846 -0.025900558 0.047561139 4294901755
0.69285101 -0.025705159 0.047561586 4294901755
0.69343126 -0.025437757 0.047627911 4294901755
0.69403356 -0.025242433 0.047628358 4294901755
0.69461304 -0.024975255 0.047694668 4294901755
0.69521511 -0.02478002 0.04769513 4293652456
0.69579387 -0.024513096 0.047761455 4290560435
0.6963957 -0.024317935 0.047761902 4289707956
0.69697374 -0.024051249 0.047828212 4292997355
0.69757533 -0.023856163 0.047828659 4294180861
0.69817686 -0.023661077 0.047829106 4294574078
0.69875389 -0.023394704 0.047895432 4294639614
0.69935524 -0.023199707 0.047895879 4294639614
0.6999566 -0.023004696 0.04789634 4294573307
0.70055795 -0.022809699 0.047896788 4293849584
0.70110816 -0.022472784 0.048028946 4288915883
0.70170903 -0.022277936 0.048029408 4284244311
0.70233589 -0.022153884 0.047963977 4283126596
0.70293701 -0.021958962 0.047964424 4282076472
0.70353806 -0.02176404 0.047964886 4281944886
0.70416594 -0.021639675 0.047899485 4281483567
0.70476729 -0.021444663 0.047899932 4281877046
0.70539588 -0.02132006 0.047834516 4282007865
0.70599747 -0.021124989 0.047834963 4282336314
0.70662683 -0.021000147 0.047769561 4282402107
0.70725667 -0.020875126 0.047704145 4282600256
0.70785874 -0.020679891 0.047704592 4282865235
0.7084893 -0.020554647 0.047639191 4282074943
0.70909166 -0.020359322 0.047639638 4282205757
0.70975196 -0.020303681 0.047508374 4282600515
0.71035475 -0.020108193 0.047508821 4283061585
0.71098709 -0.019982398 0.047443405 4282929231
0.71161985 -0.019856438 0.047378004 4282861636
0.71222317 -0.019660786 0.047378451 4283519566
0.71285671 -0.019534588 0.047313049 4283258182
0.71349072 -0.019408226 0.047247633 4282602562
0.71409452 -0.019212425 0.04724808 4282734148
0.71472931 -0.019085824 0.047182679 4282600506
0.71536458 -0.01895906 0.047117263 4282271541
0.71600032 -0.018832147 0.047051862 4282403125
0.71660489 -0.018636093 0.047052324 4280494360
0.71724135 -0.018508941 0.046986908 4280624919
0.71787834 -0.018381611 0.046921507 4281018657
0.7185483 -0.018322855 0.046790257 4280952864
0.71915382 -0.018126488 0.046790719 4280295201
0.71982521 -0.018067256 0.04665944 4280360744
0.72049761 -0.018007711 0.046528175 4280887088
0.7212044 -0.018016234 0.046331048 4281347639
0.72191268 -0.018024266 0.046133935 4281150508
0.72262245 -0.018031836 0.045936823 4281151535
0.72336787 -0.018107086 0.045673847 4281483068
0.72408086 -0.018113598 0.045476735 4282009926
0.72482997 -0.018187672 0.045213759 4282602063
0.72547632 -0.018057317 0.045148373 4282273866
0.72612315 -0.017926782 0.045082957 4282273866
0.72677052 -0.017796099 0.04501757 4282406216
0.7274183 -0.017665267 0.044952184 4282077251
0.72806668 -0.017534286 0.044886768 4282275153
0.7286793 -0.017335594 0.04488723 4281286971
0.72929204 -0.017136917 0.044887692 4280823857
0.72990465 -0.016938239 0.044888154 4283851368
0.73051739 -0.016739562 0.044888616 4285627779
0.73113 -0.016540885 0.044889063 4285694854
0.73174268 -0.016342193 0.044889525 4285696389
0.73235536 -0.016143516 0.044889987 4284709741
0.73300594 -0.016011789 0.0448246 4282865235
0.73365694 -0.015879929 0.044759199 4282733649
0.7342701 -0.015681088 0.044759646 4282007618
0.7349605 -0.015615687 0.044628397 4281349686
0.73561299 -0.015483335 0.04456301 4280559150
0.73630512 -0.015417367 0.044431761 4279572503
0.7369982 -0.015351117 0.044300511 4279506710
0.73765272 -0.015218109 0.044235125 4279703321
0.73838735 -0.015217602 0.044038028 4280031508
0.73912352 -0.015216619 0.04384093 4280097553
0.73986113 -0.015215158 0.043643832 4280031760
0.74068135 -0.01534538 0.043315038 4279966485
0.74150407 -0.015474811 0.042986259 4279835158
0.74241138 -0.015735298 0.042525738 4279770133
0.74328089 -0.015928805 0.042131096 4279967512
0.74419487 -0.016187117 0.041670606 4279572754
0.74649215 -0.016234607 0.041013494 4279310884
0.74724698 -0.016227528 0.040816411 4279245091
0.74791777 -0.016089261 0.040751025 4279374104
0.74863207 -0.016016111 0.040619805 4279046683
0.74926072 -0.015812233 0.040620267 4278980888
0.74988943 -0.015608355 0.040620744 4279375646
0.75051808 -0.015404478 0.040621221 4279047464
0.69122899 -0.026884511 0.047858566 4294770683
0.69185394 -0.026761264 0.047793359 4294770683
0.69243562 -0.026493236 0.04785946 4294770683
0.69306105 -0.02636981 0.047794253 4294770683
0.69364226 -0.026101947 0.047860369 4294770683
0.69424558 -0.025906295 0.047860816 4294770683
0.69482595 -0.02563867 0.047926933 4294770683
0.6954059 -0.025371194 0.047993049 4292075479
0.69600874 -0.025175706 0.047993496 4287139453
0.69658792 -0.024908468 0.048059613 4291811276
0.69719046 -0.024713069 0.04806006 4294574078
0.69776893 -0.02444607 0.048126191 4294574078
0.69837123 -0.024250746 0.048126638 4294639614
0.6989736 -0.024055421 0.048127085 4294770686
0.6995759 -0.023860097 0.048127532 4294770686
0.70015311 -0.023593485 0.048193648 4294770686
0.70075518 -0.02339825 0.048194095 4294770686
0.70135725 -0.023203 0.048194543 4294574077
0.70198518 -0.023078799 0.048129335 4290956998
0.70258749 -0.022883475 0.048129797 4288785309
0.7032162 -0.022759035 0.048064575 4283850051
0.70379215 -0.022492826 0.048130691 4282468398
0.70442128 -0.022368222 0.048065484 4281745447
0.70502388 -0.022172824 0.048065931 4282138931
0.70565379 -0.022047967 0.048000723 4281942326
0.70625657 -0.021852478 0.04800117 4282139703
0.70688725 -0.021727398 0.047935963 4282139703
0.70749027 -0.021531835 0.04793641 4281877046
0.70812166 -0.021406502 0.047871217 4281877574
0.70875353 -0.021281004 0.04780601 4282138430
0.70935708 -0.021085277 0.047806457 4282336062
0.70998967 -0.020959556 0.047741249 4282730820
0.71059346 -0.020763755 0.047741696 4282599753
0.71122682 -0.02063778 0.047676504 4282796362
0.71186066 -0.020511642 0.047611281 4282729791
0.71246493 -0.020315677 0.047611743 4282795584
0.71309948 -0.020189315 0.047546536 4282927424
0.71373457 -0.020062804 0.047481328 4282994760
0.71437013 -0.0199361 0.047416136 4283061836
0.71497518 -0.019739896 0.047416583 4283060287
0.71561146 -0.019612983 0.047351375 4282994494
0.71621674 -0.019416705 0.047351822 4282928953
0.7168538 -0.019289523 0.047286645 4282205746
0.71745932 -0.019093156 0.047287092 4281614122
0.71809709 -0.018965766 0.047221884 4280757532
0.71873534 -0.018838182 0.047156692 4280560153
0.71937412 -0.018710464 0.047091484 4280164123
0.72001338 -0.018582582 0.047026277 4280426539
0.72068632 -0.018523172 0.046895429 4280623914
0.72139382 -0.018531993 0.046698913 4280952879
0.72210276 -0.018540338 0.046502396 4280690210
0.72281313 -0.018548205 0.046305895 4280690460
0.72352505 -0.018555582 0.046109393 4280493856
0.7242384 -0.018562496 0.045912877 4281415992
0.72491854 -0.018500775 0.04578203 4281876543
0.72556466 -0.018370658 0.045716822 4282403655
0.72624654 -0.018308371 0.045585975 4282338889
0.7268939 -0.018177837 0.045520782 4282603084
0.72757751 -0.018114999 0.045389935 4282208326
0.72819018 -0.017916322 0.045390397 4282602835
0.72880286 -0.01771763 0.045390859 4281483070
0.72941554 -0.017518952 0.045391321 4282667094
0.73002821 -0.017320275 0.045391768 4285497223
0.73064089 -0.017121598 0.04539223 4285168258
0.73125356 -0.016922921 0.045392692 4285431684
0.73190367 -0.016791508 0.0453275 4284775037
0.73251653 -0.016592741 0.045327961 4282998874
0.73316741 -0.016461104 0.045262754 4282800214
0.73381871 -0.016329318 0.045197576 4282471249
0.73447055 -0.016197339 0.045132369 4282404432
0.73516154 -0.016132087 0.045001537 4282273616
0.73585349 -0.016066521 0.044870704 4280825920
0.7365073 -0.015933931 0.044805497 4281482818
0.73720098 -0.0158678 0.044674665 4280693302
0.73789561 -0.01580137 0.044543818 4279639583
0.73867106 -0.015867546 0.044281691 4280096790
