# .PCD v0.7 - Point Cloud Data file format
VERSION 0.7
FIELDS x y z rgb
SIZE 4 4 4 4
TYPE F F F U
COUNT 1 1 1 1
WIDTH 1023
HEIGHT 1
VIEWPOINT 0 0 0 1 0 0 0
POINTS 1023
DATA ascii
0.74533135 -0.023639172 0.04495585 4282335285
0.74599093 -0.024053976 0.045235395 4282072370
0.74659419 -0.024515957 0.045446277 4282203958
0.74725151 -0.024927601 0.045725793 4282269751
0.7478528 -0.02538687 0.045936659 4282336314
0.74839848 -0.025894359 0.046078876 4282337597
0.74894357 -0.026401028 0.046221063 4282534974
0.74948812 -0.026906833 0.046363264 4281611567
0.74992359 -0.027512074 0.046368197 4281545774
0.75035906 -0.028117314 0.046373114 4281741615
0.75079453 -0.028722554 0.046378031 4282466621
0.75112247 -0.029429331 0.046245694 4282336312
0.75145108 -0.030136943 0.046113357 4282536005
0.75178027 -0.030845404 0.045981035 4283391314
0.75205678 -0.031606078 0.045780092 4281085993
0.75233412 -0.032368049 0.04557915 4280293146
0.75255942 -0.033183068 0.045309603 4280162332
0.75289166 -0.033895746 0.045177326 4279966493
0.75311911 -0.034713715 0.044907793 4279900700
0.75340027 -0.035480931 0.044706926 4280756777
0.75362998 -0.03630206 0.044437408 4281811001
0.75386083 -0.037124872 0.044167936 4281417791
0.75414509 -0.037896276 0.043967083 4281023033
0.75402987 -0.064211085 0.029613048 4281151011
0.75440586 -0.064984545 0.029481262 4281216804
0.75463748 -0.065933824 0.02914378 4281085475
0.75515956 -0.066533923 0.029217705 4281546798
0.75548929 -0.067368641 0.029017344 4280692518
0.75577211 -0.068263575 0.028748468 4280757798
0.75600839 -0.069219396 0.028411001 4280889384
0.75634134 -0.07005851 0.028210714 4280954156
0.74081075 -0.020532742 0.0442141 4278850314
0.74136508 -0.02105163 0.044355974 4280097555
0.74197507 -0.021522164 0.044566333 4280360727
0.74258417 -0.021991447 0.044776663 4281544488
0.74308032 -0.022555307 0.044850066 4281809198
0.74374378 -0.022974372 0.045128837 4281940784
0.74429452 -0.023488402 0.045270711 4282466871
0.7449559 -0.023904517 0.045549437 4282467126
0.74556059 -0.024367705 0.045759708 4282138161
0.74616438 -0.024829626 0.045969993 4282401335
0.74682236 -0.025241137 0.046248674 4282664507
0.74731427 -0.025799081 0.046322063 4282336312
0.74791551 -0.02625744 0.046532303 4282402877
0.74840653 -0.026814133 0.046605662 4282467898
0.74895173 -0.0273204 0.046747446 4281677357
0.74938762 -0.027926281 0.046752363 4281414185
0.74982357 -0.028532147 0.046757296 4281611310
0.75015146 -0.029239312 0.046625376 4282401085
0.7505877 -0.029845595 0.046630308 4282139705
0.75086272 -0.030605093 0.046429962 4282930250
0.75119227 -0.031314582 0.046298042 4283851352
0.75146896 -0.032076374 0.046097741 4280296477
0.75169331 -0.032891139 0.045828998 4280030746
0.75197196 -0.033655688 0.045628712 4280162334
0.75225157 -0.034421489 0.04542844 4279966238
0.75253206 -0.035188571 0.045228139 4279900445
0.75276077 -0.036009431 0.044959456 4280361251
0.75304323 -0.036779225 0.044759199 4280692017
0.75332659 -0.037550271 0.044558957 4281219646
0.75355864 -0.038375765 0.044290319 4281285439
0.75384396 -0.039149567 0.044090092 4280760890
0.75458372 -0.06457223 0.030942142 4280626464
0.75490975 -0.065402597 0.030742347 4280626466
0.75542986 -0.065999672 0.030816063 4280955179
0.75570893 -0.066890568 0.030547947 4280691489
0.75594127 -0.0678422 0.030211508 4280954407
0.75627077 -0.06867741 0.030011758 4280691235
0.75645816 -0.069692314 0.029606998 4280953133
0.75664735 -0.070709735 0.029202223 4281412912
0.75688577 -0.071669772 0.028865844 4281019684
0.7570312 -0.072752148 0.028392777 4280888098
0.74031937 -0.020894155 0.044675082 4279046662
0.7409308 -0.021365896 0.044884816 4280363294
0.74154133 -0.021836385 0.04509452 4281677360
0.7420947 -0.022353396 0.045236006 4282137138
0.74270356 -0.022821575 0.045445696 4281873964
0.74331152 -0.023288473 0.045655414 4282268722
0.74391854 -0.02375412 0.045865104 4282466101
0.74446905 -0.024267137 0.046006531 4282137906
0.74507439 -0.024730474 0.046216205 4281809968
0.7456789 -0.025192529 0.046425864 4282206011
0.74628246 -0.025653347 0.046635523 4282337597
0.74683005 -0.026162371 0.046776935 4282139964
0.74737704 -0.026670545 0.046918318 4282600515
0.74792343 -0.027177885 0.047059715 4281546028
0.74835998 -0.027784601 0.047064662 4281085995
0.74885094 -0.02834101 0.047137812 4281217581
0.74923307 -0.028998032 0.047074527 4281152820
0.74961543 -0.029655486 0.047011226 4281745729
0.74994409 -0.03036432 0.046879709 4281942334
0.75032723 -0.031022817 0.046816453 4283326037
0.75060326 -0.031784475 0.046616733 4283457623
0.7508266 -0.032598972 0.046348825 4280957489
0.75110459 -0.033363372 0.04614912 4279906084
0.75138342 -0.034129024 0.045949444 4279179548
0.75166327 -0.034895942 0.045749784 4279376927
0.75189102 -0.035716549 0.04548192 4279178269
0.75217277 -0.036486194 0.045282274 4280031781
0.75245547 -0.037257135 0.045082614 4280097829
0.75268656 -0.038082346 0.04481481 4280098599
0.75297117 -0.038855985 0.044615179 4280559150
0.75325668 -0.039630905 0.044415593 4281480252
0.75349116 -0.04046075 0.044147804 4281481020
0.75383055 -0.041184515 0.044016406 4281613369
0.75507438 -0.066226348 0.031522647 4282206276
0.75559413 -0.066822678 0.031596139 4281942585
0.75592113 -0.067655221 0.031396985 4281284655
0.75624907 -0.06848903 0.031197876 4281942585
0.7564823 -0.069443211 0.03086248 4282336579
0.75666934 -0.070459306 0.030458927 4281875258
0.75690573 -0.071417913 0.030123532 4281284392
0.7570489 -0.072499022 0.029651895 4281613870
0.75719422 -0.073583096 0.029180259 4280955940
0.75738871 -0.074609473 0.028776795 4280694053
0.75753808 -0.075699225 0.028305218 4280431143
0.76241642 -0.082227215 0.028495565 4280164116
0.73988426 -0.021208674 0.045204908 4279376395
0.74043953 -0.021727815 0.045345992 4281154091
0.74105078 -0.022198454 0.045555085 4281942326
0.74160469 -0.022715703 0.045696169 4282006575
0.74227047 -0.023135915 0.045973316 4282006829
0.74282289 -0.023651078 0.046114355 4282072622
0.74343061 -0.024116859 0.046323434 4282203697
0.74398166 -0.024630114 0.046464473 4282335283
0.74464339 -0.02504465 0.04674156 4282336310
0.74519295 -0.025555819 0.046882585 4282337082
0.74579716 -0.026016772 0.047091603 4282402875
0.74634534 -0.026526019 0.047232613 4282074171
0.74683785 -0.027084231 0.047305569 4281810488
0.74738491 -0.027592018 0.047446549 4281020200
0.74787664 -0.028149158 0.04751952 4280824106
0.74825889 -0.028806716 0.047456428 4280824106
0.74864149 -0.029464662 0.047393367 4281284404
0.74907863 -0.030072227 0.047398314 4281614656
0.74940747 -0.03078185 0.047267213 4281744955
0.74968296 -0.031543583 0.047068104 4283918174
0.74995935 -0.032306582 0.046869025 4283194451
0.75029027 -0.033019155 0.046737939 4280825402
0.75051481 -0.033836335 0.046470881 4281418561
0.75084728 -0.03455101 0.04633984 4279706407
0.75107396 -0.03537114 0.046072781 4279574821
0.75135487 -0.036140442 0.045873746 4278981149
0.75153083 -0.037016451 0.045538709 4279769636
0.75186664 -0.037735745 0.045407698 4279835427
0.75209779 -0.038562194 0.045140699 4279900448
0.75238264 -0.03933695 0.044941694 4279768862
0.75266844 -0.040112972 0.044742733 4281348666
0.75295508 -0.040890262 0.044543743 4281415229
0.75324267 -0.041668817 0.044344783 4281350969
0.75353116 -0.042448625 0.044145837 4281153590
0.7537688 -0.043284103 0.043878898 4280956973
0.7540077 -0.044121265 0.043612003 4280301872
0.75562608 -0.066576615 0.032845736 4281744695
0.75580657 -0.067585275 0.032443345 4281416243
0.75603706 -0.068536982 0.032108918 4280889899
0.7563169 -0.069431126 0.03184247 4281546295
0.75650245 -0.070446715 0.031440139 4281414707
0.75673747 -0.07140474 0.031105787 4281546798
0.75692642 -0.072425127 0.030703515 4281875763
0.75706995 -0.07350859 0.030233279 4281546798
0.75726271 -0.074534252 0.029831052 4280824874
0.75779438 -0.076409772 0.029230446 4280562215
0.75789869 -0.077565089 0.02869238 4280693801
0.75828493 -0.078354403 0.028561935 4280428065
0.75867176 -0.079144597 0.02843149 4280427814
0.7591517 -0.079811662 0.028436914 4280033826
0.75981617 -0.080229983 0.028714046 4279836445
0.76038742 -0.080771431 0.028855309 4279902238
0.76100397 -0.081249431 0.029064476 4279639317
0.76166523 -0.081663325 0.029341578 4279574037
0.76223433 -0.0822016 0.029482797 4280098582
0.69698131 0.0023155957 0.026574478 4279771418
0.73939192 -0.021570727 0.045667306 4280233502
0.7399478 -0.022090107 0.045807987 4281482288
0.74050301 -0.022608638 0.045948654 4281877046
0.74111414 -0.023078382 0.046157137 4281810736
0.74172443 -0.02354683 0.046365649 4282139953
0.7422775 -0.02406241 0.046506286 4282600504
0.74294221 -0.02447997 0.046782583 4282205746
0.7435497 -0.024944648 0.04699105 4281744943
0.74410057 -0.025457084 0.047131673 4281876529
0.74470639 -0.025919437 0.047340095 4282600252
0.74525589 -0.026429996 0.047480702 4282337080
0.74580479 -0.026939705 0.047621295 4281481523
0.74629784 -0.027498454 0.047694057 4281085995
0.74684566 -0.028006673 0.04783465 4280757800
0.7472831 -0.028614655 0.047839582 4280430118
0.74772054 -0.029222623 0.047844529 4280561704
0.74810344 -0.029881313 0.047781661 4281415728
0.74843216 -0.030591339 0.047650978 4281481270
0.74881577 -0.031251088 0.04758811 4281415994
0.74914563 -0.031962588 0.047457442 4285034856
0.74942207 -0.032726482 0.047258973 4280297760
0.74975324 -0.033439875 0.047128335 4280226590
0.74997765 -0.034258053 0.046862066 4281543217
0.75025684 -0.035025731 0.046663642 4282333499
0.75053692 -0.03579466 0.046465218 4281346604
0.75076473 -0.036617473 0.046198994 4278782989
0.75104678 -0.037389144 0.0460006 4279047446
0.75127679 -0.038215116 0.045734406 4279505690
0.75156081 -0.038989514 0.045536011 4279768862
0.75184572 -0.039765194 0.045337647 4279900448
0.75207907 -0.040595785 0.045071483 4279572507
0.75247061 -0.041266441 0.045008719 4279835679
0.75270593 -0.042099759 0.044742584 4280692267
0.75294244 -0.042934775 0.044476464 4281152818
0.75328392 -0.043662474 0.04434593 4281219886
0.75362599 -0.044391006 0.044215411 4281680445
0.75381404 -0.045285136 0.043881536 4281024836
0.75405502 -0.046126232 0.043615475 4280958006
0.75424588 -0.047024354 0.043281645 4280497455
0.75443828 -0.047924563 0.042947844 4278848512
0.75509441 -0.065795437 0.033950835 4281346604
0.75536919 -0.066683635 0.033685148 4281675050
0.75559688 -0.067632869 0.033351734 4281346855
0.75582606 -0.068584189 0.033018351 4281544234
0.75605679 -0.069537625 0.032684937 4281413933
0.75624108 -0.070553124 0.032283843 4281282604
0.75647491 -0.071510985 0.031950504 4281085995
0.75666273 -0.072531298 0.031549454 4281084974
0.75685227 -0.073554173 0.031148404 4281150767
0.75699639 -0.074640349 0.030679658 4280757297
0.75723696 -0.075607449 0.030346394 4280561968
0.75757301 -0.076454192 0.030148596 4280297511
0.75781626 -0.077425092 0.029815346 4281021234
0.75815439 -0.078274786 0.029617578 4280690208
0.7586332 -0.078940168 0.029622987 4280165661
0.75911194 -0.079605564 0.029628396 4279836958
0.75963694 -0.080208674 0.029701516 4279769114
0.76025391 -0.080686375 0.029910102 4279769114
0.76091582 -0.081100121 0.03018637 4279835158
0.76153076 -0.081575111 0.030394912 4280163866
0.76219046 -0.081985712 0.030671149 4279835156
0.68924952 0.011177748 0.026611134 4280295959
0.69007188 0.010669 0.026955366 4280426516
0.69062364 0.010028988 0.027028605 4280295700
0.69159234 0.0086826533 0.027039558 4279573776
0.6921435 0.0080434531 0.027112767 4279508498
0.69262773 0.0073704869 0.027118236 4279574291
0.69304544 0.0066631436 0.027055979 4279837463
0.69352978 0.0059899762 0.027061448 4280034588
0.69408035 0.0053516179 0.027134657 4280297760
0.69476271 0.0047837496 0.027343318 4280494626
0.69524646 0.0041114241 0.027348787 4280428835
0.6958617 0.0035099909 0.027489722 4280033824
0.69654197 0.0029450804 0.027698398 4280100383
0.73884201 -0.021980569 0.046062902 4281154615
0.73945546 -0.022452757 0.046270788 4282074941
0.73995447 -0.023019388 0.046343431 4281942585
0.74056649 -0.023489475 0.046551317 4282403390
0.74112105 -0.024006575 0.046691582 4282271802
0.74178773 -0.024425849 0.046967074 4282337595
0.7423408 -0.024940833 0.047107309 4282403386
0.74300539 -0.025357172 0.047382757 4282404156
0.74355692 -0.02587007 0.047522977 4282009911
0.74410784 -0.026382118 0.047663197 4282271802
0.74471378 -0.026843786 0.047870994 4281811251
0.7452634 -0.027353942 0.048011199 4280757798
0.7457571 -0.027913213 0.048083782 4280495139
0.74619532 -0.028522238 0.048088729 4280429346
0.7467435 -0.029030502 0.04822889 4280299043
0.74712652 -0.029689699 0.048166215 4280628008
0.7475099 -0.030349329 0.048103586 4281022507
0.74789351 -0.031009376 0.048040912 4281415730
0.74827749 -0.031669825 0.047978267 4281744194
0.74860752 -0.032382146 0.047848016 4284377447
0.74888402 -0.033146933 0.047650173 4280758832
0.74921536 -0.033861145 0.047519937 4280624421
0.74943978 -0.034680322 0.047254503 4281284404
0.74971902 -0.035448894 0.04705669 4282009402
0.74994564 -0.036271229 0.046791285 4282075195
0.75022686 -0.037042543 0.046593487 4278782464
0.75050896 -0.037815139 0.046395689 4278782987
0.75073892 -0.038642094 0.046130329 4279242261
0.75102299 -0.039417401 0.045932576 4279374356
0.75130802 -0.040193975 0.045734823 4279308563
0.75154132 -0.041025564 0.045469493 4279178517
0.75188071 -0.041750908 0.045339346 4279375896
0.75222069 -0.042477116 0.045209199 4280163615
0.75250918 -0.043258533 0.045011491 4280163615
0.75274658 -0.044095799 0.044746205 4281018405
0.75303698 -0.044879943 0.044548526 4281413680
0.75338 -0.045610338 0.044418409 4281348666
0.75367212 -0.046396792 0.044220746 4280889396
0.75391376 -0.047239944 0.043955505 4281284154
0.75405413 -0.048196048 0.04355514 4281743407
0.75429845 -0.049042985 0.04328993 4281872933
0.75429517 -0.064131334 0.035317987 4280100654
0.75456661 -0.065015912 0.035053104 4280363826
0.75479043 -0.065961167 0.034720659 4280756779
0.75496715 -0.066967756 0.034320712 4281151016
0.75519419 -0.067917451 0.033988327 4281281829
0.75542271 -0.068869218 0.033655971 4281742380
0.75565279 -0.069823116 0.033323586 4281347622
0.75583625 -0.070839167 0.032923728 4281019179
0.75606948 -0.071797475 0.032591403 4280954158
0.75625652 -0.072818354 0.032191575 4280624941
0.75644529 -0.073841766 0.031791762 4280690734
0.75663596 -0.074867681 0.031391978 4281150517
0.75692296 -0.075773939 0.031127244 4280428332
0.75716406 -0.076743171 0.030795023 4280164642
0.75754762 -0.077529922 0.030665383 4280756779
0.75793183 -0.078317523 0.030535743 4280951581
0.75840998 -0.07898207 0.030541137 4280754202
0.75893462 -0.079584464 0.030614048 4280098077
0.75950539 -0.080124065 0.030754477 4280163870
0.76012182 -0.080600247 0.030962408 4279966491
0.7607373 -0.081075147 0.031170338 4279966742
0.76144373 -0.081422806 0.031513289 4279899924
0.76210284 -0.08183156 0.031788692 4280162835
0.69019735 0.010641657 0.028151616 4280164371
0.69115239 0.010204032 0.028629899 4280165143
0.69143289 0.0094328523 0.028432697 4279507985
0.69198269 0.0087958723 0.028505698 4279507985
0.69233137 0.0080570802 0.028376073 4279640082
0.69294775 0.007454589 0.028516605 4279903254
0.6934303 0.0067839324 0.028522059 4279902741
0.69391286 0.0061132908 0.028527513 4280100122
0.6944617 0.0054775551 0.028600484 4280034329
0.6950103 0.0048422366 0.028673485 4280296731
0.69555855 0.0042073429 0.028746456 4280361497
0.69597477 0.0035017878 0.028684378 4280427036
0.69671994 0.0029745772 0.02895993 4280557852
0.69713598 0.0022692308 0.028897837 4280492059
0.73834848 -0.022343457 0.046527147 4282336579
0.73879141 -0.022959009 0.046532154 4282336832
0.73934817 -0.023478642 0.046672016 4282205498
0.74001801 -0.02390112 0.046946719 4282402875
0.74062991 -0.024370298 0.047153994 4282600254
0.74118447 -0.024886802 0.047293842 4282402875
0.74185109 -0.025304869 0.0475685 4282271802
0.7424041 -0.025819242 0.047708333 4282404158
0.74301255 -0.026283607 0.047915533 4281944122
0.74356419 -0.026796088 0.048055351 4281349935
0.74417096 -0.027258113 0.048262566 4281020970
0.74466568 -0.027818561 0.048334941 4280560419
0.74521554 -0.028328538 0.048474699 4280364323
0.74570948 -0.028887928 0.048547074 4280496422
0.74614799 -0.02949737 0.048552036 4280562983
0.7465865 -0.030106828 0.048556983 4280497190
0.74697018 -0.030767173 0.048494533 4281088300
0.74729943 -0.031479031 0.048364699 4281349937
0.74768388 -0.032140419 0.048302248 4282139463
0.74801421 -0.032853767 0.048172414 4283917925
0.7483452 -0.03356795 0.048042566 4281549377
0.74862266 -0.034334913 0.047845364 4280694064
0.74890107 -0.035103142 0.047648162 4280761142
0.74918038 -0.035872638 0.047450945 4282865484
0.74940693 -0.036695957 0.047186375 4282865484
0.74968821 -0.03746818 0.046989188 4280822046
0.74997038 -0.03824167 0.04679203 4279373580
0.75020033 -0.039069623 0.046527505 4279503119
0.75048447 -0.039845839 0.046330363 4279110925
0.7507695 -0.040623337 0.046133205 4279308304
0.75105548 -0.041402057 0.045936093 4279112724
0.75134236 -0.042182058 0.04573898 4279375894
0.75163007 -0.042963341 0.045541883 4280030746
0.75191879 -0.043745875 0.045344785 4279964953
0.7523126 -0.044420287 0.045282453 4280163866
0.75260282 -0.045204937 0.045085371 4280821026
0.75289392 -0.045990825 0.044888303 4280359972
0.75318593 -0.046777964 0.044691265 4280425767
0.75347883 -0.047566399 0.044494212 4280557353
0.75372136 -0.048411801 0.04422982 4281674801
0.75396502 -0.049258888 0.043965429 4282661170
0.75420988 -0.050107673 0.043701053 4279899409
0.75389504 -0.064414069 0.035950482 4279903534
0.75416601 -0.065299019 0.035686418 4280166706
0.75438917 -0.066244736 0.035355002 4279837478
0.75456512 -0.067251876 0.034956276 4281020202
0.7547915 -0.068202019 0.034624919 4280887587
0.75497091 -0.069213986 0.034226239 4281611310
0.75515211 -0.070228487 0.033827573 4280886819
0.75533515 -0.071245477 0.033428952 4280690216
0.75556803 -0.072204679 0.033097669 4280821802
0.75575459 -0.073226526 0.032699049 4280624425
0.75603831 -0.074129358 0.032435119 4280624425
0.75627577 -0.075094834 0.032103881 4280821293
0.75656211 -0.076001242 0.031839967 4280492582
0.75689697 -0.076847896 0.031643406 4280360992
0.75723273 -0.077695832 0.031446844 4280492578
0.75771022 -0.078359529 0.031452239 4280491800
0.75814098 -0.07908529 0.031390309 4280622614
0.75871199 -0.079624712 0.031530336 4280294934
0.7593289 -0.080100819 0.031737655 4280229914
0.75994492 -0.08057566 0.03194499 4280164121
0.76060629 -0.080986395 0.032219574 4279966996
0.76140457 -0.081206128 0.032696113 4279702545
0.76197118 -0.08173947 0.032836065 4280623897
0.69046026 0.010682419 0.029479235 4280165141
0.69134718 0.010214001 0.029888734 4280230934
0.69176066 0.0095119253 0.02982682 4279836180
0.69224167 0.0088433847 0.029832244 4279375629
0.69272274 0.0081748441 0.029837683 4279443475
0.69313681 0.007471934 0.029775798 4279706647
0.69368482 0.0068377554 0.029848561 4279443475
0.69409919 0.0061344355 0.029786676 4279904026
0.69464684 0.0055006742 0.029859424 4279640854
0.69526047 0.0049025714 0.029999524 4279509014
0.69574118 0.0042344481 0.030004948 4280429085
0.69628793 0.0036019608 0.030077726 4280296729
0.69676852 0.0029340535 0.03008315 4280756258
0.6973148 0.0023021847 0.030155897 4281085223
0.69786078 0.001670748 0.03022866 4280690467
0.69847184 0.0010762066 0.030368686 4280756258
0.69901705 0.00044582784 0.030441433 4280559133
0.73768234 -0.022849545 0.04679054 4282205498
0.73824048 -0.023370475 0.046930015 4282138683
0.73879796 -0.023890585 0.04706946 4282731072
0.73941177 -0.024361581 0.047276124 4282205496
0.74002469 -0.024831325 0.047482774 4282468668
0.74063677 -0.025299802 0.047689438 4282271289
0.74119139 -0.025815904 0.047828853 4282074425
0.74180174 -0.026282057 0.048035488 4281746230
0.7424112 -0.026746988 0.048242107 4281086763
0.74296367 -0.027260125 0.048381522 4280888614
0.74357152 -0.027722716 0.048588112 4280757028
0.74406695 -0.028283909 0.048660293 4280626212
0.74461764 -0.028794542 0.048799679 4280823591
0.74505687 -0.029405043 0.048804641 4280627749
0.74555141 -0.029964983 0.048876807 4281087015
0.74599051 -0.030575261 0.048881769 4280889636
0.74642962 -0.031185552 0.048886731 4281481003
0.74675918 -0.031898245 0.048757285 4281415982
0.74714386 -0.032560349 0.048695058 4280955441
0.74752891 -0.033222899 0.04863283 4282009924
0.7478056 -0.033989504 0.048436224 4282207303
0.74808311 -0.034757361 0.048239633 4279906854
0.74836159 -0.035526514 0.048043013 4280234800
0.74864095 -0.036296889 0.047846451 4281875010
0.74892128 -0.037068546 0.04764989 4281875010
0.74914885 -0.037894353 0.04738614 4282861135
0.74943107 -0.038668737 0.047189593 4282271301
0.74966091 -0.039497688 0.046925887 4280229657
0.7499451 -0.040274844 0.046729341 4279570698
0.75023025 -0.041053206 0.04653284 4279899663
0.7505163 -0.041832849 0.046336338 4279244559
0.75080317 -0.042613775 0.046139836 4279504915
0.751091 -0.043395951 0.045943365 4279766806
0.75143218 -0.044124812 0.045814052 4279832599
0.75177389 -0.044854537 0.04568477 4279571476
0.75211626 -0.045585096 0.045555472 4279505166
0.75245923 -0.046316475 0.045426205 4279438874
0.75275099 -0.047104135 0.045229763 4279569943
0.75299203 -0.047948644 0.044966161 4279569943
0.75323427 -0.048794836 0.044702604 4280093974
0.75352907 -0.049586684 0.044506177 4280620316
0.75382483 -0.050379783 0.044309795 4281478954
0.75412142 -0.051174149 0.044113412 4282334263
0.75334686 -0.064873114 0.036381558 4279970093
0.75356853 -0.065818042 0.036051184 4279509542
0.75384068 -0.066705883 0.03578794 4279772452
0.75401634 -0.06771417 0.035390466 4280362793
0.75419372 -0.06872502 0.034993008 4280624166
0.75442159 -0.06967856 0.034662679 4280624166
0.75460249 -0.070694223 0.03426525 4281017639
0.75478518 -0.071712449 0.033867836 4280426785
0.75501788 -0.07267271 0.033537582 4280360994
0.7553001 -0.073574394 0.033274472 4280427044
0.7554878 -0.074599549 0.032877117 4280558630
0.75577271 -0.075505048 0.032614022 4280624423
0.75610644 -0.076350942 0.032418057 4280557854
0.75648844 -0.077136591 0.032289222 4280952097
0.75696552 -0.077799663 0.032294616 4280952097
0.75734842 -0.078586593 0.032165781 4280623132
0.75791967 -0.079125807 0.03230539 4280952862
0.75849038 -0.079664215 0.032444984 4279837463
0.75906044 -0.08020176 0.032584593 4280562467
0.7596764 -0.080675706 0.032791287 4280957225
0.76043046 -0.080959469 0.033199281 4280364573
0.76113653 -0.081303909 0.033540145 4279443475
0.76174903 -0.081773028 0.033746794 4280361750
0.69052231 0.010624774 0.030601367 4280034325
0.69127369 0.010091141 0.030875355 4280165911
0.69188881 0.0094915181 0.031015038 4279640084
0.69236863 0.0088246614 0.031020463 4279377682
0.69284844 0.0081577972 0.031025887 4279509268
0.69326115 0.0074564666 0.030964166 4279443988
0.69374114 0.0067894012 0.03096959 4279181078
0.69422114 0.0061223358 0.030975014 4279706908
0.69476771 0.0054903626 0.031047568 4279575322
0.69524753 0.0048234984 0.031052992 4279641115
0.69572735 0.0041566417 0.031058416 4280430368
0.69627327 0.0035255104 0.031130955 4280560673
0.69681895 0.0028948039 0.031203493 4280757800
0.69743013 0.0023006499 0.031343147 4280955179
0.69797498 0.0016709864 0.031415671 4280560168
0.69845402 0.0010051876 0.031421095 4280428835
0.6990639 0.00041291863 0.031560719 4280626212
0.69960785 -0.00021548569 0.031633228 4280494880
0.70008647 -0.00088066608 0.031638637 4280429087
0.71859443 -0.019838199 0.035365477 4280033305
0.73707235 -0.023308858 0.047123 4282008117
0.73757398 -0.023878381 0.047195017 4282139705
0.73818976 -0.024351209 0.047401115 4282402873
0.73880458 -0.024822772 0.047607183 4282337080
0.73936158 -0.025341645 0.047746211 4282402873
0.73997474 -0.025810897 0.04795225 4282271289
0.740587 -0.026278883 0.048158288 4281350702
0.74119836 -0.026745617 0.048364311 4280824874
0.74180877 -0.0272111 0.04857032 4281085993
0.74236214 -0.027724907 0.048709318 4280954407
0.74291497 -0.028237879 0.048848316 4280954407
0.7434113 -0.028800011 0.048920304 4280757798
0.743963 -0.029311538 0.049059257 4280890151
0.74445856 -0.029872641 0.049131244 4280692772
0.74489844 -0.030483976 0.049136207 4281218603
0.74533832 -0.031095326 0.049141183 4281021224
0.74572307 -0.031757742 0.04907915 4281677612
0.74610817 -0.032420576 0.049017146 4281218601
0.74649358 -0.033083811 0.048955128 4280823857
0.74687922 -0.033747509 0.048893109 4280560685
0.74721074 -0.034463525 0.048764095 4281745978
0.74754286 -0.03518039 0.048635095 4281156401
0.74776721 -0.036002755 0.048372164 4280760878
0.74810076 -0.036721721 0.048243195 4281350969
0.74838114 -0.037494302 0.048047245 4281350969
0.74860865 -0.038321078 0.047784328 4282072387
0.74889094 -0.039096385 0.047588393 4282534221
0.74917418 -0.039872929 0.047392473 4281745978
0.74940503 -0.040704355 0.047129601 4280561704
0.74969018 -0.041483641 0.046933696 4279835406
0.74997628 -0.042264208 0.04673782 4280098580
0.75026327 -0.043046027 0.046541944 4279570708
0.75060385 -0.04377465 0.046413034 4279635220
0.75094503 -0.044504136 0.046284154 4279635220
0.75123441 -0.045289323 0.046088308 4279505166
0.75157702 -0.046020687 0.045959443 4279373578
0.75192016 -0.0467529 0.045830578 4279373329
0.75221199 -0.04754144 0.045634747 4279374099
0.75250471 -0.048331246 0.04543896 4279045134
0.75279838 -0.049122319 0.045243144 4279900441
0.75304151 -0.049970761 0.044980422 4280491295
0.75333714 -0.050764576 0.044784635 4281875509
0.75358248 -0.051616192 0.044521913 4282467646
0.75274837 -0.065391555 0.036746964 4280035370
0.75296998 -0.066337794 0.036417603 4279772198
0.75319308 -0.067286104 0.036088273 4279772452
0.75346673 -0.068177044 0.035825863 4279969316
0.75369275 -0.069129363 0.035496563 4280624166
0.7538228 -0.070203587 0.035033435 4280689959
0.75400352 -0.071220681 0.034637243 4280951846
0.75423449 -0.072179928 0.034307986 4280886053
0.75441873 -0.07320179 0.033911854 4280952359
0.75470102 -0.074104726 0.033649549 4281019181
0.7549845 -0.075009331 0.033387259 4280690216
0.75531703 -0.07585445 0.033191904 4280296479
0.7556982 -0.076639459 0.033063456 4280887071
0.75607991 -0.077425286 0.032935038 4282795068
0.75655699 -0.078088358 0.032940418 4282268724
0.75703406 -0.07875143 0.032945812 4284704357
0.75760531 -0.079290077 0.033085003 4285494645
0.758129 -0.079890296 0.033157289 4284575341
0.75883949 -0.080239519 0.03349717 4282338880
0.75950187 -0.080649495 0.033770159 4281944122
0.76016307 -0.081057787 0.034043103 4280101405
0.76091564 -0.081337854 0.03444986 4279706647
0.76162016 -0.081678867 0.034789681 4280099348
0.69120145 0.0099691749 0.031859919 4280165913
0.69174844 0.0093368739 0.031932279 4279443734
0.69222766 0.008670859 0.031937689 4278851346
0.69270688 0.0080048367 0.031943098 4279180311
0.69318604 0.0073388219 0.031948522 4279312664
0.69353122 0.0066032782 0.031820074 4279377943
0.69394386 0.0059018582 0.031758562 4279443223
0.69449025 0.0052703992 0.031830907 4279640600
0.69503635 0.0046393499 0.031903237 4279706393
0.69558215 0.0040087253 0.031975597 4279969049
0.69606137 0.0033427104 0.031981006 4280428063
0.69660664 0.0027127266 0.032053322 4280361500
0.69708574 0.0020469129 0.032058746 4280427293
0.69769639 0.0014539957 0.032197967 4280032280
0.69824082 0.00082525611 0.032270268 4280295709
0.69878495 0.00019696355 0.032342598 4280099098
0.69939411 -0.00039385259 0.032481819 4280164891
0.70000267 -0.00098380446 0.032621026 4280164891
0.70048052 -0.0016479343 0.032626435 4280099098
0.70102328 -0.0022743642 0.032698706 4280033305
0.7147994 -0.017583251 0.034839332 4280098849
0.71557748 -0.018024951 0.035178974 4279771939
0.7162323 -0.01855135 0.035384864 4279903784
0.7168256 -0.019120082 0.035523891 4279640612
0.71753931 -0.019600347 0.035796627 4279705892
0.71819144 -0.02012296 0.036002487 4280230435
0.71890295 -0.020600066 0.036275193 4280295707
0.71955311 -0.021119952 0.036481023 4280295961
0.73628843 -0.023912311 0.047256649 4281943089
0.73690623 -0.024387181 0.047462121 4282402875
0.73752314 -0.02486077 0.047667593 4282402873
0.73808193 -0.02538158 0.047806218 4282271287
0.73869717 -0.025852859 0.04801169 4282337080
0.73931146 -0.026322886 0.048217118 4281742898
0.73992485 -0.026791662 0.048422545 4281152040
0.74053735 -0.027259171 0.048627973 4280955942
0.7410925 -0.0277749 0.048766568 4280758563
0.74164706 -0.028289795 0.048905179 4280824356
0.74220097 -0.028803855 0.04904376 4280955942
0.74275434 -0.029317066 0.049182326 4280955690
0.74325126 -0.029879749 0.049254119 4280825128
0.74374783 -0.030442029 0.049325898 4280890921
0.74424416 -0.031003878 0.049397677 4280627749
0.74468482 -0.031616271 0.049402654 4280758060
0.74507016 -0.032279834 0.049340829 4281941302
0.74551094 -0.032892436 0.049345821 4281153319
0.74584186 -0.033608228 0.049217209 4281153839
0.74622822 -0.034273043 0.049155429 4281088046
0.74656022 -0.034990281 0.049026847 4281745978
0.74689281 -0.035708383 0.048898265 4281745460
0.7471717 -0.036479756 0.04870294 4281549362
0.74745148 -0.037252381 0.048507586 4281286706
0.74778622 -0.037973419 0.048379049 4281023534
0.74806768 -0.038748369 0.048183724 4281088561
0.74835002 -0.039524555 0.047988415 4281087797
0.7485798 -0.040355504 0.047726348 4281417275
0.74886411 -0.041134432 0.047531068 4281943619
0.74914932 -0.041914642 0.047335789 4281154091
0.74943554 -0.042696103 0.047140524 4279903256
0.74982846 -0.043370172 0.047078803 4279836960
0.75011611 -0.04415375 0.046883553 4280163615
0.75040472 -0.044938579 0.046688318 4279703064
0.75074673 -0.04566969 0.046559855 4279111178
0.75108933 -0.04640168 0.046431392 4279375625
0.75138032 -0.047189847 0.046236172 4279576084
0.75167221 -0.047979295 0.046040997 4279707672
0.75196499 -0.048770025 0.045845792 4279444500
0.75231045 -0.049505994 0.045717359 4280558879
0.75260496 -0.050299019 0.045522198 4282468670
0.75290036 -0.051093295 0.045327038 4283062349
0.75314534 -0.051945493 0.045065135 4283062349
0.75209928 -0.065969706 0.037047267 4279838245
0.75227153 -0.066976562 0.036652222 4279706659
0.75254416 -0.067867234 0.036390632 4279444001
0.75281811 -0.068759605 0.036129057 4279641376
0.75304419 -0.069713429 0.0358008 4281941821
0.75327182 -0.070669368 0.035472527 4284047197
0.75350094 -0.071627408 0.035144284 4285692024
0.75363445 -0.072708383 0.034682631 4286745227
0.75386685 -0.073671028 0.034354433 4287403925
0.75414908 -0.074574962 0.034092948 4287732890
0.75448066 -0.0754195 0.033898219 4287141004
0.75481308 -0.076265305 0.033703476 4286218370
0.75524211 -0.076989457 0.033642143 4285691772
0.7556237 -0.077775672 0.033514127 4282863190
0.75614846 -0.078377053 0.033586234 4283257948
0.7567203 -0.078915924 0.033725023 4280493623
0.75724423 -0.079516262 0.0337971 4280622633
0.75786203 -0.079991132 0.034002602 4279902251
0.75847894 -0.080464736 0.034208059 4279640353
0.75914168 -0.08087413 0.034480214 4278850837
0.75984979 -0.081218705 0.034819037 4279507743
0.76055634 -0.081561163 0.035157844 4279180311
0.76130772 -0.081837937 0.035563335 4280624917
0.76214957 -0.081984639 0.036102161 4280297231
0.6908589 0.0097129196 0.032575533 4279903256
0.69140583 0.0090809166 0.032647669 4279377943
0.69188488 0.0084151179 0.032653093 4279180564
0.6922965 0.0077148676 0.032591775 4279312150
0.69270843 0.0070142001 0.032530472 4279640600
0.69318777 0.0063479692 0.032535881 4279509014
0.69366717 0.0056817383 0.032541305 4279639830
0.69414651 0.0050155073 0.032546714 4279836696
0.69469261 0.004384771 0.03261885 4280034075
0.69517177 0.0037187487 0.032624274 4280033559
0.69571739 0.0030886531 0.032696396 4280559133
0.69626272 0.0024589598 0.032768518 4280558106
0.69680768 0.0018296838 0.032840624 4280755485
0.69735241 0.001200825 0.032912731 4280491546
0.69802839 0.00064591318 0.033118263 4280295450
0.69863784 5.5290759e-05 0.033257067 4280164891
0.69918114 -0.00057166815 0.033329144 4280099098
0.69978952 -0.0011608303 0.033467948 4280099098
0.70033211 -0.0017867312 0.03354004 4280033305
0.70100451 -0.0023366213 0.033745512 4279770135
0.70148122 -0.0029992759 0.033750907 4279705112
0.70221698 -0.0035090372 0.034023061 4279836696
0.71099585 -0.014300093 0.034847796 4279900700
0.7115944 -0.014875576 0.034986481 4280361253
0.71225423 -0.015407994 0.035191834 4279834655
0.71278965 -0.016024008 0.035263821 4279505942
0.71344793 -0.016554356 0.03546913 4279966493
0.71398252 -0.017169088 0.035541147 4280296226
0.71463931 -0.017697319 0.035746425 4279902238
0.71529514 -0.018224284 0.035951719 4279706144
0.7158891 -0.018793464 0.036090344 4279969318
0.71666491 -0.019230723 0.036428928 4279706146
0.71725726 -0.019797578 0.036567509 4279836962
0.71803051 -0.020231277 0.036906078 4280164642
0.71874183 -0.02070719 0.037177935 4280361502
0.71933162 -0.021270484 0.037316516 4280229914
0.71998084 -0.02178818 0.037521735 4280559901
0.73556048 -0.024469137 0.047459751 4282074673
0.73617959 -0.024945006 0.047664642 4282139701
0.73679781 -0.025419593 0.047869518 4282271287
0.73741508 -0.025892928 0.04807435 4282336314
0.73803139 -0.026364982 0.048279211 4281546798
0.73864686 -0.026835799 0.048484027 4281609778
0.73920453 -0.027354509 0.048622251 4281413161
0.73981833 -0.027823016 0.048827067 4281020454
0.74043119 -0.028290242 0.049031869 4281085993
0.74098682 -0.028806016 0.049170062 4281085993
0.74154174 -0.029320925 0.04930824 4281349167
0.74209613 -0.029835001 0.049446434 4281810488
0.74259388 -0.030398652 0.049518034 4281022255
0.7430914 -0.030961886 0.049589604 4281154354
0.7435329 -0.031575546 0.049594596 4280956975
0.74397445 -0.03218919 0.049599588 4280693039
0.74436069 -0.03285411 0.049537987 4282663482
0.74480236 -0.033467978 0.049542978 4282465838
0.74518895 -0.034133524 0.049481377 4282006577
0.7455759 -0.034799471 0.049419791 4281743405
0.7459631 -0.035465866 0.049358204 4281546544
0.74624145 -0.036237299 0.049163491 4281678130
0.74657524 -0.036957473 0.049035326 4281744693
0.7468552 -0.0377312 0.048840627 4281614392
0.7471903 -0.038453266 0.048712492 4281745978
0.74747193 -0.039229348 0.048517779 4281482553
0.7478084 -0.039953277 0.048389688 4281153588
0.7480917 -0.040731654 0.04819499 4280823853
0.74832243 -0.041565076 0.047933757 4280692267
0.74860775 -0.042346179 0.047739103 4280560168
0.74900043 -0.043020129 0.047677577 4279769884
0.74928725 -0.043803349 0.047482938 4279900702
0.74957502 -0.044587806 0.047288314 4279965984
0.74996924 -0.045263872 0.047226816 4280031777
0.75025845 -0.046050444 0.047032207 4279703323
0.7505486 -0.046838269 0.046837598 4279770385
0.75083971 -0.04762736 0.046643019 4279772699
0.75123596 -0.048306376 0.046581537 4280035871
0.75152856 -0.049097568 0.046386957 4279772188
0.75182205 -0.049890026 0.046192408 4285689956
0.75211644 -0.050683767 0.045997843 4283257412
0.75241172 -0.051478729 0.045803308 4282535754
0.75129956 -0.066725865 0.037150055 4288194736
0.75152183 -0.067675725 0.036822766 4288063150
0.75184453 -0.068508789 0.036628515 4287208354
0.75216812 -0.069343075 0.036434308 4284707959
0.75239432 -0.070298418 0.036107063 4283061589
0.752671 -0.071195766 0.035846353 4281943108
0.75290012 -0.072155103 0.035519153 4281942336
0.75313067 -0.073116526 0.035191968 4282268739
0.75336277 -0.07408008 0.034864768 4280428582
0.75369322 -0.074923828 0.034670636 4280296996
0.75397629 -0.075830027 0.034409985 4282202679
0.75440484 -0.076553807 0.034348875 4281477422
0.7548337 -0.077278048 0.034287751 4281016619
0.75531065 -0.077940911 0.034293145 4280556840
0.75578755 -0.078603774 0.034298524 4280096289
0.75631201 -0.079204425 0.034370422 4279899425
0.75688344 -0.079742268 0.034508809 4280029726
0.75754869 -0.080154046 0.034780145 4279506462
0.7581656 -0.08062695 0.034985006 4278653971
0.75892234 -0.080909505 0.035389304 4278851350
0.75958371 -0.081316009 0.035660625 4278983450
0.76024401 -0.081720844 0.035931915 4280298782
0.76094937 -0.082060307 0.03626968 4280297231
0.76174587 -0.082269937 0.036740392 4279835910
0.69044852 0.009422943 0.033224225 4280164891
0.69113141 0.008859247 0.033429176 4279573526
0.69154245 0.008159548 0.033368096 4279574039
0.69195378 0.0074594244 0.033306971 4279639832
0.69243282 0.0067936182 0.03331238 4279903004
0.69291186 0.0061278045 0.033317804 4280297247
0.69339097 0.0054619983 0.033323213 4280428063
0.69373608 0.0047254413 0.0331956 4280429087
0.69428223 0.0040947944 0.033267543 4280297501
0.69482809 0.0034645721 0.033339456 4279968536
0.69537371 0.0028347671 0.033411384 4280296729
0.69591898 0.0022053719 0.033483267 4280361752
0.69646394 0.0015763938 0.03355518 4280361752
0.69700867 0.00094787031 0.033627093 4280427288
0.69761896 0.00035657734 0.03376551 4280163864
0.6982944 -0.00019681454 0.033970386 4279639317
0.69890332 -0.00078621507 0.034108773 4279836696
0.69957715 -0.0013372898 0.034313634 4279442202
0.7001847 -0.001924783 0.034452021 4279836960
0.70079172 -0.0025114492 0.034590393 4279639329
0.70139802 -0.0030972585 0.034728751 4279639579
0.70193893 -0.0037205592 0.034800589 4279903002
0.70267367 -0.0042278543 0.035071924 4279509268
0.70314896 -0.0048884004 0.035077289 4279443475
0.70888019 -0.011826083 0.035668075 4280164642
0.70947969 -0.01240243 0.035806373 4280164642
0.70995349 -0.013060883 0.035811722 4279834907
0.71048969 -0.013677657 0.035883516 4279769114
0.7110256 -0.014294013 0.03595531 4280097052
0.71149904 -0.014952034 0.035960674 4279570708
0.71209645 -0.015525445 0.036098927 4279242518
0.71263146 -0.016140521 0.036170736 4279703572
0.7132895 -0.016669735 0.036375418 4279900951
0.71388513 -0.017240629 0.036513656 4279967512
0.71454155 -0.017767519 0.036718324 4279639319
0.71519703 -0.018293142 0.036923006 4279836445
0.7158516 -0.018817529 0.037127674 4280231969
0.71650529 -0.019340634 0.037332296 4280034590
0.71715808 -0.019862473 0.037536949 4280100383
0.71787053 -0.020338863 0.037808001 4280296479
0.7185818 -0.020813569 0.038079053 4280427295
0.71929193 -0.021286577 0.03835009 4279968284
0.71994054 -0.021802753 0.038554668 4280231969
0.72058833 -0.022317663 0.038759261 4279968797
0.73409355 -0.024644539 0.047328249 4282533173
0.73483098 -0.025027081 0.047665358 4282402105
0.73539364 -0.025552124 0.047803208 4282270521
0.73601329 -0.026027918 0.048007488 4281677614
0.73668945 -0.026453823 0.048278138 4281676852
0.73730707 -0.02692689 0.048482373 4281413680
0.73792386 -0.027398676 0.048686594 4281545266
0.7385397 -0.02786921 0.048890829 4281347370
0.73909777 -0.028387949 0.04902862 4281282347
0.739712 -0.028856158 0.049232826 4281282604
0.74026871 -0.02937299 0.049370632 4281282604
0.74082482 -0.029889002 0.049508423 4281348914
0.74138033 -0.030404165 0.049646184 4281678132
0.74187917 -0.030968979 0.04971759 4281218864
0.74232173 -0.031584099 0.049722582 4281022768
0.74276435 -0.032199234 0.049727589 4280628010
0.74326259 -0.032763228 0.049798965 4280364838
0.74370503 -0.033378139 0.049803972 4282465849
0.74414748 -0.033993065 0.049808964 4282661936
0.74447954 -0.03471151 0.049681202 4282530611
0.74486727 -0.035378829 0.049619839 4281741095
0.74525529 -0.036046565 0.049558476 4282599234
0.7455889 -0.036767125 0.049430743 4283124808
0.74597764 -0.037435934 0.04936938 4281479983
0.7462579 -0.038210779 0.049175277 4281810748
0.7466476 -0.038880855 0.049113914 4281810748
0.74692929 -0.039657786 0.048919857 4281744957
0.74721199 -0.040436015 0.048725784 4281482553
0.74754936 -0.04116185 0.048598096 4280758830
0.74783367 -0.041942373 0.048404053 4280627244
0.7481724 -0.042670086 0.048276365 4280428582
0.74845839 -0.043452948 0.048082337 4279835675
0.74879849 -0.044182554 0.047954664 4280031259
0.74913919 -0.044912994 0.04782702 4280095771
0.74942762 -0.045699224 0.047633022 4280293150
0.74976969 -0.046431556 0.047505364 4279703321
0.75011235 -0.047164753 0.047377735 4279835410
0.75045562 -0.04789874 0.047250122 4279640602
0.7507472 -0.048689395 0.047056139 4279706395
0.75109184 -0.049425304 0.046928525 4284245081
0.75138509 -0.050218239 0.046734586 4284834647
0.75012636 -0.066710353 0.037383422 4284442222
0.75049782 -0.0674835 0.037256107 4283850085
0.7508201 -0.068316802 0.037062496 4281480770
0.75119287 -0.069091842 0.036935195 4281218883
0.75151682 -0.069927484 0.036741599 4280889916
0.75179243 -0.070824355 0.036481708 4281217332
0.75206923 -0.07172291 0.036221817 4282006848
0.75234723 -0.072623149 0.035961926 4282532161
0.75262648 -0.073525056 0.035702094 4281609780
0.75290692 -0.074428663 0.035442233 4281019179
0.75323707 -0.075272903 0.035248727 4280624421
0.75356817 -0.076118439 0.03505519 4280821026
0.75394833 -0.076903775 0.034927964 4280162330
0.75442529 -0.077566653 0.034933358 4280622111
0.75495017 -0.078167632 0.035005048 4279963418
0.75547469 -0.078768209 0.035076723 4279897625
0.75604653 -0.079306081 0.035214707 4279439644
0.75666529 -0.079780608 0.035418943 4279636251
0.75728309 -0.080253869 0.035623193 4279310364
0.7579 -0.080725893 0.035827428 4278325520
0.75856304 -0.0811335 0.036097929 4278654485
0.75917792 -0.081602782 0.036302134 4279312662
0.7599321 -0.081880137 0.036705181 4280364827
0.76063788 -0.082218736 0.037041917 4279573508
0.76138854 -0.082491249 0.037444919 4279639301
0.69072145 0.0085695535 0.034077242 4280165410
0.69126809 0.0079385638 0.034148961 4279573786
0.69154358 0.0071695447 0.033955455 4279442200
0.69202262 0.006503731 0.033960864 4279640349
0.69236684 0.0057678372 0.033833653 4280164640
0.69284618 0.0051016062 0.033839077 4280887846
0.69332558 0.0044353753 0.033844486 4280888868
0.69387186 0.0038048252 0.03391622 4281086247
0.69435108 0.0031388104 0.033921629 4280889634
0.6948303 0.0024727881 0.033927053 4281285159
0.69550902 0.0019156784 0.034131348 4280102682
0.6961205 0.00132332 0.034269348 4280365854
0.69666517 0.00069506466 0.034341037 4280628512
0.69740766 0.00017803907 0.034611613 4280561954
0.69795126 -0.00044872612 0.034683317 4280100381
0.69869179 -0.00096303225 0.034953862 4280100635
0.69936556 -0.001513198 0.035158128 4280165915
0.69990748 -0.002137661 0.035229787 4280034329
0.70051438 -0.0027237087 0.035367757 4279771416
0.70112073 -0.0033089295 0.035505682 4279969049
0.70179141 -0.0038548931 0.035709903 4279903254
0.70233154 -0.0044768304 0.035781562 4279640082
0.70293605 -0.0050595105 0.035919502 4279640082
0.70353997 -0.0056413785 0.036057383 4279508498
0.70765275 -0.010713771 0.036431611 4279836447
0.70818967 -0.01133129 0.036503211 4280033826
0.70872629 -0.011948392 0.036574811 4280098847
0.70926267 -0.012565076 0.036646441 4279704863
0.70973599 -0.013222888 0.03665179 4279507484
0.71027184 -0.013838947 0.036723375 4279507484
0.71074498 -0.01449655 0.036728725 4279110927
0.71134269 -0.015069768 0.036866561 4280093461
0.7118777 -0.015684545 0.036938161 4279834131
0.71253628 -0.0162137 0.037142247 4279966996
0.71313214 -0.016784385 0.037280083 4280230168
0.71378911 -0.01731123 0.037484139 4280624926
0.7143836 -0.017880037 0.037621945 4279900951
0.7150389 -0.018404558 0.037825972 4279967261
0.71569324 -0.018927813 0.038030028 4280297249
0.71634674 -0.0194498 0.038234055 4280297760
0.71706015 -0.019926459 0.038504303 4280100381
0.71771163 -0.020445719 0.038708299 4280295704
0.71842283 -0.020919204 0.038978532 4280361497
0.71913284 -0.021391019 0.039248735 4279836950
0.7198416 -0.021861136 0.039518937 4280232737
0.72054911 -0.022329599 0.03978911 4280166944
0.73330277 -0.025250629 0.047471106 4282927420
0.73409992 -0.025586113 0.047873393 4281677360
0.73466372 -0.026112229 0.048010871 4281744693
0.73534238 -0.026540503 0.048280716 4281217581
0.73590463 -0.027064532 0.048418149 4281282351
0.73652375 -0.027538791 0.048621804 4281282351
0.73714197 -0.028011784 0.048825413 4281809718
0.73775923 -0.028483525 0.049029037 4281481005
0.73837566 -0.028953969 0.049232647 4281085477
0.73899114 -0.029423177 0.049436241 4281611821
0.73954904 -0.029941112 0.049573645 4281480235
0.74010634 -0.030458167 0.049711019 4281611567
0.74066305 -0.030974418 0.049848422 4281938726
0.74110669 -0.031591013 0.049853429 4282334513
0.74160635 -0.03215681 0.049924612 4288062104
0.74204987 -0.032773197 0.049929634 4285233005
0.74254918 -0.033338338 0.050000831 4288259232
0.74293685 -0.03400597 0.049939647 4288126614
0.74338037 -0.034622356 0.049944654 4282730302
0.74382389 -0.035238758 0.049949676 4281350199
0.74421227 -0.035907194 0.049888521 4288916394
0.74460089 -0.036576077 0.049827352 4289313719
0.74493498 -0.03729789 0.049700022 4289444019
0.74532437 -0.037967816 0.049638897 4290033841
0.74565953 -0.038691074 0.049511582 4283255116
0.74599528 -0.039415196 0.049384281 4282465600
0.74633163 -0.040140152 0.04925698 4282399809
0.74666858 -0.040865943 0.049129695 4281810237
0.74695224 -0.041646346 0.048936263 4281615157
0.74723679 -0.042427987 0.048742846 4281549364
0.74762952 -0.043102548 0.048681736 4281351722
0.74791557 -0.043886319 0.048488319 4280888096
0.74825585 -0.044616729 0.048361078 4280952610
0.74859679 -0.045347989 0.048233837 4280032031
0.74893826 -0.046080098 0.048106596 4280295203
0.74922746 -0.04686825 0.047913238 4280229667
0.74957037 -0.047602251 0.047786012 4278915343
0.74996638 -0.048281446 0.047724932 4283785823
0.75036275 -0.048961058 0.047663853 4284312167
0.75065488 -0.049753219 0.04747054 4284244059
0.74922127 -0.067585617 0.037360102 4282070077
0.74974394 -0.068183362 0.037431553 4282004284
0.75011683 -0.068959013 0.03730467 4281610809
0.75049019 -0.069735497 0.037177801 4280887345
0.75091386 -0.070452943 0.037117049 4281216312
0.75118947 -0.071351022 0.036857978 4280623146
0.75151563 -0.072190508 0.036665022 4281017904
0.75184274 -0.073031232 0.036472082 4280622115
0.75217068 -0.073873267 0.036279127 4280489248
0.7524507 -0.074777439 0.0360201 4279899673
0.75282931 -0.075561062 0.035893306 4280031259
0.75316 -0.076406851 0.035700381 4279898908
0.75358832 -0.077130839 0.035639673 4279505687
0.75411332 -0.077731743 0.035711154 4279767823
0.75458992 -0.078394189 0.035716534 4279570708
0.75516236 -0.0789323 0.035854101 4279439122
0.7556864 -0.079531923 0.035925582 4278915095
0.75625777 -0.080068573 0.03606312 4278915860
0.75697088 -0.080415964 0.036398932 4278193673
0.75758791 -0.080887273 0.036602527 4279246368
0.75825107 -0.081294104 0.036872223 4282207307
0.7589131 -0.081699267 0.037141874 4279904552
0.75962073 -0.082039073 0.037477612 4279510291
0.76023352 -0.082504496 0.037681177 4279443977
0.69024336 0.008245565 0.034659222 4280624672
0.69065428 0.0075454712 0.034598514 4280297249
0.69113332 0.0068796575 0.034603924 4279902491
0.691477 0.0061440021 0.034477115 4279903004
0.6919564 0.0054777712 0.034482539 4280164640
0.69236833 0.0047762096 0.034421861 4280821543
0.69284785 0.0041097701 0.03442727 4280756001
0.69332737 0.0034433305 0.034432694 4281216552
0.69387382 0.0028128549 0.034504205 4281216802
0.69441998 0.0021828115 0.034575731 4281481255
0.69496584 0.0015531927 0.034647226 4280168475
0.69557786 0.00096058846 0.034784809 4280563233
0.69625556 0.00040563941 0.034988493 4280957477
0.69693244 -0.00014802814 0.035192177 4280692770
0.69754237 -0.00073769689 0.035329744 4281022507
0.69828343 -0.0012516305 0.03559947 4280955940
0.69889182 -0.0018391758 0.035737023 4280626464
0.69956517 -0.0023880303 0.035940677 4280823843
0.70023763 -0.0029356182 0.036144286 4280034840
0.70090914 -0.0034819394 0.036347896 4280298012
0.70138443 -0.0041424856 0.03635326 4279640082
0.70198965 -0.0047256351 0.036490783 4279969047
0.70265913 -0.0052690133 0.036694363 4280034840
0.70319831 -0.0058893859 0.036765799 4279837461
0.70664608 -0.010423198 0.036935449 4280295199
0.70724708 -0.011000454 0.037072927 4280032027
0.70784742 -0.011576861 0.03721036 4280229665
0.70832086 -0.012234896 0.03721571 4280229663
0.70892036 -0.012810037 0.037353173 4279902491
0.70945638 -0.013425976 0.037424579 4279704859
0.70999205 -0.014041528 0.037495956 4279375894
0.71052748 -0.014656633 0.037567362 4279243021
0.71118736 -0.015186772 0.037770838 4280554774
0.71178412 -0.015758112 0.037908271 4280031760
0.71238029 -0.016328648 0.038045675 4279966994
0.7129758 -0.016898319 0.038183093 4280230166
0.71357071 -0.017467156 0.038320497 4280624924
0.71428835 -0.017948493 0.038589954 4279966742
0.71494329 -0.018471673 0.038793385 4279835928
0.71553588 -0.019037366 0.038930774 4280099870
0.71618915 -0.019558251 0.03913416 4280297249
0.71690249 -0.020033687 0.039403588 4280034077
0.71761465 -0.020507455 0.039672986 4280360727
0.71826488 -0.021024108 0.039876357 4280492311
0.71891421 -0.021539524 0.040079713 4280164375
0.71968347 -0.021963641 0.040415108 4280494880
