# .PCD v0.7 - Point Cloud Data file format
VERSION 0.7
FIELDS x y z rgb
SIZE 4 4 4 4
TYPE F F F U
COUNT 1 1 1 1
WIDTH 1024
HEIGHT 1
VIEWPOINT 0 0 0 1 0 0 0
POINTS 1024
DATA ascii
0.70213753 -0.041266367 0.042335123 4281616189
0.70136392 -0.041164786 0.04247427 4282603346
0.70060283 -0.040989906 0.042545423 4282470477
0.69984221 -0.040815189 0.042616561 4282600014
0.69907105 -0.040714428 0.042755723 4280825652
0.69831169 -0.040540144 0.042826861 4280430894
0.77150869 -0.076001987 0.053364471 4281221180
0.77076107 -0.075831741 0.053435355 4281679934
0.76997781 -0.075727284 0.053574145 4282008899
0.76926732 -0.075491741 0.05357711 4281809718
0.76844978 -0.075453579 0.053783819 4282137913
0.76770461 -0.075284168 0.053854704 4281810752
0.76703036 -0.074982986 0.05378975 4282665807
0.76632065 -0.074747682 0.053792715 4282731600
0.76561093 -0.074512392 0.053795666 4280693554
0.76490116 -0.074277088 0.053798631 4280628275
0.76415724 -0.074108094 0.053869516 4280892728
0.76337981 -0.074005574 0.05400826 4280826420
0.75839907 -0.04565227 0.03071779 4282075719
0.75751978 -0.045593619 0.030924752 4279707171
0.75667036 -0.045467228 0.031063825 4279772712
0.75520444 -0.046844184 0.032696322 4280300080
0.75439018 -0.04665184 0.03276749 4280565046
0.75349367 -0.046665117 0.033042297 4280499253
0.75262648 -0.046610475 0.033249199 4280696632
0.75176072 -0.046556339 0.033456117 4280431915
0.75081599 -0.046708837 0.033866644 4280561964
0.74987423 -0.046862334 0.034277171 4280429867
0.74779069 -0.047724023 0.035641178 4280624941
0.74678212 -0.048088267 0.03625527 4281480250
0.74580359 -0.048384845 0.036801487 4282469713
0.74485445 -0.048613504 0.0372798 4282803044
0.74398398 -0.048635408 0.037554488 4283131237
0.74304092 -0.048866093 0.038032785 4282341719
0.74227369 -0.048611715 0.038035974 4282341719
0.74155515 -0.048218295 0.037903473 4282012754
0.74078739 -0.047963753 0.037906677 4281882192
0.74006736 -0.047569811 0.037774131 4281882190
0.73932278 -0.047245309 0.037709475 4282734417
0.73862445 -0.046780914 0.037509099 4283655519
0.73792464 -0.046316057 0.037308723 4283392351
0.7372005 -0.04592073 0.037176222 4282799960
0.7364527 -0.045595169 0.037111565 4282406739
0.73574919 -0.045129091 0.036911204 4282012494
0.73502207 -0.044732749 0.036778718 4282078287
0.734272 -0.044406489 0.036714077 4282538325
0.73354316 -0.044009611 0.036581591 4282670936
0.73279196 -0.043682903 0.03651695 4283460452
0.73204017 -0.043356076 0.036452338 4283855210
0.73126704 -0.043099731 0.036455572 4280628271
0.73047316 -0.042914152 0.036526635 4280951848
0.72970027 -0.042657912 0.036529854 4280426787
0.72890711 -0.042472601 0.036600947 4280098847
0.72809452 -0.042358443 0.036739856 4280427812
0.72726327 -0.042315707 0.036946625 4280296226
0.72643346 -0.042273447 0.037153378 4280165410
0.72560507 -0.042231709 0.037360147 4279969316
0.72475922 -0.042261764 0.03763473 4282074692
0.7239154 -0.042292491 0.037909299 4281152822
0.72305501 -0.042395338 0.038251713 4280363306
0.72219712 -0.042499036 0.038594142 4284049525
0.72132367 -0.042675182 0.039004371 4283592821
0.72047091 -0.042780578 0.039346755 4283724659
0.71958566 -0.043030456 0.039824829 4283132005
0.71873832 -0.043137655 0.040167183 4283197798
0.71787643 -0.043317616 0.040577352 4283000673
0.71703422 -0.043426529 0.040919721 4282539350
0.71619451 -0.043536261 0.041262031 4284181344
0.71537352 -0.043574557 0.041536525 4283521366
0.71455449 -0.043613493 0.041811004 4280497459
0.71376896 -0.043508321 0.041949809 4279642150
0.71298444 -0.043403462 0.042088628 4278193684
0.71220088 -0.04329893 0.042227417 4278979346
0.71143335 -0.043122098 0.042298391 4278979600
0.7106663 -0.042945415 0.042369351 4279766806
0.70989972 -0.042768881 0.04244031 4279569427
0.70914793 -0.042519644 0.042443439 4279836449
0.70838213 -0.042343393 0.042514428 4280296998
0.70763057 -0.042094231 0.042517558 4281286706
0.70685196 -0.041991338 0.042656347 4281354811
0.70610094 -0.04174234 0.042659476 4281486397
0.70533681 -0.041566625 0.042730421 4280826935
0.70457321 -0.04139109 0.04280138 4281155900
0.7038101 -0.041215703 0.042872339 4281286203
0.70304745 -0.041040495 0.042943269 4281880654
0.70228535 -0.040865436 0.043014228 4281814861
0.70152366 -0.040690556 0.043085158 4282472530
0.70076251 -0.040515825 0.043156102 4282929480
0.7000019 -0.040341273 0.043227032 4281941051
0.6992417 -0.040166885 0.043297991 4281023282
0.69848204 -0.03999263 0.043368921 4280562731
0.77173376 -0.075420782 0.053808644 4281154619
0.77094913 -0.075316235 0.053947061 4281744446
0.77016544 -0.075212002 0.054085448 4281876032
0.76941878 -0.075042248 0.054156125 4281085742
0.76863682 -0.07493861 0.054294541 4281614392
0.76792681 -0.074703231 0.054297492 4282406737
0.76721686 -0.074467853 0.054300457 4283522913
0.76643693 -0.074364856 0.054438844 4282536018
0.7657274 -0.074129641 0.05444181 4280364849
0.76508695 -0.073761716 0.054309353 4279905322
0.75848877 -0.04745768 0.033391818 4280695598
0.75773144 -0.047128811 0.03332743 4281155387
0.75757438 -0.045365244 0.031841651 4279905320
0.7563287 -0.046196997 0.032927886 4279839275
0.75531584 -0.046483561 0.033472642 4280892217
0.75441837 -0.046497211 0.033746645 4281091390
0.75355053 -0.046442866 0.033952951 4280565044
0.75265682 -0.046457738 0.034226954 4280762423
0.75176501 -0.046473265 0.034500927 4280630575
0.75084829 -0.046558335 0.034842581 4280562729
0.74990743 -0.046713158 0.035251886 4280298792
0.74782532 -0.047578752 0.03661187 4280494892
0.74676573 -0.048083216 0.037359521 4280823857
0.74578851 -0.048381627 0.037904114 4282007364
0.74484068 -0.048611954 0.03838101 4282997856
0.74394655 -0.04870449 0.03872256 4282868065
0.7430799 -0.048728332 0.038996443 4283262561
0.74228919 -0.04854399 0.039067298 4282275153
0.74154782 -0.048220396 0.039002851 4282143567
0.74080598 -0.047896653 0.038938373 4282012494
0.74006361 -0.047572747 0.038873911 4281881422
0.73934448 -0.04717873 0.038741782 4282209360
0.73864776 -0.04671438 0.038542002 4283196255
0.73794961 -0.046249524 0.038342208 4283589730
0.73722702 -0.04585436 0.038210094 4283457374
0.73650342 -0.045458883 0.038077965 4282536018
0.73577887 -0.045063093 0.037945881 4282339663
0.73507553 -0.044596508 0.037746117 4282405456
0.73432678 -0.044270501 0.037681684 4282537555
0.73359931 -0.043873712 0.0375496 4282867801
0.7328493 -0.043547273 0.037485167 4283591524
0.7320776 -0.043291435 0.037488386 4283524186
0.7313059 -0.043035597 0.037491605 4280497708
0.7305342 -0.042779759 0.037494823 4280689959
0.72974205 -0.04259491 0.037565693 4280624168
0.72893012 -0.042481318 0.0377042 4280164642
0.72813916 -0.042296872 0.037775055 4280493607
0.7273289 -0.042183846 0.037913591 4280296998
0.72650015 -0.042142466 0.038119718 4280494888
0.7256729 -0.042101592 0.038325891 4280232999
0.72480905 -0.042204171 0.038667321 4281811268
0.72396648 -0.042236015 0.0389411 4281217848
0.72310728 -0.042340145 0.039282486 4280888883
0.72225058 -0.042445093 0.039623886 4283192673
0.72137833 -0.042622685 0.040032923 4283854456
0.72050899 -0.042801246 0.04044196 4283593591
0.71966016 -0.042908803 0.040783316 4283067497
0.71879649 -0.043089211 0.041192278 4282935911
0.71795285 -0.043198511 0.041533664 4282606428
0.71712846 -0.04323636 0.041807339 4282343254
0.71630597 -0.043274879 0.042081028 4283984989
0.71548551 -0.043314055 0.042354718 4282928969
0.71468306 -0.043281391 0.042560756 4280429867
0.71389794 -0.043176696 0.042699173 4279245593
0.71311378 -0.043072313 0.042837575 4278455309
0.71234596 -0.042895555 0.042908341 4278521098
0.71156353 -0.042791724 0.043046728 4278981902
0.71081173 -0.042542487 0.043049857 4280560683
0.7100454 -0.042366222 0.043120638 4281152820
0.70929384 -0.042117059 0.043123782 4281154105
0.70851409 -0.042014152 0.043262154 4280759347
0.70776308 -0.041765153 0.043265298 4282338889
0.70701206 -0.041516155 0.043268427 4281026362
0.70624763 -0.041340515 0.043339178 4281355327
0.70549685 -0.041091606 0.043342307 4281025597
0.70473319 -0.040916234 0.043413058 4281419844
0.70397002 -0.040740997 0.043483824 4281222465
0.70320731 -0.040565938 0.043554559 4281880656
0.70245731 -0.040317282 0.043557689 4281946449
0.70169532 -0.040142462 0.043628439 4282537555
0.70092225 -0.040041745 0.043766797 4282929482
0.70017296 -0.039793327 0.043769926 4281546546
0.69941247 -0.039618999 0.043840647 4281154868
0.69865251 -0.039444864 0.043911412 4281023282
0.77274525 -0.074943677 0.054115623 4280826424
0.77192223 -0.07490471 0.05432114 4280892730
0.77117378 -0.074734554 0.054391637 4280826935
0.7703532 -0.074696407 0.054597154 4281090107
0.76960623 -0.074526727 0.054667622 4280958521
0.76885974 -0.074357212 0.054738119 4280959291
0.76814926 -0.074121669 0.054741085 4282735450
0.7673682 -0.074018672 0.054879084 4283063647
0.76665825 -0.073783293 0.054882035 4282142545
0.75856888 -0.047165185 0.034235045 4280827956
0.75778341 -0.046904773 0.034238324 4280827956
0.75696933 -0.046712831 0.034309074 4280104233
0.75615567 -0.046521053 0.03437984 4279971628
0.75528622 -0.046466693 0.03458555 4280958010
0.75461364 -0.045931861 0.034318909 4281551941
0.75357932 -0.046290651 0.034929499 4281619782
0.7526592 -0.046375424 0.035270154 4280567094
0.75174147 -0.046461031 0.03561081 4280699450
0.75082624 -0.046547443 0.03595145 4280632887
0.74986005 -0.046772882 0.036427021 4280500016
0.74881798 -0.047207072 0.037105009 4280105258
0.74780703 -0.047573626 0.03771551 4280301612
0.74682647 -0.04787229 0.038258523 4280301612
0.7458241 -0.04824169 0.038868979 4280628524
0.74485165 -0.048543021 0.039411947 4281218613
0.74388313 -0.048845679 0.039954916 4280694836
0.74311829 -0.04859212 0.039958104 4283325272
0.74232876 -0.048408315 0.040028751 4283325272
0.74156421 -0.048154846 0.04003194 4282996307
0.74084812 -0.0477615 0.039900199 4282668626
0.74013102 -0.047367841 0.039768472 4281947213
0.73938924 -0.047043934 0.039704204 4281882192
0.73867047 -0.046649694 0.039572477 4282605915
0.73799717 -0.046114594 0.039305821 4282604377
0.7372759 -0.045719564 0.039174125 4282864471
0.73655367 -0.045324177 0.039042398 4282666579
0.73583043 -0.044928446 0.038910702 4282799194
0.73512846 -0.044461831 0.038711518 4282536022
0.73438102 -0.044136047 0.038647279 4282405204
0.73363304 -0.043810129 0.038583055 4283063645
0.73290616 -0.043413192 0.038451359 4284512374
0.73215699 -0.043086827 0.038387105 4282208336
0.7313652 -0.042902321 0.038457796 4279971374
0.73057395 -0.042717949 0.038528442 4280102701
0.72980374 -0.042462602 0.038531661 4280298794
0.72899294 -0.042349726 0.038669765 4279772964
0.72820318 -0.042165846 0.038740411 4280365101
0.72737426 -0.042124942 0.038945988 4280167722
0.72654682 -0.04208453 0.03915152 4280365101
0.72570151 -0.042116165 0.039424509 4280101927
0.72485822 -0.042148456 0.039697498 4280561714
0.72403574 -0.042109683 0.039903 4280561464
0.72315896 -0.042286813 0.040310875 4280627257
0.72228515 -0.042464912 0.04071869 4282466895
0.72145045 -0.042500049 0.040991619 4284573808
0.72058201 -0.042679965 0.041399449 4284051314
0.71973419 -0.042788699 0.041739792 4283263591
0.71888876 -0.042898268 0.042080134 4283132005
0.71806294 -0.04293634 0.042353049 4282211668
0.71722221 -0.043047443 0.042693377 4282738263
0.71641713 -0.043014467 0.042898849 4283390803
0.71561354 -0.042981952 0.043104276 4281019951
0.7148276 -0.042877316 0.043242276 4280955177
0.71404254 -0.042772993 0.043380305 4282271037
0.71325856 -0.042668998 0.04351829 4282009398
0.71249092 -0.042492479 0.043588847 4281943868
0.71172374 -0.042316094 0.043659404 4282470475
0.71095711 -0.042139903 0.043729991 4281745725
0.71020555 -0.04189074 0.043733135 4282008897
0.70942521 -0.041787967 0.04387112 4281483066
0.70867419 -0.041538984 0.043874249 4281352768
0.70792317 -0.041289985 0.043877378 4281944903
0.70717216 -0.041040987 0.043880522 4281682242
0.70640767 -0.040865511 0.043951064 4281616449
0.70565689 -0.040616587 0.043954194 4281815364
0.70489317 -0.040441379 0.044024751 4281486660
0.70412993 -0.040266305 0.044095308 4281815625
0.70337963 -0.040017545 0.044098437 4281749832
0.70261717 -0.039842725 0.044168979 4281815625
0.7018671 -0.039594054 0.044172108 4282669139
0.70110536 -0.039419487 0.04424265 4282208588
0.70034409 -0.039245069 0.044313192 4280367152
0.69958335 -0.039070815 0.044383734 4280958770
0.698834 -0.038822398 0.044386864 4280761391
0.69808471 -0.03857398 0.044389993 4280889897
0.77375913 -0.07446596 0.054424196 4280629556
0.77293426 -0.074426919 0.054629117 4280234800
0.77211082 -0.07438837 0.054834053 4280959293
0.77132547 -0.074284285 0.05497165 4280696632
0.77046847 -0.074312702 0.05524388 4280696632
0.76972163 -0.074143246 0.055314168 4280368181
0.75856113 -0.047078967 0.035278872 4281221693
0.75774813 -0.046887606 0.035349458 4281417273
0.75696439 -0.046627775 0.035352722 4281417273
0.75632298 -0.046024412 0.035019591 4280562478
0.75542516 -0.046039298 0.03529197 4282010177
0.75455719 -0.045985997 0.035497099 4282538323
0.75366306 -0.04600209 0.035769477 4282407252
0.75271589 -0.046156928 0.036176413 4282014037
0.75179887 -0.046243623 0.036516055 4282277209
0.75083041 -0.04646951 0.036990225 4282402889
0.74983859 -0.046765834 0.037531689 4283324238
0.74882418 -0.047132805 0.038140386 4281420341
0.74784052 -0.047431812 0.03868182 4280894514
0.74680871 -0.047871143 0.039357752 4281091893
0.7458334 -0.048172906 0.039899111 4281091388
0.74483645 -0.048545659 0.040507734 4279906601
0.74399561 -0.048501328 0.040712759 4280695087
0.74315619 -0.048457444 0.040917754 4280825903
0.74239266 -0.048204303 0.040920928 4282273098
0.74162906 -0.047951147 0.040924117 4282536270
0.74088979 -0.047627926 0.040860057 4282735704
0.740174 -0.047234342 0.040728703 4282145362
0.73943353 -0.046910673 0.040664628 4281816399
0.73876309 -0.046375886 0.040398777 4281882192
0.7380442 -0.045981243 0.040267453 4282079571
0.73732424 -0.045586288 0.040136144 4282013008
0.73662615 -0.045120403 0.039937541 4282143826
0.73588145 -0.044795379 0.039873496 4282341207
0.73515856 -0.04439944 0.039742172 4282143828
0.73443472 -0.044003174 0.039610878 4282472795
0.73368806 -0.043677494 0.039546832 4283130725
0.73294091 -0.043351635 0.039482787 4283853933
0.73217189 -0.043096691 0.039485991 4281878862
0.73140293 -0.042841747 0.03948921 4279576107
0.73063391 -0.042586803 0.039492413 4279905331
0.72984433 -0.042403162 0.039562881 4280103732
0.7290349 -0.042291105 0.039700583 4280037939
0.72824651 -0.042107865 0.03977102 4279906351
0.72739911 -0.042139471 0.04004322 4280037937
0.72657323 -0.042100102 0.04024817 4280234800
0.72572947 -0.042132929 0.040520325 4280036908
0.7249068 -0.042094603 0.040725261 4279773736
0.72404784 -0.04220055 0.041064665 4280498742
0.72320998 -0.04223533 0.04133682 4280038191
0.72235572 -0.042342827 0.041676208 4281615686
0.72150391 -0.042451128 0.042015582 4284773232
0.72065455 -0.042560235 0.042354926 4284774253
0.71982527 -0.042597875 0.042627051 4285366642
0.71898061 -0.042708531 0.042966381 4282603597
0.71817267 -0.042675093 0.043171242 4283064148
0.71736628 -0.042642176 0.043376103 4282602061
0.71656132 -0.042609721 0.043580964 4280823090
0.71575779 -0.042577758 0.043785796 4281022006
0.71498811 -0.042400748 0.043856174 4281811518
0.714203 -0.042296737 0.043993786 4282140483
0.7134189 -0.042193055 0.044131383 4282865486
0.71265125 -0.042016685 0.044201747 4283127891
0.71188402 -0.041840449 0.044272095 4282140746
0.71111727 -0.041664422 0.044342488 4282009928
0.71036577 -0.041415259 0.044345617 4282207307
0.70959979 -0.04123944 0.044415966 4281615166
0.70883429 -0.041063815 0.044486329 4281549375
0.70808327 -0.040814817 0.044489473 4282075719
0.70733219 -0.040565819 0.044492602 4281747522
0.70658118 -0.040316835 0.044495732 4281681729
0.70583016 -0.040067837 0.044498876 4282143044
0.70507908 -0.039818838 0.044502005 4282143044
0.70431536 -0.03964375 0.044572353 4282406218
0.70355207 -0.039468855 0.044642702 4281748037
0.70281374 -0.039145932 0.044578612 4282405967
0.70205098 -0.038971201 0.04464896 4281419072
0.7012887 -0.038796604 0.044719324 4280761662
0.7005384 -0.038547844 0.044722453 4280825389
0.69977683 -0.038373515 0.044792786 4281022768
0.69900477 -0.038273826 0.044930324 4281021485
0.69826597 -0.037950754 0.044866249 4280955439
0.77867621 -0.07316646 0.052910075 4280760631
0.7740981 -0.073684841 0.05467023 4280826935
0.75771213 -0.046872616 0.036457777 4281678649
0.75693011 -0.046613351 0.03646104 4281219381
0.75611955 -0.046422929 0.036531374 4280758830
0.75525296 -0.046370581 0.036735907 4282996307
0.75452799 -0.045973599 0.036604986 4282668628
0.75360751 -0.046059996 0.036943644 4282669657
0.75268954 -0.046147227 0.037282288 4282407512
0.75171947 -0.046373799 0.037755072 4282999649
0.75083393 -0.046393484 0.038026616 4282928979
0.74984318 -0.046691522 0.03856647 4283718745
0.74885637 -0.046990857 0.03910628 4282603847
0.74787343 -0.047291532 0.039646104 4281355065
0.74679029 -0.047872171 0.040454164 4281486146
0.74584204 -0.048106015 0.040926859 4281486146
0.74497396 -0.048131481 0.041198343 4281025082
0.74415851 -0.048017755 0.041335657 4280761393
0.74331897 -0.047974348 0.041540056 4280432428
0.74250573 -0.047861367 0.041677371 4281549373
0.74174261 -0.04760839 0.04168056 4281944131
0.74100387 -0.047285154 0.041616693 4282931548
0.74026465 -0.04696174 0.041552812 4282408282
0.7395249 -0.046638191 0.041488945 4282079317
0.73880827 -0.046243981 0.041357994 4281685072
0.73811406 -0.045778856 0.041159987 4281685072
0.73739523 -0.045383915 0.041029081 4281751119
0.73667538 -0.044988647 0.040898159 4281816399
0.73593199 -0.044663861 0.040834293 4282078801
0.73521042 -0.044268012 0.040703371 4282078801
0.73448789 -0.043871835 0.040572464 4282078547
0.73374254 -0.043546423 0.040508628 4283525483
0.73297501 -0.043291956 0.040511832 4283919726
0.73220748 -0.043037504 0.040515035 4281943885
0.73143995 -0.042783052 0.040518239 4279970095
0.73067248 -0.042528585 0.040521443 4279970611
0.72988427 -0.042345583 0.040591672 4280103993
0.72907621 -0.042234316 0.040728971 4280038452
0.7282691 -0.042123377 0.040866286 4279841073
0.72746301 -0.042012751 0.04100357 4279709487
0.7266382 -0.041974232 0.04120788 4279840040
0.72577608 -0.042079985 0.04154633 4280432179
0.72493553 -0.042114571 0.041817665 4282538325
0.72411591 -0.042077795 0.04202199 4282671706
0.7232604 -0.042185724 0.042360365 4284382324
0.72242576 -0.042222291 0.042631716 4284184945
0.72159308 -0.042259485 0.042903036 4284710005
0.72076243 -0.042297333 0.043174341 4285038455
0.71991599 -0.042408302 0.043512702 4285629560
0.71910697 -0.042374998 0.043716952 4283786588
0.71829939 -0.042342186 0.043921217 4283391830
0.71749324 -0.042309895 0.044125482 4281481787
0.71672207 -0.042132542 0.044195652 4280757551
0.71593487 -0.042028189 0.044332862 4280958008
0.71514869 -0.041924164 0.044470057 4281746756
0.71436352 -0.041820481 0.044607282 4282404686
0.71359497 -0.041643992 0.044677436 4282404684
0.71282703 -0.041467711 0.044747606 4282272073
0.7120595 -0.041291565 0.044817775 4282402889
0.71129251 -0.041115582 0.044887915 4281417277
0.71054071 -0.040866345 0.044891059 4282075207
0.70977443 -0.040690616 0.044961244 4281680445
0.70902288 -0.040441468 0.044964373 4281614139
0.70827138 -0.040192306 0.044967517 4282469448
0.70750606 -0.04001689 0.045037672 4281944131
0.7067548 -0.039767817 0.045040801 4282338889
0.70600349 -0.039518729 0.04504393 4282142533
0.70526522 -0.039195687 0.044980064 4282405703
0.70450091 -0.039020583 0.045050204 4282207556
0.70374966 -0.03877151 0.045053348 4282339142
0.7029984 -0.038522437 0.045056477 4282338628
0.70223504 -0.038347691 0.045126632 4281287484
0.70147222 -0.038173094 0.045196772 4280957756
0.70072144 -0.03792417 0.045199901 4281086765
0.6999706 -0.037675261 0.04520303 4281415730
0.6992088 -0.037501007 0.045273185 4281349167
0.69843662 -0.037401631 0.045410335 4280889646
0.78154528 -0.072511524 0.052551895 4280894009
0.78066397 -0.072533295 0.052822635 4280959802
0.77990133 -0.072358936 0.052892566 4281155902
0.77902323 -0.072381765 0.05316329 4281219383
0.77810866 -0.072470993 0.053500921 4281548599
0.75779164 -0.046584383 0.037295774 4281679413
0.75692391 -0.046532169 0.037499681 4281678900
0.75608623 -0.04641141 0.037636682 4281547314
0.75527781 -0.046221897 0.037706837 4283127891
0.75438571 -0.046240091 0.037977621 4283063897
0.75355119 -0.046120405 0.038114622 4283130721
0.75266248 -0.046139702 0.038385361 4282671456
0.75172108 -0.046298519 0.038789883 4282737249
0.75078261 -0.046458319 0.039194375 4283393895
0.74984711 -0.046619073 0.039598837 4283392351
0.74886137 -0.04692018 0.040137053 4283129688
0.74790591 -0.047152802 0.040608376 4283131222
0.74692774 -0.047456399 0.041146547 4282868304
0.74603117 -0.047551602 0.041484103 4282934097
0.74516261 -0.04757759 0.041754767 4282670925
0.74427068 -0.047674328 0.042092323 4282604878
0.74348176 -0.047491238 0.042162374 4282079050
0.74266839 -0.047378585 0.042299286 4281222714
0.74188066 -0.047195897 0.042369321 4281485886
0.74111784 -0.046942979 0.04237251 4281680445
0.74040329 -0.046549127 0.042241976 4282469965
0.73963994 -0.04629606 0.042245165 4283063132
0.73890024 -0.045972332 0.042181492 4282406998
0.7381835 -0.04557772 0.042050943 4282209619
0.73746574 -0.045182794 0.041920424 4282013008
0.73672408 -0.044858441 0.041856766 4282210385
0.73600465 -0.044462934 0.041726232 4282209871
0.73530662 -0.043996051 0.041528866 4282209871
0.73454058 -0.04374209 0.041532069 4282472532
0.73379648 -0.043416902 0.041468412 4283984751
0.7330302 -0.043162853 0.041471601 4283984751
0.73226392 -0.042908803 0.041474804 4282074442
0.73151881 -0.042583302 0.041411161 4279969066
0.73073131 -0.042400703 0.041481197 4281417537
0.72994435 -0.042218283 0.041551247 4281815111
0.72915787 -0.042036027 0.041621283 4283461733
0.72835159 -0.041925713 0.041758165 4283989624
0.72750646 -0.041959465 0.042028755 4284581761
0.72668296 -0.041921899 0.042232484 4284186743
0.72582203 -0.042028904 0.042569876 4284974722
0.72500199 -0.041992515 0.042773589 4284579451
0.72418344 -0.041956574 0.042977303 4284382072
0.72334766 -0.041993439 0.043247849 4285303174
0.72253227 -0.04195857 0.043451518 4284513912
0.72168189 -0.042069077 0.04378888 4284776314
0.72087002 -0.042035371 0.043992564 4284776060
0.72005951 -0.042002141 0.044196218 4284380790
0.71925056 -0.041969389 0.044399872 4282339409
0.7184431 -0.041937158 0.044603541 4281484100
0.71765411 -0.041832551 0.044740379 4281483068
0.71688282 -0.041655347 0.04481034 4281285691
0.71609557 -0.041551307 0.044947147 4281551176
0.71532553 -0.04137449 0.045017123 4281944905
0.71454 -0.041271031 0.045153931 4282273870
0.71377116 -0.041094646 0.045223907 4282471247
0.71300292 -0.04091841 0.045293868 4281679936
0.71223509 -0.040742353 0.045363843 4281943104
0.71148282 -0.040492952 0.045366988 4281812796
0.71071577 -0.040317133 0.045436934 4281812796
0.70996374 -0.040067822 0.045440078 4281944382
0.70921171 -0.039818496 0.045443207 4281944382
0.70845968 -0.039569169 0.045446351 4282207040
0.70769387 -0.039393753 0.045516297 4281549110
0.70694208 -0.039144516 0.045519441 4282141247
0.70619029 -0.038895264 0.045522571 4282207292
0.70545161 -0.038571894 0.045458913 4282009913
0.70469958 -0.038322568 0.045462042 4282140986
0.70393497 -0.038147554 0.045531988 4282272572
0.70318317 -0.037898317 0.045535132 4282139703
0.70243144 -0.03764908 0.045538262 4281941556
0.70167965 -0.037399843 0.045541406 4280889137
0.70092785 -0.037150607 0.045544535 4281218351
0.70016474 -0.036976099 0.045614511 4281218351
0.69940209 -0.036801726 0.045684442 4281218351
0.69863993 -0.036627561 0.045754388 4281088048
0.78262293 -0.071965784 0.052805901 4280631090
0.78197587 -0.07159394 0.052675471 4280696630
0.78117102 -0.071484417 0.052811965 4280959802
0.78028929 -0.071506724 0.053081885 4280959039
0.77952558 -0.071332186 0.053151622 4281350969
0.77864707 -0.071355566 0.053421542 4281680183
0.75700366 -0.04624559 0.03833586 4281614390
0.75613797 -0.046194568 0.038539156 4281153839
0.75524539 -0.046213284 0.038809121 4282865484
0.75441104 -0.046093985 0.038945735 4282999125
0.75357765 -0.045975015 0.039082348 4283263073
0.7526347 -0.046134353 0.039485633 4282672221
0.75174952 -0.046155512 0.039755568 4282738014
0.75081193 -0.046316668 0.040158868 4283197030
0.74987733 -0.046478778 0.040562138 4283392097
0.74894571 -0.046641856 0.040965393 4283261278
0.74801701 -0.046805918 0.041368634 4283130458
0.74711746 -0.046900988 0.041705191 4283197529
0.74622035 -0.046996862 0.042041749 4283131736
0.74537706 -0.046953261 0.042244956 4283460701
0.74448436 -0.04705061 0.042581484 4282999638
0.74366969 -0.046937838 0.042718023 4282802771
0.74285597 -0.046825394 0.042854533 4282408013
0.74206793 -0.046642795 0.042924374 4282342220
0.74128044 -0.046460345 0.042994216 4281353277
0.74054182 -0.046136826 0.042930737 4281548859
0.73980266 -0.045813113 0.042867273 4283258196
0.7390393 -0.045560032 0.042870462 4283062100
0.73829943 -0.045236066 0.042806983 4283325272
0.73758233 -0.044840991 0.042676836 4282602833
0.7368412 -0.044516653 0.042613387 4282275151
0.73612231 -0.044120997 0.04248327 4282275151
0.73540246 -0.043725014 0.042353138 4282077772
0.73465937 -0.043400005 0.042289689 4282472532
0.73389387 -0.043146208 0.042292878 4284115824
0.73312831 -0.042892396 0.042296082 4284115570
0.73238426 -0.042567059 0.042232618 4283984238
0.73159719 -0.042384788 0.042302459 4284510582
0.73081064 -0.042202681 0.042372301 4284314482
0.73002458 -0.042020723 0.042442128 4284119663
0.72921854 -0.041910797 0.042578623 4285304960
0.72841346 -0.041801214 0.042715117 4283858290
0.72758931 -0.041763976 0.04291825 4284253048
0.72676665 -0.04172723 0.043121353 4284187257
0.72594547 -0.041690946 0.043324471 4284712320
0.72510654 -0.041727439 0.043594226 4284645757
0.72428852 -0.041692242 0.043797314 4284448119
0.72345322 -0.041729957 0.044067055 4284382326
0.72263849 -0.041695789 0.044270128 4284183663
0.72180688 -0.04173474 0.044539839 4283919208
0.72099531 -0.041701674 0.044742927 4283722858
0.72018516 -0.041669056 0.044945985 4281749332
0.71941167 -0.04149127 0.045015767 4281683791
0.71862131 -0.04138656 0.045152202 4281552205
0.71783197 -0.041282207 0.045288607 4281353279
0.71706045 -0.041105062 0.045358419 4281483584
0.7162894 -0.040928096 0.045428187 4283128927
0.7155025 -0.040824533 0.045564592 4282273349
0.71471655 -0.040721297 0.045700982 4282404935
0.71394747 -0.040544972 0.045770764 4282208839
0.71319449 -0.040295318 0.045773908 4281812547
0.71244144 -0.040045679 0.045777053 4282009661
0.71167338 -0.039869696 0.04584682 4281944634
0.71092063 -0.039620131 0.045849964 4281878841
0.71015322 -0.039444372 0.045919716 4282273597
0.70940071 -0.039194897 0.045922861 4282208574
0.7086482 -0.038945407 0.045926005 4282076990
0.7078957 -0.038695931 0.045929149 4281813818
0.70714319 -0.038446441 0.045932278 4282207040
0.70639068 -0.038196951 0.045935422 4281680435
0.70563817 -0.037947476 0.045938566 4281483056
0.70488566 -0.037697986 0.04594171 4281812019
0.70413315 -0.037448511 0.045944855 4281746226
0.70338064 -0.03719902 0.045947984 4281020704
0.70262814 -0.036949545 0.045951128 4281678382
0.70187557 -0.036700055 0.045954272 4281217579
0.70112306 -0.03645058 0.045957416 4281349167
0.70037055 -0.03620109 0.045960546 4281217581
0.69961804 -0.035951614 0.04596369 4281020719
0.78390354 -0.071091384 0.052729219 4280301874
0.78313541 -0.070915565 0.052798793 4281090107
0.78236771 -0.07073988 0.052868351 4280958521
0.78136504 -0.070959285 0.053337052 4280892728
0.78052181 -0.07091625 0.053539678 4280892730
0.7798351 -0.070609733 0.05347617 4281350969
0.75613201 -0.046117619 0.039572969 4281090875
0.75526911 -0.046068043 0.039775655 4282669388
0.75440764 -0.046018958 0.039978355 4282868304
0.75354773 -0.045970351 0.040181011 4282803543
0.75268924 -0.04592222 0.040383667 4283001186
0.75177741 -0.046014071 0.040719271 4283132772
0.75089514 -0.046036914 0.040988401 4282803294
0.74998796 -0.046130314 0.04132399 4283131489
0.74908316 -0.046224535 0.041659579 4283129438
0.74820739 -0.046249494 0.041928679 4283326819
0.7473073 -0.046345264 0.042264253 4283918956
0.74643564 -0.046371594 0.042533308 4283393380
0.74556595 -0.04639861 0.042802393 4283592038
0.74472374 -0.046355873 0.043004975 4283460452
0.74388295 -0.046313643 0.043207586 4283459936
0.7430687 -0.046201348 0.043343708 4283986533
0.74225533 -0.046089366 0.04347983 4284249705
0.74149203 -0.0458363 0.043483019 4284249703
0.74072868 -0.045583233 0.043486193 4284381289
0.73996538 -0.045330167 0.043489382 4283854432
0.73920202 -0.045077085 0.043492571 4283062098
0.73846221 -0.04475297 0.043429285 4283127891
0.73772192 -0.044428706 0.04336603 4283456856
0.73698109 -0.044104263 0.043302745 4282669137
0.73623979 -0.043779671 0.043239489 4282669907
0.73549801 -0.0434549 0.043176219 4282933079
0.73475575 -0.043129995 0.043112963 4284316012
0.73401296 -0.042804897 0.043049678 4284448632
0.73326969 -0.042479664 0.042986423 4284579968
0.73250437 -0.042225927 0.042989627 4284579714
0.73169649 -0.042115748 0.043125734 4285106058
0.73091066 -0.041934028 0.043195352 4284579714
0.73010445 -0.04182443 0.043331444 4284382589
0.72931981 -0.041643143 0.043401092 4284579964
0.72851533 -0.041534096 0.04353717 4284579703
0.72769183 -0.041497573 0.043739676 4284579703
0.72686976 -0.041461512 0.043942198 4284513138
0.72604913 -0.041425973 0.04414472 4283130973
0.72523004 -0.041390896 0.044347212 4282998874
0.72441238 -0.041356325 0.044549704 4283325784
0.72357738 -0.041394815 0.044818625 4283259991
0.72278154 -0.041288644 0.044954672 4283192401
0.72196829 -0.041255534 0.045157149 4283062100
0.7211566 -0.04122293 0.045359626 4282669139
0.72038203 -0.04104495 0.045429215 4281618768
0.71959037 -0.040940151 0.045565233 4281356879
0.71878231 -0.040908754 0.045767695 4281159500
0.71800995 -0.040731534 0.045837283 4282735450
0.71722126 -0.040627718 0.045973316 4282733649
0.71646678 -0.040377587 0.04597646 4283129177
0.71569592 -0.040200844 0.046046034 4281286452
0.71490937 -0.040097758 0.046182021 4280562729
0.71415567 -0.039847881 0.046185181 4281615419
0.7133863 -0.039671615 0.046254739 4281680445
0.71263278 -0.039421812 0.046257883 4282140218
0.71187925 -0.039171994 0.046261027 4282402873
0.71111089 -0.0389961 0.046330601 4282468666
0.71035761 -0.038746372 0.046333745 4281284907
0.70960438 -0.038496643 0.046336889 4281417524
0.7088511 -0.038246915 0.046340033 4281154352
0.70809788 -0.037997186 0.046343178 4281088559
0.70734459 -0.037747458 0.046346322 4281220145
0.70659137 -0.037497729 0.046349466 4281088813
0.70583808 -0.037248001 0.04635261 4280825387
0.70507193 -0.037072808 0.046422169 4281286192
0.70434433 -0.036673903 0.046292469 4281615157
0.70359081 -0.0364241 0.046295613 4281022503
0.70283729 -0.036174282 0.046298757 4281680433
0.70208383 -0.035924479 0.046301916 4281612841
0.7013303 -0.035674661 0.04630506 4281808939
0.70057684 -0.035424858 0.046308205 4281808939
0.69983453 -0.035099953 0.046244949 4281677614
0.78506923 -0.070412487 0.052855521 4281419070
0.78433913 -0.070170432 0.052858576 4281025597
0.78344977 -0.070191622 0.053126931 4280959291
0.78264153 -0.070081666 0.053262636 4280827705
0.78187358 -0.069906056 0.053332001 4280892730
0.78102797 -0.069862738 0.053534001 4280761144
0.78022265 -0.069753766 0.053669706 4281219896
0.75624025 -0.045764595 0.040339276 4281091390
0.75534922 -0.045785233 0.040607646 4282866516
0.75446016 -0.045806468 0.040875971 4283131222
0.75360107 -0.04575868 0.041078061 4282869083
0.75268793 -0.045850977 0.041412666 4283066977
0.75183225 -0.045804292 0.041614696 4283198563
0.75097805 -0.045758143 0.041816771 4282803805
0.75009835 -0.045782492 0.042085052 4283000671
0.74922055 -0.045807511 0.042353362 4282933083
0.74834478 -0.045833185 0.042621672 4283458403
0.74752349 -0.045718923 0.042757422 4283589989
0.74667716 -0.045675337 0.042959437 4283524966
0.74580652 -0.045702726 0.043227717 4283329636
0.74496341 -0.045660228 0.043429703 4283461222
0.74412173 -0.045618191 0.043631673 4283789417
0.74328154 -0.045576677 0.043833688 4284118380
0.74246764 -0.045464844 0.043969408 4284315759
0.74167931 -0.045282468 0.044038847 4284973175
0.74091572 -0.045029312 0.044042036 4284512624
0.74015212 -0.044776171 0.044045225 4284381038
0.73938853 -0.044523016 0.044048414 4283654753
0.73864853 -0.044198677 0.043985352 4282865237
0.73790801 -0.043874159 0.04392226 4283391063
0.73714393 -0.04362084 0.043925449 4282866003
0.73640269 -0.043296099 0.043862388 4282800210
0.73563838 -0.043042704 0.043865576 4283194968
0.73489642 -0.042717695 0.043802515 4284512364
0.73415393 -0.042392552 0.043739468 4284711287
0.73336726 -0.042210743 0.043808892 4284646529
0.73260272 -0.041957259 0.043812081 4283988601
0.73183817 -0.04170379 0.04381527 4283133292
0.73105252 -0.041522324 0.043884724 4283329386
0.73026729 -0.041341007 0.043954149 4283196001
0.72946203 -0.041232035 0.044089839 4283459427
0.72863734 -0.041195646 0.04429175 4283326037
0.72783422 -0.041087404 0.04442744 4282207556
0.72699237 -0.041124329 0.044695586 4283194703
0.72619176 -0.041016906 0.044831261 4283193422
0.72537273 -0.040982395 0.045033142 4282731588
0.72455519 -0.040948376 0.045235053 4283059015
0.72375798 -0.040842101 0.045370698 4283190601
0.72294313 -0.040808961 0.045572579 4283519056
0.72214818 -0.040703401 0.045708209 4283914841
0.72133601 -0.04067117 0.04591009 4282405452
0.72056121 -0.040493309 0.045979485 4281946701
0.71976918 -0.040388703 0.046115085 4282538586
0.71899557 -0.040211245 0.046184495 4282670172
0.71820521 -0.04010725 0.046320125 4282075721
0.71743286 -0.039930165 0.04638949 4282009412
0.71666098 -0.039753288 0.046458885 4282011211
0.71588957 -0.039576545 0.04652825 4280958257
0.7151348 -0.039326325 0.046531394 4280695085
0.71436417 -0.039149836 0.046600804 4281482036
0.7136097 -0.03889969 0.046603948 4281612088
0.71283972 -0.038723439 0.046673313 4281677362
0.71208549 -0.038473383 0.046676457 4281940534
0.71133125 -0.038223341 0.046679601 4281479983
0.71056235 -0.038047388 0.046748966 4280954930
0.70980835 -0.037797421 0.04675211 4281020972
0.70906854 -0.037473172 0.046689048 4281218349
0.7083143 -0.037223116 0.046692193 4281218349
0.70756012 -0.036973059 0.046695352 4281350448
0.70679235 -0.036797538 0.046764702 4281088559
0.70603842 -0.036547557 0.046767846 4280694315
0.70528442 -0.03629759 0.04677099 4281088559
0.70454317 -0.035972849 0.046707943 4281088559
0.70378894 -0.035722792 0.046711087 4280628776
0.7030347 -0.035472736 0.046714231 4281549878
0.70228046 -0.035222694 0.046717376 4281219114
0.70153797 -0.034897521 0.046654329 4281021224
0.70079499 -0.034572199 0.046591252 4281350189
0.7001192 -0.033795103 0.046130955 4281350702
0.69937372 -0.033468977 0.046067923 4280956973
0.78546691 -0.06955573 0.053053826 4281221429
0.78465509 -0.069444954 0.053189144 4281025082
0.78384429 -0.069334492 0.053324446 4280894009
0.78307408 -0.069158301 0.053393602 4280959802
0.78222561 -0.069114551 0.053595021 4280696380
0.78141773 -0.069005072 0.053730309 4281023549
0.75545758 -0.045433596 0.041372314 4283390815
0.7545405 -0.045525461 0.041705951 4283393382
0.75376612 -0.045268729 0.041709185 4282803555
0.75279713 -0.045501739 0.042174935 4282805090
0.75199687 -0.045315593 0.042244226 4282739297
0.7511152 -0.045340031 0.042511746 4282805088
0.75028968 -0.045224681 0.042647108 4283067747
0.74943829 -0.045179933 0.042848542 4283198563
0.74858832 -0.045135692 0.043049961 4283394659
0.74771357 -0.045162395 0.043317452 4283394659
0.74686682 -0.045119226 0.043518886 4283328868
0.74602157 -0.045076519 0.043720275 4282802270
0.74517781 -0.045034319 0.043921679 4282670424
0.74433553 -0.044992611 0.044123083 4283522138
0.74351978 -0.044880509 0.044258386 4282861387
0.74272984 -0.044697821 0.044327661 4283387731
0.74194044 -0.044515267 0.044396907 4283654503
0.74115151 -0.044332922 0.044466168 4284513410
0.7403872 -0.044079512 0.044469357 4284448128
0.73962289 -0.043826118 0.044472545 4283987577
0.73883498 -0.043644056 0.044541776 4283591788
0.73807091 -0.043390751 0.044544965 4282998102
0.73732996 -0.043065935 0.044482112 4282734419
0.73656565 -0.042812541 0.044485301 4282931798
0.73580134 -0.042559132 0.04448849 4283392349
0.73508179 -0.042162225 0.04435958 4285037425
0.73431695 -0.041908666 0.044362769 4284445037
0.73353028 -0.041727006 0.044432014 4284576884
0.73276567 -0.041473538 0.044435203 4283393380
0.73197973 -0.041292161 0.044504449 4283327587
0.73121542 -0.041038752 0.044507638 4283129692
0.73043019 -0.040857598 0.044576868 4283194200
0.72962475 -0.040748939 0.044712156 4283063384
0.72879994 -0.040713012 0.044913456 4282733638
0.72799671 -0.040605083 0.045048743 4282536259
0.72721446 -0.040424928 0.045117974 4282865224
0.72637361 -0.040462881 0.045385331 4282598462
0.72557366 -0.040355995 0.045520574 4282927172
0.72473621 -0.040395096 0.045787916 4282992965
0.72395766 -0.040216148 0.045857117 4283124551
0.72314215 -0.040183306 0.046058387 4283519309
0.7223466 -0.04007791 0.046193644 4283586129
0.72153378 -0.040045992 0.046394899 4282732873
0.72075838 -0.039868101 0.046464115 4282142280
0.71998352 -0.039690375 0.046533301 4282405452
0.71919161 -0.039586201 0.04666853 4282602833
0.71841794 -0.039408863 0.046737701 4282075203
0.71764475 -0.039231718 0.046806887 4282075970
0.71688879 -0.038981095 0.046810046 4281288254
0.71611637 -0.038804173 0.046879217 4281288254
0.71534443 -0.038627431 0.046948433 4280498989
0.71458894 -0.038376972 0.046951577 4281220147
0.71381772 -0.038200453 0.047020748 4281217328
0.71306252 -0.037950084 0.047023907 4281874484
0.71230733 -0.037699699 0.047027051 4281874484
0.71155208 -0.037449315 0.04703021 4281019179
0.71079689 -0.037198931 0.047033355 4281151537
0.71004164 -0.036948562 0.047036514 4281218351
0.70927215 -0.036772639 0.047105685 4281086765
0.70851719 -0.036522344 0.047108844 4281020972
0.70776224 -0.036272049 0.047111988 4281021485
0.70700723 -0.036021739 0.047115132 4280956975
0.70623899 -0.035846218 0.047184289 4280694317
0.70549726 -0.03552115 0.047121435 4280889897
0.70474231 -0.035270855 0.047124594 4281218862
0.70398736 -0.035020545 0.047127739 4280759081
0.70324469 -0.034695134 0.047064871 4281417787
0.70250154 -0.034369588 0.047002032 4280890667
0.70175785 -0.034043849 0.046939149 4280890919
0.70101374 -0.033717975 0.046876311 4281022505
0.70034838 -0.032863945 0.046351403 4282207806
0.69956827 -0.03276369 0.046486571 4282800715
0.78586525 -0.068697065 0.0532545 4281285425
0.785092 -0.068520084 0.053323507 4281287476
0.78431928 -0.068343252 0.053392485 4281156403
0.78354698 -0.068166569 0.053461462 4280959024
0.78269643 -0.06812264 0.053662285 4281156151
0.75476229 -0.044895604 0.042205304 4283459175
0.75387502 -0.04491885 0.04247205 4283197030
0.75307322 -0.044732392 0.042541146 4283066212
0.75216156 -0.044826895 0.042873755 4282868833
0.75130701 -0.044781655 0.043074608 4282604629
0.75048113 -0.044666529 0.043209553 4282604629
0.74962932 -0.044622198 0.043410406 4282668626
0.748779 -0.044578329 0.043611214 4283126099
0.74795651 -0.04446435 0.043746173 4282928720
0.74710888 -0.044421405 0.043946981 4281677379
0.74626273 -0.044378936 0.044147804 4283323487
0.74541807 -0.044336945 0.044348598 4282535504
0.74460024 -0.044224516 0.044483542 4282862157
0.74380857 -0.04404141 0.044552594 4282335813
0.74296761 -0.044000655 0.044753373 4282927948
0.74217737 -0.043818027 0.044822425 4283129177
0.7414121 -0.043564305 0.044825628 4282209621
0.74059844 -0.043453261 0.044960544 4283459438
0.73983365 -0.043199703 0.044963732 4283262059
0.7390452 -0.043017626 0.045032784 4283196003
0.73828059 -0.042764157 0.045035973 4282733649
0.73751605 -0.042510673 0.045039162 4282733135
0.73677444 -0.04218547 0.044976503 4282338893
0.7360096 -0.041931897 0.044979706 4283259995
0.73524481 -0.041678339 0.044982895 4283326807
0.73447996 -0.041424781 0.044986084 4283655000
0.73371518 -0.041171223 0.044989273 4283720795
0.73295039 -0.040917665 0.044992462 4283325784
0.73218554 -0.040664107 0.044995666 4283391577
0.73137832 -0.040555194 0.045130536 4283259993
0.73059303 -0.040374175 0.045199573 4283127893
0.72978753 -0.040265828 0.045334458 4282404935
0.72900349 -0.040085256 0.045403495 4282404419
0.72819972 -0.039977461 0.045538351 4282536005
0.72737694 -0.039942756 0.045739084 4283192906
0.72659504 -0.039762884 0.045808092 4282401337
0.72577477 -0.039728984 0.04600881 4282861884
0.72497511 -0.03962259 0.046143651 4283585861
0.72415751 -0.039589584 0.046344355 4284441170
0.72336012 -0.039483935 0.046479195 4282730041
0.72258222 -0.039305359 0.046548188 4282137908
0.72178656 -0.039200276 0.046683028 4282336314
0.72099185 -0.039095521 0.046817869 4281679667
0.72021592 -0.038917616 0.046886861 4281745460
0.71942294 -0.038813427 0.047021687 4281416241
0.71864825 -0.038635939 0.047090694 4281416495
0.71789104 -0.038384914 0.047093853 4281219884
0.71711707 -0.038207665 0.047162831 4280431145
0.71634358 -0.038030595 0.047231823 4281352247
0.7155869 -0.037779734 0.047234982 4280694315
0.71481419 -0.037602872 0.04730396 4280826671
0.71405774 -0.037352085 0.047307119 4281285679
0.71328574 -0.037175477 0.047376096 4281677614
0.7125448 -0.036850512 0.047313437 4281480235
0.71177334 -0.036674067 0.047382399 4281347109
0.71101713 -0.036423355 0.047385558 4281282856
0.71024632 -0.036247194 0.047454536 4281021224
0.70950472 -0.035921946 0.047391877 4280561702
0.70873445 -0.035745949 0.047460854 4280693288
0.70800614 -0.035345793 0.047332376 4280693803
0.7072497 -0.035095006 0.047335535 4280956975
0.70649326 -0.03484422 0.047338694 4280825387
0.70573682 -0.034593418 0.047341853 4281285679
0.70499319 -0.03426756 0.047279209 4281219886
0.70423651 -0.034016684 0.047282353 4280825387
0.70347983 -0.033765823 0.047285512 4281222976
0.70273525 -0.033439606 0.047222868 4284511343
0.7019664 -0.033264086 0.04729183 4282799693
0.70132595 -0.032258198 0.046636909 4282010177
0.70056677 -0.032006517 0.046640083 4281023534
0.69984102 -0.031527862 0.046445847 4281417778
0.69909203 -0.031200171 0.046383187 4280563248
0.78712082 -0.067882001 0.053257361 4281023534
0.78634501 -0.06770435 0.05332616 4281350448
0.78556979 -0.067526847 0.053394943 4281679413
0.78475505 -0.067415789 0.053529456 4281615157
0.78402078 -0.067172348 0.053532526 4281549364
0.75492746 -0.044405341 0.042836845 4283589989
0.75415254 -0.044148445 0.042840078 4283394147
0.75326604 -0.044172645 0.043106019 4282077770
0.75235385 -0.044267833 0.043437615 4281617219
0.75152636 -0.044152543 0.043572173 4282339140
0.750727 -0.043967038 0.043641075 4282733900
0.74987429 -0.043922931 0.043841302 4282731590
0.74902308 -0.0438793 0.044041544 4282729547
0.74819976 -0.043765396 0.044176087 4282729547
0.7473774 -0.043651804 0.044310614 4282203207
0.74653012 -0.04360947 0.044510841 4282204493
0.74568433 -0.043567628 0.044711038 4281745990
0.74486542 -0.043455184 0.044845581 4281876545
0.74404752 -0.043343082 0.044980109 4281613373
0.74320561 -0.043302536 0.045180306 4282666059
0.74241465 -0.043119833 0.045249164 4282669137
0.74162412 -0.042937279 0.045318022 4283129690
0.74083412 -0.042754889 0.045386881 4283261026
0.74006855 -0.042501077 0.045390069 4283326819
0.73930305 -0.04224728 0.045393273 4283261024
0.73849052 -0.042136937 0.045527756 4283457370
0.7377255 -0.041883305 0.045530945 4283062612
0.73696041 -0.041629657 0.045534149 4283063384
0.73624086 -0.041232064 0.045406044 4283787107
0.7354753 -0.040978253 0.045409247 4283984737
0.73470974 -0.040724456 0.045412436 4283656024
0.73392218 -0.040542886 0.045481279 4283523668
0.73313516 -0.040361449 0.045550108 4283260244
0.73237008 -0.040107816 0.045553297 4283194451
0.73160505 -0.039854169 0.045556501 4283456856
0.73081899 -0.039673105 0.045625359 4282601034
0.7300126 -0.039564818 0.045759827 4282010175
0.72922778 -0.039384127 0.045828655 4281878075
0.72842312 -0.039276421 0.045963138 4282075454
0.72759944 -0.039241925 0.046163246 4281941302
0.72681683 -0.039061993 0.046232074 4284967007
0.72601515 -0.038955256 0.046366543 4285231972
0.72523373 -0.038775712 0.046435356 4284770135
0.72443378 -0.038669541 0.046569809 4284177998
0.723616 -0.038636997 0.046769902 4281808169
0.72281826 -0.038531572 0.04690434 4281742378
0.72203982 -0.038353026 0.046973169 4281611564
0.7212438 -0.038248166 0.047107607 4281481521
0.72048438 -0.037996411 0.047110781 4281415728
0.71970743 -0.037818328 0.047179565 4281218349
0.71893096 -0.037640437 0.047248363 4281481003
0.71815497 -0.037462682 0.047317162 4281021735
0.71737945 -0.037285089 0.047385946 4280497190
0.71662104 -0.037033647 0.047389105 4281023534
0.71582991 -0.036930427 0.047523543 4280562729
0.71505588 -0.036753342 0.047592327 4281023534
0.71429825 -0.036502153 0.047595501 4281023020
0.71354055 -0.036250949 0.04759866 4281284396
0.71276748 -0.036074191 0.047667429 4281218603
0.71199495 -0.035897583 0.047736242 4281216036
0.71123779 -0.035646558 0.047739401 4281216806
0.71048057 -0.035395533 0.047742561 4281020970
0.70970905 -0.035219252 0.047811329 4280365350
0.70896626 -0.034893468 0.047748879 4280431143
0.70820904 -0.034642428 0.047752038 4280693803
0.70746547 -0.034316391 0.047689557 4280956975
0.70672143 -0.033990189 0.047627121 4280759848
0.70596379 -0.033739001 0.04763028 4281615155
0.7052061 -0.033487812 0.047633439 4281680948
0.7044611 -0.033161283 0.047570989 4281747255
0.70371556 -0.032834589 0.047508553 4282670422
0.70298171 -0.032432258 0.047380492 4281288258
0.7022469 -0.032029584 0.047252446 4281088824
0.70151109 -0.031626582 0.047124401 4280825652
0.70080858 -0.030996054 0.046799541 4280892464
0.70007008 -0.030592158 0.046671495 4281088811
0.69930869 -0.030339748 0.046674669 4280826923
0.78776646 -0.066622511 0.053070292 4280892466
0.78694719 -0.06651029 0.053204432 4281481272
0.78616917 -0.066332057 0.053273022 4281742902
0.78535163 -0.066220418 0.053407148 4282139703
0.7543177 -0.043658182 0.043471605 4282867286
0.75354284 -0.043401271 0.043474838 4282603845
0.75257397 -0.043637961 0.043936387 4282011708
0.75180078 -0.043381631 0.04393962 4281748023
0.75094599 -0.0433373 0.044139251 4282011710
0.75011957 -0.043222725 0.044273421 4282076738
0.74929422 -0.043108493 0.044407576 4282009412
0.74844331 -0.043065473 0.044607192 4281943619
0.74762017 -0.042951956 0.044741347 4281680449
0.74679792 -0.042838767 0.044875488 4281483584
0.745951 -0.042797074 0.045075104 4281944135
0.74513102 -0.042684615 0.045209244 4282273098
0.74431199 -0.042572483 0.045343369 4281944133
0.74349397 -0.04246068 0.045477509 4282404684
0.74267697 -0.042349204 0.045611635 4282865484
0.74188542 -0.042166471 0.045680285 4282865738
0.74109435 -0.041983932 0.045748964 4282997070
0.74030381 -0.041801527 0.045817614 4283260242
0.73953754 -0.041547477 0.045820802 4283457370
0.73877126 -0.041293427 0.045824006 4283193937
0.73800498 -0.041039377 0.04582721 4283061838
0.73723871 -0.040785342 0.045830399 4283062098
0.73647243 -0.040531293 0.045833603 4283456856
0.73570609 -0.040277243 0.045836791 4284181346
0.73493981 -0.040023193 0.045839995 4282865738
0.73417354 -0.039769143 0.045843199 4282207294
0.73340726 -0.039515093 0.045846388 4282601800
0.7326194 -0.039333597 0.045915052 4281417526
0.73183209 -0.03915225 0.045983687 4281612088
0.73104519 -0.038971081 0.046052322 4282006844
0.73025882 -0.038790077 0.046120957 4281876792
0.72947294 -0.038609207 0.046189591 4281679154
0.72868758 -0.038428545 0.046258241 4281679154
0.72788256 -0.038321063 0.046392307 4281677362
0.72707856 -0.038213909 0.046526387 4281808689
0.72627556 -0.038107067 0.046660453 4281874484
0.72547352 -0.038000554 0.046794504 4282532161
0.7247107 -0.037747651 0.046797678 4282334782
0.72391015 -0.03764163 0.046931759 4281808689
0.72312915 -0.037462428 0.047000378 4281085218
0.72234869 -0.037283361 0.047068983 4280888363
0.72156876 -0.037104487 0.047137603 4281020723
0.72078925 -0.036925748 0.047206208 4281283895
0.71999264 -0.036821038 0.047340259 4280955692
0.71921438 -0.036642715 0.047408849 4280955942
0.7184366 -0.036464557 0.047477454 4281021735
0.71767622 -0.036212474 0.047480628 4280627747
0.71689922 -0.036034554 0.047549218 4280759333
0.71613908 -0.035782546 0.047552392 4281351468
0.71536279 -0.035604894 0.047621012 4281680687
0.71458697 -0.035427377 0.047689602 4281022503
0.7138117 -0.035250053 0.047758207 4281219112
