# .PCD v0.7 - Point Cloud Data file format
VERSION 0.7
FIELDS x y z rgb
SIZE 4 4 4 4
TYPE F F F U
COUNT 1 1 1 1
WIDTH 1024
HEIGHT 1
VIEWPOINT 0 0 0 1 0 0 0
POINTS 1024
DATA ascii
0.68618339 -0.075190924 0.026700735 4281221180
0.68612099 -0.074419454 0.026767284 4280494892
0.68632901 -0.073678501 0.026532903 4280098847
0.68592846 -0.072870813 0.026975676 4280361243
0.68564224 -0.075827003 0.028428271 4280696119
0.68557966 -0.075059153 0.028494701 4280564533
0.68558484 -0.074299589 0.028486058 4280430894
0.68559003 -0.073540017 0.02847743 4280428835
0.68566298 -0.072787695 0.028393731 4280164375
0.6856451 -0.075765617 0.029542461 4281286205
0.68565023 -0.075007603 0.029533848 4280957240
0.68565542 -0.074249588 0.029525235 4280364074
0.68572849 -0.073499076 0.029441789 4280099617
0.68573368 -0.072740801 0.029433176 4280165145
0.68544412 -0.074864462 0.031977117 4280102699
0.6855858 -0.074126363 0.031819671 4280300078
0.68570817 -0.075589828 0.03279388 4282209108
0.68564487 -0.074828982 0.032859579 4281089855
0.68564999 -0.074076407 0.032851025 4280892476
0.68565512 -0.073323831 0.032842472 4280498738
0.68559182 -0.072564021 0.032908157 4280038688
0.6857655 -0.076288059 0.033831522 4282208338
0.68570197 -0.07552851 0.033896998 4282407000
0.6857757 -0.074785501 0.033814445 4281681479
0.68584943 -0.074041978 0.033731893 4281681479
0.68585455 -0.073290437 0.033723339 4280892728
0.68579108 -0.07253167 0.03378883 4280565032
0.68600202 -0.07180132 0.033558175 4280301090
0.68602717 -0.077009559 0.034645215 4284182378
0.68603224 -0.076259062 0.034636691 4283458906
0.68610609 -0.075516827 0.034554347 4283062102
0.68604249 -0.074758053 0.034619629 4282138430
0.68611634 -0.074015304 0.034537286 4280690984
0.68612146 -0.073264547 0.034528747 4281085223
0.68619537 -0.072521023 0.034446374 4280559903
0.68626922 -0.071776979 0.034364015 4281219114
0.68649971 -0.077006154 0.035228327 4283787358
0.68643588 -0.076247126 0.035293445 4282795333
0.68650991 -0.075505152 0.03521128 4281677109
0.68644607 -0.074746639 0.035276398 4281678900
0.68652016 -0.074004151 0.035194218 4280757798
0.68652529 -0.073253646 0.035185695 4280427545
0.68659931 -0.072510377 0.03510353 4280033559
0.68660444 -0.071759619 0.035095006 4280165661
0.68667847 -0.071015574 0.035012826 4279966996
0.68676496 -0.076976381 0.036031708 4282140734
0.68683922 -0.07623519 0.035949767 4282465851
0.68684429 -0.075485207 0.035941243 4281546546
0.68684942 -0.074735224 0.03593272 4281547314
0.68685454 -0.073985241 0.035924196 4280363040
0.68692875 -0.073242754 0.035842255 4280428315
0.68700296 -0.072499737 0.035760269 4279902743
0.68700802 -0.07174924 0.035751745 4279771416
0.68708229 -0.071005449 0.035669789 4279572754
0.68723702 -0.076972976 0.036614224 4282991164
0.68731141 -0.076231793 0.036532477 4282859578
0.68724728 -0.075473532 0.036597177 4281348138
0.6872524 -0.07472381 0.036588669 4280492059
0.68725747 -0.073974088 0.036580145 4280294680
0.68726259 -0.073224366 0.036571622 4280164116
0.68733698 -0.072481871 0.036489874 4279966739
0.68741137 -0.071738862 0.036408126 4279242770
0.68741643 -0.070988618 0.036399588 4278915858
0.68750089 -0.076943226 0.037415773 4283452485
0.68764484 -0.076211333 0.037261218 4281412132
0.68771935 -0.075470135 0.037179694 4281216806
0.68758559 -0.074704394 0.037317231 4280229657
0.68766016 -0.073962942 0.037235662 4279966485
0.68773466 -0.073220961 0.037154138 4280164116
0.68773979 -0.072471239 0.037145615 4280293651
0.68781435 -0.071728483 0.037064061 4279504915
0.68781948 -0.070978507 0.037055537 4278915858
0.68797755 -0.076190889 0.037989169 4281477925
0.68798268 -0.075441942 0.037980661 4280557339
0.6879878 -0.074692994 0.037972152 4279637528
0.68799293 -0.073944047 0.037963644 4279505942
0.687998 -0.0731951 0.037955135 4279833878
0.68800306 -0.072446153 0.037946627 4280422673
0.68807781 -0.071704172 0.037865281 4279635469
0.68858862 -0.076204531 0.038425833 4281018403
0.68824506 -0.075413749 0.038780406 4280360475
0.68818039 -0.074657574 0.038844541 4279636249
0.68818545 -0.073909663 0.038836047 4279504663
0.68826032 -0.073169239 0.038754895 4279504402
0.68826544 -0.072421074 0.038746402 4279766028
0.68841004 -0.071686834 0.038592637 4279307274
0.6886462 -0.075402088 0.03943415 4280031510
0.68851149 -0.074638173 0.039570481 4279702296
0.68851662 -0.073890775 0.039561987 4279965468
0.6885916 -0.073150873 0.039481059 4279636501
0.68859673 -0.072403222 0.039472565 4279832335
0.68835652 -0.073817693 0.040792674 4279833878
0.68864191 -0.073102571 0.040495321 4279635986
0.68859082 -0.073733523 0.042668626 4279570193
0.68848878 -0.074408628 0.043826863 4280097303
0.68849385 -0.073668227 0.043818459 4279570959
0.68849885 -0.072927833 0.04381004 4279505166
0.68838918 -0.074341282 0.044973418 4282927929
0.68825281 -0.073587485 0.045107871 4281020704
0.68825781 -0.072849676 0.045099482 4280099602
0.68821609 -0.074265964 0.046187982 4285360212
0.68800849 -0.073506758 0.04639326 4283585350
0.68801349 -0.072771549 0.046384901 4284703831
0.68783695 -0.072700918 0.047595292 4280293148
0.69561213 -0.037757281 0.039661482 4280558881
0.69554615 -0.037001893 0.039724007 4280558881
0.69548023 -0.036247022 0.039786533 4280559651
0.69527197 -0.035503626 0.039991394 4281151786
0.69534826 -0.034738839 0.039911598 4280559649
0.69521117 -0.033991516 0.040045306 4280624672
0.6952163 -0.033232726 0.040036678 4280558879
0.69522154 -0.032473937 0.040028065 4280756007
0.69522667 -0.031715147 0.040019438 4280230433
0.69523185 -0.030956356 0.040010825 4280296226
0.69523704 -0.030197565 0.040002197 4280559398
0.69524217 -0.029438775 0.039993569 4280493605
0.69538969 -0.028664365 0.039842576 4280428065
0.69560832 -0.027880859 0.03962037 4280625444
0.6956135 -0.027120773 0.039611727 4280099100
0.69643182 -0.040015254 0.039923444 4281083945
0.69629443 -0.039261974 0.040056691 4281281324
0.69622827 -0.038505297 0.040119007 4281018152
0.69609094 -0.037753832 0.040252253 4280887336
0.69595349 -0.037003405 0.040385514 4280624421
0.69588733 -0.036248796 0.040447861 4281019179
0.69582123 -0.035494704 0.040510193 4280427295
0.69568378 -0.034746867 0.040643483 4280295709
0.69568896 -0.033988073 0.040634856 4280755231
0.6956228 -0.033235542 0.040697232 4279965715
0.69562793 -0.032477006 0.040688619 4280163864
0.69563311 -0.031718478 0.040679991 4280229914
0.6956383 -0.030959945 0.040671378 4280295707
0.69564348 -0.030201415 0.040662751 4280164123
0.69571996 -0.029435331 0.040583134 4279834901
0.69572514 -0.02867654 0.040574506 4280361245
0.69587296 -0.027901612 0.0404239 4280295452
0.69594944 -0.027133979 0.040344298 4280492831
0.69602597 -0.026365824 0.040264651 4280690465
0.69617379 -0.025588308 0.040114015 4281019684
0.69625032 -0.02481886 0.040034384 4281217063
0.69632679 -0.024048893 0.039954737 4280295452
0.68753648 -0.074024148 0.049951151 4281674787
0.68754143 -0.073295668 0.049942866 4280491030
0.68754637 -0.07256718 0.049934596 4280819492
0.68747997 -0.071831487 0.049996927 4280490527
0.69774806 -0.043023713 0.039701059 4280097042
0.69739604 -0.042274691 0.040046036 4282465590
0.69718683 -0.041521456 0.040249571 4281676587
0.69712055 -0.040762447 0.040311649 4281676333
0.69691139 -0.040011797 0.040515214 4281545519
0.69684511 -0.039254341 0.040577322 4281545266
0.69677889 -0.0384974 0.0406394 4281084715
0.69656968 -0.037750382 0.04084301 4279834650
0.69643188 -0.036999956 0.040975884 4279834905
0.69629419 -0.036250569 0.041108772 4279966491
0.69629931 -0.035491258 0.041100144 4279966234
0.69616157 -0.034743421 0.041233033 4279571476
0.69609523 -0.033990629 0.041295201 4279965717
0.69610041 -0.0332321 0.041286588 4279899922
0.69603407 -0.03248008 0.041348726 4279900949
0.69603926 -0.031721808 0.041340113 4279506193
0.69604445 -0.030963536 0.0413315 4280229916
0.6961211 -0.030197972 0.041252106 4280756260
0.69612622 -0.029439438 0.041243494 4280361245
0.69620293 -0.028673096 0.041164055 4280492061
0.69620812 -0.027914302 0.041155443 4280755231
0.69635624 -0.027138859 0.041005239 4280557852
0.69643289 -0.026370965 0.040925816 4280361243
0.69658107 -0.025593704 0.040775582 4280887587
0.69672924 -0.024815409 0.040625349 4281084966
0.69680589 -0.024045439 0.040545911 4280427036
0.69695407 -0.023265328 0.040395632 4280953380
0.69717377 -0.022474298 0.040174559 4280952099
0.69739348 -0.021681722 0.039953455 4281413415
0.69775617 -0.02086678 0.039590701 4280361493
0.69826186 -0.020027936 0.039086267 4280229907
0.69891065 -0.019163627 0.038440153 4279835151
0.69941646 -0.01831701 0.037935659 4279900176
0.70020831 -0.017421015 0.03714779 4278849033
0.70100021 -0.016519327 0.036359847 4279112205
0.70164907 -0.015635844 0.035713524 4279046412
0.70244104 -0.014723275 0.034925476 4279308557
0.70237482 -0.013954677 0.03498742 4281216554
0.70266622 -0.013122942 0.034695193 4279571729
0.70274305 -0.012328096 0.034615457 4279440143
0.70296299 -0.011506245 0.034394026 4279637777
0.7029683 -0.01072336 0.03438513 4279045642
0.70311666 -0.0099129416 0.034234524 4279505934
0.68734145 -0.075401209 0.051167324 4287400565
0.68756098 -0.074699812 0.05094786 4280689177
0.68763751 -0.073980883 0.050869182 4280031762
0.68764246 -0.073253691 0.050860927 4279506193
0.6876474 -0.072526507 0.050852656 4280294431
0.68765235 -0.071799323 0.050844386 4280162845
0.68758571 -0.07106518 0.050906554 4287531131
0.69921649 -0.045284927 0.039334014 4279571729
0.69893527 -0.044526033 0.039607376 4279703572
0.69858241 -0.043771841 0.03995131 4281546544
0.69844443 -0.043011576 0.040083662 4281085223
0.69809157 -0.042261787 0.04042764 4281019430
0.69788194 -0.041507777 0.040630534 4280756258
0.69767225 -0.040755317 0.040833488 4281151270
0.69746262 -0.040004417 0.041036457 4281151013
0.69739616 -0.039246701 0.041098341 4280953382
0.69725811 -0.038493946 0.041230768 4280953382
0.69712007 -0.037742231 0.041363239 4280360992
0.69698197 -0.036991544 0.041495696 4280163872
0.69691551 -0.036236681 0.04155761 4279900698
0.69677746 -0.035487812 0.041690096 4279835158
0.69671094 -0.034734242 0.04175204 4279637779
0.69664454 -0.033981185 0.04181397 4280095769
0.69657803 -0.033228658 0.041875944 4279702545
0.69651157 -0.032476638 0.041937888 4279571729
0.69651675 -0.031718366 0.04192926 4280558881
0.69652188 -0.030960094 0.041920647 4280427295
0.69652706 -0.030201819 0.041912034 4280427038
0.69660389 -0.029435996 0.041832849 4280821796
0.69660902 -0.028677464 0.041824222 4281085225
0.69668591 -0.027910858 0.041744992 4281019430
0.69683433 -0.027135413 0.041595191 4280756258
0.69691116 -0.026367517 0.041515991 4280295707
0.69698799 -0.0255991 0.041436732 4280558879
0.69713652 -0.024821058 0.041286901 4280821794
0.69728494 -0.024041986 0.041137084 4280756001
0.69736183 -0.023271494 0.04105781 4280953380
0.69751036 -0.022490606 0.040907934 4281018657
0.69773054 -0.02169854 0.040687442 4280821278
0.69809401 -0.020884119 0.040325716 4280756255
0.69860089 -0.020045783 0.039822713 4281151013
0.69917947 -0.019192901 0.039249033 4281480235
0.70120203 -0.016562596 0.037245214 4279440395
0.70163739 -0.015716005 0.036812618 4279045640
0.70207274 -0.014866307 0.036379963 4279242762
0.70236474 -0.014038451 0.036088586 4279440143
0.7025851 -0.013221256 0.035867795 4279769108
0.70294881 -0.012376521 0.035505712 4279045385
0.70309752 -0.011568945 0.035355523 4279243021
0.70324624 -0.010760337 0.035205349 4279046412
0.70332325 -0.0099644624 0.035125822 4279505166
0.70354366 -0.0091400146 0.034904942 4279834131
0.70354897 -0.0083568655 0.034896046 4280492313
0.70355433 -0.0075737275 0.03488715 4279440395
0.68743521 -0.076080225 0.052090734 4288387723
0.68751186 -0.075363882 0.052012309 4281477420
0.68766022 -0.074655265 0.051863655 4280753697
0.68780851 -0.073945619 0.051715001 4279897877
0.68788517 -0.073227197 0.051636562 4279636237
0.68789017 -0.072500795 0.051628307 4279899411
0.68789506 -0.071774378 0.051620051 4280030997
0.68775666 -0.071034066 0.05175221 4285491298
0.68776155 -0.070308179 0.051743954 4282399023
0.68769479 -0.069575846 0.051805943 4280756255
0.69962853 -0.045283552 0.040001348 4283974716
0.69934666 -0.044524923 0.04027392 4283845958
0.69913656 -0.043765735 0.040476158 4284570964
0.69878292 -0.043013878 0.040819094 4281084966
0.69864458 -0.042255167 0.040951073 4280361243
0.69843441 -0.041500904 0.041153386 4280361245
0.69829607 -0.040744524 0.041285396 4280691237
0.6980859 -0.039993107 0.041487738 4280559903
0.69801933 -0.039234869 0.041549414 4280624672
0.69788092 -0.038481604 0.041681454 4280624672
0.69774258 -0.037729368 0.041813493 4280164893
0.69753236 -0.036983136 0.042015895 4280099100
0.69746578 -0.036228012 0.042077616 4280296479
0.69732732 -0.03547889 0.042209715 4279835926
0.69726074 -0.034725055 0.042271435 4279835926
0.69726586 -0.033965748 0.042262807 4279967512
0.69712746 -0.033218954 0.042394906 4280361243
0.69706082 -0.03246668 0.042456672 4280689179
0.69706595 -0.031708151 0.042448059 4281083933
0.69699937 -0.030956654 0.042509809 4281412898
0.69707632 -0.030191088 0.042430818 4281085216
0.69708151 -0.029432554 0.04242219 4281086245
0.69715846 -0.028666209 0.042343169 4280890151
0.69723547 -0.027899347 0.042264178 4280823591
0.69731247 -0.027131967 0.042185158 4280428833
0.69738942 -0.026364071 0.042106137 4280361754
0.69746643 -0.025595652 0.042027086 4280624926
0.69761527 -0.024817608 0.041877657 4280624924
0.69776404 -0.024038535 0.041728243 4280559901
0.69791293 -0.023258418 0.04157877 4280625694
0.69813359 -0.02246738 0.041358888 4280494108
0.69828242 -0.021684937 0.0412094 4280494108
0.69850308 -0.020891052 0.040989488 4280625696
0.69886744 -0.020074293 0.040628731 4280559903
0.6996628 -0.019189417 0.039845422 4280691489
0.70183885 -0.015760306 0.037697583 4280100120
0.70234704 -0.014899429 0.037195727 4279243014
0.70256788 -0.014084809 0.036975563 4279309064
0.70286053 -0.01325592 0.03668499 4279374857
0.70315325 -0.012424946 0.036394358 4279438342
0.70337409 -0.011605158 0.036174133 4279374602
0.7035231 -0.010797329 0.036024392 4278718730
0.70381582 -0.0099609122 0.035733685 4279440147
0.70382118 -0.0091785528 0.035724804 4279637526
0.70404208 -0.0083533116 0.03550452 4279900702
0.70419109 -0.0075410791 0.035354719 4279572503
0.68767607 -0.076050639 0.052863896 4285687147
0.68775284 -0.07533507 0.05278568 4281212971
0.68797338 -0.074635476 0.052567467 4280686627
0.68805021 -0.073918357 0.052489191 4279700759
0.68805516 -0.073192984 0.052480951 4279701260
0.68806005 -0.07246761 0.052472711 4279767823
0.68806505 -0.071742237 0.05246447 4279965202
0.68806994 -0.071016863 0.05245623 4281412650
0.68793118 -0.070278108 0.052588031 4281215533
0.68793607 -0.069553249 0.052579805 4280953131
0.68786913 -0.06882222 0.052641585 4280953129
0.6878022 -0.068091705 0.052703381 4280755750
0.70004022 -0.045282181 0.040668264 4291280051
0.69975775 -0.044523813 0.040940017 4292729811
0.69954717 -0.043764889 0.041141689 4292730836
0.69940847 -0.043004625 0.041273251 4280163864
0.69919789 -0.042248547 0.041474923 4280229657
0.69905919 -0.041490622 0.041606516 4279833878
0.69892049 -0.040733725 0.041738093 4279769882
0.69870985 -0.039981794 0.04193984 4280164893
0.69857115 -0.039227229 0.042071447 4280164123
0.69850445 -0.038469255 0.042132929 4280427295
0.69829375 -0.037721209 0.04233472 4279835675
0.69822699 -0.036964796 0.042396203 4280099619
0.69808829 -0.036214117 0.042527884 4280296226
0.69802153 -0.035458993 0.042589381 4279835926
0.69788277 -0.034710128 0.042721063 4280033305
0.69781595 -0.033956304 0.042782605 4280033305
0.6977492 -0.033202991 0.042844132 4280361500
0.69768238 -0.032450199 0.042905673 4280952864
0.69761562 -0.031697929 0.042967215 4281280796
0.69762075 -0.030939138 0.042958587 4281609761
0.69762594 -0.030180346 0.042949975 4281479458
0.69763112 -0.029421557 0.042941347 4281152036
0.69778025 -0.028647136 0.042792365 4281152036
0.69778538 -0.027887829 0.042783737 4280560421
0.69786251 -0.02712019 0.042704925 4280165663
0.69793969 -0.026352031 0.042626083 4280361754
0.69808888 -0.025574505 0.042477071 4280427547
0.69816601 -0.024805052 0.042398244 4280625694
0.69831514 -0.024025712 0.042249188 4280559901
0.69839233 -0.023254961 0.042170346 4280625694
0.69861352 -0.022463923 0.04195106 4280429087
0.69876266 -0.021681476 0.041801974 4280428833
0.69905579 -0.020877186 0.041512474 4280691237
0.69949299 -0.020049494 0.041082487 4280559651
0.69985813 -0.019229617 0.040722713 4280494626
0.70051134 -0.018362425 0.040081993 4280494880
0.7010926 -0.01750201 0.039511457 4280690465
0.70160186 -0.016649149 0.039011106 4280624672
0.70218313 -0.015780706 0.038440481 4280625696
0.70247638 -0.014956985 0.038150743 4279769358
0.7027697 -0.014131188 0.037860975 4279308809
0.70320702 -0.013277851 0.037430704 4280028680
0.70335639 -0.012473382 0.037281394 4279897094
0.7035777 -0.011654627 0.037061796 4279374859
0.70372707 -0.010847826 0.036912426 4278587914
0.70409775 -0.0092170872 0.036543414 4279572505
0.70439118 -0.0083783381 0.036253512 4279572255
0.70446849 -0.0075811669 0.036174372 4279704091
0.68798792 -0.076029822 0.053566083 4281612086
0.68806487 -0.075314768 0.053488076 4281609528
0.68814182 -0.074599199 0.053410023 4280491047
0.68821883 -0.073883109 0.053332001 4279504413
0.68822372 -0.073158771 0.053323776 4279373327
0.68830073 -0.072441906 0.053245738 4279636750
0.68830562 -0.071717307 0.053237513 4279965715
0.68831056 -0.070992716 0.053229287 4280624421
0.68824351 -0.070261426 0.053290859 4280690734
0.6882484 -0.069537096 0.053282619 4280230183
0.68818128 -0.068806581 0.053344205 4280690988
0.68804216 -0.068070672 0.053475633 4280559402
0.68804711 -0.067347117 0.053467423 4280493607
0.68805206 -0.066623554 0.053459197 4280625193
0.68805695 -0.065899998 0.053450972 4280625191
0.68806189 -0.065176442 0.053442746 4280625191
0.70037955 -0.045282926 0.041404679 4294769912
0.70024061 -0.044520333 0.04153581 4293913580
0.70002949 -0.043761414 0.041736871 4288521634
0.69989049 -0.043001153 0.041868031 4279311635
0.6997515 -0.042241927 0.041999176 4279772186
0.6996125 -0.041483738 0.042130351 4279178768
0.6994735 -0.040726587 0.042261526 4279309081
0.6993345 -0.039970472 0.042392731 4279769884
0.69926757 -0.039211206 0.042454019 4279637528
0.69905645 -0.03846135 0.042655155 4279637528
0.69898951 -0.037703641 0.042716444 4279703064
0.69885051 -0.036951412 0.042847678 4279702812
0.69878352 -0.036194995 0.042908981 4279965468
0.69871664 -0.035439096 0.042970285 4280360475
0.69857752 -0.034689456 0.043101564 4280886819
0.69851065 -0.03393485 0.043162867 4280755485
0.69837153 -0.033187024 0.043294147 4281018653
0.69837672 -0.032427199 0.043285519 4280887837
0.69830978 -0.031674154 0.043346882 4281281825
0.69831491 -0.030914582 0.043338239 4281347618
0.69832009 -0.030155014 0.043329611 4281479458
0.69832528 -0.029395446 0.043320984 4281479458
0.69833046 -0.028635878 0.043312356 4281282079
0.69840777 -0.027868235 0.043233708 4280690465
0.69841295 -0.027108409 0.04322508 4280295707
0.69856244 -0.026331402 0.04307647 4280559649
0.69863975 -0.025562204 0.042997852 4280692772
0.69878924 -0.024783382 0.042849198 4280430370
0.69886655 -0.024012892 0.042770565 4280166944
0.69901603 -0.023232253 0.042621911 4280430116
0.6992377 -0.022440691 0.042403221 4280365090
0.69924289 -0.021678016 0.042394549 4280626466
0.69960886 -0.020863311 0.042035833 4281019430
0.70004702 -0.02003536 0.041607082 4280887844
0.70048517 -0.019204296 0.041178271 4280494626
0.7008512 -0.018381301 0.040819436 4280430116
0.70143372 -0.017521393 0.040250525 4280825128
0.70187193 -0.016680747 0.039821625 4280627749
0.70238233 -0.015825026 0.03932263 4280561184
0.7026763 -0.015002336 0.039033711 4280033557
0.70304239 -0.014165096 0.038674727 4279504905
0.70370257 -0.012495838 0.038026705 4279569423
0.70385218 -0.011690855 0.037877798 4279439640
0.68837136 -0.076017767 0.054197863 4281680447
0.68830407 -0.075285971 0.054259226 4284244330
0.68845338 -0.074579418 0.054111823 4281481024
0.68845832 -0.073855862 0.054103598 4279373347
0.68853545 -0.073140025 0.054025784 4279308054
0.68854034 -0.072416209 0.054017559 4279374350
0.68847311 -0.07168518 0.054078922 4280362789
0.68855023 -0.070968576 0.054001108 4280296996
0.68855518 -0.070244759 0.053992882 4280231720
0.68848789 -0.069514506 0.05405426 4280033828
0.68849283 -0.06879095 0.05404605 4280494890
0.68849778 -0.068067387 0.054037824 4280494890
0.68843049 -0.067338176 0.054099232 4280296998
0.68843544 -0.066614874 0.054091021 4280428582
0.68844032 -0.065891579 0.054082796 4280560168
0.68837309 -0.065163404 0.054144204 4280428582
0.68837798 -0.064440355 0.054135993 4280296996
0.68838292 -0.063717321 0.054127768 4280954409
0.68831563 -0.062990174 0.054189205 4280363294
0.68839276 -0.062271237 0.054111347 4279838492
0.70051181 -0.043757938 0.042332068 4285428852
0.70044482 -0.042994782 0.042393088 4279640862
0.70016098 -0.042241607 0.042663291 4279904034
0.70023847 -0.041473448 0.042584866 4278983185
0.70009911 -0.04071578 0.042715654 4279507230
0.69995975 -0.039959148 0.042846426 4279639581
0.6998927 -0.039199367 0.042907491 4279639579
0.69975334 -0.038444549 0.043038324 4279573786
0.69968629 -0.037686061 0.043099374 4279507480
0.69954687 -0.036933057 0.043230206 4279638298
0.69947982 -0.036175862 0.043291301 4279703321
0.69934046 -0.035424672 0.043422148 4280492831
0.69927335 -0.034668773 0.043483242 4280887589
0.69920623 -0.033913393 0.043544352 4281084450
0.69906688 -0.033164795 0.043675229 4280953630
0.69899976 -0.032410711 0.043736354 4280953884
0.69900495 -0.031650364 0.043727711 4281282079
0.69893777 -0.030897059 0.04378885 4281413665
0.69894296 -0.030136973 0.043780208 4280821526
0.6990205 -0.029369328 0.043701798 4281347870
0.69902563 -0.028608985 0.043693155 4280953114
0.69903082 -0.027848639 0.043684512 4280887841
0.6991083 -0.02707996 0.043606088 4280887841
0.69925809 -0.026302172 0.043457866 4280757282
0.69933558 -0.025532197 0.043379426 4280692772
0.69934076 -0.024770815 0.043370783 4280561956
0.69949055 -0.023990694 0.043222532 4280167711
0.69956809 -0.023219163 0.043144062 4280628262
0.69979024 -0.022427343 0.042925999 4280562465
0.69986773 -0.021654259 0.042847529 4281019680
0.70008987 -0.020859847 0.042629406 4281085218
0.70045668 -0.020042546 0.042271674 4281085218
0.70089585 -0.019211739 0.04184407 4280494880
0.70133495 -0.018377814 0.041416436 4280692772
0.70177418 -0.017540783 0.040988773 4280759335
0.70221341 -0.016700644 0.04056108 4280364577
0.70250797 -0.015881319 0.040273011 4280363807
0.7029472 -0.01503548 0.039845243 4280559903
0.70324183 -0.014211487 0.039557099 4279440395
0.70397568 -0.012531295 0.038841099 4279635986
0.68875939 -0.075282685 0.054821 4282800727
0.68876427 -0.074559644 0.054812789 4282405969
0.68869686 -0.073828615 0.054873973 4279507745
0.68884647 -0.073121287 0.054726958 4279375898
0.68885142 -0.072397992 0.054718748 4279967514
0.68885636 -0.07167469 0.054710522 4279443223
0.68886125 -0.070951387 0.054702312 4280430118
0.6888662 -0.070228092 0.054694086 4280035873
0.68887115 -0.06950479 0.054685876 4280297509
0.68887603 -0.068781495 0.05467765 4280232486
0.68888098 -0.068058193 0.054669425 4280429865
0.68888593 -0.06733489 0.054661214 4280362789
0.68889081 -0.066611595 0.054652989 4280297249
0.68889576 -0.065888293 0.054644778 4280100383
0.68882835 -0.065160118 0.054705977 4280495141
0.68883324 -0.064437076 0.054697767 4280297762
0.68883818 -0.063714035 0.054689556 4280429346
0.68884313 -0.062990993 0.054681331 4280560673
0.68884802 -0.062267959 0.05467312 4280167198
0.68878055 -0.061541334 0.054734364 4280167457
0.68893027 -0.060825199 0.054587245 4280233250
0.68893522 -0.0601019 0.05457902 4280101666
0.70099938 -0.042988412 0.042918548 4282272071
0.70078737 -0.042231828 0.043118432 4280758832
0.70072013 -0.041469976 0.043179259 4279971626
0.70058048 -0.040712312 0.043309629 4279971115
0.70058572 -0.039947823 0.043300942 4280233517
0.70044601 -0.039191708 0.043431342 4280298794
0.70037878 -0.038432188 0.043492198 4280496173
0.70031154 -0.037673183 0.043553054 4280560683
0.70024431 -0.036914695 0.043613955 4280362789
0.70010459 -0.036161952 0.043744355 4280099870
0.70003736 -0.03540476 0.043805256 4280626212
0.69997013 -0.034648087 0.043866143 4280626212
0.69990283 -0.033891931 0.043927059 4280889384
0.69976312 -0.033142556 0.044057518 4281152040
0.6997683 -0.032381173 0.044048861 4281019680
0.69970107 -0.031626575 0.044109777 4281413665
0.69970626 -0.030865453 0.044101119 4281347872
0.69971144 -0.03010433 0.044092476 4281347872
0.69971663 -0.029343208 0.044083819 4281413411
0.69972181 -0.028582083 0.044075176 4280887837
0.699727 -0.02782096 0.044066533 4281281825
0.6998046 -0.027051505 0.043988302 4281018653
0.69980979 -0.026290122 0.04397966 4280822301
0.69995993 -0.025511038 0.043831825 4280627745
0.7000376 -0.024740025 0.043753564 4281219366
0.70011526 -0.023968495 0.043675303 4281021987
0.70026541 -0.023186818 0.043527439 4280691737
0.70041561 -0.022404097 0.04337956 4281546528
0.7005657 -0.02162035 0.043231681 4280822298
0.70064342 -0.02084597 0.04315339 4280690719
0.70108354 -0.020017743 0.042727038 4280624926
0.70145118 -0.019197334 0.04237026 4280494375
0.70181882 -0.018374328 0.042013451 4280494375
0.70211399 -0.017560177 0.041726246 4280756260
0.70240921 -0.016743958 0.041438997 4280427295
0.70277691 -0.015913699 0.041082114 4280099100
0.70314461 -0.015080851 0.040725201 4282598462
0.70343989 -0.014257893 0.040437877 4281942576
0.68915689 -0.073102556 0.055427343 4280297760
0.68923438 -0.072387241 0.055349916 4280429346
0.6893118 -0.071671411 0.055272505 4279641113
0.68931675 -0.070948109 0.055264279 4281220399
0.68932164 -0.070224807 0.055256069 4280233504
0.68939912 -0.069507942 0.055178627 4280560932
0.68933153 -0.068778209 0.055239633 4280691235
0.68933642 -0.068054914 0.055231407 4280493856
0.68934137 -0.067331612 0.055223197 4280558879
0.68934631 -0.06660831 0.055214971 4280428063
0.6893512 -0.065885015 0.055206761 4280034075
0.68935615 -0.065161712 0.055198535 4280429346
0.68928856 -0.064433798 0.055259541 4280560932
0.68929344 -0.063710757 0.05525133 4280429598
0.68929839 -0.062987715 0.05524312 4280364575
0.68937588 -0.062268514 0.055165663 4280167196
0.68938076 -0.061545216 0.055157438 4280167459
0.68945825 -0.060825236 0.055079967 4280101666
0.6894632 -0.06010168 0.055071741 4280298796
0.6898309 -0.059392139 0.054717243 4280429869
0.70162696 -0.042979147 0.043375105 4282598462
0.70148695 -0.042218894 0.043505043 4281479981
0.70134699 -0.04145968 0.043634996 4280889899
0.70120704 -0.040701494 0.043764949 4280627248
0.70113969 -0.039940417 0.043825597 4281022006
0.70107228 -0.039179862 0.043886244 4280429097
0.70100486 -0.03841982 0.043946907 4280560683
0.70093745 -0.037660297 0.044007555 4280691237
0.70079744 -0.036906265 0.044137552 4280756260
0.70073003 -0.036148038 0.04419826 4281217579
0.70073521 -0.035384841 0.044189587 4280626464
0.70059526 -0.034633137 0.0443196 4280626464
0.70052779 -0.033876464 0.044380292 4280889634
0.70053297 -0.033114046 0.044371635 4281153319
0.70046556 -0.032358151 0.044432342 4281088296
0.70039815 -0.031602778 0.044493049 4281153573
0.70040333 -0.030840877 0.044484392 4280824608
0.70040852 -0.030078977 0.044475734 4280758302
0.7004137 -0.029317077 0.044467077 4281019680
0.70049155 -0.028547358 0.044389039 4281281825
0.70049673 -0.027785199 0.044380382 4281675300
0.70050192 -0.02702304 0.044371709 4281609507
0.70057976 -0.026252288 0.044293657 4281084187
0.70065761 -0.025481015 0.044215605 4281086749
0.70073545 -0.024709227 0.044137552 4281349919
0.70081323 -0.023936916 0.0440595 4281152540
0.70089108 -0.02316409 0.043981418 4281151772
0.70096892 -0.022390746 0.043903336 4282137638
0.70111942 -0.021606734 0.043755859 4281083163
0.70148784 -0.020790465 0.043400139 4280886306
0.701711 -0.019992933 0.043183193 4280886306
0.70200682 -0.019182924 0.042896822 4280427812
0.70230263 -0.018370841 0.042610452 4280692520
0.70267111 -0.017545242 0.042254627 4280559903
0.70282167 -0.016752161 0.042107031 4280296731
0.70319021 -0.015922159 0.041751146 4280296731
0.70348608 -0.015101783 0.041464671 4281741867
0.68977708 -0.070221528 0.055818051 4280298784
0.68978202 -0.069498226 0.055809826 4280560932
0.68985963 -0.0687811 0.055732593 4281020454
0.68986458 -0.068057537 0.055724367 4280230938
0.68986952 -0.067333981 0.055716142 4280690462
0.68980169 -0.066605031 0.055776954 4280427293
0.68980664 -0.065881729 0.055768743 4280165663
0.68988431 -0.065163307 0.055691481 4280428833
0.68988919 -0.064439744 0.055683255 4280428833
0.68989414 -0.063716188 0.05567503 4280363294
0.68982637 -0.062988535 0.055735856 4280363807
0.68990397 -0.062269069 0.055658594 4280363807
0.68990892 -0.061545514 0.055650368 4280233252
0.68991387 -0.060821954 0.055642143 4280167459
0.7020421 -0.042212259 0.044031098 4281349419
0.70190179 -0.041452788 0.044160664 4280823593
0.70183426 -0.040690675 0.044221088 4280757297
0.70176673 -0.039929081 0.044281512 4281020723
0.70169914 -0.039168008 0.044341952 4280494375
0.70155883 -0.0384119 0.044471547 4280494375
0.70156407 -0.037647411 0.04446286 4280887589
0.7014237 -0.036892861 0.044592455 4281348397
0.70142889 -0.036128886 0.044583768 4281415728
0.70136136 -0.035370402 0.044644251 4280693538
0.70129377 -0.03461244 0.04470472 4280364573
0.70122623 -0.033854991 0.044765219 4281943089
0.70123142 -0.033091795 0.044756547 4281943857
0.70116383 -0.032335121 0.044817016 4281485105
0.70109624 -0.031578969 0.044877514 4280366106
0.70110142 -0.030816291 0.044868842 4280102934
0.70110667 -0.030053616 0.044860184 4280496924
0.70118463 -0.029283378 0.044782341 4280625944
0.70118982 -0.028520441 0.044773683 4281871904
0.701195 -0.027757505 0.04476501 4281935898
0.70127302 -0.026986236 0.044687167 4282133277
0.70127821 -0.026223043 0.044678494 4282067484
0.7012834 -0.025459848 0.044669822 4282068765
0.7014342 -0.024678422 0.044522762 4281741084
0.70143938 -0.02391471 0.044514075 4281741084
0.7015174 -0.023141364 0.044436201 4282004258
0.70166826 -0.022357607 0.044289127 4282135338
0.70189184 -0.021562666 0.044072822 4281148706
0.7020427 -0.020776577 0.043925717 4281017122
0.70226634 -0.019978788 0.043709382 4281082915
0.70256281 -0.019168515 0.043423817 4280361243
0.70278645 -0.018367354 0.043207452 4280691489
0.70315576 -0.017541751 0.042852625 4280429087
0.70323384 -0.016760372 0.042774662 4280165915
0.70374882 -0.015906692 0.042281345 4280297501
0.70281631 -0.042196155 0.044350788 4280758311
0.70260274 -0.041439064 0.044548869 4280626214
0.70253503 -0.040676177 0.044609085 4281085744
0.70246732 -0.039913807 0.044669315 4280821802
0.70232671 -0.03915615 0.044798478 4281150765
0.7023319 -0.038390622 0.044789776 4281019179
0.70226419 -0.037629809 0.044850022 4280558881
0.70212358 -0.036874481 0.0449792 4282797381
0.70205581 -0.036114961 0.04503946 4280297249
0.70206106 -0.035350472 0.045030773 4280692772
0.70199329 -0.034591727 0.045091048 4280495393
0.70192558 -0.033833504 0.045151308 4280758050
0.70193076 -0.033069532 0.045142636 4280822048
0.70193601 -0.032305561 0.045133948 4281282602
0.70194119 -0.03154159 0.045125261 4281678382
0.70194638 -0.030777616 0.045116588 4280757280
0.70202458 -0.030006343 0.045038939 4281285411
0.70195681 -0.029249672 0.045099229 4283978538
0.70196199 -0.0284857 0.045090541 4290488151
0.70196724 -0.027721727 0.045081869 4290488151
0.70204538 -0.026949417 0.045004204 4289763896
0.70205057 -0.026185188 0.044995531 4288908578
0.70205581 -0.025420956 0.044986844 4288775720
0.702061 -0.024656724 0.044978157 4287788852
0.70221215 -0.023873745 0.04483147 4287657266
0.7022903 -0.023099359 0.04475379 4285815846
0.70244145 -0.022314571 0.044607118 4280884493
0.70251966 -0.021538887 0.044529408 4280887071
0.70274377 -0.020741871 0.044313684 4281083165
0.70296794 -0.019943301 0.044097945 4281017372
0.70319206 -0.019143172 0.043882206 4281016859
0.70341623 -0.018341489 0.043666437 4281017370
0.70371336 -0.017526805 0.043381616 4280623895
0.7040835 -0.016698349 0.043027773 4280558102
0.70408875 -0.015927121 0.043019012 4280296729
0.70351869 -0.042183198 0.044740841 4280693290
0.70352393 -0.04141508 0.044732109 4280430116
0.70330989 -0.040657993 0.044929549 4280627497
0.70324206 -0.039894588 0.044989586 4280560421
0.70317423 -0.039131701 0.045049593 4280954661
0.70303321 -0.038373787 0.045178339 4280691489
0.70289224 -0.037616909 0.04530713 4280296477
0.70282435 -0.036856096 0.045367181 4281745208
0.70275652 -0.036095802 0.045427218 4280034590
0.70283484 -0.035325043 0.045349777 4280298532
0.70276695 -0.034565266 0.045409814 4280298532
0.70277214 -0.033799998 0.045401126 4280494880
0.70277739 -0.033034727 0.045392424 4280624926
0.7027095 -0.032275986 0.045452476 4281348392
0.70271468 -0.031510979 0.045443788 4281282599
0.70271993 -0.030745972 0.045435101 4280427286
0.70272511 -0.029980961 0.045426399 4281544990
0.70280343 -0.029208394 0.045348957 4284635431
0.70273554 -0.028450947 0.045409024 4290620741
0.70281386 -0.027677856 0.045331553 4290225983
0.70281911 -0.026912589 0.045322865 4291804224
0.70289743 -0.026138727 0.045245394 4291080753
0.70290262 -0.0253732 0.045236692 4291935810
0.7029078 -0.024607673 0.045228004 4292328542
0.70298618 -0.023832768 0.045150504 4292328542
0.7030645 -0.023057349 0.045073003 4289368640
0.70321602 -0.02227152 0.044926703 4282594848
0.7032944 -0.0214948 0.044849187 4280952860
0.70351899 -0.020696744 0.044634059 4281148956
0.7036705 -0.019907806 0.04448773 4281083163
0.70374882 -0.019128758 0.044410184 4280950804
0.70404667 -0.018315621 0.044126213 4281017111
0.70441759 -0.017488968 0.043773398 4280821274
0.7045151 -0.042157598 0.044857994 4280562217
0.70437384 -0.041394502 0.044986308 4280101927
0.70423257 -0.040632442 0.045114607 4280233513
0.70401806 -0.039875358 0.045311466 4280496422
0.70387679 -0.039115634 0.045439795 4280628008
0.70380878 -0.038352489 0.045499593 4280364577
0.70374072 -0.037589863 0.045559436 4280823591
0.70367271 -0.036827758 0.045619249 4280758311
0.70360464 -0.036066167 0.045679078 4280298279
0.70353663 -0.035305098 0.045738906 4280364072
0.70346856 -0.034544542 0.045798764 4280429867
0.70340055 -0.033784505 0.045858607 4280495139
0.70355231 -0.033006184 0.045712784 4280559133
0.70355749 -0.032239877 0.045704082 4281149728
0.70356274 -0.031473577 0.045695379 4281149728
0.70356798 -0.030707275 0.045686662 4281148956
0.70357317 -0.02994097 0.04567796 4281149462
0.70365167 -0.029167103 0.045600697 4286543963
0.70365691 -0.028400538 0.04559198 4290886279
0.7036621 -0.027633978 0.045583263 4289965177
0.70359409 -0.026875755 0.045643136 4290622303
0.70359927 -0.026109451 0.045634419 4291278925
0.70367777 -0.025334291 0.045557141 4291343684
0.70368302 -0.024567727 0.045548424 4292001353
0.70376152 -0.023791788 0.045471117 4291803974
0.70384002 -0.023015326 0.045393825 4287657239
0.70399189 -0.022228461 0.045247898 4282331924
0.70407039 -0.021450706 0.04517059 4280888094
0.7042222 -0.020662021 0.045024648 4280953884
0.70437402 -0.0198723 0.044878706 4280822298
0.70430601 -0.019114334 0.044938579 4281019159
0.70489764 -0.01825618 0.044380963 4280887573
0.70537221 -0.041367073 0.045105845 4280101927
0.70515722 -0.040606882 0.045302063 4280167722
0.70486879 -0.039852187 0.045566633 4280627757
0.70480061 -0.039086968 0.045626208 4280759343
0.70458561 -0.038331185 0.045822471 4280364325
0.70459086 -0.03756281 0.045813739 4280955179
0.70444924 -0.036804385 0.045941696 4281218349
0.70445448 -0.036036525 0.045932963 4280628010
0.70438629 -0.035274155 0.045992583 4280693803
0.70431805 -0.034512307 0.046052203 4280561453
0.70432329 -0.033744968 0.046043471 4280758313
0.70432854 -0.032977626 0.046034753 4280426785
0.70433378 -0.032210287 0.046026036 4280886817
0.70441246 -0.03143616 0.045948967 4280952610
0.70449108 -0.030661518 0.045871899 4281280542
0.70449632 -0.029893659 0.045863166 4281806625
0.70450157 -0.0291258 0.045854449 4288650380
0.70450675 -0.028357944 0.045845717 4291350457
0.704512 -0.027590087 0.045837 4291416250
0.70451725 -0.026822228 0.045828268 4292468168
0.70452249 -0.026054371 0.045819551 4291611828
0.70452774 -0.025286512 0.045810819 4292400313
0.70460641 -0.024509532 0.045733705 4292202925
0.70461166 -0.023741413 0.045724973 4292071339
0.70469034 -0.022963662 0.045647845 4287991919
0.70476902 -0.022185391 0.045570716 4281216284
0.70477426 -0.021416755 0.045561984 4280822048
0.70492643 -0.020627292 0.045416445 4280822046
0.70478475 -0.019879483 0.04554452 4280953632
0.70545113 -0.019012455 0.044920117 4280888346
0.70666182 -0.04210002 0.044964537 4280627759
0.70637286 -0.041339628 0.045228228 4279905320
0.70608377 -0.040581308 0.045491949 4280695347
0.7058683 -0.039821118 0.045687541 4280563248
0.70572639 -0.03905829 0.045815051 4280760627
0.70551091 -0.038300954 0.046010673 4280366122
0.70544255 -0.037535742 0.046070069 4280758832
0.70530069 -0.036776021 0.046197593 4280890416
0.70530593 -0.036006864 0.046188846 4280562478
0.70523751 -0.035243206 0.046248257 4280562478
0.70524275 -0.034474313 0.046239525 4281088308
0.705248 -0.033705421 0.046230793 4280297249
0.70525324 -0.032936521 0.046222046 4280492578
0.70525849 -0.032167628 0.046213314 4280624164
0.70526373 -0.031398736 0.046204582 4280887336
0.70534259 -0.030622791 0.046127677 4281479208
0.70534784 -0.029853638 0.04611893 4281741863
0.70535308 -0.029084483 0.046110198 4289637788
0.70535833 -0.028315332 0.046101451 4291614145
0.70536357 -0.027546179 0.046092719 4292140489
0.70536876 -0.026777023 0.046083972 4291811524
0.705374 -0.026007872 0.04607524 4291809984
0.70537925 -0.025238719 0.046066493 4292072383
0.70538449 -0.024469566 0.046057761 4291677625
0.70546335 -0.023691034 0.045980841 4291546039
0.70539498 -0.022931257 0.046040282 4286940525
0.70562112 -0.022132415 0.045826957 4281216032
0.70562637 -0.021362484 0.04581821 4280821796
0.70548433 -0.020613385 0.045945868 4280822051
0.70766544 -0.042074364 0.045090556 4280759345
0.7074495 -0.041308742 0.045285493 4280497457
0.70715982 -0.040548354 0.045548379 4280694834
0.70687008 -0.039790042 0.045811296 4281023282
0.70665419 -0.039029598 0.046006277 4281089075
0.70651191 -0.038266249 0.046133369 4280826673
0.7063697 -0.037503943 0.046260476 4280957236
0.70622742 -0.036742672 0.046387598 4281154615
0.70615894 -0.0359772 0.046446756 4280431915
0.70616424 -0.03520675 0.046438009 4280826673
0.70616949 -0.0344363 0.046429247 4280694315
0.70617473 -0.033665851 0.0464205 4280560932
0.70617998 -0.032895401 0.046411738 4280165663
0.70618522 -0.032124951 0.046402991 4280428835
0.70619047 -0.031354509 0.046394229 4280626214
0.70626944 -0.03057701 0.046317533 4281086765
0.70627469 -0.029806303 0.046308771 4281349686
0.70627999 -0.029035594 0.046300009 4290099884
0.70628524 -0.028264886 0.046291262 4291877830
0.70629048 -0.027494179 0.0462825 4291877830
0.70629573 -0.026723471 0.046273738 4291811524
0.70630097 -0.025952764 0.046264991 4291942340
0.70623243 -0.025190916 0.046324193 4291744961
0.70631146 -0.024411349 0.046247467 4291481789
0.7063905 -0.023631258 0.046170712 4291415996
0.70632195 -0.022869933 0.046229959 4283190844
0.7063272 -0.022099227 0.046221197 4282005552
0.70618492 -0.02134883 0.046348423 4280887844
0.70874518 -0.04204553 0.045151651 4280823853
0.7088244 -0.041264147 0.045075104 4280496687
0.70816457 -0.040519066 0.045675755 4281417526
0.70787418 -0.039758943 0.045937836 4281088300
0.70773166 -0.038992491 0.046064496 4281154093
0.70744133 -0.038235992 0.046326593 4281088813
0.70737267 -0.037467416 0.046385556 4281154354
0.70715618 -0.036709309 0.046579972 4283456856
0.70708752 -0.035942286 0.046638951 4280561704
0.70709282 -0.035170279 0.046630189 4280824876
0.70702416 -0.034404032 0.046689153 4280365090
0.7070294 -0.033632286 0.046680376 4280232737
0.70703471 -0.03286054 0.046671614 4280100383
0.70703995 -0.032088798 0.046662837 4280297760
0.7070452 -0.031317055 0.046654075 4280955690
0.70719832 -0.030531211 0.046509773 4280758311
0.70720357 -0.029758949 0.046500996 4282205510
0.70720881 -0.028986685 0.046492219 4290166447
0.70721412 -0.028214423 0.046483442 4292009416
0.70721936 -0.027442161 0.046474665 4291877830
0.70722461 -0.026669899 0.046465889 4291483072
0.70722985 -0.025897639 0.046457127 4292074696
0.70716119 -0.025134241 0.04651615 4291679168
0.7072404 -0.024353115 0.046439573 4291481789
0.70724565 -0.023580853 0.046430796 4291415996
0.70717698 -0.022818232 0.046489835 4282401335
0.70710832 -0.022056127 0.046548843 4281873966
0.71026659 -0.042779274 0.044819787 4282598215
0.70990157 -0.042013511 0.045148477 4281216809
0.70953655 -0.041250341 0.045477226 4280889646
0.70924562 -0.040486075 0.045738429 4281153071
0.70895463 -0.039723888 0.045999676 4281021224
0.70873773 -0.038959563 0.046193436 4281350189
0.70844674 -0.038201258 0.046454728 4281086247
0.70830387 -0.037435587 0.046580985 4281021485
0.70823509 -0.036665972 0.04663974 4283851105
0.70809221 -0.035902113 0.046765998 4280493858
0.70802343 -0.035133794 0.046824753 4280493858
0.70802867 -0.034360237 0.046815962 4280429600
0.70803392 -0.033586681 0.04680717 4280298784
0.70803922 -0.032813124 0.046798378 4279904285
0.70804447 -0.032039568 0.046789587 4280166944
0.70804977 -0.031266011 0.046780795 4280561702
0.70805502 -0.030492453 0.046772003 4281022507
0.70813441 -0.02971158 0.04669565 4281941302
0.70813966 -0.028937764 0.046686858 4290628535
0.7081449 -0.028163947 0.046678066 4291154879
0.70815021 -0.027390132 0.046669275 4286941302
0.70815551 -0.026616314 0.046660483 4291613629
0.70816076 -0.025842501 0.046651691 4291285182
0.708166 -0.025068684 0.0466429 4291417281
0.70817131 -0.024294866 0.046634108 4291548867
0.70802838 -0.023539817 0.04676047 4291548613
0.70803362 -0.022766517 0.046751693 4281216554
0.71164405 -0.043525532 0.044628277 4283453272
0.71120405 -0.042758279 0.045023203 4282598215
0.71083826 -0.041990973 0.045350879 4281217579
0.71054667 -0.041222826 0.045611247 4281085742
0.71018082 -0.040460438 0.045938984 4281086765
0.71003771 -0.039688811 0.046064779 4281086765
0.70982027 -0.038922422 0.046257883 4281350187
0.70952868 -0.038162049 0.046518356 4281282597
0.70938551 -0.037394304 0.046644196 4281348914
0.70916808 -0.036632579 0.04683736 4282271819
0.70902491 -0.035867169 0.046963215 4280296477
0.70903015 -0.035091795 0.046954408 4280296477
0.70896125 -0.03432218 0.047012925 4280429087
0.70896649 -0.03354707 0.047004119 4280298014
0.7089718 -0.03277196 0.046995312 4280297760
0.70897704 -0.031996846 0.046986505 4280429346
0.70898235 -0.031221736 0.046977699 4280429348
0.70906186 -0.030439571 0.046901554 4281153069
0.70906711 -0.0296642 0.046892732 4281875763
0.70907241 -0.028888829 0.046883926 4290628533
0.70907772 -0.028113458 0.046875119 4291418049
0.70908296 -0.027338088 0.046866313 4288454284
0.70908827 -0.026562717 0.046857491 4290427558
0.7090193 -0.025795953 0.046916053 4286678132
0.70909882 -0.025011975 0.046839878 4291812809
0.70895559 -0.024254857 0.046965823 4290957500
0.70910943 -0.023461234 0.04682225 4291285441
0.7090404 -0.022695504 0.046880826 4281281062
0.71435344 -0.045819893 0.043251798 4293654008
0.71376383 -0.045044474 0.043779597 4294770686
0.71332294 -0.044268422 0.044173226 4287924884
0.7128076 -0.043498129 0.044634014 4283911511
0.7123667 -0.042728551 0.045027703 4282137662
0.71192569 -0.04196208 0.045421451 4281481521
0.71155906 -0.041195296 0.0457481 4280758311
0.71126682 -0.040427413 0.046007693 4280693290
0.71104896 -0.03965766 0.046200171 4280693290
0.71083111 -0.03888946 0.046392679 4280758311
0.71061325 -0.038122818 0.046585187 4281545771
0.71039534 -0.037357725 0.04677771 4281677103
0.71017742 -0.03659419 0.046970278 4280693037
0.71010834 -0.035821728 0.047028571 4279903521
0.71011364 -0.035044283 0.047019735 4280363553
0.7100445 -0.034272596 0.047078043 4280034840
0.71004981 -0.033495415 0.047069222 4279903256
0.70998073 -0.032724507 0.047127515 4280429348
0.70998597 -0.031947583 0.047118694 4280692520
0.70999128 -0.031170659 0.047109857 4280626214
0.70999658 -0.030393733 0.047101036 4281349167
0.71007627 -0.029609494 0.047025055 4280955690
0.71008158 -0.028832309 0.047016233 4290956728
0.71008688 -0.028055124 0.047007397 4291680451
0.71009219 -0.027277941 0.04699856 4287204474
0.71009743 -0.026500756 0.046989739 4289770146
0.71010274 -0.025723575 0.046980903 4291151797
0.71010804 -0.024946388 0.046972081 4287337602
0.70996451 -0.024187457 0.047097608 4287271809
0.70996976 -0.023410788 0.047088787 4289509800
0.70967734 -0.022672703 0.047348678 4281543985
0.71802711 -0.0087320209 0.039744899 4278718217
0.71810699 -0.0079135895 0.03966853 4278915078
0.71826148 -0.007080324 0.039524928 4279832333
0.71574157 -0.046589389 0.043073818 4285628029
0.71529973 -0.045805056 0.043466151 4287138452
0.71485788 -0.045023829 0.043858513 4294440694
0.71441603 -0.044245709 0.04425092 4292927455
0.71397412 -0.043470699 0.044643357 4283516753
0.71353221 -0.042698797 0.045035824 4281875511
0.71316481 -0.041926835 0.045361429 4281284142
0.71287197 -0.041154034 0.045620143 4280825387
0.71250451 -0.040386997 0.045945808 4280628010
0.71221161 -0.0396186 0.046204552 4280496424
0.71199328 -0.038848076 0.046396449 4280299045
0.71170038 -0.038083568 0.046655253 4280823845
0.71148199 -0.037316404 0.04684715 4281086245
0.71133822 -0.036545821 0.046972156 4280560932
0.71126896 -0.035771027 0.04703021 4280363553
0.71112514 -0.035002254 0.047155216 4280825128
0.71113044 -0.034222998 0.047146365 4280758048
0.71106118 -0.033449758 0.04720448 4280822301
0.71106648 -0.032670759 0.047195628 4281018653
0.71099722 -0.031898297 0.047253713 4281216032
0.71100253 -0.031119561 0.047244862 4281281827
0.7110824 -0.030333769 0.04716906 4281676333
0.7110877 -0.029554771 0.047160208 4281678132
0.71109301 -0.028775772 0.047151357 4291744193
0.71109831 -0.027996775 0.047142506 4292073158
0.71110362 -0.027217777 0.047133654 4291810754
0.71103436 -0.026447127 0.047191769 4291941570
0.71111423 -0.025659783 0.047115952 4292073156
0.71111953 -0.024880785 0.0471071 4291481791
0.71105027 -0.024110911 0.047165215 4291350205
0.71098101 -0.023341557 0.047223344 4285560167
0.71829879 -0.010376953 0.040589228 4279176201
0.71837884 -0.0095598176 0.040513083 4279176201
0.71853358 -0.0087283701 0.040369883 4279177226
0.71868831 -0.0078958869 0.040226668 4279440395
0.71861917 -0.0071052946 0.040284574 4282337084
0.71750158 -0.048158277 0.042576388 4280298031
0.71713352 -0.047365077 0.042900741 4287667612
0.71669078 -0.046576086 0.043291822 4287667097
0.7163974 -0.045786452 0.043549523 4286808456
0.71595454 -0.045003161 0.043940663 4293716454
0.71551168 -0.044222977 0.044331849 4290558390
0.71514356 -0.043443248 0.044656336 4283516492
0.7147007 -0.042669021 0.045047566 4281546544
0.71433246 -0.041894734 0.045372143 4281284655
0.71403897 -0.041119609 0.045630023 4280759594
0.71367073 -0.040350243 0.045954645 4280628008
0.71337724 -0.039579522 0.046212569 4280364836
0.71315843 -0.038806666 0.046403825 4280167459
0.71293962 -0.03803537 0.046595067 4281021224
0.71272075 -0.037265621 0.046786338 4281020452
0.71257663 -0.036492445 0.046910897 4280495139
0.7124325 -0.035720304 0.047035471 4280429346
0.71221364 -0.034954704 0.047226816 4280825128
0.71221894 -0.034173373 0.047217935 4280888864
0.71222425 -0.033392046 0.047209054 4280953884
0.71208012 -0.032623269 0.047333643 4280888091
0.71208549 -0.031842459 0.047324777 4281085470
0.71201605 -0.031068448 0.047382653 4281348388
0.7120961 -0.03028084 0.047307029 4281544236
0.71210146 -0.029500026 0.047298148 4283650125
0.71203196 -0.028726792 0.047356054 4292270278
0.71203732 -0.027946239 0.047347173 4292467657
0.71204263 -0.027165687 0.047338307 4291876801
0.71204793 -0.026385134 0.047329441 4292204996
0.7120533 -0.025604585 0.047320575 4292007617
0.71213335 -0.024815161 0.047244921 4291350973
0.71213865 -0.024034349 0.047236055 4291087801
0.71236825 -0.023225375 0.047026843 4284111951
0.71856946 -0.012018792 0.041432336 4278716426
0.71872449 -0.011189934 0.041289568 4278978569
0.71887952 -0.01036004 0.0411468 4279307274
0.718885 -0.0095561743 0.041137666 4279241481
0.71896529 -0.008738514 0.041061714 4279702543
0.71904552 -0.007920336 0.040985718 4280428315
0.71920061 -0.0070873238 0.040842921 4282666049
0.71896762 -0.049747061 0.042351902 4279179800
0.71852386 -0.04894875 0.042741686 4280099884
