# .PCD v0.7 - Point Cloud Data file format
VERSION 0.7
FIELDS x y z rgb
SIZE 4 4 4 4
TYPE F F F U
COUNT 1 1 1 1
WIDTH 1024
HEIGHT 1
VIEWPOINT 0 0 0 1 0 0 0
POINTS 1024
DATA ascii
0.74823725 -0.026812628 0.045262486 4279774496
0.74789792 -0.027526096 0.045409516 4279577117
0.74755919 -0.028238729 0.045556501 4279246869
0.74728066 -0.028994769 0.045770869 4281153071
0.74694335 -0.029705524 0.045917824 4280825389
0.74660659 -0.030415431 0.046064779 4281350702
0.74627054 -0.031124517 0.046211705 4280429600
0.74599516 -0.031876177 0.046425983 4280691487
0.74572074 -0.032626569 0.046640217 4279573778
0.74544728 -0.03337571 0.046854451 4280100120
0.74505341 -0.034038037 0.046933934 4280165913
0.7446599 -0.034699962 0.047013447 4280100120
0.74438858 -0.035446197 0.047227606 4280430368
0.74405706 -0.036149003 0.047374412 4280825128
0.74360371 -0.036767095 0.047386557 4281349937
0.74321175 -0.037426919 0.04746601 4280954926
0.7428816 -0.038127854 0.047612771 4280823340
0.74242866 -0.038745321 0.047624886 4280494628
0.74209952 -0.039445013 0.047771633 4281350189
0.7415849 -0.040021159 0.047716439 4281284646
0.74119431 -0.040679112 0.047795862 4280889370
0.74074173 -0.041296162 0.047807977 4281152542
0.74016416 -0.041832648 0.047685474 4280824347
0.7379247 -0.043130018 0.046779856 4280758311
0.73715425 -0.043553218 0.046455637 4281874233
0.73650879 -0.044056967 0.046266004 4282729797
0.73586237 -0.044561982 0.046076402 4285887356
0.73521507 -0.045068234 0.045886815 4283061589
0.74903178 -0.022524178 0.04452911 4281482804
0.7489813 -0.02347289 0.045011848 4281090356
0.74875665 -0.024281919 0.045292914 4281023799
0.74829763 -0.024907738 0.045305207 4281088058
0.74801576 -0.025669098 0.045519054 4279772962
0.74761641 -0.026339248 0.045598507 4279313434
0.74733615 -0.027098522 0.045812339 4279313434
0.74699724 -0.027811959 0.045958921 4279312664
0.74665892 -0.028524593 0.046105519 4280955179
0.74638104 -0.029280499 0.046319261 4280626214
0.74604416 -0.029991254 0.046465829 4280822051
0.74570781 -0.030701146 0.046612337 4280690465
0.74537212 -0.031410217 0.04675886 4280690462
0.74509746 -0.032161757 0.046972528 4280099352
0.74482375 -0.032912031 0.047186151 4280363290
0.74436867 -0.033532426 0.047198325 4280429850
0.74403548 -0.034238145 0.047344789 4280561436
0.74364173 -0.034900576 0.047424093 4280694051
0.74330962 -0.035604835 0.047570512 4280561954
0.7429167 -0.03626623 0.047649801 4281349937
0.74252403 -0.036927208 0.047729075 4281481523
0.74213171 -0.037587754 0.047808319 4281547316
0.74167794 -0.038206473 0.047820464 4281218349
0.7412861 -0.038866408 0.047899723 4281021224
0.74070817 -0.039402924 0.047777668 4281415978
0.74031645 -0.040062636 0.047856897 4281218081
0.73980021 -0.040640779 0.047801957 4281481253
0.73915851 -0.041138589 0.047612831 4280890140
0.73857856 -0.041677825 0.047490805 4280956192
0.73818672 -0.042337745 0.04757005 4280758565
0.73754299 -0.042838283 0.047380969 4280824358
0.73632962 -0.042984247 0.046588227 4281742898
0.73555595 -0.04341051 0.046265066 4282136635
0.73503482 -0.043995343 0.046210244 4284374115
0.74818468 -0.022856921 0.045150027 4282470728
0.74795949 -0.023667797 0.045430318 4283062865
0.7477355 -0.024477005 0.045710608 4282270016
0.74739444 -0.025194019 0.045856878 4279706393
0.74705392 -0.025910169 0.046003133 4279640600
0.74671406 -0.026625499 0.046149358 4279509014
0.74637479 -0.02733998 0.046295583 4280364325
0.7460959 -0.028098077 0.046508744 4280297762
0.74569809 -0.028766453 0.046587959 4280295709
0.74542075 -0.029522449 0.04680109 4280690208
0.74514437 -0.030277207 0.047014207 4280756001
0.74474806 -0.030943498 0.047093391 4281282854
0.74447316 -0.031696156 0.047306448 4281086245
0.74407774 -0.03236118 0.047385588 4281217831
0.74368268 -0.033025816 0.047464728 4281021220
0.74328792 -0.033690006 0.047543854 4280823841
0.74295461 -0.034396365 0.04768993 4280627999
0.74256057 -0.035059527 0.047769055 4280954909
0.74222833 -0.035764381 0.047915056 4281611817
0.74177343 -0.036384568 0.047927231 4281547566
0.74131858 -0.037004746 0.047939405 4281415980
0.74092561 -0.037666447 0.0480185 4282203699
0.74047089 -0.038286425 0.04803066 4281677612
0.73989165 -0.038824208 0.047909021 4281087015
0.73949897 -0.039485477 0.047988087 4280955427
0.73885643 -0.03998363 0.047799587 4281218599
0.73827565 -0.040523492 0.047677979 4280758815
0.73763138 -0.041023947 0.047489524 4280693538
0.73692322 -0.041485593 0.047234192 4280890149
0.73615056 -0.041909069 0.046912014 4280758563
0.73556644 -0.042453542 0.046790496 4281281829
0.73479128 -0.042880565 0.046468392 4280952612
0.73414177 -0.043388106 0.046280056 4282466372
0.74699515 -0.023908943 0.045916855 4282139705
0.74677205 -0.024718121 0.046196312 4280626716
0.74643117 -0.025435314 0.046342179 4280495130
0.74621016 -0.026241586 0.046621576 4280428315
0.74587089 -0.026956692 0.046767399 4280691489
0.74553216 -0.027670965 0.046913207 4280625442
0.74519408 -0.028384402 0.047059 4280099352
0.7448566 -0.029096991 0.047204748 4280625696
0.74458009 -0.029852659 0.047417268 4281217833
0.74418342 -0.030519664 0.047496244 4281481003
0.74384785 -0.031229764 0.047641978 4281415210
0.74345195 -0.031895742 0.047720954 4281348647
0.74311733 -0.032604352 0.047866628 4281151520
0.74266106 -0.033226416 0.047878847 4281085727
0.74226612 -0.033891141 0.047957793 4284640600
0.74187148 -0.034555435 0.048036724 4287600772
0.74147713 -0.035219327 0.048115641 4285691237
0.74102134 -0.035840765 0.04812783 4281939755
0.74056554 -0.036462195 0.048140034 4281808169
0.74004763 -0.037042014 0.048085526 4282268720
0.73959166 -0.037663653 0.04809773 4282070830
0.73907328 -0.038244113 0.048043221 4281544997
0.73861718 -0.038865969 0.048055425 4281544997
0.73803568 -0.03940627 0.047934234 4281480231
0.73739076 -0.03990683 0.04774639 4280758302
0.73674488 -0.040408649 0.047558561 4280561182
0.73603493 -0.04087159 0.047304079 4280824358
0.73538709 -0.041376114 0.047116295 4280692772
0.73473829 -0.041881911 0.04692854 4281019684
0.73396134 -0.04230991 0.046607479 4280821794
0.73343796 -0.042897247 0.046553105 4281347637
0.74576557 -0.025902346 0.047161162 4281085727
0.74524665 -0.026483327 0.047106877 4281021737
0.74502766 -0.0272879 0.047385424 4281153321
0.74468958 -0.028001934 0.04753083 4281153321
0.74441236 -0.028759375 0.047742754 4280824356
0.74395454 -0.029383525 0.047755003 4281021735
0.74355745 -0.03005147 0.0478338 4281020450
0.74322146 -0.030762583 0.047979131 4281677614
0.74288607 -0.031472862 0.048124447 4283914574
0.74249017 -0.032139152 0.04820323 4287732619
0.7420333 -0.032762051 0.048215449 4288456342
0.74163783 -0.033427715 0.048294201 4286812802
0.74118108 -0.03405039 0.04830642 4286418558
0.74072433 -0.03467308 0.048318639 4288718485
0.74026763 -0.03529577 0.048330873 4283455045
0.73981088 -0.035918459 0.048343092 4281807908
0.73929197 -0.036499433 0.048288807 4282005287
0.73877275 -0.037080824 0.048234522 4285032028
0.73812819 -0.037580065 0.048047259 4280952347
0.7377333 -0.038244873 0.048125997 4281610277
0.73708749 -0.038745783 0.047938749 4281085722
0.73650378 -0.039288603 0.047818035 4281415712
0.73591942 -0.039832249 0.047697321 4280954911
0.73520792 -0.040296242 0.047443673 4280624672
0.73455858 -0.040801942 0.047256529 4280558879
0.73390836 -0.04130891 0.047069415 4280558879
0.73325717 -0.041817121 0.046882316 4280230686
0.73279679 -0.042444825 0.04689464 4280427044
0.68302447 -0.071081966 0.027093142 4284903541
0.6824435 -0.071747556 0.027040526 4283982687
0.68178898 -0.072386861 0.02692169 4281616702
0.68135399 -0.073106416 0.0270015 4282077770
0.74446249 -0.026859701 0.047792092 4281088559
0.74412417 -0.027574569 0.047937095 4281154604
0.74384695 -0.028332919 0.048148453 4281154604
0.74351001 -0.029045925 0.048293427 4280825126
0.7431128 -0.029714167 0.048372 4288720284
0.74265498 -0.030338317 0.048384249 4287209105
0.74231941 -0.03104943 0.048529193 4286880912
0.74186194 -0.031673163 0.048541427 4286551947
0.74146581 -0.032339945 0.04862 4287603604
0.74100852 -0.03296347 0.048632234 4285100390
0.74055111 -0.033586994 0.048644468 4284242512
0.74009383 -0.034210518 0.048656717 4285296222
0.73963642 -0.034834042 0.048668951 4285888359
0.73905474 -0.035373539 0.048548564 4284440913
0.73853475 -0.035955682 0.048494503 4282004771
0.73801446 -0.036538236 0.048440471 4283447590
0.73743129 -0.037079804 0.04832013 4290159746
0.7368474 -0.037622221 0.048199788 4288449128
0.73626292 -0.038165472 0.048079491 4283515178
0.73567784 -0.038709559 0.047959194 4281938726
0.73515546 -0.03929504 0.047905222 4281545769
0.73450589 -0.039800227 0.047718659 4281151268
0.73391896 -0.040346816 0.047598407 4280822303
0.73326772 -0.040854327 0.047411919 4280361754
0.73267943 -0.041402787 0.047291726 4280559133
0.71454179 -0.046478294 0.03724122 4284248171
0.71385735 -0.047031134 0.037055627 4284050792
0.71303838 -0.047513708 0.03673768 4283788392
0.71208405 -0.04792729 0.036287412 4283722860
0.68362129 -0.071136951 0.028688326 4284507500
0.68304229 -0.071799502 0.028635859 4282008897
0.68253642 -0.072489247 0.028649405 4281351994
0.68195701 -0.073152423 0.028596923 4280761662
0.74309886 -0.02777265 0.048356891 4281154093
0.74288279 -0.028575495 0.048633769 4281021735
0.74248511 -0.029244676 0.048712179 4289903788
0.74208778 -0.029913455 0.048790589 4287406225
0.74162954 -0.030538231 0.048802853 4288457891
0.74129403 -0.031249762 0.048947394 4287207824
0.74083608 -0.03187412 0.048959643 4283849553
0.74025476 -0.032412574 0.048839644 4283584834
0.73979646 -0.03303735 0.048851907 4286217581
0.73927617 -0.033619583 0.04879804 4286218349
0.73881781 -0.034244567 0.048810303 4285823591
0.73823476 -0.03478533 0.048690349 4289703835
0.73765111 -0.035326913 0.048570424 4286673492
0.73712945 -0.035911053 0.048516616 4288774970
0.73654473 -0.036454089 0.048396721 4293578625
0.73602235 -0.037039265 0.048342928 4290354768
0.73549962 -0.037624851 0.048289135 4283247883
0.73485017 -0.038129136 0.048103198 4282136105
0.73432648 -0.038715973 0.04804942 4281217829
0.73373902 -0.039262801 0.0479296 4281020450
0.73321462 -0.039850667 0.047875866 4280757278
0.73256224 -0.040358923 0.047689989 4280559129
0.73197293 -0.040908247 0.047570214 4280624667
0.71420193 -0.046203874 0.037947401 4284181865
0.71345049 -0.046720147 0.037696406 4284116072
0.71283162 -0.047309771 0.037577406 4284181865
0.71194386 -0.047757693 0.037194535 4283853931
0.71105433 -0.048208103 0.036811695 4284314995
0.68573254 -0.069134854 0.030237421 4282734169
0.68515605 -0.069793776 0.030185089 4283653476
0.68457925 -0.0704531 0.030132756 4282140237
0.68407536 -0.071140125 0.030146241 4284836465
0.68349808 -0.071800068 0.030093893 4282009410
0.68292052 -0.072460428 0.030041575 4281746240
0.6825636 -0.073201202 0.030186683 4280892478
0.74213272 -0.028015688 0.048843861 4281219886
0.74167323 -0.028642133 0.048856154 4283449664
0.74145859 -0.029444128 0.049132213 4283975495
0.7409997 -0.030069739 0.049144492 4284438095
0.74054086 -0.030695349 0.04915677 4284372302
0.74008197 -0.031320959 0.049169049 4286677621
0.73962307 -0.031946585 0.049181327 4288387721
0.73897827 -0.032443687 0.048995852 4284439108
0.73845679 -0.033027261 0.048942223 4286870850
0.73793507 -0.033611298 0.048888609 4288318296
0.73735052 -0.034153536 0.048769102 4292265831
0.73682797 -0.0347386 0.048715487 4292722997
0.73624241 -0.035282299 0.048596025 4294362671
0.73571908 -0.035868421 0.048542455 4294691638
0.73519552 -0.036454953 0.048488885 4294955838
0.73460835 -0.037000723 0.048369452 4288048384
0.73408395 -0.037588291 0.048315898 4283382284
0.73355931 -0.038176298 0.048262373 4281678882
0.73297065 -0.038724169 0.04814297 4281481503
0.73244518 -0.039313205 0.048089445 4281087517
0.73185545 -0.039862551 0.047970086 4281283354
0.73132926 -0.040452614 0.047916591 4280819991
0.73086703 -0.041082822 0.047928959 4280557339
0.71467954 -0.045452237 0.038969174 4284773234
0.71399581 -0.046002366 0.038784727 4284444267
0.7133112 -0.046553776 0.038600326 4284312681
0.71255857 -0.047070488 0.038350165 4284116070
0.71187192 -0.047624603 0.038165823 4283919206
0.71111703 -0.048144452 0.037915722 4284247919
0.68653506 -0.067524053 0.031072661 4284115300
0.6861046 -0.068238251 0.031151727 4283327320
0.68582016 -0.069008067 0.031362087 4283985250
0.6851716 -0.069637597 0.031244278 4284772466
0.68466878 -0.070323154 0.031257734 4282403918
0.68423921 -0.071036115 0.031336799 4283455843
0.68373656 -0.071721472 0.031350255 4282339663
0.68323386 -0.072406821 0.031363711 4281415994
0.68265736 -0.073065415 0.031311557 4282204743
0.68230236 -0.07380408 0.031456217 4282665294
0.74098194 -0.028126597 0.049134448 4282728762
0.74052167 -0.0287541 0.049146757 4283056957
0.74024588 -0.029512897 0.049356252 4288123786
0.73978609 -0.030139759 0.04936856 4288650130
0.73926449 -0.030723289 0.04931514 4282926650
0.73874259 -0.031307206 0.049261719 4283844913
0.73815829 -0.031848609 0.049142614 4288910683
0.73763561 -0.032433584 0.049089223 4292461913
0.73705024 -0.032976449 0.048970148 4292725085
0.7364642 -0.033520147 0.048851058 4292593456
0.73594034 -0.034106806 0.048797712 4293903910
0.73535329 -0.03465198 0.048678666 4294559791
0.73489165 -0.035281345 0.048691019 4294888756
0.73436683 -0.035869241 0.048637673 4294559275
0.73377836 -0.0364163 0.048518687 4294560316
0.73325276 -0.037005223 0.048465371 4287393565
0.73272693 -0.037594587 0.04841207 4282202398
0.73220074 -0.03818436 0.048358768 4282070812
0.73167419 -0.038774557 0.048305482 4281480987
0.73114741 -0.039365165 0.04825218 4281678366
0.73055601 -0.039916188 0.048133269 4280755483
0.73009288 -0.040547647 0.048145652 4280491546
0.71447408 -0.045252241 0.039804697 4284708209
0.71392417 -0.045874387 0.039752021 4284313449
0.71310586 -0.046351939 0.039437041 4284116070
0.71235323 -0.046867639 0.03918767 4284050277
0.71166664 -0.047420837 0.039003924 4283787618
0.71097916 -0.047975287 0.038820207 4284182378
0.71015555 -0.048460156 0.03850536 4284050540
0.68733644 -0.065916359 0.031906694 4284377960
0.68676126 -0.066572964 0.031854719 4284838762
0.68647647 -0.067344107 0.032064468 4284575590
0.68604684 -0.068057358 0.032143325 4284116836
0.68561763 -0.068770193 0.032222196 4284182629
0.68504238 -0.06942682 0.032170191 4284969332
0.68454015 -0.070111543 0.032183632 4281482566
0.68403792 -0.070796266 0.032197073 4283916907
0.6835357 -0.071480997 0.032210514 4282538071
0.68318093 -0.072219849 0.032354772 4281219385
0.68282682 -0.072957858 0.032498986 4282204995
0.68232524 -0.073641755 0.032512411 4283521368
0.68182361 -0.074325651 0.032525837 4283389782
0.73982829 -0.028238609 0.049427092 4284635974
0.73955214 -0.028998777 0.049636006 4287329616
0.73896801 -0.029539347 0.049517289 4284829482
0.73850715 -0.030167669 0.049529612 4291869819
0.73792213 -0.030709505 0.049410909 4291872093
0.73733652 -0.031252176 0.049292222 4292069452
0.73681265 -0.031838521 0.049239069 4292197177
0.73616338 -0.03234005 0.049054906 4290289180
0.73563856 -0.032927617 0.049001783 4288905984
0.7351135 -0.033515632 0.04894866 4291538444
0.73452508 -0.034062073 0.048830032 4294496299
0.73393607 -0.034609333 0.048711449 4294364713
0.73353636 -0.035282165 0.048789307 4294362648
0.73294657 -0.035830468 0.048670739 4294954268
0.73241979 -0.036420785 0.048617661 4294955853
0.7318927 -0.037011519 0.048564598 4285945117
0.73136532 -0.037602633 0.04851152 4283313408
0.73090172 -0.038234726 0.048523918 4282397467
0.73043811 -0.038866818 0.04853633 4281677605
0.72991008 -0.039458796 0.048483297 4280889638
0.72938174 -0.040051185 0.048430249 4279769106
0.71420258 -0.045016065 0.040573627 4284512374
0.71371984 -0.045674264 0.040586546 4283985767
0.71296847 -0.046187058 0.040337935 4283919974
0.7122159 -0.046701513 0.040089354 4283919974
0.71152961 -0.047253586 0.039906189 4284248171
0.71084237 -0.047806911 0.039723068 4284247919
0.71015418 -0.048361465 0.039539918 4283656556
0.68727285 -0.064850204 0.032426804 4284838513
0.68684232 -0.06556502 0.032505512 4284773232
0.68641216 -0.066279426 0.032584205 4285036404
0.68598229 -0.066993408 0.032662898 4284641646
0.68555272 -0.067706957 0.032741562 4284773230
0.68505031 -0.068391897 0.032755002 4284642418
0.68462116 -0.069104828 0.032833651 4284576888
0.68411893 -0.069789551 0.032847092 4284248693
0.68369031 -0.070501864 0.03292574 4284117107
0.68326187 -0.071213745 0.033004373 4282803042
0.68298161 -0.071979538 0.033213422 4282338375
0.6823321 -0.07260932 0.033096448 4281811001
0.6819787 -0.073346898 0.033240259 4282403138
0.68147719 -0.074030593 0.03325367 4282797896
0.73888725 -0.027545437 0.049448118 4286017086
0.73848659 -0.028219819 0.049525812 4289830221
0.73808628 -0.028893799 0.049603507 4290027600
0.73756212 -0.029480234 0.049550563 4292264273
0.73697543 -0.030023754 0.049432293 4292722997
0.73645055 -0.030611247 0.049379364 4287325184
0.73580027 -0.031113312 0.049195826 4287127808
0.73521179 -0.03165935 0.049077615 4292196667
0.73468548 -0.032248691 0.049024716 4292987465
0.73415887 -0.032838494 0.048971847 4293249865
0.73363197 -0.033428699 0.048918948 4293512493
0.73310477 -0.034019321 0.048866078 4292920356
0.73264068 -0.034652039 0.048878506 4294036761
0.73204941 -0.035201833 0.048760369 4294494736
0.73158503 -0.035834968 0.048772797 4294624785
0.73105669 -0.036427043 0.048719943 4294102875
0.73059219 -0.037060387 0.04873237 4291997499
0.73006344 -0.037653103 0.048679546 4282657280
0.72959876 -0.038286656 0.048691988 4282724647
0.72919858 -0.038960412 0.048769668 4281609511
0.72866935 -0.039553761 0.048716858 4281478954
0.71461451 -0.044233747 0.041524395 4284708992
0.71399856 -0.044817165 0.041406915 4284578683
0.71338201 -0.045401409 0.041289449 4284250740
0.71276486 -0.045986496 0.041172013 4283527017
0.71207964 -0.046536192 0.040989429 4283394411
0.71139359 -0.047087118 0.040806845 4283853683
0.71077424 -0.047675133 0.040689468 4284050292
0.70995075 -0.048157148 0.040376619 4283985267
0.68713701 -0.063753292 0.03288269 4285695106
0.68663359 -0.064439684 0.032896161 4285892485
0.68627536 -0.06518437 0.033039704 4285102967
0.68591774 -0.065928206 0.033183232 4284971894
0.68541491 -0.066613764 0.033196688 4284116585
0.68498516 -0.067327857 0.033275157 4285300859
0.68462896 -0.068069816 0.033418655 4284841080
0.68405318 -0.068726659 0.033367082 4283393643
0.6836977 -0.069467559 0.033510536 4283390815
0.68319547 -0.070152298 0.033523962 4283917159
0.68276709 -0.070864491 0.033602417 4281875778
0.68241304 -0.071603522 0.033745855 4282203196
0.68205959 -0.072341725 0.033889264 4282138683
0.6816324 -0.073052257 0.033967674 4282338377
0.68135452 -0.073815629 0.034176037 4282864721
0.68077904 -0.074472055 0.034124479 4283719519
0.73714042 -0.028202817 0.049627855 4293182517
0.7364282 -0.028660074 0.049379796 4293247274
0.73596412 -0.029292792 0.049392208 4293378601
0.73537505 -0.029839039 0.049274415 4292392481
0.73484802 -0.03042914 0.049221724 4290879242
0.73419511 -0.030934036 0.049038857 4292064044
0.73373008 -0.031568006 0.0490513 4291076899
0.73320198 -0.032159582 0.048998669 4288314624
0.73267353 -0.03275156 0.048946023 4288971776
0.73214483 -0.033343986 0.048893392 4290748174
0.73167938 -0.033978581 0.048905849 4293708581
0.73115015 -0.034571603 0.048853219 4294298125
0.73068452 -0.035206407 0.048865676 4294494221
0.73015493 -0.03580007 0.04881309 4294034996
0.72968912 -0.036435083 0.048825547 4294957897
0.72915906 -0.037029371 0.048772946 4283774720
0.72875762 -0.037705109 0.048850477 4283248928
0.72829187 -0.038340122 0.048862934 4282199847
0.72789085 -0.039015234 0.048940435 4282201648
0.71441102 -0.044036239 0.042356089 4284903543
0.7137953 -0.044618838 0.042238995 4284841593
0.7131117 -0.045165524 0.042056963 4284644728
0.71249461 -0.045749985 0.041939899 4284118384
0.71180934 -0.046298966 0.041757911 4283787888
0.71112317 -0.046849191 0.041575953 4283787120
0.71036822 -0.047364734 0.041329026 4283983986
0.68743312 -0.061937436 0.033261418 4284773232
0.68692905 -0.062624663 0.033274904 4285299576
0.68664229 -0.063400865 0.033482894 4285167990
0.68606609 -0.064058021 0.03343156 4284838511
0.68570781 -0.064803317 0.0335747 4284839025
0.68527728 -0.065518737 0.033652991 4284707439
0.68492007 -0.066262558 0.033796102 4284050277
0.68449032 -0.06697695 0.033874393 4282207303
0.6839875 -0.067662515 0.033887848 4283916394
0.68355817 -0.06837628 0.033966109 4283456358
0.68312913 -0.069089621 0.034044385 4283127393
0.68277425 -0.069830306 0.034187421 4283192153
0.68234599 -0.070542604 0.034265667 4280823603
0.68199217 -0.071281828 0.034408703 4281742902
0.68163896 -0.072020233 0.03455171 4282139453
0.68128639 -0.072757803 0.034694701 4282535243
0.6808598 -0.073467799 0.034772888 4282930001
0.68043357 -0.074177369 0.034851059 4283981667
0.73634708 -0.02665545 0.049318776 4292723023
0.73581928 -0.027246296 0.049266338 4293642546
0.73529118 -0.02783756 0.049213886 4293509919
0.73476279 -0.028429255 0.049161449 4293640220
0.73423415 -0.029021338 0.049109012 4293706531
0.73364234 -0.029570729 0.048991695 4294101289
0.73317581 -0.0302068 0.049004182 4289166848
0.73264623 -0.030800134 0.04895176 4292590910
0.73211628 -0.031393915 0.048899353 4293447244
0.7316494 -0.032030389 0.048911855 4292063031
0.73118258 -0.032666862 0.048924342 4287983872
0.73071575 -0.033303335 0.048936829 4292918842
0.73024893 -0.033939824 0.048949331 4293183253
0.72978204 -0.034576297 0.048961818 4294102291
0.72931522 -0.03521277 0.048974305 4294102291
0.72871977 -0.035767183 0.048857093 4294298402
0.72825259 -0.036404066 0.048869595 4294759247
0.72778547 -0.037040964 0.048882082 4289432133
0.72744787 -0.037758663 0.049024284 4283315239
0.72691607 -0.038354933 0.048971921 4283117860
0.72638404 -0.038951635 0.048919588 4282396713
0.71352559 -0.044384047 0.043005094 4283256915
0.71290928 -0.044966862 0.042888418 4285169273
0.71215737 -0.045477219 0.042642236 4285761410
0.7114718 -0.046025686 0.042460829 4283919724
0.71071762 -0.046539187 0.042214707 4284116853
0.68780255 -0.060148023 0.033706352 4281350717
0.68708169 -0.060744748 0.033525884 4279904036
0.68657666 -0.061433233 0.0335394 4280561966
0.68621659 -0.062181637 0.033682197 4281412912
0.6859296 -0.062958971 0.033889621 4281345321
0.68549812 -0.06367597 0.033967748 4281937711
0.68499404 -0.064363204 0.033981234 4281346604
0.68470907 -0.065137804 0.034188598 4281280811
0.68420547 -0.065824419 0.034202069 4281611059
0.68377519 -0.066539735 0.034280181 4280360222
0.6833452 -0.067254625 0.034358263 4279504931
0.68298924 -0.067997403 0.034500942 4279834150
0.68256003 -0.068711258 0.034579009 4279899943
0.68220508 -0.069452584 0.034721687 4279965988
0.68185079 -0.070193045 0.034864306 4281087797
0.68157136 -0.070960134 0.035071537 4281548599
0.68121839 -0.071698733 0.035214141 4280823855
0.68086606 -0.072436504 0.03535673 4280623914
0.68043965 -0.073146597 0.035434723 4280821293
0.68001348 -0.073856264 0.035512686 4284043099
0.73468119 -0.026419014 0.049105033 4292525096
0.73362076 -0.02760677 0.049000651 4294034976
0.7330901 -0.028201282 0.048948467 4293772578
0.73255914 -0.028796211 0.048896298 4293969957
0.73215395 -0.029477566 0.048973516 4288574976
0.7316227 -0.030072913 0.048921347 4292917560
0.73115444 -0.030711278 0.048933879 4290287122
0.73068625 -0.031349629 0.04894641 4288510720
0.73021805 -0.03198798 0.048958942 4289958686
0.7297498 -0.032626346 0.048971459 4292985418
0.72928154 -0.033264697 0.048983991 4293183780
0.72887748 -0.033944592 0.049061179 4293906195
0.72834516 -0.034541398 0.049009055 4293708816
0.7278769 -0.035179764 0.049021587 4294233631
0.72740871 -0.035818115 0.049034104 4294430006
0.72694045 -0.036456466 0.049046636 4293246805
0.72647226 -0.037094824 0.049059168 4283773966
0.72593898 -0.037692875 0.049007043 4283839759
0.7254706 -0.038331442 0.049019575 4282856746
0.71318907 -0.044112489 0.043705806 4282797134
0.71257263 -0.044694901 0.043589532 4285429883
0.71182036 -0.045204654 0.04334414 4286877329
0.71120238 -0.045789145 0.043227896 4284577656
0.71031207 -0.046229184 0.04285346 4284249202
0.68731165 -0.057982266 0.033378914 4280690232
0.6870926 -0.058796845 0.033650309 4280164140
0.68658638 -0.059487 0.033663854 4280758582
0.6861524 -0.060207635 0.033741847 4280364076
0.68586355 -0.060988396 0.03394872 4280561455
0.68535793 -0.061677717 0.03396225 4281544498
0.68507046 -0.062456608 0.034169078 4281805358
0.68471104 -0.063204587 0.034311473 4282003504
0.68435222 -0.063951731 0.034453839 4280885023
0.68384767 -0.064639583 0.03446734 4281279781
0.6834898 -0.065385476 0.034609675 4280819230
0.68313253 -0.066130549 0.034752011 4280097303
0.68277586 -0.066874757 0.034894288 4279439642
0.68241978 -0.067618147 0.035036594 4279636251
0.68206435 -0.068360694 0.035178855 4279899423
0.68170953 -0.069102421 0.035321116 4280296998
0.6813553 -0.0698433 0.035463378 4281746230
0.68107605 -0.070610896 0.035669982 4281481775
0.68072325 -0.071349889 0.035812169 4280361502
0.68044573 -0.072115205 0.036018759 4281018152
0.68009424 -0.072852314 0.036160901 4281412910
0.67974341 -0.073588602 0.036303073 4282529858
0.73319566 -0.026317284 0.049090162 4293313308
0.73253834 -0.026825696 0.048909217 4293970466
0.73219454 -0.027552977 0.049050793 4293575708
0.73159915 -0.028106153 0.04893434 4294035228
0.73125595 -0.028832614 0.049075902 4293707044
0.73078668 -0.029472426 0.049088463 4292196135
0.73031735 -0.030112252 0.049101025 4292461884
0.72984803 -0.030752063 0.049113572 4292527677
0.72931492 -0.031349599 0.049061641 4287723271
0.72884548 -0.031989619 0.049074203 4289301010
0.72837603 -0.032629654 0.049086764 4288838912
0.7279709 -0.033311337 0.049163803 4293247524
0.72743714 -0.033909708 0.049111888 4293379110
0.72696769 -0.034549728 0.049124449 4294036000
0.72649825 -0.035189763 0.049137011 4294625316
0.7260288 -0.035829782 0.049149573 4294757174
0.72555935 -0.03646981 0.049162135 4293310801
0.72495955 -0.037029043 0.049045816 4287192064
0.72442448 -0.037629314 0.04899396 4283380764
0.68747061 -0.056085624 0.033635721 4280888113
0.68710637 -0.056840688 0.033777833 4280756527
0.6865989 -0.057532512 0.033791408 4280888115
0.68616354 -0.058255337 0.033869252 4280689966
0.68587291 -0.059039325 0.034075558 4280100134
0.68551087 -0.059791468 0.034217611 4280493609
0.68507683 -0.060512424 0.034295425 4280493609
0.68471587 -0.061263084 0.034437433 4280690216
0.6842826 -0.061982997 0.034515217 4281083945
0.68392271 -0.06273222 0.03465721 4280952612
0.68356335 -0.063480616 0.034799203 4280821026
0.68320465 -0.064228155 0.034941137 4280755233
0.68291998 -0.065003991 0.035147324 4281015325
0.68248904 -0.065720752 0.035225019 4279765775
0.68213218 -0.066465802 0.035366938 4279504400
0.68184984 -0.067238495 0.035573035 4279768855
0.68149436 -0.06798166 0.035714924 4279834648
0.68113947 -0.068723992 0.035856768 4280627495
0.68093395 -0.069521219 0.036127016 4280559899
0.68065512 -0.070289105 0.03633301 4281148956
0.68037724 -0.07105574 0.036539003 4281214490
0.6801002 -0.071821131 0.036744967 4280819480
0.67967415 -0.072531216 0.036822528 4281148445
0.67924845 -0.073240876 0.036900118 4281348914
0.73176742 -0.026261613 0.049143732 4293445407
0.7312969 -0.026903093 0.049156323 4293313821
0.73070002 -0.027457744 0.049040332 4293839132
0.73035586 -0.028186068 0.049181506 4293640999
0.72988534 -0.028827563 0.049194098 4293445948
0.72941482 -0.029469043 0.049206689 4288907529
0.72894424 -0.030110538 0.049219266 4292394558
0.72847372 -0.030752018 0.049231857 4288906523
0.7280032 -0.031393513 0.049244449 4292393792
0.72753268 -0.032034993 0.04925704 4289169154
0.7271266 -0.032718241 0.0493339 4293313319
0.7266562 -0.033359513 0.049346492 4293444905
0.72618586 -0.034000799 0.049359083 4293969953
0.72571552 -0.034642085 0.04937166 4294690596
0.72518009 -0.035242438 0.049319997 4294822699
0.72464442 -0.035843238 0.049268365 4294956114
0.72404313 -0.036403947 0.049152479 4293244725
0.72344124 -0.036965497 0.049036607 4283247360
0.68821156 -0.053521618 0.033945307 4280889650
0.68763167 -0.054182768 0.033894852 4280889648
0.68733776 -0.054972067 0.034100667 4281085744
0.68697298 -0.055728376 0.034242377 4280690216
0.68653703 -0.056452349 0.034320042 4280558630
0.68617332 -0.057207182 0.034461737 4280690218
0.68573809 -0.057930112 0.034539372 4280427046
0.68537551 -0.0586835 0.034681037 4280100134
0.68486851 -0.059374698 0.034694597 4280297513
0.68450683 -0.060126849 0.034836262 4280889650
0.68414581 -0.060878143 0.034977883 4280758834
0.68371236 -0.061598554 0.035055459 4280561966
0.68335235 -0.062348396 0.035197064 4280693039
0.68299305 -0.063097388 0.03533864 4281349937
0.68263423 -0.063845575 0.035480216 4280494628
0.68227607 -0.064592883 0.035621747 4281478695
0.68199229 -0.065368392 0.035827309 4280358927
0.68170941 -0.066142634 0.036032811 4280097038
0.68150151 -0.066944219 0.036302313 4280229911
0.68114638 -0.067687362 0.036443785 4281282599
0.6808663 -0.068457864 0.036649227 4280428317
0.68058705 -0.069227085 0.03685464 4280295700
0.68030882 -0.069995061 0.037060052 4280556306
0.68003142 -0.0707618 0.03726542 4281148697
0.67975497 -0.071527258 0.037470758 4280753175
0.67947948 -0.072291479 0.037676096 4281213726
0.67890382 -0.072946787 0.037625507 4280754980
0.73093188 -0.025652438 0.0493166 4292657466
0.73046029 -0.026295379 0.049329221 4292723259
0.73005199 -0.02698186 0.049405932 4293117726
0.72958058 -0.027624592 0.049418554 4293248544
0.72910911 -0.028267339 0.04943116 4293247538
0.72870141 -0.028952956 0.049507841 4292327990
0.72823012 -0.029595494 0.049520448 4290617372
0.72775888 -0.030238032 0.049533069 4291604267
0.72728759 -0.030880556 0.049545676 4292064034
0.7268163 -0.031523094 0.049558282 4293708358
0.72640949 -0.032207459 0.049634948 4288575488
0.72587371 -0.032808155 0.04958351 4289496586
0.72533762 -0.033409268 0.049532086 4294035507
0.72486615 -0.034052014 0.049544707 4294757674
0.72432959 -0.034653738 0.049493268 4294888994
0.72372746 -0.03521508 0.049377799 4294888742
0.72305924 -0.03573668 0.049198329 4294625570
0.72232455 -0.03621915 0.048954859 4291534642
0.72198308 -0.03694433 0.049095556 4284761622
0.68988997 -0.050455719 0.034626529 4281088559
0.68931067 -0.051115721 0.034576222 4281022515
0.68873101 -0.051776156 0.034525976 4280560685
0.68822235 -0.052469656 0.03453958 4280100134
0.68771368 -0.053163163 0.034553185 4280559402
0.68734813 -0.053921126 0.034694538 4280690986
0.68691146 -0.054646246 0.034771994 4280887595
0.68654698 -0.055402756 0.034913316 4280689957
0.68611115 -0.056126826 0.034990773 4280624164
0.68574774 -0.05688186 0.035132065 4280690216
0.68524027 -0.057573684 0.03514564 4280427814
0.68487775 -0.058327481 0.035286903 4280627759
0.6844433 -0.059049666 0.03536433 4280957238
0.68400908 -0.059771448 0.035441726 4281417789
0.68364811 -0.060523145 0.035582945 4281155648
0.68321472 -0.061243877 0.035660341 4281682246
0.68278158 -0.061964169 0.035737708 4281221182
0.68249553 -0.062743515 0.035942703 4281482555
0.68213689 -0.06349209 0.036083877 4281350969
0.68185258 -0.064269133 0.036288828 4282072118
0.68156916 -0.065044932 0.036493793 4281873449
0.68136066 -0.065848365 0.036762506 4281282077
0.68107927 -0.066621445 0.036967382 4280427545
0.68087304 -0.067421734 0.037236035 4281085475
0.68059361 -0.068192109 0.037440881 4280428317
0.68038976 -0.068989277 0.037709475 4280097038
0.6801123 -0.069756925 0.037914231 4280424206
0.67991066 -0.070550956 0.038182765 4281084187
0.67956018 -0.071288452 0.03832373 4280359960
0.67921025 -0.07202512 0.038464651 4280359960
0.67886096 -0.072760954 0.038605571 4280359962
0.6781345 -0.073361918 0.038427636 4280558630
0.72968519 -0.025730103 0.049568817 4293116291
0.72921264 -0.026374295 0.049581453 4292789064
0.72880375 -0.027061909 0.049658 4292855585
0.72826767 -0.027662709 0.04960674 4292920095
0.72785902 -0.028349906 0.049683273 4293117222
0.72738665 -0.028993905 0.049695924 4293051429
0.72685009 -0.029595315 0.049644679 4294102835
0.72637761 -0.030239522 0.049657315 4292717613
0.72584063 -0.030841589 0.0496061 4288047622
0.72536796 -0.03148599 0.049618751 4291073346
0.7248953 -0.032130405 0.049631402 4287323145
0.72442263 -0.032774821 0.049644053 4291271718
0.72388482 -0.033377931 0.049592867 4292456729
0.7232815 -0.033940315 0.049477831 4294231830
0.72261214 -0.034462661 0.049298987 4294363416
0.72200745 -0.035026953 0.049183995 4294493982
0.72133642 -0.035551608 0.049005195 4294954551
0.7206645 -0.036077492 0.048826411 4294103658
0.72005761 -0.036644705 0.048711494 4282986506
0.69083339 -0.048912615 0.035589337 4281021754
0.69025505 -0.049571082 0.035539225 4281746240
0.68967634 -0.050229937 0.035489112 4280496422
0.6890263 -0.050856054 0.035375342 4280561704
0.68851805 -0.051548928 0.035388947 4280100900
0.68800986 -0.052241802 0.035402551 4280166693
0.68750167 -0.052934676 0.035416141 4280165410
0.68699348 -0.053627551 0.035429746 4281215784
0.68662894 -0.054384679 0.035570666 4281018405
0.68612099 -0.055077136 0.035584256 4281217581
0.6857574 -0.055832997 0.035725161 4281349167
0.68532211 -0.05655653 0.035802394 4281810235
0.68488717 -0.057279646 0.035879627 4282535756
0.68445241 -0.058002353 0.03595683 4282405967
0.68401808 -0.058724627 0.036034048 4282142793
0.68358397 -0.059446514 0.036111236 4281748035
0.68307716 -0.060137503 0.036124811 4282211668
0.68271679 -0.060888991 0.036265612 4281751119
0.68243039 -0.061669663 0.036470041 4281883475
0.68207133 -0.062419266 0.036610812 4282012242
0.68171299 -0.063168049 0.036751583 4282012242
0.68150282 -0.063974783 0.037019536 4281939004
0.68121994 -0.064750656 0.037223861 4281608232
0.6810863 -0.065583274 0.037555367 4281016607
0.68087983 -0.066385016 0.03782323 4280493083
0.68067467 -0.067185089 0.038091078 4280756255
0.68047065 -0.067983478 0.038358882 4281151268
0.68019313 -0.06875205 0.038563058 4280492302
0.67999148 -0.06954731 0.038830787 4280357897
0.67971593 -0.070313156 0.039034918 4280624922
0.67944133 -0.071077771 0.039239034 4279704342
0.67916763 -0.071841113 0.039443105 4279835928
0.67866832 -0.072521873 0.039456472 4279900949
0.7284351 -0.025809109 0.049823537 4292525658
0.727898 -0.026411057 0.049772516 4292592686
0.72748828 -0.027100012 0.049848884 4292724253
0.72695082 -0.027702376 0.049797863 4293117474
0.72647721 -0.028348044 0.049810529 4293051681
0.72587502 -0.028908387 0.049695864 4293642282
0.72540116 -0.029554471 0.049708545 4288376064
0.72486264 -0.030158311 0.049657568 4289495570
0.7243886 -0.030804604 0.049670264 4289627156
0.72391456 -0.031450897 0.049682945 4289101326
0.72344053 -0.032097191 0.049695626 4290813466
0.72283602 -0.032660648 0.049581036 4291866385
0.72229624 -0.033266157 0.049530089 4293837849
0.72169065 -0.033831075 0.049415514 4294101021
0.72115016 -0.034437627 0.049364597 4294428959
0.72034603 -0.034882292 0.049059182 4294494252
0.71980429 -0.035490498 0.049008295 4293904203
0.71919608 -0.036058977 0.048893794 4288249405
0.71858728 -0.036628291 0.048779309 4283709696
0.71804434 -0.037238181 0.048728451 4282331676
0.71756768 -0.03788802 0.048741192 4281546021
0.71649021 -0.038183942 0.048181549 4281348647
0.71581143 -0.038718313 0.048003569 4281546026
0.69235218 -0.04671821 0.036600158 4280762163
0.69191593 -0.0474433 0.036677212 4280367154
0.69112706 -0.047997452 0.036436766 4280890166
0.69054914 -0.048654974 0.036386862 4281350717
0.68982917 -0.049245551 0.036209956 4282403657
0.6893214 -0.0499378 0.036223546 4281154354
0.68874246 -0.050596774 0.036173642 4281154352
0.68809181 -0.051223114 0.036060289 4279904287
0.68765515 -0.051948845 0.036137372 4279443736
0.68714708 -0.052641511 0.036150962 4280496938
0.68671083 -0.053366601 0.036228001 4283124806
0.68620294 -0.054059058 0.036241591 4282664255
0.68576717 -0.054783531 0.03631866 4282731590
0.6853317 -0.055507578 0.036395684 4282600004
0.68489653 -0.056231201 0.036472723 4283323987
0.68446165 -0.056954421 0.036549747 4282732620
0.68402708 -0.057677217 0.036626741 4283194968
0.68359286 -0.058399603 0.036703765 4282406735
0.68308586 -0.059090808 0.036717325 4282209356
0.68142617 -0.062005252 0.037088677 4279643956
0.68136287 -0.062873714 0.037482694 4280170300
0.68122733 -0.063710146 0.037813246 4281281078
0.68101931 -0.064515218 0.038080364 4281016356
0.68081242 -0.065318577 0.038347438 4280688409
0.68068123 -0.06614919 0.038677886 4280821278
0.68055159 -0.06697768 0.03900829 4280887839
0.68042344 -0.067804106 0.039338648 4281151011
0.68014705 -0.068571918 0.039542198 4280492300
0.67987168 -0.069338486 0.039745733 4280292874
0.6796723 -0.07013163 0.040012598 4280229909
0.67932349 -0.070867851 0.040152714 4279572505
0.67897534 -0.071603239 0.040292814 4279769884
0.67862773 -0.072337806 0.040432885 4279899924
0.6781292 -0.073017523 0.040446222 4280624415
0.72597641 -0.027010113 0.049852222 4292527647
0.72550142 -0.027657658 0.049864933 4292986401
0.72496206 -0.028262451 0.04981418 4294102835
0.72448695 -0.028910205 0.04982689 4293247274
0.72381759 -0.029430926 0.049649253 4293248056
0.72340691 -0.030121431 0.049725398 4293840193
0.72286648 -0.030727684 0.049674705 4291866683
0.72239089 -0.031376064 0.04968743 4291999286
0.7219153 -0.032024458 0.049700156 4292064044
0.72137421 -0.032631516 0.049649432 4288838656
0.72083282 -0.033239007 0.049598724 4294102081
0.7200278 -0.033683375 0.049294323 4294034978
0.71981508 -0.03449592 0.04956077 4294625316
0.71894228 -0.03490214 0.04919301 4294887990
0.71846533 -0.035552412 0.04920578 4294232668
0.71792197 -0.0361626 0.049155116 4294232668
0.71737826 -0.036773235 0.049104482 4283380736
0.71676755 -0.037344649 0.048990443 4282726697
0.71622306 -0.03795632 0.048939809 4281612071
0.71534312 -0.038372338 0.048572242 4281546278
0.71466285 -0.038907878 0.048394874 4281152038
0.69299597 -0.045981206 0.037762374 4283264092
0.69213843 -0.046497226 0.037459373 4281093185
0.6915617 -0.047152974 0.037409633 4281486660
0.69091386 -0.047774941 0.037296593 4281419072
0.69033629 -0.048431724 0.037246853 4281879623
0.68961638 -0.049021371 0.037070557 4282404684
0.68903792 -0.049679413 0.037020832 4282076489
0.68838781 -0.050304525 0.036907867 4282076487
0.68788004 -0.050996765 0.036921456 4282867021
0.68737233 -0.051689014 0.036935046 4282998607
0.68686455 -0.052381262 0.036948621 4282078021
0.68642873 -0.05310604 0.037025467 4282799945
0.68584907 -0.053765759 0.036975801 4282733638
0.68548578 -0.054522216 0.037115887 4282406470
0.68074512 -0.064250924 0.038872421 4280427042
0.68076229 -0.065141857 0.039328292 4280295450
0.68055797 -0.065942906 0.039594501 4280886304
0.68050426 -0.066799849 0.039987072 4280819995
0.68030268 -0.067597143 0.040253222 4281214753
0.68010235 -0.068392783 0.040519327 4280031245
0.67997837 -0.06921488 0.040848583 4279836178
0.67962998 -0.069951087 0.040988281 4279835151
0.67928219 -0.070686474 0.041127965 4279178768
0.67908627 -0.071476027 0.041393951 4279441940
0.67866427 -0.072182015 0.041470438 4279639571
0.67824256 -0.07288757 0.041546911 4280165145
0.72242296 -0.029436499 0.049784198 4292129057
0.72168541 -0.029918432 0.049543977 4288707599
0.721012 -0.030443877 0.04936704 4288644359
0.72040313 -0.031012163 0.049253345 4287985920
0.71992493 -0.031664103 0.049266145 4287063296
0.71944678 -0.032316029 0.04927893 4289958157
0.71890265 -0.032926992 0.049228519 4294167084
0.71855652 -0.033660665 0.049367741 4294625570
0.71801221 -0.034271836 0.049317315 4294690600
0.71773326 -0.035044819 0.049519733 4294756393
0.71705586 -0.035575703 0.049342915 4294954840
0.71637756 -0.036107808 0.049166098 4287392022
0.71589893 -0.03676036 0.049178913 4283513118
0.71535325 -0.037373394 0.049128518 4281940259
0.71487445 -0.038026161 0.049141318 4281874466
0.71432835 -0.038639836 0.049090952 4281284392
0.69314778 -0.045003176 0.038479656 4283788901
0.69257206 -0.045657158 0.038430065 4283854694
0.69185495 -0.04624211 0.038254291 4281750606
0.69120765 -0.046862841 0.038141638 4281617734
0.69055974 -0.047484398 0.038028985 4281879112
0.68998224 -0.048140891 0.037979469 4282076491
0.68933326 -0.048763901 0.037866846 4282471249
0.68875492 -0.04942143 0.037817314 4282208077
0.6882478 -0.050112844 0.037830889 4282734932
0.68759739 -0.050737739 0.037718326 4283327572
0.68708998 -0.05142957 0.037731901 4282998607
0.68665445 -0.052154243 0.037808552 4282078273
0.68043572 -0.065737441 0.040509507 4280952361
0.68038338 -0.066594116 0.040900841 4280622113
0.68040788 -0.067476951 0.041355103 4281016871
0.68013394 -0.068243057 0.041557401 4280425502
0.67986101 -0.069007926 0.041759685 4279966744
0.67966437 -0.069799557 0.042024881 4280162065
0.67939341 -0.070561692 0.042227104 4279639571
0.67919904 -0.071350202 0.042492241 4279507985
0.67877823 -0.072054818 0.042568505 4279769615
0.67835772 -0.07275901 0.042644739 4280230938
0.72267711 -0.026665121 0.049619079 4292985134
0.72165477 -0.027927682 0.049581632 4293247540
0.72111088 -0.028538123 0.0495314 4292786989
0.7206319 -0.029191107 0.049544215 4289038849
0.72015297 -0.029844075 0.04955703 4289829649
0.71973962 -0.030538753 0.049632877 4292790597
0.71873468 -0.03085953 0.049141467 4292001081
0.71851838 -0.031679139 0.049406394 4289761811
0.71817112 -0.032414898 0.049545258 4290812431
0.71762574 -0.033027217 0.049495086 4294363439
0.71714652 -0.033680618 0.049507901 4294297375
0.71613497 -0.034010366 0.04901664 4294494754
0.71592128 -0.034826413 0.049281523 4294690877
0.71550822 -0.035520688 0.04935737 4294955607
0.71489453 -0.036095046 0.04924421 4291342415
0.71441454 -0.036749482 0.049257055 4282529818
0.71406913 -0.037482753 0.049395874 4282661404
0.71358937 -0.03813678 0.049408719 4281808943
0.69214809 -0.045333102 0.039097756 4284379507
0.69150132 -0.045952573 0.038985476 4282407002
0.69085389 -0.046572894 0.038873225 4282208336
0.69013488 -0.047159664 0.038698092 4282207055
0.68962836 -0.047850236 0.038711652 4282470227
0.68905056 -0.048506841 0.038662344 4282602583
0.68847245 -0.049163848 0.038613006 4282602581
0.68789405 -0.049821272 0.038563699 4282734934
0.68048847 -0.066476077 0.042001352 4280426785
0.68051493 -0.067358144 0.042454168 4280426785
0.68031776 -0.068151623 0.042718604 4280163613
0.67997092 -0.068886772 0.042857453 4279966744
0.67985147 -0.069705471 0.043184608 4280358163
0.67950636 -0.070438311 0.043323427 4279966485
0.67916185 -0.07117033 0.043462232 4279769106
0.67889398 -0.071929 0.043663755 4279834383
0.67862707 -0.072686419 0.043865263 4280295704
0.71999103 -0.027764305 0.049472809 4293444907
0.7193141 -0.028292894 0.049297139 4292721946
0.71843946 -0.028696701 0.048932999 4292526893
0.71828616 -0.029562891 0.049260065 4291998271
0.71780491 -0.030219004 0.04927294 4288313863
0.71732366 -0.030875102 0.049285814 4290155315
0.71657759 -0.031366497 0.049047396 4288642830
0.71609575 -0.032023445 0.049060285 4293904956
0.7156139 -0.032680392 0.049073189 4294231853
0.71506536 -0.033296794 0.049023286 4294363439
0.71451652 -0.033913612 0.048973382 4294822445
0.71403438 -0.034570977 0.048986286 4294953277
0.71361935 -0.035268262 0.049061984 4294166090
0.6902166 -0.046144351 0.039353654 4282142543
0.68971008 -0.046834931 0.039367214 4282669141
0.68054849 -0.067211837 0.043487817 4280427036
0.68035269 -0.068004467 0.043751404 4280295450
0.68008268 -0.068766996 0.04395242 4280295450
0.6798892 -0.069556504 0.044215962 4280163096
0.6796211 -0.0703163 0.04441689 4280032280
0.67927796 -0.071047038 0.044555262 4279703315
0.67901158 -0.071804553 0.044756159 4279506193
0.67874604 -0.072560802 0.044957042 4279966234
0.6782521 -0.073234253 0.044970259 4279839529
0.71676272 -0.028541982 0.048831075 4288512007
0.6804328 -0.067008808 0.04439427 4280623899
0.68054032 -0.067915991 0.044906542 4280295704
0.68019617 -0.068648592 0.045044526 4280032278
0.67992848 -0.069408685 0.045244873 4280032280
0.6795857 -0.070139423 0.045382828 4279966744
0.67916745 -0.070841417 0.045458421 4279637779
0.67905462 -0.071653776 0.045783401 4279835158
0.67871404 -0.072381593 0.045921296 4280097303
0.67845058 -0.073135838 0.046121523 4279708454
0.68057865 -0.06777139 0.045934111 4279969049
0.68015987 -0.068474293 0.046009496 4279441687
0.67996931 -0.069262072 0.046271354 4279638048
0.67962772 -0.069991745 0.046408892 4279704091
0.67928672 -0.070720598 0.046546414 4279703570
0.67902279 -0.071476385 0.046746045 4280098328
0.67883635 -0.072258525 0.047007799 4279773213
0.67857444 -0.073011607 0.047207385 4282407248
0.67815959 -0.073709086 0.047282666 4288391319
0.68054277 -0.067599013 0.046897247 4280429600
0.68012488 -0.068300977 0.046972424 4279310616
0.68001163 -0.069116637 0.047295421 4279311138
0.67959499 -0.069816932 0.047370568 4278783761
0.67933142 -0.070573024 0.047569603 4281282852
0.6790688 -0.07132788 0.047768623 4283519814
0.67873037 -0.072053775 0.047905654 4285564280
0.67839259 -0.072778836 0.048042685 4287273103
0.67828643 -0.073584884 0.048365504 4288255887
0.67787313 -0.07428059 0.048440546 4288846224
0.68058401 -0.06745667 0.047920138 4280034327
0.6801672 -0.068157487 0.047995105 4279836447
0.67990315 -0.068915129 0.048193544 4278521872
0.67956358 -0.06964311 0.048330233 4286417032
0.67930114 -0.07039845 0.048528627 4282006078
0.67896301 -0.071124539 0.04866527 4280163874
0.67870235 -0.071877599 0.048863634 4281347637
0.67851949 -0.072656967 0.04912369 4282532165
0.67818367 -0.073379926 0.049260274 4282003255
0.67808026 -0.074183553 0.049582034 4287267194
0.67813331 -0.075038955 0.050027162 4288977812
0.7076838 -0.027505457 0.046817496 4288577560
0.68055081 -0.067286357 0.048879057 4280164891
0.68013489 -0.067986242 0.048953786 4281019183
0.67987198 -0.068743125 0.049151599 4281545270
0.67953348 -0.069470257 0.049287856 4279571480
0.67927223 -0.070224851 0.049485639 4281545774
0.67901188 -0.070978202 0.049683377 4281019430
0.67867553 -0.071702398 0.049819589 4280755750
0.67849398 -0.072481118 0.050078824 4286346355
0.67815912 -0.073203243 0.050214991 4283254601
0.67797977 -0.073979028 0.050474152 4286218366
0.67787915 -0.074780218 0.05079484 4288718500
0.67778009 -0.075579293 0.051115468 4287796613
0.67729318 -0.076243132 0.051128492 4281282599
0.68036664 -0.067058578 0.049713209 4280558881
0.6801039 -0.067815959 0.049910441 4280887595
0.67976564 -0.068543285 0.05004628 4283255888
0.67942798 -0.069269791 0.050182119 4282730818
0.67916775 -0.070023835 0.050379261 4286022005
0.67890841 -0.070776634 0.050576419 4283719250
0.67865002 -0.071528196 0.050773501 4280887587
0.67831528 -0.072250709 0.050909251 4281082662
0.6782133 -0.073055081 0.051228955 4282464317
0.67788029 -0.073775314 0.051364675 4284372314
0.67778093 -0.074576139 0.05168432 4288451480
0.67760527 -0.075347945 0.051942602 4283847756
0.67758685 -0.076171532 0.05232349 4281348140
0.67749214 -0.076966107 0.052643016 4280825136
0.67755556 -0.077811196 0.053085089 4280759343
0.70516765 -0.025834069 0.046591327 4292589656
0.70473611 -0.026555866 0.046666086 4291672704
0.70423704 -0.027236208 0.046679437 4287134563
0.70367014 -0.027875721 0.046631396 4282792225
0.70323902 -0.028596893 0.04670614 4282397219
0.68018311 -0.066831365 0.050546169 4280100633
0.6798448 -0.067559294 0.050681606 4280626466
0.67958373 -0.068315335 0.050878212 4286218617
0.67932355 -0.069070093 0.051074758 4284903774
0.67914122 -0.069852099 0.051332429 4287732621
0.67872888 -0.070547581 0.051406667 4283521869
0.67854857 -0.071326874 0.051664278 4280293399
0.67829204 -0.072076619 0.051860735 4280428065
0.67803645 -0.072825134 0.052057177 4280755750
0.67770416 -0.073544919 0.05219245 4281147942
0.67760593 -0.074345611 0.052511081 4281542700
0.67735326 -0.075090155 0.052707434 4281741877
0.67733592 -0.075913906 0.053087085 4281545519
0.6772421 -0.076708548 0.053405583 4281218862
0.67722827 -0.077527523 0.05378516 4280562729
0.67705911 -0.07829155 0.054042459 4280431143
0.67681241 -0.079027936 0.054238662 4280496936
0.70450693 -0.024374172 0.046564206 4293641844
0.70373595 -0.024890825 0.046332851 4293644181
0.70336986 -0.025657207 0.046468645 4292991155
0.70223153 -0.026941881 0.046373099 4287795836
0.70166194 -0.027584836 0.046325341 4281741345
0.68026233 -0.065846764 0.051181898 4279968532
0.67992401 -0.066575304 0.051316947 4279902739
0.67966282 -0.067332268 0.051512957 4280560671
0.67940259 -0.06808795 0.051708907 4283452746
0.67914325 -0.068842366 0.051904827 4286676851
0.67888486 -0.069595575 0.052100763 4287270017
