# .PCD v0.7 - Point Cloud Data file format
VERSION 0.7
FIELDS x y z rgb
SIZE 4 4 4 4
TYPE F F F U
COUNT 1 1 1 1
WIDTH 1024
HEIGHT 1
VIEWPOINT 0 0 0 1 0 0 0
POINTS 1024
DATA ascii
0.71245694 -0.043389261 0.042616516 4282670936
0.7118299 -0.042892605 0.042817742 4281750855
0.71114779 -0.042445004 0.04308717 4281882441
0.71052271 -0.041951075 0.043288395 4281882188
0.71583915 -0.045737058 0.04242675 4279771167
0.71509349 -0.045328304 0.042763352 4279376409
0.714634 -0.044687346 0.04275988 4279044362
0.71400416 -0.044187576 0.042960465 4279113235
0.71343189 -0.043641821 0.043093055 4280698177
0.71280372 -0.04314439 0.043293655 4281947731
0.71223277 -0.042600527 0.04342626 4281750352
0.71160626 -0.042105392 0.04362686 4281881938
0.71103668 -0.041563421 0.043759465 4282211416
0.7104677 -0.041022286 0.043892056 4282343256
0.70978791 -0.040579081 0.044160709 4281161547
0.71612924 -0.045536622 0.043173909 4279573023
0.71561211 -0.044941768 0.043238252 4278586128
0.71509522 -0.044347346 0.043302596 4280888113
0.7144649 -0.043847665 0.043502584 4282670671
0.71394891 -0.043254495 0.043566927 4281554508
0.71332002 -0.042756945 0.043766931 4281620564
0.71274853 -0.042212844 0.043899119 4281620564
0.71217763 -0.041669592 0.044031322 4281422674
0.71155119 -0.04117538 0.044231325 4282276698
0.71098161 -0.040634021 0.044363528 4282473305
0.71035683 -0.040142149 0.044563547 4282078033
0.70984435 -0.039553821 0.04462795 4281942856
0.71613127 -0.044554844 0.043713942 4278915093
0.71555674 -0.044007137 0.043845698 4282338639
0.71503991 -0.043413028 0.043909848 4281947731
0.71440959 -0.042914271 0.04410924 4281620564
0.71389365 -0.042321414 0.044173375 4281423447
0.71332145 -0.041776881 0.044305176 4281423447
0.71274984 -0.041233182 0.044436961 4281553236
0.71217883 -0.040690333 0.044568747 4282079319
0.71166456 -0.0400998 0.044632927 4282538838
0.71103859 -0.039607137 0.044832334 4281943621
0.71046937 -0.039066821 0.044964135 4281875008
0.70995647 -0.038478151 0.045028314 4282006594
0.70938832 -0.03793931 0.04516013 4280955441
0.7166509 -0.044167534 0.044190422 4282929751
0.71613318 -0.043572456 0.044254377 4282668126
0.71555859 -0.043025166 0.044385746 4282538334
0.7149846 -0.04247871 0.044517115 4282210907
0.71446806 -0.041885316 0.044581056 4282211420
0.71389514 -0.041340336 0.044712439 4282145627
0.71337938 -0.040747985 0.044776365 4282145114
0.71280748 -0.040204495 0.044907764 4281684559
0.71223623 -0.039661825 0.045039162 4281943870
0.71172166 -0.039071172 0.045103118 4281480751
0.71115142 -0.038529992 0.045234531 4281612337
0.71063763 -0.037940383 0.045298487 4281020972
0.71012414 -0.037351191 0.045362443 4280955439
0.70961094 -0.036762431 0.045426443 4280889646
0.70898736 -0.036273867 0.045625284 4280627244
0.71717113 -0.043779865 0.044667736 4282209110
0.71671045 -0.043137208 0.044664264 4281881951
0.71613514 -0.042589456 0.0447952 4282605672
0.71561754 -0.0419949 0.044858962 4282342493
0.71510029 -0.04140076 0.044922695 4282275930
0.71458334 -0.040807053 0.044986457 4282473309
0.71401 -0.040262058 0.045117423 4281682766
0.71349382 -0.039669394 0.04518117 4281810502
0.7129215 -0.03912586 0.045312151 4281808449
0.71240604 -0.038534239 0.045375898 4281282101
0.71189094 -0.03794305 0.045439675 4281545273
0.7113201 -0.037401646 0.045570672 4281479730
0.71080577 -0.036811501 0.045634434 4281348914
0.71029168 -0.036221787 0.045698211 4281020719
0.70977789 -0.035632491 0.045761973 4281021232
0.70937514 -0.034943223 0.045691282 4281152818
0.7177496 -0.043344632 0.045078814 4281684561
0.71723086 -0.042748705 0.045142353 4281685853
0.71676981 -0.04210563 0.045138881 4281554267
0.71625155 -0.041510329 0.045202419 4282079580
0.71573359 -0.040915459 0.045265958 4282341209
0.71515894 -0.040369153 0.045396507 4282209623
0.71464169 -0.039775327 0.04546006 4281681479
0.71412474 -0.039181918 0.045523614 4281809215
0.71366465 -0.03854011 0.045520142 4281413180
0.71314818 -0.037947342 0.04558368 4281282105
0.71257573 -0.037404209 0.045714274 4281347898
0.71206003 -0.036812484 0.045777828 4281151539
0.71154463 -0.036221191 0.045841396 4281217328
0.71097374 -0.03568016 0.04597196 4280954928
0.71051466 -0.035039827 0.045968488 4280758832
0.71000016 -0.034449786 0.046032071 4280890418
0.70948595 -0.033860177 0.046095639 4280038191
0.70902723 -0.033220261 0.046092182 4280827707
0.70845842 -0.032682195 0.046222791 4281813832
0.70341575 -0.025647804 0.046184719 4287935661
0.7030105 -0.02495487 0.046114206 4290501588
0.70265806 -0.024207845 0.045976639 4291091914
0.70225215 -0.023513839 0.045906112 4290429589
0.70184588 -0.022819445 0.045835614 4291082075
0.70149189 -0.022070318 0.045698032 4290950489
0.7675575 -0.075237408 0.026763394 4280697918
0.76685041 -0.074634939 0.026959807 4280829504
0.76614422 -0.074033752 0.027156249 4280829504
0.76557344 -0.073365472 0.027219176 4281158728
0.76507002 -0.072663233 0.027215376 4281088574
0.7645666 -0.071960993 0.027211562 4282339413
0.76413 -0.071223959 0.027141035 4282470999
0.76369303 -0.070486493 0.027070478 4281750869
0.76318932 -0.069783837 0.027066663 4281882455
0.76281834 -0.069010288 0.026929364 4282145114
0.7625128 -0.068200283 0.026725307 4282342491
0.76207441 -0.067460708 0.026654765 4282342491
0.76183331 -0.066612527 0.026383922 4282145110
0.71850252 -0.042767182 0.045290664 4281749836
0.71792501 -0.042217508 0.045420825 4281883221
0.71740568 -0.041621029 0.045484141 4281554771
0.71688664 -0.041024983 0.045547456 4281880145
0.71636796 -0.040429354 0.0456108 4281879373
0.71584952 -0.039834142 0.045674145 4281221443
0.71538836 -0.039190859 0.045670658 4280957758
0.71481359 -0.038644984 0.04580082 4280954676
0.71435273 -0.038002133 0.045797348 4281282355
0.71383536 -0.037408397 0.045860693 4281348918
0.71331829 -0.036815077 0.045924038 4281019953
0.71280158 -0.036222175 0.045987368 4280955443
0.71228504 -0.035629705 0.046050742 4280823855
0.71176893 -0.035037652 0.046114102 4280627246
0.71119732 -0.034496203 0.046244279 4280298542
0.71062624 -0.033955589 0.04637447 4280166956
0.71016681 -0.03331463 0.046370998 4281551178
0.70970732 -0.032673672 0.046367541 4280828734
0.70919263 -0.03208372 0.046430916 4280562482
0.70867831 -0.0314942 0.046494275 4280690988
0.70810938 -0.030956522 0.046624482 4281085746
0.70754111 -0.030419707 0.046754688 4280233513
0.70708251 -0.029780015 0.046751231 4279971111
0.70535612 -0.027115792 0.046603695 4280235318
0.70489722 -0.026475668 0.046600223 4280170818
0.70449203 -0.025782421 0.046529904 4288594109
0.70397949 -0.025195435 0.046593294 4290039487
0.70362735 -0.024448216 0.046456128 4291421140
0.70316815 -0.023807675 0.046452671 4290960843
0.70281506 -0.023059204 0.046315506 4290695873
0.70251429 -0.022255719 0.046111479 4291086227
0.70210707 -0.02155973 0.046041146 4289704574
0.76702309 -0.074448898 0.027895659 4280960320
0.76624954 -0.073882893 0.028158024 4280829504
0.76574671 -0.073181495 0.028154239 4279973941
0.76517671 -0.072514571 0.028216988 4281285691
0.7645399 -0.071882777 0.02834627 4282008901
0.76410449 -0.071147121 0.028275952 4281548350
0.7635352 -0.070481241 0.028338686 4281878088
0.76309949 -0.069745168 0.028268367 4281813578
0.76253051 -0.069079712 0.028331101 4281747787
0.76216078 -0.068307459 0.028194204 4282538071
0.76172429 -0.067570329 0.02812387 4282406485
0.76122147 -0.066868931 0.028120071 4282142797
0.76091623 -0.066058412 0.027916625 4282799960
0.76054442 -0.065283209 0.027779713 4283063645
0.76017201 -0.064507179 0.027642787 4282800473
0.75999516 -0.063619263 0.027306199 4282867036
0.75981688 -0.062729247 0.026969582 4282998624
0.75976729 -0.061762288 0.026499853 4282669659
0.71925706 -0.04218854 0.045504913 4282209871
0.7185626 -0.041732877 0.045767888 4281882705
0.71810025 -0.041087911 0.045764387 4281750354
0.7175228 -0.040538877 0.045894131 4280760381
0.71706074 -0.039894328 0.045890644 4281616201
0.71659869 -0.039249778 0.045887157 4280892478
0.71607953 -0.038653821 0.045950294 4280956988
0.71556067 -0.038058296 0.046013445 4280756781
0.71504211 -0.037463158 0.046076566 4281217330
0.71458054 -0.036819249 0.046073079 4281085742
0.71406245 -0.036224782 0.0461362 4280756777
0.71354461 -0.035630718 0.046199366 4280889135
0.71308333 -0.034987226 0.04619588 4280889648
0.71256602 -0.034393787 0.046259016 4280627244
0.71199304 -0.033851072 0.046388805 4280233001
0.71147645 -0.033258691 0.046451956 4280035622
0.71101576 -0.032616049 0.046448469 4281222726
0.71044421 -0.032075182 0.046578243 4280301109
0.70992851 -0.031484082 0.046641424 4280364587
0.70941311 -0.030893385 0.046704575 4280757800
0.70889801 -0.030303121 0.046767741 4281020972
0.7083832 -0.029713273 0.046830907 4280365088
0.7078141 -0.029175803 0.046960711 4280234018
0.70735455 -0.028534845 0.04695724 4280167722
0.70694947 -0.027841493 0.046887144 4280300339
0.70643562 -0.027252913 0.04695031 4280892476
0.70597613 -0.026611954 0.046946838 4280957756
0.70557058 -0.025917977 0.046876729 4282736997
0.70516473 -0.025223568 0.046806604 4290040270
0.70475858 -0.024528772 0.046736494 4291879895
0.70429862 -0.023887172 0.046733022 4291090379
0.70389205 -0.02319172 0.046662897 4291025353
0.7035383 -0.022441775 0.046526104 4290761927
0.70318401 -0.021691024 0.046389341 4291614910
0.70277619 -0.020993888 0.046319216 4289904292
0.76648885 -0.073664695 0.029025137 4281222465
0.7659865 -0.072963923 0.029021353 4280302136
0.76534945 -0.072332308 0.029150248 4281090879
0.76471299 -0.071701542 0.029279143 4281288256
0.76421124 -0.071001619 0.029275358 4280827705
0.76364255 -0.070336908 0.029337928 4280696119
0.76307422 -0.069672614 0.029400483 4280366384
0.76257277 -0.068973109 0.029396683 4280627759
0.76207137 -0.068273604 0.029392898 4280824625
0.7616362 -0.067538068 0.029322788 4280298281
0.76120073 -0.066802084 0.029252633 4280494377
0.76076496 -0.066065684 0.029182494 4280887597
0.76039475 -0.065292194 0.029045999 4280755754
0.76008964 -0.064480953 0.02884312 4281019183
0.75978363 -0.063668475 0.028640255 4281479734
0.75954211 -0.062817395 0.028371021 4280953906
0.7593646 -0.061927125 0.028035417 4281348664
0.75912046 -0.061072469 0.027766168 4280955189
0.75906998 -0.060102284 0.027297825 4280889396
0.73889399 -0.046738818 0.034833506 4281948766
0.73810089 -0.046275154 0.035161778 4282080863
0.7372486 -0.045857444 0.035556465 4282015586
0.73670089 -0.045222014 0.035619184 4282016356
0.73591191 -0.044764042 0.035947487 4283594618
0.71989685 -0.041703597 0.045854405 4282473557
0.71931732 -0.041152224 0.045983732 4281419590
0.71885407 -0.04050599 0.04598023 4281154115
0.71827543 -0.039955869 0.046109572 4280564281
0.7177549 -0.039358318 0.046172485 4280630326
0.71729207 -0.038712725 0.046168983 4280367154
0.71677208 -0.038115829 0.046231925 4280169007
0.71630943 -0.03747043 0.046228439 4280298796
0.71578979 -0.036874145 0.046291366 4280364587
0.71532726 -0.03622897 0.046287864 4280364585
0.71480817 -0.035633326 0.046350807 4280364585
0.71434581 -0.034988359 0.046347305 4280889897
0.71382713 -0.03439334 0.046410248 4280824104
0.71330869 -0.033798754 0.04647319 4280562215
0.71279067 -0.03320457 0.046536133 4280630328
0.71227288 -0.032610819 0.04659909 4280630328
0.71181113 -0.031966701 0.046595603 4279709487
0.71129382 -0.031373575 0.046658531 4279970865
0.71072131 -0.030832082 0.046787918 4279970345
0.71020478 -0.030240014 0.04685086 4280496171
0.70968848 -0.029648364 0.046913818 4280298792
0.70917249 -0.029057145 0.046976775 4280233252
0.70865685 -0.028466344 0.047039732 4280496422
0.70814145 -0.027875945 0.04710269 4280562731
0.70768094 -0.027233511 0.047099218 4280694834
0.70722044 -0.026591077 0.047095746 4280365869
0.70675987 -0.025948644 0.047092259 4289379512
0.70635343 -0.025253102 0.047022343 4289119422
0.70594662 -0.024557129 0.046952426 4290170059
0.70548576 -0.023914278 0.04694894 4290893782
0.70502496 -0.023271412 0.046945468 4291090128
0.70461756 -0.022574604 0.046875536 4291024335
0.70426321 -0.021823227 0.046739161 4291089358
0.70380187 -0.021179736 0.046735674 4290826439
0.70349967 -0.020372495 0.046532854 4291155404
0.76642841 -0.072643541 0.029688835 4281288006
0.76579106 -0.072012112 0.029817328 4281354310
0.76515436 -0.071381554 0.029945835 4281947985
0.76465261 -0.070681624 0.029942036 4281224262
0.7640838 -0.07001701 0.030004412 4281290055
0.76351529 -0.069352806 0.030066758 4281552455
0.76294714 -0.068689018 0.03012912 4281551428
0.76244587 -0.067989729 0.030125335 4281155387
0.76194453 -0.06729044 0.03012155 4281155387
0.76144326 -0.066591144 0.030117765 4280364585
0.76100808 -0.065855294 0.030047834 4280166693
0.76057261 -0.065119028 0.029977903 4279968546
0.76013684 -0.064382322 0.029907942 4281154103
0.75983214 -0.063570797 0.029705703 4280627759
0.75952649 -0.062758006 0.02950342 4279836962
0.75935072 -0.061868727 0.029168829 4280494379
0.75897777 -0.061090827 0.029032707 4280362793
0.75892955 -0.060121864 0.028565779 4280560172
0.74054724 -0.047618344 0.035225555 4282015334
0.73969007 -0.047195524 0.035619006 4282146404
0.73895705 -0.046688199 0.035880104 4281817693
0.7382862 -0.046138838 0.036074981 4281423195
0.73755538 -0.045634672 0.036336079 4281818723
0.7368865 -0.045088038 0.036530972 4282540649
0.73609746 -0.044631377 0.036858276 4283265653
0.73549104 -0.044043124 0.036987007 4281878862
0.72059602 -0.041170374 0.046139285 4281354564
0.72001541 -0.040618137 0.04626821 4281943881
0.71949345 -0.040018782 0.046330914 4280694584
0.71897173 -0.039419875 0.046393633 4280104497
0.71845037 -0.038821355 0.046456352 4280236079
0.71798682 -0.038174719 0.04645285 4280301872
0.71746588 -0.037576869 0.046515569 4280104493
0.71700245 -0.036930427 0.046512067 4280234796
0.71653903 -0.036283985 0.046508566 4280234796
0.71607566 -0.035637543 0.046505079 4279840038
0.71555549 -0.035040721 0.046567798 4280234796
0.71509218 -0.034394488 0.046564296 4280693552
0.71457249 -0.033798307 0.046627045 4280824625
0.71410936 -0.033152297 0.046623543 4282208336
0.71359015 -0.032556728 0.046686262 4281747785
0.71307117 -0.031961605 0.046748981 4279972409
0.71260834 -0.031316012 0.046745494 4279708974
0.71203411 -0.030772597 0.046874478 4279774765
0.71157157 -0.030127421 0.046870977 4280103984
0.71105367 -0.029533774 0.046933725 4280103984
0.71048081 -0.02899228 0.04706271 4279840042
0.70996368 -0.028399661 0.047125459 4279840042
0.70944679 -0.027807489 0.047188222 4280169003
0.70898503 -0.027163357 0.047184736 4280301872
0.70852327 -0.026519239 0.047181249 4280170286
0.70806158 -0.025875121 0.047177762 4289514176
0.70759976 -0.025230989 0.047174275 4287999653
0.70713806 -0.024586871 0.047170788 4287013022
0.7066763 -0.023942754 0.047167301 4289973193
0.70626843 -0.023244992 0.047097549 4290828502
0.70580655 -0.022600666 0.047094062 4290762963
0.70534468 -0.021956325 0.047090575 4290368203
0.70488274 -0.021311998 0.047087088 4290630860
0.70458078 -0.020504266 0.04688485 4288655021
0.70411837 -0.019859299 0.046881363 4283917925
0.76630032 -0.071657166 0.030418485 4281882192
0.76573062 -0.070991576 0.030480623 4282277211
0.76522857 -0.070291236 0.030476838 4281553488
0.76459217 -0.069661707 0.030604944 4282277209
0.76409042 -0.068961784 0.030601144 4281949268
0.76352179 -0.068297684 0.030663326 4282080600
0.76295352 -0.067634001 0.030725464 4281882453
0.76245207 -0.066934496 0.030721679 4281750867
0.76201701 -0.06619855 0.030651957 4282014039
0.76144916 -0.065535493 0.03071411 4281620564
0.7609477 -0.064835995 0.030710325 4281161297
0.76051223 -0.064099416 0.030640602 4280767054
0.76020807 -0.063287802 0.03043893 4281359191
0.75983733 -0.06251245 0.030303225 4280897105
0.75946599 -0.061736241 0.03016752 4281620312
0.75889796 -0.061073005 0.030229703 4281684822
0.75852585 -0.060295746 0.030093968 4281619029
0.74226588 -0.048457712 0.035553262 4283133813
0.74140537 -0.048031881 0.03594549 4281687652
0.74066979 -0.047522217 0.036205754 4282014822
0.73987401 -0.047057614 0.036532015 4281949543
0.73914105 -0.046551511 0.036792293 4281292381
0.73847038 -0.046003282 0.036986589 4281358174
0.73773968 -0.045500338 0.037246883 4281556066
0.73701018 -0.044999078 0.037507176 4282343272
0.73628187 -0.044499502 0.037767485 4283265653
0.73561525 -0.04395695 0.037961826 4281155650
0.73494959 -0.043415666 0.038156167 4279313446
0.73410416 -0.04301089 0.038548499 4280165410
0.72129649 -0.040636197 0.046426162 4281683016
0.72077316 -0.040035248 0.046488672 4281482816
0.72019202 -0.039482787 0.04661718 4280366132
0.71966946 -0.038882911 0.046679705 4279973425
0.71908939 -0.038331911 0.046808213 4279973423
0.71862519 -0.037684411 0.046804696 4279973423
0.71816105 -0.037036926 0.046801195 4280236079
0.71769691 -0.036389425 0.046797693 4280169773
0.7172327 -0.03574194 0.046794191 4280432175
0.71676856 -0.03509444 0.046790689 4280432175
0.71630442 -0.034446955 0.046787187 4280234796
0.71578348 -0.033849403 0.046849713 4280562482
0.71531945 -0.033202127 0.046846211 4280233515
0.71485543 -0.032554835 0.046842709 4281418309
0.71439141 -0.031907558 0.046839207 4280299828
0.71387124 -0.031311035 0.046901733 4279709237
0.71335143 -0.030714959 0.046964258 4279709487
0.7128877 -0.030068099 0.046960756 4279643692
0.71236831 -0.029472619 0.047023296 4280103730
0.71179366 -0.028929219 0.047151864 4280169523
0.71133041 -0.028282985 0.047148362 4279905068
0.71081185 -0.027688801 0.047210917 4280365873
0.71023858 -0.027147263 0.047339454 4280827186
0.70977581 -0.02650167 0.047335967 4280433711
0.7092582 -0.025908753 0.047398522 4284841842
0.70879555 -0.025263369 0.047395036 4291027668
0.7083329 -0.02461797 0.047391549 4284578409
0.7079246 -0.023919284 0.04732199 4288325538
0.70746177 -0.023273692 0.047318503 4285038459
0.70699894 -0.022628099 0.047315001 4287078042
0.70653617 -0.021982491 0.047311515 4290041037
0.7060734 -0.021336913 0.047308013 4290040522
0.70561057 -0.020691305 0.047304526 4291091413
0.70525461 -0.019936591 0.047168955 4283785573
0.70479149 -0.019290566 0.047165468 4283522401
0.76701307 -0.07119742 0.030822784 4282076491
0.76637506 -0.070566177 0.030950502 4282800725
0.76580513 -0.069900483 0.031012431 4282998104
0.76530278 -0.069199711 0.031008631 4283591011
0.7647332 -0.068534657 0.031070605 4283393632
0.76416403 -0.067870021 0.031132549 4282933858
0.7635951 -0.067205809 0.031194523 4283131755
0.76302654 -0.066542014 0.031256467 4283197548
0.76259136 -0.065805539 0.031186938 4282410342
0.76202303 -0.06514217 0.031248897 4282280039
0.76158756 -0.064405277 0.031179368 4281886051
0.76108563 -0.063705139 0.031175569 4281359455
0.76064968 -0.062967613 0.03110601 4281227869
0.76027918 -0.062192068 0.030970708 4281162076
0.75990814 -0.061415672 0.030835405 4281621598
0.75953645 -0.060638458 0.030700102 4281752414
0.75909883 -0.059898615 0.030630529 4281752414
0.7422629 -0.048445195 0.036664993 4282608493
0.7414645 -0.047978356 0.036990255 4281555553
0.74079102 -0.047427028 0.037183926 4281818727
0.74005687 -0.046920463 0.037443399 4281490021
0.73932397 -0.046415582 0.037702858 4281358435
0.73859227 -0.0459124 0.037962362 4281950572
0.73786181 -0.045410901 0.038221866 4281095517
0.73713249 -0.044911087 0.03848137 4282411125
0.73634362 -0.044457495 0.038806692 4282937206
0.73567754 -0.043916494 0.039000407 4281943883
0.73489141 -0.043466702 0.039325729 4278785819
0.73410672 -0.043019012 0.039651096 4279310616
0.73332357 -0.042573422 0.039976448 4284251773
0.72281635 -0.040465862 0.046323717 4282011207
0.72205687 -0.040053338 0.046649247 4281022515
0.72147411 -0.039499149 0.046777353 4281676856
0.72083372 -0.03899394 0.046971276 4280824627
0.7203685 -0.038344979 0.04696776 4280300591
0.71978736 -0.037793115 0.04709588 4280234798
0.71932244 -0.037144572 0.047092378 4280433458
0.71885753 -0.036496028 0.047088861 4280236330
0.71839261 -0.035847485 0.04708536 4280104744
0.71792769 -0.035198927 0.047081843 4280499504
0.71746278 -0.034550384 0.047078326 4280302125
0.71699786 -0.03390184 0.047074825 4280496685
0.71658981 -0.033203289 0.047005489 4281615938
0.71612477 -0.032554537 0.047001973 4282536018
0.71560311 -0.031956211 0.047064289 4280693302
0.7151382 -0.031307667 0.047060788 4280561716
0.71467328 -0.030659124 0.047057271 4280234550
0.71415222 -0.030061677 0.047119588 4279840560
0.71363145 -0.029464617 0.047181919 4279905833
0.71311104 -0.028868005 0.047244251 4280233517
0.71264654 -0.028220087 0.047240749 4280496689
0.71207106 -0.027676016 0.047368884 4280824888
0.71160686 -0.027028531 0.047365382 4282006846
0.71108747 -0.026433378 0.047427729 4282074941
0.7106235 -0.025786102 0.047424212 4290893513
0.71015948 -0.025138825 0.04742071 4291025099
0.70964068 -0.024544507 0.047483057 4290434759
0.70923144 -0.023844257 0.047413707 4290565318
0.70876741 -0.02319698 0.047410205 4291419344
0.70830345 -0.022549689 0.047406703 4287470482
0.70789361 -0.021848589 0.047337338 4286812552
0.70737541 -0.021255136 0.0473997 4286685592
0.70696527 -0.020553604 0.047330335 4289514178
0.70650107 -0.019906119 0.047326833 4282075735
0.70603693 -0.019258633 0.047323316 4282469725
0.69944739 0.015809149 0.034022883 4280436008
0.69904929 0.016623244 0.033887371 4281420854
0.76715577 -0.070069835 0.031290472 4282466876
0.76651728 -0.069438577 0.031417757 4283059013
0.76594692 -0.068772554 0.031479493 4283652952
0.7654441 -0.068071157 0.031475693 4283457374
0.76487422 -0.06740576 0.031537443 4283391847
0.76430452 -0.066740826 0.031599209 4283327339
0.76373523 -0.066076279 0.031660959 4283787890
0.76329952 -0.065338872 0.031591624 4283000682
0.76266396 -0.064711608 0.03171894 4282607975
0.76222813 -0.063973978 0.031649575 4282017891
0.76165956 -0.063310497 0.031711355 4281557601
0.76135564 -0.062497467 0.031510875 4281557601
0.76085293 -0.061796278 0.03150709 4281886053
0.76041603 -0.061057195 0.03143774 4281949791
0.76004452 -0.060279563 0.031302825 4281883998
0.75967234 -0.059501082 0.03116791 4281489240
0.74324447 -0.048772767 0.037252963 4281555805
0.74232018 -0.048391059 0.037708357 4282476907
0.741584 -0.04788278 0.037967011 4281819238
0.74091089 -0.047332793 0.038160101 4281753447
0.74017704 -0.046827674 0.03841877 4281489769
0.73944432 -0.046324253 0.038677454 4281423717
0.73865145 -0.045866504 0.039001733 4281226338
0.73792136 -0.04536666 0.039260447 4281358689
0.73725355 -0.044824049 0.039453566 4282740606
0.73646474 -0.044371992 0.03977786 4282937721
0.73567742 -0.043922052 0.040102184 4281023551
0.73489165 -0.043474212 0.040426537 4278655003
0.73422837 -0.042937919 0.040619686 4282405967
0.73332459 -0.042584866 0.041075245 4285108109
0.72340333 -0.040025413 0.046747029 4281482816
0.72264278 -0.03961274 0.047071561 4280757549
0.72211778 -0.039010093 0.047133654 4281741877
0.72159314 -0.038407892 0.047195747 4281151537
0.72101057 -0.037854537 0.04732345 4280627244
0.72054476 -0.037204728 0.047319934 4280429865
0.72002101 -0.036603779 0.047382042 4280102697
0.71961313 -0.035905123 0.0473129 4280563499
0.71914732 -0.035255313 0.047309384 4280235817
0.71868145 -0.034605503 0.047305867 4280499502
0.71821564 -0.033955693 0.04730235 4280565295
0.71774983 -0.033305883 0.047298834 4284506713
0.71734101 -0.032605946 0.047229692 4281546026
0.71687508 -0.031955928 0.047226176 4281349434
0.71635234 -0.031356469 0.047288284 4280823094
0.71588653 -0.030706659 0.047284767 4280757301
0.71547711 -0.030005872 0.047215626 4280627257
0.71495485 -0.029407039 0.047277734 4280234037
0.71443295 -0.028808609 0.047339842 4280036908
0.71396726 -0.028159007 0.047336325 4280365103
0.71350157 -0.027509406 0.047332808 4280694068
0.7129246 -0.02696386 0.047460571 4281022267
0.71245921 -0.026314676 0.047457054 4281085746
0.7119385 -0.025717944 0.047519177 4288852396
0.71147329 -0.025068969 0.047515661 4291552215
0.71100807 -0.024420008 0.047512159 4290960078
0.71054286 -0.023771033 0.047508642 4290829519
0.71007764 -0.023122072 0.047505125 4290434761
0.70966697 -0.022419631 0.047435969 4290631113
0.70920163 -0.021770447 0.047432467 4290825925
0.7088449 -0.021013439 0.047297657 4288062619
0.70832503 -0.020417973 0.047359779 4288920242
0.70791352 -0.019714251 0.047290623 4284246888
0.70744789 -0.01906465 0.047287107 4282864221
0.7069822 -0.018415049 0.04728359 4282666842
0.70047367 0.01555866 0.034552097 4279841563
0.70002747 0.016310826 0.034482658 4280104735
0.69953263 0.017001063 0.034478933 4281616441
0.69913411 0.017816365 0.034343824 4279967781
0.767802 -0.069643065 0.031763121 4280818977
0.76716292 -0.06901136 0.031890005 4281147942
0.76659191 -0.068344817 0.031951562 4282003764
0.7660886 -0.067642786 0.031947762 4281545270
0.76558536 -0.066940755 0.031943962 4281281848
0.76494789 -0.066311382 0.03207086 4280691767
0.76444495 -0.065609775 0.03206706 4280889146
0.76400882 -0.064871423 0.031997904 4281415742
0.76337236 -0.064243503 0.032124802 4281613889
0.76293606 -0.063504949 0.032055676 4282209619
0.76243311 -0.062803343 0.032051876 4282474592
0.76199639 -0.062064156 0.031982705 4282803557
0.76149327 -0.061362326 0.031978905 4283396210
0.76105607 -0.060622513 0.031909764 4283067245
0.76068431 -0.059844047 0.031775251 4282804586
0.76044315 -0.058987886 0.031509995 4282607207
0.7602008 -0.058130041 0.031244755 4283068272
0.74311286 -0.048846394 0.038491443 4281291613
0.74250042 -0.048251972 0.038618535 4282739059
0.74182647 -0.047701627 0.038810998 4281227873
0.7410295 -0.047239542 0.039134234 4281556838
0.74023402 -0.046779543 0.039457515 4282015336
0.73950166 -0.046277761 0.039715394 4281423197
0.7387706 -0.045777664 0.039973304 4281554783
0.73804069 -0.045279235 0.040231213 4281621344
0.73731196 -0.044782519 0.040489137 4283001717
0.73652339 -0.044332206 0.040812448 4282870391
0.73579729 -0.043839052 0.041070387 4281881690
0.73501158 -0.043392748 0.041393727 4284381824
0.73422742 -0.042948559 0.041717082 4284514945
0.73338425 -0.042552039 0.042105839 4285238927
0.73254299 -0.042158052 0.042494595 4284972423
0.73164326 -0.041812614 0.042948782 4282870643
0.73068565 -0.041516334 0.043468401 4282213483
0.72967064 -0.041269854 0.044053435 4282476655
0.72481346 -0.039951831 0.046782643 4280954678
0.72399116 -0.039584368 0.047171563 4280888885
0.72340596 -0.039027855 0.047298849 4280954928
0.72276258 -0.038520277 0.047491536 4281282347
0.72223723 -0.037917316 0.04755345 4281413163
0.72171211 -0.037314773 0.047615319 4281151018
0.72124553 -0.03666392 0.047611803 4281611569
0.720779 -0.036013052 0.047608271 4280693542
0.72031242 -0.035362199 0.047604755 4281153323
0.71984583 -0.034711331 0.047601223 4281480231
0.71943688 -0.034010902 0.047532305 4282399766
0.71897012 -0.033359826 0.047528774 4287400034
0.7185607 -0.032658741 0.047459811 4292858999
0.71809381 -0.032007456 0.047456294 4292988521
0.71762693 -0.031356171 0.047452763 4289108035
0.71716005 -0.030704901 0.047449246 4282133275
0.71674985 -0.030002758 0.047380313 4282462240
0.71628284 -0.029351264 0.047376782 4280559150
0.71581578 -0.028699771 0.04737325 4280166706
0.71529251 -0.028099775 0.04743515 4280693300
0.71482563 -0.02744849 0.047431618 4281415992
0.71435875 -0.026797205 0.047428086 4281876543
0.71389186 -0.02614592 0.04742457 4284637790
0.7133137 -0.025599286 0.047551915 4290430652
0.71279168 -0.02500096 0.047613844 4290959055
0.71232522 -0.024350315 0.047610313 4291025618
0.711914 -0.023646697 0.04754135 4291025618
0.71139234 -0.023049012 0.047603279 4291288790
0.71098083 -0.022344977 0.047534302 4290499787
0.71056902 -0.021640539 0.047465354 4290565069
0.71010226 -0.020989478 0.047461823 4290499276
0.70974439 -0.020230383 0.047327414 4287009942
0.70922309 -0.019633114 0.047389314 4282731852
0.70881033 -0.018927395 0.047320366 4282994511
0.70839727 -0.018221274 0.047251388 4282534993
0.70016146 0.017566338 0.034874454 4281415479
0.76844913 -0.06921573 0.032236993 4280227357
0.76801276 -0.068476871 0.032168046 4280227357
0.76750845 -0.067773364 0.032164246 4280951848
0.7669366 -0.067105852 0.032225564 4280492328
0.76636505 -0.066438757 0.032286912 4281084467
0.7657938 -0.065772116 0.032348245 4280625715
0.7652899 -0.065069243 0.032344446 4280888887
0.76471913 -0.064403206 0.032405794 4281284408
0.76421541 -0.063700542 0.032401994 4280954930
0.76371169 -0.062997878 0.032398179 4280955443
0.76320797 -0.062295228 0.032394379 4281284408
0.76277059 -0.061554894 0.032325432 4281679166
0.76226676 -0.060852021 0.032321617 4282536020
0.76176286 -0.060149148 0.032317817 4282076500
0.76145667 -0.059331343 0.032118559 4282736227
0.76108384 -0.05855079 0.031984434 4283262571
0.76090717 -0.057653189 0.031654805 4283067247
0.76072896 -0.056753486 0.031325191 4283199346
0.76048398 -0.055890843 0.031060725 4282476905
0.74255484 -0.048199937 0.039657444 4282804338
0.74188137 -0.047651187 0.039849341 4281621348
0.74114674 -0.047147244 0.040106401 4281950824
0.74041331 -0.046645001 0.040363476 4281949027
0.73968101 -0.046144456 0.04062058 4281554267
0.73888838 -0.045689777 0.040942863 4281817439
0.7381587 -0.045192808 0.041199982 4281949793
0.73736882 -0.044742137 0.041522279 4283264372
0.73664176 -0.04424873 0.041779429 4283134585
0.73591584 -0.043757007 0.042036563 4283660159
0.73513025 -0.043312252 0.042358905 4284647306
0.73434615 -0.042869583 0.042681247 4284581513
0.73344237 -0.042520374 0.043134004 4285173136
0.73272204 -0.042036459 0.043391198 4285168006
0.73176169 -0.041738629 0.043909192 4283001202
0.73086399 -0.041397855 0.044361994 4282081899
0.72984833 -0.041153088 0.044945225 4282213485
0.7288354 -0.040912107 0.045528471 4282143326
0.72782522 -0.04067491 0.046111733 4281679686
0.72687727 -0.040394321 0.046629816 4281023551
0.72616935 -0.039927676 0.046887085 4281481537
0.72546262 -0.0394627 0.047144368 4281018931
0.72475708 -0.038999423 0.047401667 4281018931
0.72405279 -0.0385378 0.04765895 4281020721
0.723526 -0.03793326 0.047720641 4281282345
0.72299963 -0.037329122 0.047782332 4281610027
0.7224735 -0.036725447 0.047844008 4281216806
0.72200596 -0.036073327 0.047840476 4281611564
0.72153854 -0.035421193 0.047836944 4281021735
0.721071 -0.034769073 0.047833413 4281284905
0.7206614 -0.034067452 0.047764674 4282989867
0.72025156 -0.033365443 0.04769592 4289635160
0.71978378 -0.032712907 0.047692388 4292661638
0.71931595 -0.032060355 0.047688857 4292792914
0.71890545 -0.031357497 0.047620088 4292593220
0.71843755 -0.030704737 0.047616556 4292791367
0.71802658 -0.030001253 0.047547817 4289303386
0.7175585 -0.029348284 0.047544286 4284105739
0.71709037 -0.02869533 0.047540754 4281214499
0.71662229 -0.028042361 0.047537208 4280560685
0.71615422 -0.027389392 0.047533676 4281218098
0.71568614 -0.026736423 0.047530144 4281481270
0.71516198 -0.026135445 0.04759182 4282530609
0.71463811 -0.025534913 0.047653541 4291018649
0.71417034 -0.024882361 0.047650009 4291348627
0.71370256 -0.024229825 0.047646478 4291877830
0.71323478 -0.023577273 0.047642946 4291680451
0.71276695 -0.022924721 0.047639415 4291222215
0.71229917 -0.022272184 0.047635883 4291156685
0.71188641 -0.021566153 0.047567099 4290302408
0.71147335 -0.020859733 0.047498345 4289379260
0.71105999 -0.020152867 0.047429547 4284313199
0.71064627 -0.019445583 0.047360793 4283126362
0.7101779 -0.018792182 0.047357246 4282732370
0.70981807 -0.018029764 0.047223225 4282601549
0.70940346 -0.017321229 0.047154441 4282865235
0.76866037 -0.068048209 0.032643303 4279703064
0.7682234 -0.067308202 0.032574564 4279440149
0.76778615 -0.066567764 0.032505795 4279178265
0.76721358 -0.065899506 0.03256695 4279640101
0.76664126 -0.065231673 0.032628059 4279969066
0.76613653 -0.064527541 0.032624245 4280035372
0.76549757 -0.063897282 0.032750338 4280364076
0.76499313 -0.063193575 0.032746524 4280758060
0.76448864 -0.06248986 0.032742724 4281021485
0.7639842 -0.061786145 0.032738909 4281284657
0.76347971 -0.061082438 0.032735109 4280955692
0.7631079 -0.060302734 0.032601386 4281284657
0.76260316 -0.05959861 0.032597572 4281153588
0.7622304 -0.058817655 0.032463849 4280298796
0.76179123 -0.058074489 0.03239508 4280298796
0.76161456 -0.057175562 0.032066479 4280100652
0.76130533 -0.05635263 0.031867772 4280035374
0.76106054 -0.055489182 0.031604111 4281024584
0.76087981 -0.054584578 0.031275466 4282603879
0.76050228 -0.053796887 0.031141698 4282801258
0.74279523 -0.048019335 0.040499032 4282276961
0.74205947 -0.047514945 0.040755287 4281487443
0.74138713 -0.046968564 0.040946588 4281686105
0.74059153 -0.046511233 0.041267857 4282014559
0.73979741 -0.046055987 0.041589126 4282080350
0.7390666 -0.045558557 0.041845441 4282080350
0.73827535 -0.045107305 0.04216674 4282277213
0.73760855 -0.044568732 0.042358086 4283659643
0.73682004 -0.04412128 0.042679399 4284450443
0.73609424 -0.043630794 0.042935744 4284582796
0.73530859 -0.043187335 0.043257087 4285567894
0.73458529 -0.04270044 0.043513447 4283923069
0.73368102 -0.042352557 0.043964803 4283263089
0.73290008 -0.041915625 0.044286191 4284183675
0.73199975 -0.041573212 0.044737577 4282936174
0.73116177 -0.041187346 0.045123979 4282867561
0.73020542 -0.04089722 0.045640409 4281749080
0.72925138 -0.040610492 0.046156839 4283390050
0.72841954 -0.040233031 0.046543285 4282139713
0.72764909 -0.039810851 0.046864748 4280958008
0.72693974 -0.039343312 0.047121197 4280824375
0.72617215 -0.038925141 0.047442704 4281018929
0.7255246 -0.038413301 0.047634169 4281084722
0.72487795 -0.037902713 0.047825664 4281150769
0.72429109 -0.037345096 0.047952145 4281282604
0.72376359 -0.036739811 0.048013613 4281348647
0.72329509 -0.036086217 0.048010081 4280954659
0.72276807 -0.035481542 0.048071548 4281020452
0.72241628 -0.034729868 0.047937989 4281676837
0.72194761 -0.03407605 0.047934443 4282860057
0.72147894 -0.033422247 0.047930911 4292595312
0.72101021 -0.032768428 0.047927365 4292922953
0.72054154 -0.032114625 0.047923833 4292857160
0.72013044 -0.031410635 0.047855273 4293052989
0.71966159 -0.030756608 0.047851726 4293052989
0.71919274 -0.030102596 0.047848195 4293054021
0.71878099 -0.029397726 0.047779635 4290619680
0.71836895 -0.028692454 0.047711059 4288778791
0.7178998 -0.028038025 0.047707513 4288845626
0.71743065 -0.027383581 0.047703981 4286280256
0.7169615 -0.026729137 0.047700435 4281939467
0.71643603 -0.026126564 0.047761917 4283321120
0.71591079 -0.025524467 0.047823414 4292069233
0.715442 -0.02487044 0.047819868 4291609950
0.71508497 -0.024111375 0.047686264 4292005235
0.71456003 -0.023509651 0.047747761 4292270503
0.71414667 -0.022802502 0.047679186 4292336296
0.71367753 -0.022148058 0.047675639 4291680701
0.71320838 -0.021493614 0.047672108 4291155652
0.7128495 -0.020732045 0.047538474 4291024598
0.71238005 -0.020077184 0.047534943 4282798942
0.71202034 -0.019314334 0.047401309 4282469977
0.71160531 -0.01860486 0.047332719 4282929753
0.71118993 -0.017894953 0.047264129 4282404434
0.71082866 -0.017129987 0.047130495 4282602833
0.71046686 -0.016364202 0.046996832 4282800210
0.70999616 -0.015707657 0.046993285 4282734417
0.76930869 -0.067618996 0.033119783 4279245591
0.76887143 -0.066878237 0.033051223 4279179281
0.7685017 -0.066100895 0.032917932 4279179281
0.76799601 -0.065395504 0.032914117 4279313183
0.76755786 -0.064653493 0.032845542 4279313183
0.76698464 -0.063984707 0.032906473 4279576103
0.76647902 -0.063279308 0.032902658 4279904552
0.76597333 -0.06257391 0.032898843 4280036387
0.76540077 -0.061905965 0.032959759 4280233250
0.76482844 -0.061238423 0.03302069 4279838492
0.76432312 -0.060533449 0.033016875 4280232739
0.76388419 -0.059790403 0.032948315 4280232739
0.76344496 -0.059046924 0.032879755 4280693039
0.76300544 -0.058303028 0.032811165 4281022519
0.76263165 -0.057519972 0.032677829 4280956726
0.76225722 -0.056736097 0.032544494 4280825654
0.76188219 -0.055951372 0.032411143 4280628275
0.76157206 -0.055126473 0.032213047 4280824890
0.76119566 -0.054339841 0.032079697 4280559416
0.76081872 -0.053552389 0.031946331 4280625209
0.76050621 -0.052724108 0.031748205 4280428597
0.74309754 -0.047795936 0.041274622 4281883738
0.74236155 -0.047292352 0.041530073 4281683791
0.74168909 -0.046746701 0.041720778 4282078033
0.74089313 -0.046290264 0.042041048 4282343004
0.74009866 -0.045835912 0.042361319 4282212190
0.73930573 -0.045383677 0.042681605 4282212190
0.73857605 -0.044888943 0.042937145 4284055939
0.73784757 -0.044395909 0.043192655 4284648855
0.73705882 -0.043949559 0.043512985 4284845201
0.73633289 -0.043460101 0.043768525 4284448130
0.73560822 -0.042972311 0.04402408 4283788403
0.73470163 -0.042623192 0.044474021 4282933094
0.73391896 -0.042185292 0.044794396 4282671719
0.73313773 -0.041749477 0.045114771 4283265137
0.7323581 -0.041315779 0.045435145 4282343524
0.73164034 -0.040837675 0.04569076 4281089605
0.73074299 -0.040501401 0.046140775 4283260774
0.72990787 -0.040121168 0.046526015 4281679164
0.72907454 -0.039743453 0.046911255 4281876531
0.72824305 -0.039368242 0.047296494 4281284142
0.72765201 -0.038805351 0.047422558 4280889648
0.72694254 -0.03833884 0.047678232 4280954928
0.72629368 -0.037826002 0.047869101 4281020721
0.72570491 -0.037266269 0.047995165 4281151535
0.72505772 -0.03675577 0.048186019 4281151788
0.7245881 -0.0361007 0.048182487 4281217579
0.72405976 -0.035494462 0.048243761 4281151511
0.72359031 -0.0348396 0.048240215 4282138406
0.72317934 -0.034135491 0.048171848 4290555770
0.72270972 -0.033480421 0.048168302 4293515896
0.72229826 -0.03277567 0.04809995 4293644877
0.72182852 -0.032120392 0.048096403 4293250119
0.72135878 -0.031465113 0.048092857 4293250106
0.72094667 -0.030759543 0.04802449 4293250106
0.72047681 -0.030104041 0.048020944 4293052736
0.72000694 -0.029448554 0.048017398 4292001614
0.71953702 -0.028793067 0.048013851 4286606592
0.7191242 -0.028086424 0.04794547 4292462445
0.71865416 -0.027430713 0.047941923 4292004708
0.71818411 -0.026775017 0.047938377 4290951752
0.71771407 -0.026119307 0.04793483 4290754375
0.71724403 -0.025463611 0.047931284 4291412305
0.71677399 -0.0248079 0.047927737 4291741522
0.71630394 -0.024152204 0.047924191 4292266329
0.71588993 -0.023443893 0.047855809 4292593497
0.71541971 -0.022787988 0.047852248 4292330337
0.71500528 -0.022079021 0.047783867 4292725095
0.71453488 -0.021422893 0.04778032 4290361486
0.7141754 -0.020659864 0.047647074 4290166964
0.71370476 -0.020003319 0.047643527 4283257946
0.71328926 -0.019292906 0.047575146 4282009424
0.71292841 -0.018527955 0.047441915 4282864733
0.71256697 -0.017762199 0.047308668 4282274133
0.71204084 -0.017159104 0.047369957 4282406998
0.7118423 -0.016228124 0.047042161 4282473041
0.71147901 -0.015459821 0.0469089 4282407248
0.76958835 -0.066411637 0.033464566 4279180564
0.76908237 -0.065705821 0.033460751 4279180051
0.76864421 -0.064963505 0.03339237 4279444767
0.76820576 -0.064220779 0.033324018 4279378974
0.76769948 -0.063514538 0.033320189 4279510310
0.7671932 -0.062808298 0.033316374 4279641896
0.76661968 -0.062139392 0.033377081 4280036906
0.76611358 -0.06143336 0.033373266 4279772964
0.76560748 -0.060727328 0.033369437 4279904550
0.76510131 -0.060021296 0.033365622 4279970343
0.76466179 -0.059277102 0.033297256 4280233001
0.76415551 -0.058570862 0.033293441 4280560431
0.76371551 -0.057826012 0.033225045 4279968298
0.76327521 -0.057080761 0.033156663 4280099884
0.76290059 -0.056296051 0.033023715 4280627509
0.76252538 -0.055510506 0.032890782 4280759093
0.7620182 -0.054802999 0.032886952 4281022267
0.7616421 -0.054016188 0.032753989 4281087549
0.76119995 -0.053268403 0.032685623 4281153342
0.76075757 -0.052520186 0.032617211 4280495921
0.76037991 -0.051731259 0.032484248 4279970861
0.74339938 -0.047572941 0.042049393 4282475360
0.74272579 -0.047026515 0.042239502 4282211418
0.74199057 -0.04652521 0.042494178 4282342489
0.74119425 -0.046069667 0.042813435 4282539870
0.74039942 -0.045616239 0.043132722 4282343776
0.73960608 -0.045164913 0.043451995 4281949018
0.73893809 -0.044626281 0.043642133 4284058255
0.73814744 -0.044178739 0.04396145 4284517784
0.73741996 -0.043688178 0.044216186 4285239193
0.73669368 -0.043199286 0.044470906 4282736229
0.73602992 -0.042666569 0.044661075 4283262059
0.73524475 -0.042226598 0.044980437 4283064680
0.73440003 -0.041834727 0.045364395 4282737510
0.73367894 -0.041352987 0.04561916 4282672487
0.73283756 -0.040965766 0.046003148 4280039486
0.73211914 -0.040487826 0.046257958 4280695617
0.73134148 -0.040058404 0.046577364 4281221961
0.73050511 -0.039678097 0.046961382 4280956726
0.72979081 -0.039205849 0.047216207 4281415982
0.72901767 -0.038782746 0.047535658 4281350189
0.72836566 -0.038266435 0.047725901 4280889646
0.7277146 -0.037751362 0.047916144 4280823853
0.72712386 -0.037189513 0.048041806 4281021232
0.72653377 -0.036628485 0.048167467 4281218864
0.72594428 -0.036068305 0.048293129 4281218349
0.72535539 -0.03550896 0.048418805 4281415980
0.72488487 -0.034852624 0.048415244 4282071816
0.72441441 -0.034196287 0.048411697 4287598428
0.72394389 -0.033539951 0.048408136 4292990837
0.72347337 -0.032883614 0.048404589 4292857423
0.7230612 -0.032177523 0.048336402 4293053506
0.72259051 -0.031520978 0.048332855 4293053506
0.72211987 -0.030864432 0.048329294 4293249854
0.72170705 -0.030157492 0.048261136 4292987196
0.72123623 -0.029500738 0.048257589 4292856390
0.72076547 -0.028843984 0.048254028 4292068439
0.72035205 -0.028136194 0.04818584 4287791894
0.71993828 -0.027427986 0.048117667 4289041720
0.71946716 -0.026770815 0.048114121 4289568568
0.71899605 -0.026113629 0.04811056 4287136012
0.71852493 -0.025456458 0.048106998 4292398939
0.71805388 -0.024799287 0.048103452 4291741009
0.71758276 -0.024142101 0.04809989 4291806802
0.71711165 -0.02348493 0.048096329 4292134743
0.71664053 -0.022827744 0.048092782 4292265048
0.71622545 -0.022117659 0.04802458 4292988017
0.71581006 -0.021407142 0.047956392 4291343192
0.71539438 -0.020696208 0.047888204 4286676824
0.71503395 -0.019931287 0.047755361 4284508514
0.71456206 -0.019273058 0.047751799 4283586398
0.71420074 -0.018506885 0.04761897 4281745990
0.71378374 -0.017794043 0.047550738 4282667092
0.71342134 -0.01702641 0.047417909 4282538323
0.71300352 -0.01631251 0.047349706 4282276429
0.71269476 -0.01548858 0.047152206 4282210634
0.71238506 -0.014663368 0.046954691 4282079048
0.76979977 -0.065237612 0.033875659 4279905831
0.76915735 -0.064604133 0.034000531 4279775528
0.76865107 -0.063897893 0.033996716 4280038700
0.76848292 -0.063006595 0.03367117 4279643944
0.76790839 -0.062336512 0.033731669 4279775282
0.76740152 -0.061629429 0.03372784 4280169525
0.76669312 -0.06103529 0.033917055 4280037421
0.76625371 -0.060290992 0.033848882 4279774249
0.76574713 -0.05958432 0.033845067 4279775019
0.76530731 -0.058839366 0.033776879 4279577386
0.76480055 -0.058132499 0.033773065 4280560431
0.76442665 -0.057348251 0.033640534 4280034087
0.76398587 -0.056602046 0.033572346 4279770915
0.7634787 -0.055894554 0.033568516 4280165414
0.76310349 -0.055108368 0.033435971 4279903525
0.76266181 -0.054360926 0.033367783 4280494638
0.76221979 -0.053613037 0.03329958 4280165414
0.76171201 -0.052904695 0.033295751 4280625965
0.76120424 -0.052196339 0.033291906 4280758060
0.76069647 -0.051487997 0.033288077 4280760629
0.76031876 -0.050698459 0.033155516 4282144078
0.74388945 -0.047219709 0.042630255 4282604127
0.74321532 -0.046673343 0.042819723 4282736997
0.7424168 -0.04621619 0.043137997 4282802790
0.74161977 -0.045761123 0.043456256 4282671204
0.74082428 -0.045308188 0.04377453 4282606948
0.74003029 -0.044857338 0.044092804 4283528050
0.73923784 -0.04440859 0.044411108 4283990405
0.73850876 -0.043916941 0.044665024 4283069307
0.73778087 -0.043426976 0.044918969 4281883234
0.73705417 -0.042938694 0.045172915 4282934891
0.73632872 -0.042452097 0.04542686 4283196778
0.7356658 -0.041921332 0.045616433 4283262571
0.73488146 -0.041483954 0.045934781 4281287756
0.73415959 -0.041002423 0.046188772 4281352266
0.73343897 -0.04052256 0.046442747 4280890945
0.73265886 -0.040091082 0.04676114 4280825404
0.73200136 -0.039567903 0.046950743 4281022783
0.73122394 -0.03914021 0.047269151 4281022267
0.73050833 -0.038667306 0.047523186 4281414711
0.72979385 -0.038196087 0.047777221 4281284406
0.72914058 -0.037678778 0.047966838 4280627246
0.72854793 -0.037114799 0.048092097 4280824625
0.72789633 -0.03659983 0.048281729 4280825138
0.72730505 -0.036037728 0.048406973 4281417273
0.72671437 -0.035476461 0.048532233 4281350952
0.72624266 -0.034818441 0.048528671 4284769316
0.72571194 -0.03420946 0.048589543 4290164342
0.72524035 -0.033551648 0.048585981 4293054052
0.72482753 -0.03284438 0.048517987 4293249603
0.72429723 -0.03223604 0.048578858 4293184050
0.72388411 -0.031528354 0.048510864 4293184575
0.72347069 -0.030820265 0.0484429 4293184575
0.7229988 -0.030162036 0.048439339 4293053510
0.72252691 -0.029503807 0.048435777 4292001855
0.72211289 -0.02879487 0.048367783 4289964582
0.72164088 -0.028136432 0.048364207 4290491192
0.72116888 -0.027477995 0.048360646 4291872845
0.72069687 -0.026819557 0.048357084 4292727902
0.72022486 -0.026161104 0.048353523 4292858970
0.71975285 -0.025502667 0.048349962 4292068169
0.71928084 -0.024844229 0.0483464 4292200009
0.71880883 -0.024185777 0.048342839 4292134216
0.71833682 -0.023527354 0.048339263 4292068939
0.71786481 -0.022868901 0.048335701 4291543628
0.71744907 -0.022157669 0.048267722 4291673712
0.71708924 -0.021392971 0.048135296 4284897333
0.71661675 -0.020733908 0.048131734 4284173610
0.71625602 -0.019967958 0.047999293 4283519809
0.71583891 -0.019254833 0.047931284 4283062603
0.71547711 -0.018487394 0.047798842 4282996556
0.71505928 -0.017773211 0.047730818 4282404419
0.71469641 -0.017004311 0.047598377 4282601798
0.71438801 -0.016180083 0.047401473 4283523666
0.71396887 -0.015464008 0.047333464 4283064398
0.71360415 -0.014692575 0.047200993 4282601547
0.76923221 -0.063501216 0.034541115 4280433458
0.76872563 -0.062794551 0.034537286 4279709737
0.76815146 -0.062125206 0.034597605 4279709751
0.76771247 -0.061381236 0.034529641 4279972921
0.7671386 -0.060712308 0.034589961 4280235318
0.76676649 -0.059929937 0.034457847 4280235318
0.76619273 -0.059261248 0.034518167 4280104243
0.76575303 -0.058516204 0.034450188 4280499517
0.76524627 -0.057809323 0.034446359 4280036654
0.76487267 -0.057024881 0.034314245 4279969064
0.76443201 -0.056278586 0.034246251 4279837478
0.76399106 -0.055531859 0.034178272 4280100132
0.76354986 -0.054784715 0.034110263 4279837730
0.76304233 -0.054076791 0.034106433 4279968546
0.76266646 -0.05328919 0.03397429 4280099619
0.76215869 -0.052580833 0.03397046 4280099619
0.76165092 -0.051872492 0.033966616 4280494375
0.76107776 -0.051204637 0.034026965 4280364076
0.76063532 -0.050455809 0.033958957 4282142543
0.74370515 -0.046320006 0.043400377 4283461487
0.7429058 -0.045863107 0.043717608 4282803303
0.7419827 -0.045496866 0.044163242 4282474338
0.74118674 -0.045044601 0.044480518 4282935143
0.74039221 -0.044594452 0.044797823 4282606178
0.7396614 -0.044101492 0.045050919 4282474338
0.73893178 -0.04361023 0.04530403 4282344299
0.73820335 -0.043120652 0.045557171 4282476137
0.73753786 -0.042587206 0.045746103 4282738795
0.73687333 -0.04205507 0.045935079 4283198061
0.73614824 -0.041570112 0.04618822 4282474338
0.73548561 -0.041040674 0.046377197 4280825152
0.73476279 -0.04055889 0.046630368 4281482568
0.73410213 -0.040032208 0.046819359 4280890943
0.73332077 -0.039600372 0.047136739 4281022269
0.73266226 -0.039076626 0.04732573 4281153855
0.73194408 -0.038601369 0.047578946 4281152568
0.73128754 -0.038080364 0.047767952 4281415227
0.73057163 -0.037608251 0.048021168 4281284408
0.72997713 -0.037042141 0.048146009 4280627248
0.72938317 -0.036476865 0.048270836 4280890420
0.72878981 -0.035912454 0.048395678 4280957240
0.7281971 -0.035348862 0.048520505 4281350450
0.72760493 -0.03478612 0.048645347 4282005258
0.72713202 -0.034126416 0.048641786 4292594794
0.72665912 -0.033466712 0.04863821 4293252724
0.72618616 -0.032807007 0.048634648 4293314894
0.72565442 -0.032196835 0.048695281 4293576251
0.7251817 -0.031537339 0.04869172 4293642548
0.72470891 -0.030877843 0.048688143 4294302293
0.72423613 -0.030218348 0.048684582 4292460089
0.72382158 -0.029508486 0.048616797 4291737148
0.72340679 -0.028798178 0.048548982 4292133198
0.72293371 -0.028138265 0.04854542 4290489907
0.72246063 -0.027478352 0.048541844 4292332624
0.72198761 -0.026818439 0.048538268 4291937866
0.72157198 -0.026107103 0.048470497 4292135499
0.72109878 -0.025446981 0.048466921 4292266054
