# .PCD v0.7 - Point Cloud Data file format
VERSION 0.7
FIELDS x y z rgb
SIZE 4 4 4 4
TYPE F F F U
COUNT 1 1 1 1
WIDTH 1024
HEIGHT 1
VIEWPOINT 0 0 0 1 0 0 0
POINTS 1024
DATA ascii
0.70684272 -0.021290645 0.042619973 4282137138
0.70764536 -0.021266267 0.042406321 4279571981
0.70844954 -0.021241441 0.042192638 4279769360
0.70925516 -0.021216109 0.04197894 4279439112
0.71006227 -0.021190301 0.041765228 4279570456
0.71087086 -0.021164045 0.041551515 4279438872
0.71168095 -0.021137312 0.041337758 4279504665
0.71246672 -0.021041259 0.041192472 4279438609
0.71325344 -0.020944908 0.041047186 4280226844
0.71404117 -0.0208482 0.040901884 4280096790
0.71482992 -0.020751208 0.040756568 4280294682
0.7155928 -0.020585388 0.040679723 4280294682
0.71641028 -0.020556286 0.040465906 4279900949
0.71722925 -0.020526707 0.040252075 4279574291
0.7183525 -0.021247938 0.039284706 4279311117
0.71906602 -0.020943686 0.039344817 4279113738
0.7199192 -0.020980313 0.039062396 4280557854
0.72080261 -0.021084338 0.038711458 4282268989
0.70245528 -0.022642165 0.043750435 4281282599
0.70322907 -0.02255027 0.0436057 4281348390
0.70393443 -0.022248477 0.043665692 4280690717
0.70468605 -0.022086397 0.04358919 4280888096
0.70543814 -0.021924168 0.043512672 4281808171
0.70623845 -0.021901011 0.04329966 4282005037
0.70699209 -0.021738335 0.043223143 4282268207
0.70774615 -0.021575466 0.04314661 4281281314
0.70854998 -0.021551237 0.042933539 4281347107
0.709405 -0.021665156 0.042583942 4281939757
0.71018714 -0.021570578 0.042439103 4280824106
0.71097028 -0.021475703 0.042294264 4279902753
0.71178001 -0.021449581 0.042081147 4279639581
0.71259123 -0.021422967 0.041868001 4278717447
0.71335173 -0.021258071 0.041791379 4279438860
0.7141391 -0.021161854 0.041646495 4279569423
0.71495402 -0.021134079 0.041433319 4279767574
0.71574354 -0.021037146 0.041288406 4279635988
0.7165612 -0.021008506 0.041075185 4279965466
0.71738029 -0.02097939 0.040861964 4279834901
0.71822846 -0.021018267 0.040580407 4280296477
0.7190786 -0.021056503 0.040298849 4279770133
0.72009915 -0.021503836 0.039607465 4279966742
0.72095478 -0.021540344 0.039325833 4282268722
0.70201099 -0.023742035 0.043952242 4281348390
0.70269507 -0.023369476 0.044080034 4281216804
0.70340109 -0.023067281 0.044139802 4281677355
0.704153 -0.02290529 0.044063494 4280625696
0.70488203 -0.022673205 0.044055238 4280888868
0.70563465 -0.022510946 0.043978944 4281019432
0.70638782 -0.022348538 0.043902621 4282006320
0.70714146 -0.022186011 0.043826297 4281874986
0.70792001 -0.022092924 0.043681905 4281544999
0.70869952 -0.021999523 0.043537512 4281742378
0.70952988 -0.022044718 0.043256998 4281874734
0.71031189 -0.021950528 0.043112576 4281481005
0.71112031 -0.021925345 0.042900071 4281350189
0.71193022 -0.021899685 0.042687565 4281087017
0.71271563 -0.021804392 0.042543098 4280626462
0.71350211 -0.021708786 0.042398617 4280691739
0.71431595 -0.02168186 0.042186067 4280623636
0.715078 -0.021516621 0.042109668 4280162065
0.71589428 -0.02148892 0.041897073 4279438342
0.71668494 -0.021391973 0.041752547 4279832846
0.71750396 -0.021363407 0.041539937 4279702543
0.71837974 -0.021471545 0.041191116 4279900700
0.71917433 -0.021373346 0.04104656 4279967261
0.72011054 -0.02161704 0.040561497 4279769882
0.72136223 -0.022611618 0.039327323 4280491546
0.72501945 -0.023227274 0.037726983 4281347870
0.72594827 -0.023395941 0.037309781 4281216286
0.72682035 -0.023427859 0.03702879 4281018655
0.72766429 -0.023391351 0.036815897 4280623897
0.72854006 -0.023422092 0.036534846 4280422675
0.7294178 -0.023452222 0.036253795 4280552992
0.73026669 -0.02341412 0.036040843 4280422426
0.73114818 -0.023443073 0.035759732 4281343528
0.73206294 -0.023538798 0.035410464 4281609006
0.73291701 -0.023499042 0.035197467 4281084717
0.73370892 -0.023324326 0.035120696 4281150767
0.7345975 -0.023350999 0.034839511 4280954926
0.70151985 -0.024703741 0.044292167 4281347618
0.70227277 -0.024541587 0.044216037 4281544997
0.70295799 -0.024168298 0.044343427 4280887067
0.70364225 -0.023795322 0.044470817 4280822048
0.70434868 -0.023492813 0.044530392 4280690467
0.70510167 -0.023330674 0.044454277 4280822053
0.70583141 -0.023098335 0.044446006 4281084717
0.70658505 -0.022935942 0.044369891 4281741865
0.70731503 -0.022703543 0.044361621 4281743400
0.70809394 -0.022610679 0.044217646 4281677610
0.70889854 -0.022587195 0.044005781 4281743403
0.70965469 -0.022423998 0.043929636 4281546794
0.7104618 -0.022399724 0.043717772 4281415980
0.71127033 -0.022375003 0.043505877 4282403640
0.71205467 -0.02228038 0.043361858 4281745710
0.71286595 -0.022254795 0.043149933 4281349919
0.71365249 -0.022159487 0.043005869 4281678114
0.71446645 -0.022133023 0.04279393 4282005800
0.71522856 -0.021967933 0.042717725 4281084450
0.71601808 -0.021871686 0.042573616 4280558106
0.71680856 -0.021775141 0.042429522 4279899663
0.71784699 -0.022297725 0.04167445 4279702284
0.71872473 -0.022406071 0.041326642 4279505435
0.71966076 -0.022650972 0.04084301 4279768607
0.72060025 -0.022894815 0.040359348 4279573790
0.72151482 -0.023068994 0.039943546 4280557339
0.72248966 -0.023379132 0.039391905 4282137136
0.72326607 -0.023209482 0.039315537 4281809450
0.72410131 -0.023176268 0.039103329 4281283106
0.72508502 -0.023483559 0.038551599 4281217054
0.72601342 -0.023653343 0.038135648 4281282079
0.72685504 -0.023618072 0.037923396 4280822301
0.72772831 -0.023650289 0.037643194 4280295957
0.72863388 -0.023749754 0.037295073 4280226577
0.72945011 -0.023645028 0.037150666 4280290586
0.73035991 -0.023743153 0.036802486 4280355609
0.73127222 -0.023840502 0.03645429 4280684574
0.73212421 -0.023801938 0.036241889 4280226330
0.73291445 -0.023627907 0.036165372 4280557092
0.73380077 -0.023655966 0.035885036 4280492580
0.73462486 -0.023548707 0.035740539 4281085742
0.7355147 -0.023575678 0.035460159 4280690984
0.73630863 -0.023400456 0.035383597 4281085995
0.73713589 -0.023292184 0.035239056 4281282604
0.73786485 -0.022982523 0.035298392 4281085223
0.73862666 -0.022739992 0.03528975 4280560671
0.70044827 -0.026395649 0.044168741 4281085473
0.70115942 -0.026091531 0.044228032 4281413152
0.70182544 -0.025646269 0.044422597 4281544738
0.70248997 -0.025201514 0.044617161 4281478945
0.70317584 -0.024827689 0.044744119 4281544486
0.7038607 -0.024454176 0.044871092 4281281575
0.70459116 -0.024221614 0.044862822 4281347117
0.70529807 -0.023918822 0.044922158 4281083945
0.70602828 -0.023686334 0.044913873 4281083432
0.70678252 -0.023523927 0.044837967 4281609257
0.70753729 -0.023361385 0.04476203 4281675302
0.70829248 -0.023198649 0.044686109 4281413413
0.70907295 -0.023105606 0.044542521 4281873964
0.70985448 -0.02301228 0.044398934 4281217063
0.71063691 -0.022918627 0.044255316 4281417524
0.71142036 -0.022824645 0.044111699 4282074421
0.71223056 -0.022799879 0.043900415 4281877042
0.71301621 -0.022705197 0.043756768 4282269999
0.71380287 -0.022610202 0.043613106 4281939998
0.71461701 -0.022584185 0.043401778 4281743650
0.71535242 -0.022350043 0.043393433 4281416484
0.71619576 -0.022392452 0.043114409 4281745449
0.7169866 -0.022296116 0.042970702 4281679402
0.71799833 -0.022751302 0.042285562 4282862906
0.71882081 -0.022722617 0.042074144 4281548070
0.71972877 -0.022899911 0.041659623 4280955933
0.7207526 -0.023351267 0.040974334 4280033807
0.72172439 -0.023663685 0.040424377 4280492563
0.72258526 -0.02370052 0.040145144 4281808939
0.7234481 -0.02373673 0.039865881 4282138161
0.72442973 -0.024046004 0.03931582 4281480231
0.72517967 -0.023807243 0.039307311 4281085216
0.72607821 -0.023909822 0.038960293 4280953630
0.72694921 -0.023943439 0.038680941 4280822305
0.72779197 -0.023908317 0.038469285 4280164375
0.72863621 -0.023872703 0.038257614 4279635990
0.72954333 -0.023972526 0.037910491 4279767055
0.73039103 -0.023935825 0.037698776 4279635469
0.73127145 -0.023966447 0.037419304 4279767055
0.73212236 -0.023928717 0.037207574 4280159763
0.73300642 -0.023958161 0.036928073 4279767576
0.73386055 -0.023919418 0.036716267 4279965466
0.73471618 -0.023880199 0.036504477 4279374354
0.73554087 -0.023773089 0.036360383 4279834905
0.73636651 -0.023665681 0.036216289 4280427042
0.7371273 -0.023423448 0.036207661 4280690214
0.7379213 -0.023248389 0.036131293 4280887846
0.73868239 -0.023006082 0.03612268 4280756510
0.7394098 -0.022696763 0.036181778 4280624924
0.7401706 -0.02245453 0.03617315 4280494106
0.74082899 -0.022011712 0.036367804 4280494108
0.74158907 -0.021769717 0.036359191 4280428315
0.74231452 -0.02146104 0.036418334 4280559899
0.74296969 -0.021019265 0.036613002 4280559899
0.74365848 -0.020644501 0.036739916 4281018653
0.69936699 -0.028094366 0.044049919 4280758050
0.70005965 -0.027718037 0.044176385 4280758048
0.7007513 -0.027342007 0.044302866 4281347618
0.70141995 -0.026895478 0.044496775 4281806627
0.70206469 -0.026378587 0.044758126 4282004006
0.70275271 -0.026003763 0.044884652 4281478175
0.70343965 -0.025629237 0.045011193 4281543716
0.70412564 -0.025255039 0.045137748 4281477412
0.70485735 -0.025022089 0.045129448 4281542951
0.70554191 -0.024648368 0.045256004 4281477158
0.70627308 -0.024415568 0.045247719 4281279781
0.70700431 -0.024182767 0.045239434 4281411880
0.70773548 -0.023949966 0.045231134 4281411878
0.70849127 -0.02378723 0.045155406 4281083683
0.70927233 -0.023694351 0.045012236 4280688925
0.71002936 -0.023531228 0.044936478 4281347370
0.71083748 -0.02350764 0.04472582 4281285176
0.71162152 -0.023413792 0.04458262 4281943609
0.71240652 -0.023319647 0.04443939 4281746230
0.71319252 -0.023225188 0.044296145 4282270771
0.71397954 -0.023130417 0.044152901 4281612316
0.71476752 -0.023035347 0.044009626 4281612069
0.71552974 -0.022870556 0.043933839 4282008367
0.7163465 -0.022844225 0.043723077 4282403125
0.7171647 -0.022817403 0.043512315 4281810988
0.71820474 -0.023343146 0.042761728 4282666299
0.7191112 -0.02352193 0.042348459 4282403640
0.71996462 -0.023561791 0.042070135 4282535226
0.72087657 -0.023738831 0.041656822 4282401839
0.72182 -0.023983732 0.041175991 4281677859
0.72279567 -0.024296284 0.040627614 4281677353
0.72363019 -0.024264261 0.040416658 4282006575
0.72449547 -0.024300382 0.040138185 4281611817
0.7252152 -0.023993328 0.040197209 4280954657
0.7261427 -0.024165422 0.039783701 4280954657
0.72698313 -0.024131522 0.039572686 4280887841
0.72785532 -0.024165422 0.039294153 4280164118
0.72869903 -0.024130523 0.039083079 4279833882
0.72954416 -0.024095118 0.038872018 4279570446
0.73042178 -0.024127305 0.038593397 4279504653
0.73130137 -0.024158835 0.03831479 4279963407
0.73215145 -0.024121881 0.038103655 4279963407
0.73300302 -0.024084434 0.03789252 4279307023
0.73385608 -0.024046525 0.037681356 4279899160
0.73467839 -0.023940518 0.037537709 4279308563
0.73553413 -0.023901761 0.0373265 4279308563
0.73635864 -0.023795024 0.037182838 4280821547
0.73711824 -0.023553193 0.037174225 4280625193
0.73787785 -0.023311362 0.037165612 4280822053
0.73867089 -0.02313678 0.037089467 4280888098
0.73939699 -0.022827685 0.037148386 4281151270
0.74012262 -0.022518769 0.03720732 4280624922
0.74084777 -0.022210002 0.037266254 4280296727
0.74153799 -0.021834463 0.03739275 4280559129
0.7422272 -0.021459237 0.037519276 4280624922
0.74295032 -0.021151081 0.037578255 4280822301
0.74370819 -0.020909801 0.037569672 4280756508
0.74435979 -0.020468667 0.037763759 4280164373
0.74500984 -0.020028025 0.037957877 4280297247
0.74576622 -0.019787207 0.037949294 4280560673
0.69827592 -0.029799849 0.043935701 4282073140
0.69895107 -0.029350713 0.04412894 4281943609
0.69964612 -0.028973326 0.044254944 4280298279
0.70034015 -0.028596207 0.044381008 4281020200
0.7010113 -0.028148323 0.044574276 4281282854
0.70168096 -0.027700931 0.044767559 4281348390
0.70232677 -0.027183056 0.04502809 4281414183
0.70299327 -0.026736692 0.045221403 4281281825
0.703704 -0.026432306 0.045280308 4280951579
0.70439118 -0.026057422 0.045406416 4281608994
0.70510072 -0.025753453 0.045465335 4281871652
0.70578611 -0.025379092 0.045591488 4281674273
0.70651829 -0.025145978 0.045583189 4281345308
0.70722634 -0.024842501 0.045642123 4282005037
0.70795828 -0.024609461 0.045633823 4281281316
0.70871484 -0.024446651 0.045558289 4281150759
0.70949674 -0.024353817 0.045415491 4281150759
0.71025455 -0.024190634 0.045339942 4280887587
0.71103823 -0.024097249 0.045197159 4281084715
0.71179724 -0.023933664 0.04512158 4281611312
0.71258259 -0.023839757 0.044978753 4282335035
0.71336901 -0.023745522 0.044835925 4282598709
0.71415633 -0.023650959 0.044693083 4281810472
0.71494466 -0.023556083 0.04455024 4281810472
0.715734 -0.02346091 0.044407368 4281678380
0.7165243 -0.023365423 0.044264495 4282336310
0.71731561 -0.023269624 0.044121593 4281877044
0.71881771 -0.022869468 0.044037595 4282467130
0.72102886 -0.02419515 0.042271614 4283059006
0.72289103 -0.024617076 0.041380018 4282399023
0.72372526 -0.024585679 0.041169703 4282005039
0.72461951 -0.024691284 0.040824771 4282202418
0.72545719 -0.024658799 0.040614381 4281086243
0.72638571 -0.024831533 0.040202111 4281086497
0.72704673 -0.024386898 0.040395483 4280887841
0.72788811 -0.024353206 0.040185079 4280361497
0.72873092 -0.024319068 0.039974645 4280292896
0.72957528 -0.024284452 0.039764196 4279701781
0.73042107 -0.024249345 0.039553732 4279374097
0.73129958 -0.024281904 0.039275944 4279505166
0.73214859 -0.024245784 0.03906545 4279439373
0.73299909 -0.024209216 0.038854912 4279111178
0.73385108 -0.024172142 0.038644373 4279112975
0.73467225 -0.024066821 0.038501158 4279177998
0.73549438 -0.023961201 0.038357913 4279375377
0.73631752 -0.023855254 0.038214654 4280753184
0.73710865 -0.023681432 0.038138747 4280494375
0.737867 -0.023439988 0.038130149 4280296996
0.73862535 -0.023198545 0.038121551 4281019432
0.73934996 -0.022889793 0.038180277 4280887846
0.74010807 -0.022648439 0.038171679 4280822051
0.74083191 -0.022339895 0.038230449 4280494110
0.74152076 -0.021964446 0.038356557 4280822303
0.74220866 -0.021589324 0.038482666 4281347105
0.74289554 -0.0212145 0.038608804 4281347105
0.7436167 -0.020906821 0.038667589 4280886808
0.74433732 -0.020599335 0.03872636 4281018394
0.74498606 -0.020158604 0.038919911 4280887067
0.74563324 -0.019718349 0.039113447 4280624667
0.74609786 -0.018945932 0.039643824 4280690460
0.69789577 -0.031204477 0.043884695 4281677864
0.69857389 -0.030753896 0.044077262 4282072622
0.69925058 -0.030303746 0.044269845 4283587664
0.69992578 -0.029854074 0.044462457 4281614139
0.70059955 -0.029404879 0.044655085 4280887837
0.70127177 -0.028956175 0.044847712 4281742376
0.7019425 -0.028507903 0.045040399 4281742376
0.7026118 -0.028060123 0.045233071 4281808169
0.70327961 -0.02761282 0.045425743 4281479458
0.70396888 -0.027236909 0.045551434 4280689429
0.70465714 -0.02686131 0.04567714 4281413152
0.70536786 -0.02655679 0.045735866 4281544738
0.70605439 -0.026181743 0.045861572 4281478945
0.70678782 -0.025948241 0.045853257 4280951831
0.70752126 -0.02571474 0.045844942 4281873449
0.70825464 -0.025481224 0.045836627 4281412900
0.70898807 -0.025247723 0.045828313 4281281575
0.70974642 -0.025084525 0.045752957 4281478954
0.71048009 -0.024850935 0.045744643 4281413161
0.71123916 -0.024687484 0.045669302 4280953380
0.71202439 -0.024593949 0.045526877 4281413933
0.71278471 -0.024430126 0.045451492 4281084968
0.71359783 -0.024405941 0.045242012 4282335283
0.71438599 -0.024311453 0.045099571 4282139183
0.71514857 -0.0241469 0.045024171 4282006827
0.71593845 -0.024051875 0.044881716 4281875759
0.7167294 -0.023956537 0.044739246 4282336310
0.71749389 -0.023791373 0.044663802 4282008119
0.71814835 -0.023348287 0.044856668 4281481521
0.72149557 -0.023377851 0.043884158 4283583801
0.72468477 -0.024944112 0.04164511 4282201644
0.72534418 -0.024499491 0.041837886 4281349669
0.72621107 -0.024536416 0.041561037 4281218851
0.72707999 -0.024572685 0.041284189 4281086243
0.72789013 -0.024471208 0.04114148 4280888864
0.72873187 -0.024437919 0.040931672 4279902491
0.72960597 -0.02447255 0.040654764 4279505934
0.73045093 -0.024438247 0.040444896 4279308561
0.73126602 -0.024335206 0.040302157 4279440143
0.73211366 -0.024300009 0.040092289 4279505936
0.73299468 -0.024332449 0.039815277 4279112203
0.73381346 -0.024228215 0.039672509 4279177745
0.73466557 -0.024191633 0.039462551 4279374354
0.73551917 -0.024154529 0.039252624 4279374354
0.73630863 -0.023981437 0.039176911 4279570193
0.73706549 -0.02374047 0.039168328 4280690216
0.73785567 -0.02356711 0.03909263 4280428582
0.73861277 -0.023326054 0.039084047 4280494375
0.73936993 -0.023085013 0.039075464 4280428582
0.7400589 -0.022709176 0.039201155 4280363042
0.74081552 -0.022468284 0.039192572 4280363040
0.74150306 -0.022092924 0.039318293 4280494626
0.74218965 -0.021717876 0.039444029 4281018657
0.74291021 -0.021410212 0.039502606 4281018657
0.743595 -0.021035731 0.039628357 4281280796
0.74424332 -0.020594642 0.039821252 4281083669
0.74489015 -0.020153984 0.040014192 4281149208
0.74564356 -0.01991412 0.040005654 4281016859
0.69747055 -0.032470003 0.043971375 4282466605
0.69810975 -0.031874493 0.044296876 4282400812
0.6988095 -0.031494901 0.044422045 4282466605
0.69950831 -0.031115636 0.044547215 4283189563
0.70018458 -0.0306651 0.044739217 4288119395
0.70085943 -0.030215055 0.044931218 4290289740
0.70153272 -0.029765487 0.045123219 4288382023
0.70220459 -0.029316381 0.045315266 4286539819
0.70289743 -0.028939024 0.04544048 4282592018
0.70358932 -0.02856192 0.045565739 4282001687
0.70425719 -0.028114066 0.04575783 4281346326
0.70494688 -0.027737707 0.045883119 4281084700
0.70563555 -0.027361661 0.046008393 4281348899
0.70634693 -0.027056754 0.04606688 4281480485
0.70705783 -0.026752025 0.046125367 4280825376
0.70776826 -0.02644743 0.046183869 4280560153
0.70850271 -0.026213601 0.046175554 4281217313
0.70926183 -0.026050329 0.046100378 4281217313
0.70999646 -0.025816426 0.046092048 4281217313
0.71073115 -0.025582522 0.046083719 4281282595
0.71149123 -0.025418907 0.046008557 4281085218
0.71227753 -0.025325373 0.045866549 4281216804
0.71303892 -0.025161356 0.045791373 4281151011
0.71380079 -0.024997205 0.045716181 4280822046
0.71456307 -0.024832889 0.04564099 4281216809
0.71535259 -0.024738327 0.045498952 4281610029
0.71611619 -0.024573609 0.045423716 4281741615
0.71690744 -0.02447851 0.045281649 4282004787
0.71769971 -0.024383038 0.045139596 4282729023
0.71824378 -0.023661032 0.045599252 4282730302
0.71911955 -0.023774222 0.04525657 4282598964
0.72167575 -0.023901179 0.044429004 4284044352
0.72261846 -0.024149805 0.04395248 4283912251
0.72347724 -0.024190009 0.043676525 4282004519
0.72558618 -0.025164932 0.042255089 4281415462
0.72627455 -0.024788961 0.042380378 4281415462
0.72711277 -0.024757311 0.04217121 4281546024
0.72804362 -0.024931312 0.041761383 4281743403
0.72879362 -0.024692535 0.041752875 4281547566
0.72960532 -0.024590909 0.041610569 4280296729
0.7304492 -0.024557427 0.041401356 4279309836
0.73129457 -0.024523482 0.041192114 4279638031
0.73210979 -0.024420753 0.041049764 4279243273
0.73295784 -0.024385929 0.040840507 4279112457
0.73380738 -0.024350643 0.040631235 4279177745
0.73462605 -0.024246797 0.040488869 4279374356
0.73544568 -0.024142638 0.040346473 4279374356
0.73626631 -0.024038151 0.040204063 4279307025
0.73705482 -0.023865506 0.040128589 4280755754
0.73781049 -0.023624942 0.040120021 4280625191
0.73859972 -0.023452073 0.040044501 4280297509
0.73932177 -0.023143783 0.040102884 4280231716
0.74007738 -0.022903189 0.040094316 4280297762
0.74083304 -0.022662625 0.040085748 4280428835
0.74151945 -0.022287264 0.040211067 4280889384
0.7422049 -0.021912247 0.04033637 4281084448
0.74292451 -0.021604747 0.040394783 4281018655
0.74364352 -0.021297425 0.040453166 4281018394
0.74432653 -0.020923153 0.040578529 4280689681
0.74500853 -0.020549223 0.040703893 4281148956
0.74568957 -0.020175606 0.040829271 4281082915
0.74622428 -0.01953496 0.041222513 4281148708
0.69834489 -0.032617331 0.04464373 4282664502
0.69904554 -0.032237127 0.044768468 4282796088
0.69974524 -0.031857237 0.04489322 4284893238
0.70042235 -0.031405941 0.045084581 4292457300
0.70109797 -0.030955151 0.045275956 4292721728
0.70179421 -0.030576348 0.045400754 4292064857
0.70248944 -0.030197859 0.045525566 4292591201
0.70316112 -0.029748306 0.045716986 4293119652
0.70385414 -0.029370531 0.045841798 4290162578
0.70454615 -0.028993085 0.045966655 4287530356
0.70526052 -0.028687105 0.046024889 4282528805
0.7059508 -0.02831018 0.04614976 4282265633
0.70666385 -0.028004572 0.046208039 4281871904
0.7073524 -0.027628198 0.046332911 4281348640
0.70806432 -0.027323008 0.046391189 4281612071
0.7088002 -0.027088717 0.046382844 4280954911
0.70953608 -0.026854426 0.0463745 4280757532
0.71024692 -0.026549518 0.046432793 4281086243
0.71103311 -0.026456356 0.046291187 4281216032
0.71176922 -0.026221976 0.046282843 4281281314
0.71250534 -0.02598761 0.046274498 4281149730
0.71326751 -0.025823548 0.046199501 4281149730
0.71405643 -0.025729507 0.046057865 4281084450
0.71479326 -0.025494903 0.046049505 4281084198
0.71558368 -0.025400415 0.045907855 4281478956
0.71634799 -0.025235608 0.045832857 4281281577
0.7171129 -0.025070637 0.045757845 4281413163
0.7179057 -0.024975359 0.045616165 4281544749
0.7186718 -0.024810016 0.045541137 4281346857
0.71949434 -0.024783835 0.045332775 4282466871
0.72031838 -0.024757192 0.045124412 4283190594
0.72120082 -0.024869069 0.044782668 4283058236
0.72202832 -0.024841323 0.044574246 4283848006
0.7229442 -0.025021121 0.044165775 4283256891
0.72374618 -0.024922937 0.044024006 4282402357
0.72463751 -0.025031969 0.043682173 4282402357
0.72547191 -0.025002003 0.043473691 4281810990
0.72636771 -0.025109634 0.043131813 4282269744
0.72717535 -0.025009632 0.042989954 4282860598
0.72801447 -0.024978191 0.042781398 4282268461
0.72882432 -0.024877474 0.042639554 4282991160
0.72966611 -0.024845168 0.042430952 4282334767
0.73044705 -0.024675086 0.042355761 4281876783
0.73129129 -0.024642006 0.042147145 4281220136
0.73210537 -0.024539948 0.042005241 4281351722
0.73292041 -0.024437577 0.041863322 4280759837
0.73376864 -0.024403244 0.041654646 4279901453
0.73461837 -0.024368405 0.041445971 4279243540
0.73543686 -0.024264947 0.041304022 4279963670
0.73622346 -0.024093077 0.041228756 4280161049
0.73701054 -0.023921072 0.041153476 4281280043
0.73779809 -0.023748875 0.041078225 4281018403
0.73855251 -0.023508683 0.041069672 4280690208
0.73930693 -0.023268506 0.041061118 4280756001
0.74009544 -0.023096025 0.040985808 4280558881
0.7408157 -0.022788122 0.041044012 4281018405
0.74153543 -0.022480413 0.041102186 4281017120
0.74225473 -0.022172838 0.041160375 4281280292
0.74293834 -0.021798044 0.041285321 4281214499
0.74369174 -0.021558166 0.041276783 4280952351
0.74437392 -0.021183878 0.041401729 4280558356
0.74512684 -0.020944163 0.041393191 4280822046
0.74580753 -0.020570323 0.041518152 4281085223
0.74648714 -0.020196781 0.041643143 4280887844
0.76095754 -0.023367837 0.034910932 4279965452
0.76173389 -0.023120657 0.034902126 4279900944
0.76255059 -0.02293919 0.034826532 4279178517
0.76316488 -0.022429317 0.035084948 4280296226
0.76377726 -0.0219201 0.035343394 4280296226
0.76442873 -0.021476984 0.035535038 4280561455
0.69858044 -0.033361405 0.044992179 4283123516
0.69928199 -0.032980561 0.045116514 4282991930
0.70000392 -0.032672003 0.045174465 4289432160
0.7006821 -0.032219857 0.045365199 4292458050
0.70138073 -0.031839982 0.04548955 4292590140
0.70205617 -0.0313887 0.045680329 4291407971
0.70277488 -0.031081155 0.04573831 4292789624
0.70347053 -0.030702218 0.045862705 4293122995
0.70414233 -0.030252144 0.046053499 4292729280
0.70483571 -0.029873908 0.046177924 4292334788
0.70552814 -0.029495969 0.046302363 4289768861
0.70624316 -0.029189587 0.046360403 4285952867
0.7069577 -0.028883368 0.046418428 4282200099
0.7076717 -0.028577283 0.046476498 4281937951
0.70836091 -0.028200418 0.046600938 4281676835
0.70909828 -0.02796565 0.046592578 4281217313
0.70983565 -0.027730897 0.046584219 4280888348
0.71054792 -0.027425364 0.046642303 4281348645
0.71128505 -0.02719067 0.046633944 4281543716
0.71204776 -0.027026609 0.04655914 4281281314
0.71281093 -0.026862338 0.046484351 4281149728
0.71354854 -0.026627496 0.046475992 4281083935
0.71428615 -0.026392654 0.046467632 4281083935
0.71507686 -0.026298374 0.046326384 4281149476
0.71584177 -0.026133582 0.04625158 4281347370
0.71658015 -0.025898501 0.046243206 4281084198
0.71737307 -0.025803506 0.046101928 4281413163
0.71813947 -0.025638252 0.046027094 4281544749
0.71890634 -0.02547282 0.045952275 4281214501
0.71970177 -0.02537705 0.045810968 4281281064
0.72052646 -0.025350675 0.045603216 4281807408
0.72132409 -0.025254205 0.045461878 4282202929
0.72218025 -0.025296569 0.045187607 4283520588
0.7230674 -0.025407776 0.044846848 4282994240
0.72389847 -0.02537939 0.044639006 4282337334
0.72473109 -0.025350511 0.04443115 4282666299
0.72556508 -0.025321171 0.044223279 4282732090
0.72646064 -0.025429711 0.04388243 4282797367
0.72723764 -0.025261059 0.043807447 4282663730
0.72807616 -0.025230303 0.043599531 4282334765
0.72888541 -0.025130123 0.043458089 4283122485
0.72966462 -0.024960786 0.043383092 4282597937
0.73050684 -0.024928838 0.043175131 4281876013
0.73131901 -0.024827719 0.043033645 4281679663
0.7321322 -0.024726287 0.042892143 4281745456
0.7329464 -0.024624541 0.042750627 4281483308
0.73379374 -0.024590954 0.042542607 4281153825
0.73457766 -0.024420097 0.042467594 4280099868
0.7354275 -0.02438575 0.042259514 4279899409
0.73621291 -0.024214402 0.042184472 4280096788
0.73703206 -0.024111092 0.042042911 4281542953
0.73778522 -0.023871288 0.042034373 4281216034
0.73857206 -0.023699492 0.041959316 4280756255
0.73932552 -0.023459613 0.041950777 4280690462
0.74007893 -0.023219749 0.041942239 4280690462
0.74083233 -0.02297987 0.0419337 4281149730
0.74158573 -0.022740006 0.041925147 4281345312
0.74230421 -0.022432536 0.041983128 4281214240
0.7430222 -0.022125229 0.042041138 4281214240
0.74373966 -0.021818042 0.042099148 4281280546
0.74449235 -0.021578416 0.04209061 4280229907
0.7452091 -0.021271497 0.04214862 4280822301
0.74592531 -0.020964697 0.042206645 4281348649
0.7466411 -0.020658091 0.04226467 4281809200
0.7473197 -0.020284578 0.042389259 4282138165
0.76014191 -0.023760721 0.035894424 4280887067
0.76099682 -0.023646012 0.035752445 4280030477
0.76173234 -0.023333117 0.035810247 4279704594
0.76242697 -0.022954494 0.035934642 4279310616
0.76316118 -0.022641972 0.035992473 4280361249
0.76381326 -0.02219817 0.036183506 4279703319
0.76442266 -0.021689206 0.036441147 4280231718
0.76503015 -0.021180868 0.036698818 4281346604
0.6995188 -0.033725232 0.045466185 4284172347
0.70022029 -0.033344105 0.045590103 4292394337
0.7009207 -0.032963276 0.045714051 4292065089
0.7016421 -0.032654718 0.045771793 4291933532
0.70234084 -0.03227444 0.045895755 4293647804
0.70301616 -0.031822726 0.046085894 4294239941
0.70373535 -0.031514853 0.046143681 4293516997
0.704454 -0.031207144 0.046201468 4293320904
0.70514905 -0.030828059 0.046325445 4293059278
0.70584309 -0.030449286 0.046449453 4292731083
0.70653611 -0.030070826 0.046573475 4291875774
0.70725209 -0.029763982 0.046631292 4290491301
0.70796752 -0.029457286 0.046689123 4290359717
0.70868248 -0.029150769 0.046746939 4286412902
0.70939696 -0.028844386 0.046804786 4282266142
0.71013582 -0.028609142 0.046796411 4282331935
0.71087468 -0.028373912 0.046788037 4282331433
0.71161354 -0.028138682 0.046779662 4282398000
0.7123524 -0.027903438 0.046771273 4281544488
0.71306539 -0.027597532 0.046829134 4281414183
0.71383005 -0.027432963 0.046754524 4281545769
0.71459526 -0.027268261 0.046679914 4281282595
0.715361 -0.027103364 0.046605304 4281151009
0.71607345 -0.026797637 0.04666315 4281545769
0.71683967 -0.026632577 0.04658854 4281479208
0.71763366 -0.026537582 0.046447664 4281216036
0.71837354 -0.026302025 0.046439275 4281544496
0.71916902 -0.026206568 0.046298385 4281412910
0.71990937 -0.025970861 0.04628998 4281676082
0.72070634 -0.025874928 0.046149075 4280162843
0.72150433 -0.025778666 0.04600817 4281085225
0.72236097 -0.025821522 0.045734718 4281218349
0.72319049 -0.025794148 0.045527488 4281611562
0.72405076 -0.025835857 0.045253992 4282664505
0.7248835 -0.025807425 0.045046762 4283717193
0.72565806 -0.025639698 0.044972032 4283060537
0.72652334 -0.025679842 0.044698492 4283323709
0.72732997 -0.025580838 0.044557467 4283454527
0.72813755 -0.025481507 0.044416428 4282862390
0.72894615 -0.025381893 0.044275403 4283320631
0.72972471 -0.025212899 0.044200629 4282531633
0.73056632 -0.025181666 0.043993279 4281810220
0.73134631 -0.02501224 0.043918505 4281614640
0.7321586 -0.024911419 0.043777421 4281614640
0.73297191 -0.024810284 0.043636322 4281680435
0.73378617 -0.024708837 0.043495238 4282009402
0.73460144 -0.024607077 0.043354109 4282074423
0.73538488 -0.024436548 0.043279305 4282730041
0.73620188 -0.024334237 0.043138161 4281874732
0.73698658 -0.024163291 0.043063343 4281610529
0.73780531 -0.024060443 0.042922184 4281478945
0.73859125 -0.023889124 0.04284732 4280822301
0.73937768 -0.023717627 0.042772487 4280624924
0.74013036 -0.023477986 0.042763948 4280361752
0.74088305 -0.023238361 0.04275541 4281083933
0.74163568 -0.02299872 0.042746887 4281148956
0.74238837 -0.02275908 0.042738348 4281083163
0.74314106 -0.022519439 0.04272981 4280754198
0.74389374 -0.022279814 0.042721286 4280952347
0.74461067 -0.021972656 0.042779073 4281479458
0.74536312 -0.021733105 0.04277055 4281546024
0.74611557 -0.021493539 0.042762011 4282007345
0.74683148 -0.021186695 0.042819858 4281678380
0.74758363 -0.020947203 0.042811334 4281545769
0.74833584 -0.020707726 0.042802796 4281543968
0.75917047 -0.02388595 0.037141353 4280689175
0.76018149 -0.02403748 0.036734283 4280360210
0.76087606 -0.023658544 0.036858276 4279244559
0.76164997 -0.023412153 0.036849514 4279312148
0.76238346 -0.023099735 0.036907107 4278851098
0.76311642 -0.022787452 0.036964759 4280034337
0.76376706 -0.022343606 0.037155181 4279836958
0.76437509 -0.021834403 0.037412032 4280033054
0.76502252 -0.021391585 0.037602484 4281411103
0.77638537 0.0012414902 0.053364187 4281278768
0.70045841 -0.034089342 0.04594101 4292197710
0.70118141 -0.033780053 0.045998544 4292261966
0.70188206 -0.033398896 0.046122059 4292396427
0.70260388 -0.033089995 0.046179608 4294110670
0.70332521 -0.032781258 0.046237141 4293650119
0.70402336 -0.032400861 0.046360701 4294504916
0.7047205 -0.032020763 0.046484262 4294767834
0.70543987 -0.031712651 0.04654184 4292532930
0.7061587 -0.031404719 0.046599418 4292599495
0.70687711 -0.031096935 0.046656996 4292467909
0.70757103 -0.030717865 0.046780601 4291545274
0.70828813 -0.030410454 0.046838209 4289109909
0.7090292 -0.030174509 0.046829805 4292203456
0.70974565 -0.029867381 0.046887398 4288979079
0.71048647 -0.02963151 0.046878994 4285755222
0.71120209 -0.029324576 0.046936631 4282200869
0.71191728 -0.029017836 0.046994239 4281608994
0.71265757 -0.028782129 0.04698585 4281741863
0.71339792 -0.028546423 0.04697746 4281546024
0.71413827 -0.028310716 0.046969071 4281546024
0.71487856 -0.02807501 0.046960667 4281348899
0.71567225 -0.027980462 0.046820208 4281612069
0.71638614 -0.027674079 0.046877861 4281546024
0.71712673 -0.027438298 0.046869472 4281348388
0.71794951 -0.027413562 0.046662942 4281216802
0.71869081 -0.027177542 0.046654537 4281545776
0.71946001 -0.027011707 0.046580076 4281545774
0.72017342 -0.026705503 0.046637729 4281742128
0.72094315 -0.026539505 0.046563268 4280623647
0.7217133 -0.026373371 0.046488792 4280954409
0.72254175 -0.026346818 0.046282217 4280955944
0.72331345 -0.026180193 0.046207756 4281479206
0.72414434 -0.026152864 0.046001107 4282598459
0.72500634 -0.026194692 0.04572843 4283453768
0.72581059 -0.026096776 0.045587853 4283388480
0.72661585 -0.025998548 0.04544726 4283324227
0.72736132 -0.025761187 0.045438811 4283324481
0.72819865 -0.025731832 0.045232102 4283125305
0.72900665 -0.025632709 0.04509151 4283191098
0.72978449 -0.025464132 0.045016944 4282926389
0.73062551 -0.02543357 0.044810221 4282994492
0.73140484 -0.025264531 0.04473564 4282207542
0.73221648 -0.025164261 0.044594973 4281681198
0.73299706 -0.024994805 0.044520408 4281549360
0.73381042 -0.024893984 0.044379711 4282009915
0.7345922 -0.024724141 0.044305131 4282205244
0.73544014 -0.024691388 0.044098318 4282401337
0.73625648 -0.024589613 0.043957591 4282138165
0.73704052 -0.024419069 0.043882981 4282006572
0.73785859 -0.024316743 0.043742239 4282795834
0.73864383 -0.024145797 0.043667629 4280955177
0.73942959 -0.023974717 0.04359296 4280559903
0.74021584 -0.023803458 0.043518335 4280428317
0.74100256 -0.023632064 0.043443665 4281085218
0.74175501 -0.023392513 0.043435127 4280822044
0.7425074 -0.023152947 0.043426603 4281084446
0.74329513 -0.022981212 0.043351948 4280952860
0.74401224 -0.02267383 0.043409541 4282334513
0.74480045 -0.022501931 0.043334886 4281808171
0.74555314 -0.022262305 0.043326348 4282202929
0.74630582 -0.022022665 0.043317825 4281742896
0.74705851 -0.021783024 0.043309286 4281282345
0.7478112 -0.021543398 0.043300748 4281150759
0.7486009 -0.021371052 0.043226063 4281216032
0.74931651 -0.021064118 0.043283686 4281740066
0.75711995 -0.023719177 0.038922697 4280690969
0.75808489 -0.023807317 0.0385831 4280689429
0.75921023 -0.024160638 0.037978753 4281083163
0.76002216 -0.023981228 0.037903816 4280359440
0.76075459 -0.02366896 0.037961245 4280162065
0.76152676 -0.023423105 0.037952498 4279965204
0.76229894 -0.023177266 0.037943736 4279573275
0.76303041 -0.022865325 0.03800118 4279968546
0.76372039 -0.022487506 0.038124815 4280034339
0.76432693 -0.021978095 0.038380861 4280557090
0.76501447 -0.021601066 0.038504541 4282001959
0.77677536 0.00048749149 0.05362083 4281412662
0.77748799 0.00071439147 0.053612754 4281412399
0.70214444 -0.034216478 0.046408176 4294242006
0.70286739 -0.033907041 0.046465501 4294375386
0.70358992 -0.033597782 0.046522841 4293914835
0.7042892 -0.03321667 0.046645954 4293257675
0.70503348 -0.032979712 0.04663752 4293585870
0.70575452 -0.03267093 0.046694875 4293389263
0.70645159 -0.032290518 0.046818018 4290954675
0.70717138 -0.031982094 0.046875402 4287796611
0.70789069 -0.031673864 0.046932757 4287991430
0.70860946 -0.031365752 0.046990156 4290820529
0.70932782 -0.031057835 0.047047526 4293124817
0.71007037 -0.030821413 0.047039106 4292600522
0.71078795 -0.030513704 0.047096491 4292863694
0.71150506 -0.030206174 0.04715389 4292075209
0.71224707 -0.029969916 0.047145486 4291023545
0.71298915 -0.029733658 0.047137067 4286217576
0.71373123 -0.0294974 0.047128662 4283520063
0.71447325 -0.029261142 0.047120243 4282136353
0.71524179 -0.029095694 0.047046006 4281808410
0.71598411 -0.028859362 0.047037587 4282006052
0.71672636 -0.028623015 0.047029167 4281414433
0.71746868 -0.028386682 0.047020763 4281809191
0.71823847 -0.028220862 0.046946496 4281348642
0.71898103 -0.027984455 0.046938077 4281546794
0.71972358 -0.027748033 0.046929657 4281088298
0.72046608 -0.027511612 0.046921238 4281153323
0.72123706 -0.027345374 0.046846986 4280890151
0.72200859 -0.027179003 0.046772704 4280758052
0.72278053 -0.027012438 0.046698436 4281350700
0.723553 -0.026845753 0.046624124 4282072370
0.7243554 -0.026748791 0.046483994 4282335285
0.72512907 -0.026581675 0.046409681 4282466871
0.72593319 -0.026484147 0.046269521 4282598714
0.72673827 -0.026386291 0.046129346 4281482034
0.72751397 -0.026218563 0.046055034 4281746230
0.72835141 -0.026189655 0.045848936 4282797885
0.72909766 -0.025952056 0.045840472 4282008369
0.72993737 -0.025922418 0.045634389 4283059260
0.73071575 -0.025753826 0.045560047 4282993467
0.73149467 -0.0255851 0.045485675 4283060285
0.73230588 -0.025485277 0.045345426 4282862906
0.73308605 -0.025316134 0.045271069 4282732090
0.733899 -0.025215775 0.045130789 4283126848
0.73471302 -0.025115088 0.04499051 4282205494
0.73549509 -0.024945319 0.044916123 4282139703
0.73631078 -0.02484408 0.044775814 4282271289
0.73716086 -0.024811164 0.044569582 4282467128
0.7379452 -0.024640694 0.04449518 4282269751
0.73876387 -0.024538517 0.044354841 4281875509
0.7395494 -0.02436763 0.044280425 4282073142
0.74033546 -0.024196625 0.044205964 4282599486
0.74112195 -0.02402544 0.044131532 4280494878
0.74190903 -0.023854122 0.044057071 4280888868
0.74269652 -0.023682609 0.043982625 4281415212
0.74348456 -0.023510978 0.043908164 4282138935
0.74423748 -0.023271248 0.043899626 4282270521
0.74499041 -0.023031548 0.043891087 4282071861
0.7457794 -0.022859558 0.043816611 4281742896
0.74653256 -0.022619769 0.043808073 4280756777
0.74732232 -0.022447541 0.043733612 4280888363
0.74803889 -0.022140175 0.043790996 4281020202
0.7488662 -0.022035256 0.043650568 4281347622
0.74969453 -0.021930024 0.043510124 4282132773
0.75056136 -0.021891728 0.043303728 4281542171
0.75146747 -0.021920204 0.043031335 4281476378
0.75370705 -0.022712663 0.041760951 4281216284
0.75716019 -0.023990393 0.039756 4281281564
0.75812459 -0.024079502 0.039417431 4280887319
0.75905198 -0.024101213 0.039144799 4280952347
0.75986195 -0.023922548 0.0390701 4280689175
0.76067245 -0.023743734 0.0389954 4280162065
0.76144314 -0.023498371 0.038986668 4280162583
0.76221383 -0.023252994 0.038977936 4279639066
0.76294374 -0.022941366 0.039035171 4280098847
0.76367319 -0.022629902 0.039092407 4280164640
0.76431954 -0.022186384 0.039281681 4280753184
0.76500601 -0.021809354 0.039404944 4281935914
0.7768234 0.00017757714 0.054342076 4280887595
0.77778143 8.6382031e-05 0.054003567 4281676852
0.77864313 0.00012303889 0.05379723 4281874986
0.7031315 -0.034725636 0.046753421 4290691503
0.70387775 -0.034488052 0.046744958 4291481019
0.704624 -0.034250453 0.046736509 4292862669
0.70532417 -0.03386873 0.04685922 4294111964
0.70602334 -0.033487305 0.046981931 4290428328
0.70676857 -0.033250034 0.046973482 4289046675
0.70751387 -0.033012748 0.046965033 4291020463
0.70821106 -0.032631963 0.047087789 4290952365
0.70893151 -0.032323167 0.047144935 4292598475
0.70965153 -0.032014534 0.04720208 4293389013
0.71037102 -0.03170608 0.047259256 4293323220
0.71111506 -0.031469181 0.047250822 4293125837
0.71185911 -0.031232297 0.047242388 4293060298
0.71257758 -0.030924127 0.047299564 4293323468
0.7133472 -0.03075853 0.047225505 4292466108
0.71409118 -0.030521646 0.047217071 4292268729
0.71483523 -0.030284762 0.047208637 4289503865
0.71557927 -0.030047879 0.047200203 4284500999
0.71632332 -0.029810995 0.047191769 4283580698
0.71704036 -0.029503286 0.04724896 4281938201
0.71778411 -0.029266477 0.04724054 4282530338
0.71852791 -0.029029667 0.047232106 4282399529
0.71929944 -0.028863445 0.047158033 4282203433
0.72001547 -0.028556049 0.047215238 4281677864
0.72075927 -0.02831924 0.047206804 4281349417
0.72150308 -0.028082445 0.04719837 4281217831
0.72227561 -0.02791591 0.047124282 4281546544
0.7230196 -0.027679011 0.047115847 4282927679
0.72382212 -0.027582303 0.046976119 4281939755
0.72459608 -0.02741529 0.046902016 4282005550
0.72537059 -0.027248099 0.046827912 4282268722
0.72614557 -0.027080789 0.046753809 4281939757
0.72692102 -0.0269133 0.046679705 4282269497
0.72769701 -0.026745662 0.046605572 4281547568
0.72850418 -0.026647478 0.046465769 4282598709
0.72925043 -0.026409879 0.046457306 4282006572
0.73005909 -0.026311219 0.046317518 4282268720
0.73083729 -0.026142865 0.046243355 4282138681
0.73161596 -0.025974348 0.046169221 4283454023
0.73242706 -0.025874913 0.046029374 4283125058
0.73323917 -0.025775164 0.045889527 4282993472
0.73401988 -0.025606036 0.045815334 4283059263
0.73486638 -0.025574729 0.045609787 4282599736
0.73564851 -0.025405109 0.045535609 4282732605
0.73646432 -0.025304183 0.045395702 4282403640
0.73731452 -0.025271714 0.045190096 4282271541
0.73809886 -0.025101393 0.045115888 4282138931
0.73888373 -0.024930894 0.045041665 4282336310
0.73973739 -0.024897337 0.044836015 4282270517
0.74048936 -0.024657935 0.044827491 4282402103
0.74127591 -0.024486899 0.044753268 4281875763
0.74209791 -0.024384007 0.044613287 4281942322
0.74288577 -0.024212599 0.044539034 4282008369
0.74367404 -0.024041012 0.044464782 4282008369
0.7444272 -0.023801222 0.044456244 4282403127
0.74525219 -0.023697376 0.044316247 4282600506
0.74604195 -0.023525327 0.044241965 4281680687
0.74679589 -0.0232853 0.044233426 4281023016
0.74758643 -0.023113027 0.044159129 4281088809
0.74830365 -0.022805244 0.044216335 4281219882
0.74909472 -0.022632807 0.044142038 4281480235
0.74996096 -0.022595212 0.043936253 4281871654
0.75079107 -0.022489712 0.043796197 4281476896
0.75173581 -0.022585973 0.043458879 4281805861
0.75283539 -0.02295053 0.042858511 4281347107
0.75390112 -0.023246452 0.042323843 4281347620
0.75573355 -0.023298278 0.041780502 4281347620
0.75708276 -0.024059787 0.040785387 4281281312
0.75800669 -0.024083257 0.040513605 4281216284
0.75889289 -0.024039313 0.040307596 4280887067
0.75982046 -0.024061605 0.040035799 4280821274
0.76058972 -0.023816705 0.040027082 4280424470
0.76139927 -0.023638368 0.039952591 4280490778
0.76216871 -0.023393378 0.039943874 4280098077
0.76289737 -0.023082003 0.040000916 4280229916
0.76358438 -0.022704437 0.040123776 4280229916
0.76431179 -0.02239342 0.040180862 4280952099
0.76516342 -0.022281125 0.040040553 4281873714
0.77721405 -0.00057843328 0.054601356 4286547844
0.77832115 -0.00086115301 0.054066226 4285232237
0.7789377 -0.00050607324 0.054189891 4286678132
0.77990115 -0.00059635937 0.053852364 4286743925
0.70341837 -0.035618171 0.046978042 4283255884
0.70416611 -0.03538011 0.046969563 4286481271
0.70486814 -0.034997448 0.047091842 4290557607
0.70563853 -0.034831777 0.047017992 4291676088
0.7063393 -0.034449488 0.04714027 4292402121
0.70708632 -0.034211665 0.047131807 4291481019
0.70783329 -0.033973843 0.047123343 4289310622
0.70853209 -0.033592209 0.047245651 4292599243
0.70925426 -0.033282727 0.047302574 4293717724
0.70997596 -0.032973364 0.047359526 4293454806
0.71072197 -0.032735854 0.047351062 4293849564
0.71144289 -0.03242676 0.047408 4293519827
0.71218866 -0.032189324 0.047399551 4293585872
0.71290886 -0.031880453 0.047456518 4294045392
0.71365434 -0.031643093 0.047448069 4293517249
0.71439987 -0.031405732 0.047439605 4293254077
0.71514541 -0.031168386 0.047431156 4291539057
0.71589088 -0.030931026 0.047422707 4290947911
0.71663642 -0.030693665 0.047414258 4288316212
0.71738195 -0.030456305 0.047405794 4284895007
0.71812749 -0.030218944 0.047397345 4283447561
0.71884543 -0.029910788 0.047454312 4283120674
0.71959072 -0.029673517 0.047445863 4282005537
0.72030795 -0.029365569 0.047502846 4282072617
0.72102469 -0.029057816 0.047559842 4281743657
0.72182649 -0.028961673 0.047420517 4281612071
0.72251421 -0.028583571 0.047542959 4282072118
0.72331703 -0.028487116 0.047403619 4282532671
0.72406232 -0.028249845 0.04739517 4281874734
0.72483706 -0.028082728 0.047321275 4282137136
0.7255826 -0.027845383 0.047312826 4282005550
0.72635812 -0.027678058 0.047238901 4282268209
0.72716445 -0.027580485 0.047099516 4282269497
0.72788018 -0.027273029 0.047156543 4281611567
0.7286877 -0.027175069 0.047017142 4281808946
0.72943419 -0.026937395 0.047008678 4282268974
0.73024321 -0.026838973 0.046869263 4282203181
0.73102164 -0.026670694 0.046795338 4282006327
0.73176891 -0.026432782 0.04678686 4282730050
0.73258013 -0.026333645 0.046647429 4282730050
0.7334246 -0.02630353 0.046442494 4282927424
0.73420554 -0.026134461 0.046368539 4282993215
0.73501974 -0.026034385 0.046229064 4282927677
0.73586786 -0.026003048 0.046024099 4282731838
0.73665106 -0.025833279 0.0459501 4282600252
0.73746818 -0.025732264 0.045810595 4282666045
0.73828632 -0.025630921 0.04567109 4282731838
0.73907149 -0.025460526 0.045597076 4282337334
0.73992556 -0.025427327 0.045392051 4282336564
0.74071217 -0.025256455 0.045317993 4282336564
0.7414993 -0.025085405 0.045243964 4281547566
0.74232191 -0.024982661 0.045104399 4281745197
0.74311024 -0.024811223 0.045030355 4281943339
0.74389911 -0.024639651 0.044956297 4282074925
0.74468845 -0.0244679 0.044882223 4282338097
0.74547833 -0.024296016 0.044808149 4282271539
0.74626863 -0.024123952 0.044734076 4281943087
0.74705946 -0.023951754 0.044659972 4281483560
0.74785084 -0.023779362 0.044585899 4281812525
0.74864262 -0.023606837 0.044511825 4281680939
0.74947214 -0.023501888 0.044372171 4281547048
0.75019032 -0.023193642 0.044429138 4282597939
0.7510587 -0.023155883 0.044223949 4281742380
0.75200438 -0.023252651 0.043887645 4281545001
0.75299072 -0.023416072 0.043485761 4281019682
0.75398004 -0.023578539 0.043083832 4281020452
0.7549336 -0.023672789 0.042747438 4281216804
0.75600636 -0.023967832 0.042214319 4281216804
0.7570048 -0.024127379 0.041812316 4281083935
0.75796676 -0.024218947 0.041475818 4281084700
0.75881231 -0.024108902 0.041336015 4281018653
0.75969875 -0.024065405 0.041130587 4280887067
0.76054651 -0.02395466 0.040990755 4280293651
0.7613548 -0.023776844 0.040916458 4280753435
0.76212305 -0.023532256 0.040907755 4280557852
0.7628504 -0.023221135 0.040964633 4280557852
0.76361841 -0.022976622 0.040955916 4280755231
0.76446915 -0.022864893 0.040816054 4281084196
0.77812278 -0.00085285306 0.055117279 4287865754
0.77952963 -0.001518935 0.054189682 4287337352
0.78029656 -0.0013543516 0.054115877 4286876801
0.78126395 -0.0014442056 0.053779319 4282600002
0.70445514 -0.036274001 0.047196597 4283915092
0.70520437 -0.036035463 0.047188103 4283716688
0.7059536 -0.035796925 0.04717961 4284766808
0.7066794 -0.035486087 0.047236323 4285094741
0.70740473 -0.035175443 0.047292992 4286213222
0.70812953 -0.034864932 0.047349676 4289568665
0.7088539 -0.034554556 0.04740639 4291808705
0.70957774 -0.034244373 0.047463089 4293388764
0.71032572 -0.034006238 0.04745461 4293190612
0.71104884 -0.033696249 0.047511324 4293453784
0.71179658 -0.033458188 0.047502846 4293847511
0.71251893 -0.033148482 0.047559574 4293847507
0.713292 -0.032982066 0.047485888 4294176976
0.71401393 -0.03267251 0.047542632 4294037906
0.71476138 -0.032434523 0.047534153 4293314183
0.71550888 -0.032196537 0.047525674 4293639235
0.7162298 -0.031887263 0.047582418 4293705009
0.71700388 -0.031720564 0.047508731 4293969203
0.71769714 -0.031340346 0.047630683 4293576002
0.71844417 -0.031102508 0.047622219 4293707588
0.71919113 -0.030864686 0.04761374 4289959463
0.71991026 -0.030555978 0.047670528 4288052765
0.72065705 -0.03031823 0.04766205 4283514112
0.72137547 -0.030009761 0.047718808 4282988573
0.7220934 -0.029701471 0.047775567 4282725401
0.72286844 -0.029534414 0.04770188 4282859315
0.7235859 -0.029226288 0.047758654 4282466873
0.72433215 -0.028988689 0.04775019 4282269751
0.7250784 -0.02875109 0.047741726 4282138165
0.72585452 -0.028583735 0.04766804 4282072372
0.72663105 -0.028416231 0.047594324 4282203699
0.72737777 -0.028178483 0.04758586 4281940786
0.72812456 -0.027940735 0.047577396 4281677360
0.7289021 -0.027772918 0.04750365 4282006325
0.72968018 -0.027604938 0.047429934 4282269490
0.73042738 -0.027367026 0.047421455 4282203181
0.73123771 -0.027268514 0.047282442 4282202418
0.73201728 -0.027100071 0.047208682 4282399027
0.73282933 -0.027001008 0.047069654 4282596406
0.73361009 -0.026832178 0.046995893 4281873453
0.73442388 -0.026732564 0.046856835 4282005037
0.73523867 -0.026632622 0.046717763 4282334515
0.73608744 -0.026601613 0.046513408 4282993474
0.73687118 -0.026431829 0.046439618 4283190853
0.7376889 -0.026330933 0.04630053 4283257412
0.73850763 -0.026229754 0.046161428 4283126080
0.73932731 -0.026128262 0.046022311 4282928701
0.74014807 -0.026026443 0.045883164 4282797115
0.74093521 -0.025855571 0.045809329 4283586631
0.74175763 -0.025753185 0.045670182 4282600506
0.74254608 -0.025581911 0.045596331 4282206259
0.74333495 -0.025410488 0.045522481 4282074925
0.74415988 -0.025307328 0.045383304 4282206511
0.74495006 -0.025135517 0.045309424 4282074927
0.74574065 -0.024963513 0.045235559 4282139437
0.74653178 -0.024791375 0.045161679 4282533425
0.74732339 -0.024619088 0.045087785 4282402605
0.74815226 -0.02451469 0.044948548 4283060535
0.74890816 -0.024274036 0.04493998 4282796338
0.74966401 -0.024033368 0.044931412 4283058742
0.75053233 -0.02399613 0.044726834 4282598959
0.75140208 -0.02395843 0.044522241 4282073392
0.75223535 -0.023852602 0.044382975 4281810220
0.75314605 -0.023881629 0.044112995 4281877296
