# .PCD v0.7 - Point Cloud Data file format
VERSION 0.7
FIELDS x y z rgb
SIZE 4 4 4 4
TYPE F F F U
COUNT 1 1 1 1
WIDTH 1013
HEIGHT 1
VIEWPOINT 0 0 0 1 0 0 0
POINTS 1013
DATA ascii
0.70659709 -0.051365513 0.0092929602 4280097827
0.7068274 -0.049605496 0.010769129 4281809985
0.7071017 -0.047838956 0.01254493 4283586396
0.7073319 -0.046095267 0.014021277 4283193948
0.70753282 -0.044367835 0.015298128 4280692271
0.70770437 -0.042655118 0.016375363 4280559651
0.70786124 -0.040951826 0.01735276 4280100633
0.70797414 -0.039264124 0.018030703 4279903254
0.70802844 -0.037592892 0.018309295 4280626464
0.70814133 -0.035911411 0.018987298 4280295959
0.70815164 -0.034252398 0.018966377 4280427288
0.70819128 -0.032588519 0.019145131 4280558102
0.70820165 -0.030930029 0.01912421 4281018653
0.70818275 -0.029275369 0.018903494 4290885520
0.70811993 -0.027624639 0.018383205 4291540600
0.7080425 -0.025972717 0.017762959 4291543432
0.70795041 -0.024318822 0.017042756 4285883478
0.70785844 -0.022661302 0.016322553 4281672726
0.70767868 -0.021003872 0.015003026 4280688157
0.70755744 -0.019338265 0.014082849 4280295450
0.707407 -0.017668199 0.012962937 4280164121
0.70721269 -0.015991962 0.011543274 4281743153
0.7070331 -0.014308886 0.010223329 4280889133
0.70683897 -0.0126184 0.0088034868 4278979091
0.70664477 -0.010920661 0.007383585 4279045909
0.70649457 -0.0092192478 0.0062631965 4278585612
0.70635897 -0.0075135892 0.0052426457 4278717198
0.70619416 -0.0057993252 0.0040223002 4278848782
0.70605862 -0.0040827841 0.0030016899 4280165145
0.70586467 -0.0023521436 0.0015812516 4280560932
0.70572925 -0.00062420964 0.00056046247 4280429346
0.70599377 0.030041564 0.00067263842 4279573027
0.70606273 0.031716269 0.0010510087 4281283641
0.70601505 0.033450253 0.00062954426 4281349434
0.70602572 0.035154603 0.00060802698 4280560934
0.70709115 -0.06031929 0.0015007854 4280294433
0.70730346 -0.05852567 0.002876699 4282993491
0.70755893 -0.056721132 0.0045521259 4282532940
0.70782876 -0.054919589 0.0063275695 4284245091
0.70806968 -0.053138461 0.0079034567 4281480500
0.70833939 -0.051355053 0.0096790195 4279833630
0.70856583 -0.049596056 0.011155188 4282796114
0.70883542 -0.047830526 0.012931049 4283783009
0.7090618 -0.046087839 0.014407516 4283061335
0.70925933 -0.044361424 0.015684426 4280757551
0.70939922 -0.042657703 0.016561925 4280428065
0.70958227 -0.040947452 0.017739117 4280165143
0.70967901 -0.039264251 0.018317223 4280099350
0.70968938 -0.037603427 0.018296242 4280887837
0.70980042 -0.035921931 0.018974304 4280884228
0.70983952 -0.034257531 0.019153059 4280817665
0.70987862 -0.03259417 0.019331813 4281080578
0.70988899 -0.030936196 0.019310892 4281343750
0.70984185 -0.029285889 0.01889044 4291999868
0.70980906 -0.027631853 0.018569887 4291868259
0.70974755 -0.025979059 0.018049479 4291672429
0.70961422 -0.024329372 0.017029703 4282659104
0.70952398 -0.022671863 0.01630944 4281803795
0.70934761 -0.021014456 0.014989913 4280622362
0.7091856 -0.019349951 0.013770103 4280099098
0.70903802 -0.017679125 0.012650132 4279573524
0.7088474 -0.016002133 0.011230409 4282271037
0.70868552 -0.014318718 0.010010362 4280296479
0.70849496 -0.012627737 0.0085904002 4279044884
0.70827574 -0.010927635 0.0069705844 4278979346
0.7081427 -0.0092263948 0.0059501529 4278717198
0.7079379 -0.0075127212 0.0044300556 4279046163
0.70781928 -0.0058015352 0.0035093427 4280693304
0.70762897 -0.0040758383 0.002088964 4280429346
0.70746738 -0.0023473445 0.00086832047 4280428833
0.70876807 -0.060343266 0.0012876987 4279966737
0.70906162 -0.058511171 0.0032625794 4280162330
0.70931268 -0.056707639 0.004938066 4281017639
0.70952123 -0.054930326 0.0063142776 4282795335
0.70981461 -0.053126987 0.0082893968 4285889916
0.71006548 -0.051349871 0.0099653006 4279046681
0.71028805 -0.049591623 0.011441588 4282598481
0.71052474 -0.047836378 0.013017774 4283914341
0.71074718 -0.046093926 0.01449424 4283192921
0.71094131 -0.044367753 0.015771091 4280954928
0.71106482 -0.042668268 0.016548812 4280493858
0.71124476 -0.040957995 0.017726064 4280494108
0.71133989 -0.039274782 0.018304169 4280691487
0.71137851 -0.037607528 0.018482983 4287661420
0.71145946 -0.035932451 0.018961251 4292328294
0.71154046 -0.034259964 0.019439638 4292065372
0.71157902 -0.032597378 0.019618392 4291669831
0.71154702 -0.030946711 0.019297838 4291735624
0.71150088 -0.029296409 0.018877447 4292459085
0.71146894 -0.027642379 0.018556833 4292261954
0.71139461 -0.025990993 0.017936587 4292262468
0.71124971 -0.024342205 0.016816854 4282067723
0.71114719 -0.022685071 0.015996754 4281672965
0.71097422 -0.021026909 0.014677107 4280426266
0.71081531 -0.019361647 0.013457239 4280033305
0.71065646 -0.017690167 0.01223737 4279968795
0.71044123 -0.016011855 0.010617852 4283192652
0.71029663 -0.014327317 0.0094976425 4279441940
0.71010971 -0.012635062 0.0080776811 4279110155
0.70988053 -0.010932761 0.006357789 4279045391
0.70969367 -0.0092252223 0.0049377084 4280099621
0.709521 -0.0075118821 0.0036173463 4280362793
0.70934838 -0.0057918038 0.0022969842 4280693300
0.70918989 -0.004066959 0.0010764003 4280295458
0.71052933 -0.06032775 0.0016735792 4280097038
0.71076214 -0.05852196 0.003249228 4280294934
0.71103656 -0.056706265 0.0051243901 4280294934
0.71126932 -0.054917831 0.0067002773 4283715667
0.71150196 -0.05313769 0.0082761645 4284046431
0.7117762 -0.051349971 0.010151684 4283982691
0.71196711 -0.04960227 0.011428356 4282007366
0.71218574 -0.047851771 0.012904704 4283257433
0.71239042 -0.046113543 0.014281392 4282994513
0.71258122 -0.044386826 0.015558302 4281217328
0.71273035 -0.042678829 0.016535759 4280690467
0.71287948 -0.040976007 0.017513216 4280559133
0.71298695 -0.039288789 0.018191218 4280756512
0.71308053 -0.037608415 0.018769443 4289305982
0.71311855 -0.035942972 0.018948197 4292458320
0.71318442 -0.034273174 0.019326746 4292655683
0.71322244 -0.032610323 0.019505441 4291798577
0.7132051 -0.030957226 0.019284844 4292851265
0.71315998 -0.029306931 0.018864393 4291867189
0.71311492 -0.027654566 0.018443882 4292393783
0.7130006 -0.026007138 0.017524004 4292262720
0.71291399 -0.024352759 0.016803801 4281935875
0.71281356 -0.022695638 0.015983641 4281672704
0.71261621 -0.021038748 0.0144642 4280426266
0.71241891 -0.019374084 0.012944579 4280099098
0.71229088 -0.017701115 0.011924505 4279836698
0.71206594 -0.016021898 0.010204971 4283257934
0.71188265 -0.014335109 0.008785069 4279572756
0.71167165 -0.012639723 0.0071651936 4278912776
0.71143305 -0.010934189 0.0053454041 4278387979
0.71126372 -0.0092252716 0.0040251613 4280889137
0.71106678 -0.0075067254 0.0025048852 4280494379
0.71095282 -0.0057906481 0.0015841126 4280099880
0.71223402 -0.06033856 0.0016601682 4280030479
0.71244907 -0.058539066 0.0031359792 4279965969
0.71270496 -0.056729149 0.0049114227 4279900176
0.71294713 -0.054934368 0.0065870881 4280229659
0.71318924 -0.053148393 0.0082628727 4282466627
0.71347225 -0.051355347 0.010238349 4284444267
0.71367341 -0.049602859 0.011614859 4282206280
0.71388811 -0.047852848 0.013091326 4282140487
0.71407557 -0.046119634 0.014368117 4282665797
0.71424937 -0.044397406 0.015545189 4280887846
0.71439594 -0.04268939 0.016522646 4280426785
0.71454245 -0.040986553 0.017500162 4280427547
0.71464807 -0.039299324 0.018178165 4281085477
0.7147401 -0.037618935 0.01875639 4290489475
0.71477765 -0.035953492 0.018935204 4292722505
0.71478802 -0.034294482 0.018914223 4293050157
0.71479839 -0.032635473 0.018893242 4293312815
0.71480876 -0.030976463 0.018872321 4292983850
0.71481907 -0.029317454 0.01885134 4292786987
0.71473426 -0.027670082 0.018131196 4292524583
0.71463585 -0.026020486 0.017311096 4292261441
0.71448308 -0.024371326 0.016091526 4281607170
0.71441191 -0.022710634 0.015471101 4281672963
0.7142185 -0.02105247 0.0139516 4280426005
0.71406585 -0.019385435 0.012731731 4280032532
0.71385884 -0.017712615 0.011112094 4280690214
0.71365196 -0.016031504 0.0094924569 4280427042
0.71347225 -0.014342924 0.0080724359 4279244310
0.71325189 -0.012645083 0.0063526034 4278916626
0.71303153 -0.010938434 0.004632771 4281482553
0.712852 -0.0092265373 0.0032124519 4280493607
0.71264535 -0.0075044958 0.0015922189 4280230435
0.71388525 -0.060375717 0.0012475252 4279834131
0.71413648 -0.05855618 0.0030228496 4279899411
0.71438771 -0.056745976 0.0047982335 4279899411
0.71461213 -0.054956712 0.0063741803 4280096537
0.71487659 -0.053159092 0.0082496405 4279965468
0.7151143 -0.05138189 0.0099256039 4284705642
0.71535194 -0.049613502 0.011601686 4284050277
0.71554941 -0.047868241 0.012978256 4283523933
0.71574688 -0.046130233 0.014354944 4282602833
0.71591753 -0.044407986 0.015532076 4280363304
0.71608818 -0.042691957 0.016709328 4280362789
0.71620542 -0.040997099 0.017487109 4280756253
0.71630925 -0.039309859 0.018165112 4280887839
0.71633297 -0.037645556 0.018244028 4291477135
0.71643674 -0.035964012 0.01892215 4292395076
0.71644711 -0.034305006 0.018901169 4292460588
0.71645749 -0.032645993 0.018880248 4292722214
0.71646786 -0.030986983 0.018859267 4293051179
0.71638483 -0.029341437 0.018139124 4292852770
0.71635514 -0.027685605 0.017818511 4292590889
0.71623218 -0.026038058 0.016798615 4292328011
0.71614921 -0.024381891 0.016078413 4281739264
0.71598625 -0.022727419 0.014758706 4281541888
0.71582335 -0.021066211 0.01343894 4280623886
0.71564716 -0.019398637 0.012019217 4280361745
0.71544433 -0.01772403 0.01039958 4280099100
0.71524161 -0.016041134 0.0087798834 4279704342
0.71505225 -0.014350353 0.0072599649 4279969316
0.71479625 -0.012648465 0.0052402616 4279839527
0.714607 -0.010940849 0.0037201643 4279968548
0.71443111 -0.0092266425 0.0022998452 4279504663
0.71418864 -0.0074979626 0.0003798008 4279241491
0.71557784 -0.060393114 0.001134336 4279769106
0.71582448 -0.058573294 0.0029096603 4279963919
0.71604478 -0.056774944 0.0044854283 4280095505
0.7162782 -0.054979067 0.0061612129 4280357912
0.71653771 -0.053180892 0.0080367327 4280293146
0.71677101 -0.05140315 0.0097126961 4280886566
0.71699113 -0.049639247 0.011288941 4284708207
0.71721119 -0.047883637 0.012865245 4283984484
0.71740502 -0.046145342 0.014241993 4282142284
0.71758568 -0.044418562 0.015519023 4280429867
0.7177009 -0.042718507 0.016296804 4280495141
0.71782911 -0.041018859 0.017174482 4281149728
0.71790493 -0.039337788 0.01765281 4281149728
0.71799386 -0.037656087 0.018230975 4291869833
0.71800423 -0.035995264 0.018209994 4292461371
0.71810621 -0.034315526 0.018888175 4293183026
0.71810347 -0.032658957 0.018767297 4287853312
0.71807456 -0.031006243 0.018446684 4288182272
0.71804571 -0.02935197 0.01812607 4292655403
0.71796453 -0.027702808 0.017405868 4292328491
0.71785718 -0.026052833 0.016485929 4292262736
0.71773684 -0.024399344 0.015465915 4282396676
0.71760339 -0.02274156 0.014346004 4281541376
0.71740466 -0.021081228 0.012726545 4280887056
0.71723211 -0.019411864 0.011306763 4280559633
0.71700728 -0.017735692 0.0094872713 4279902741
0.71682179 -0.016050637 0.0079672933 4279902741
0.71655792 -0.014355371 0.0058478713 4280101151
0.71638554 -0.012653883 0.0044276714 4279904287
0.7161479 -0.010940519 0.0025077462 4279374358
0.71597564 -0.0092232283 0.0010874271 4279242515
0.71727097 -0.060410526 0.0010210872 4279571729
0.7174744 -0.058609407 0.0024970174 4279636237
0.71774197 -0.056785706 0.0044721365 4279767823
0.71794528 -0.055001423 0.0059482455 4279767572
0.71821272 -0.053197149 0.0079236031 4279767576
0.71845448 -0.051413823 0.0096994638 4280689707
0.71867043 -0.049649898 0.011275709 4285957506
0.71886069 -0.04790381 0.012652397 4284378474
0.7190637 -0.04616046 0.014129043 4281944133
0.71921539 -0.04444192 0.015206337 4281020719
0.71935415 -0.042733073 0.016183853 4280625444
0.71946722 -0.041036889 0.016961694 4281542171
0.71956742 -0.03934833 0.017639756 4281607964
0.7196548 -0.037666619 0.018217921 4293181816
0.71966517 -0.036005799 0.01819694 4293050661
0.71967548 -0.034344975 0.01817596 4293313079
0.71968585 -0.032684147 0.018154979 4288380160
0.71969622 -0.031023325 0.018133998 4290419739
0.7196297 -0.029374063 0.017513752 4292526383
0.71955031 -0.027723357 0.016793489 4292262178
0.71947098 -0.026069026 0.016073287 4292590681
0.7193532 -0.024414517 0.015053213 4282722836
0.71922261 -0.022755716 0.013933301 4281867527
0.71898955 -0.021096267 0.012014091 4281477400
0.71882069 -0.019425113 0.010594249 4281084950
0.71858776 -0.01774727 0.0086747408 4280231188
0.71840608 -0.016060166 0.0071547627 4280625946
0.7181477 -0.014362863 0.0050352812 4279640854
0.71795338 -0.012657998 0.0034151673 4279834648
0.7177335 -0.010942997 0.0015950799 4279308306
0.71897721 -0.060421344 0.0010076761 4279178519
0.71917677 -0.058620203 0.0024836063 4279505934
0.71943915 -0.056796469 0.0044587851 4279440141
0.71963853 -0.055012163 0.0059348941 4279571729
0.71985048 -0.053230073 0.0075109601 4279703066
0.72013789 -0.0514245 0.0096862316 4280360742
0.72034973 -0.049660545 0.011262536 4285827203
0.72052377 -0.047919214 0.012539387 4283327069
0.72071034 -0.046180103 0.013916135 4281944901
0.72084659 -0.044465281 0.014893651 4281085225
0.72102046 -0.042743638 0.01617074 4280428065
0.72110629 -0.041054927 0.016748905 4281739548
0.72122985 -0.039358873 0.017626643 4282726443
0.72126538 -0.037690047 0.017805398 4293051502
0.72132605 -0.03601633 0.018183887 4293182247
0.72133642 -0.034355506 0.018162906 4292655401
0.7213468 -0.032694682 0.018141925 4291933232
0.72134459 -0.031036045 0.018021047 4291670060
0.72129214 -0.029384604 0.017500699 4292262696
0.72121459 -0.027733911 0.016780436 4292460579
0.7210868 -0.026085231 0.015660584 4292065361
0.72098416 -0.02442855 0.014740407 4282985754
0.72081882 -0.022771668 0.013320804 4282196238
0.72059071 -0.021110697 0.011401415 4281608734
0.72042543 -0.01943801 0.0099815726 4281216286
0.72017235 -0.017758874 0.0078622103 4280230934
0.71993184 -0.016069002 0.0058426261 4280757278
0.71976674 -0.014371188 0.0044224858 4279310865
0.71951383 -0.012661484 0.0023027658 4279439890
0.71928608 -0.010942741 0.00038266182 4279045132
0.7206465 -0.060451947 0.00069481134 4279179798
0.72086674 -0.058637332 0.0023704171 4279048463
0.72109932 -0.056825455 0.0041459203 4279048463
0.72133183 -0.055022899 0.0059216022 4278982924
0.72153962 -0.053240787 0.0074976683 4279178519
0.72182131 -0.051435176 0.0096729994 4280821550
0.72202903 -0.049671195 0.011249363 4286351237
0.72219968 -0.047929846 0.012526214 4283390552
0.72238266 -0.046190709 0.013903022 4282403908
0.7225163 -0.044475868 0.014880538 4280560419
0.72267449 -0.042758211 0.016057789 4280625444
0.72277111 -0.041065484 0.016735792 4281279769
0.72288001 -0.039372899 0.017513692 4282990387
0.72292733 -0.037700586 0.017792344 4292789343
0.72298694 -0.036026862 0.018170834 4293313319
0.72299731 -0.034366038 0.018149853 4289300229
0.72300768 -0.032705214 0.018128872 4287524096
0.7229442 -0.031057525 0.017508626 4288445184
0.72294229 -0.029397078 0.017387688 4292457770
0.72279274 -0.027756162 0.016068161 4292328237
0.72272933 -0.026098628 0.015447676 4291209548
0.72256756 -0.024447206 0.014028013 4282724117
0.72241807 -0.02278764 0.012708247 4281803015
0.72218263 -0.021125779 0.010688901 4281149210
0.72202098 -0.019451303 0.0092689991 4281084450
0.72177333 -0.017770389 0.0071495771 4280624672
0.72153807 -0.016078737 0.005129993 4280822051
0.72136426 -0.01437873 0.0036097765 4278783757
0.72106767 -0.012664344 0.0010902882 4278848780
0.72234142 -0.06046937 0.00058150291 4279440149
0.72253317 -0.058667134 0.0020574927 4279441940
0.72279727 -0.056836221 0.0041325688 4279178768
0.72303718 -0.05502782 0.0060081482 4278982670
0.72322881 -0.053251497 0.007484436 4279245591
0.72349274 -0.05145115 0.0095599294 4281217082
0.72370833 -0.049681846 0.011236131 4287401874
0.72389972 -0.047930907 0.012712777 4283717466
0.72407907 -0.046192266 0.014089644 4281547063
0.72419804 -0.044482198 0.014967263 4280758060
0.72434109 -0.042768776 0.016044676 4280429865
0.72444797 -0.041072294 0.016822577 4282004769
0.72454274 -0.039383441 0.017500639 4282596906
0.72458929 -0.037711125 0.017779291 4292854095
0.72464788 -0.036037393 0.01815778 4293378833
0.72465819 -0.034376569 0.018136799 4290221058
0.72466856 -0.032715745 0.018115819 4292459322
0.72460669 -0.031068068 0.017495573 4293051459
0.72456884 -0.029413417 0.017075002 4293181493
0.72445881 -0.027766727 0.016055048 4293049142
0.72434878 -0.026114859 0.015034914 4290549571
0.72420269 -0.024461269 0.013715208 4282328844
0.72404456 -0.022801841 0.012295425 4282197258
0.72381431 -0.021138977 0.010276139 4281412380
0.72362018 -0.019464619 0.008556366 4281019684
0.723378 -0.017781926 0.0064368844 4280887587
0.72314787 -0.016088493 0.0044172406 4281084966
0.72290581 -0.014384299 0.0022975206 4278848782
0.7226879 -0.012670539 0.00037741661 4278782987
0.72426015 -0.058665264 0.0022437572 4279506193
0.72448343 -0.056853071 0.0040194392 4279506193
0.72473025 -0.055038556 0.0059948564 4279112973
0.72491789 -0.053262208 0.0074711442 4279572503
0.72517639 -0.051461827 0.0095466971 4280756531
0.72539943 -0.049687453 0.011322856 4286876559
0.72557515 -0.047941532 0.012699604 4283718495
0.72575086 -0.046202868 0.014076531 4281020719
0.72589111 -0.044484254 0.015153885 4280560168
0.7260195 -0.04277534 0.016131461 4280429095
0.72610068 -0.041086599 0.016709626 4282202400
0.72620547 -0.039393988 0.017487586 4283255088
0.72627479 -0.037715208 0.017965972 4292329046
0.72630876 -0.036047928 0.018144727 4293378581
0.72631913 -0.034387104 0.018123746 4291800092
0.72632951 -0.03272628 0.018102765 4287853056
0.72626913 -0.031078611 0.01748246 4288905730
0.72623235 -0.029423965 0.017061949 4292589608
0.72612488 -0.027777292 0.016041994 4292392229
0.72598213 -0.026129683 0.014722168 4289892154
0.72583938 -0.02447534 0.013402343 4282263568
0.72568488 -0.022815157 0.01198256 4282066189
0.72545981 -0.02115155 0.0099631548 4281280796
0.725223 -0.019477958 0.0078437924 4281216804
0.7250098 -0.017793246 0.005924046 4280888098
0.72476137 -0.016098272 0.0037044883 4280756512
0.72452474 -0.0143923 0.0015845895 4279046412
0.72574443 -0.060497615 0.00045484304 4279373847
0.72597456 -0.058669724 0.0023302436 4279440147
0.72620475 -0.056851678 0.0042057633 4279308561
0.72642326 -0.055049293 0.0059815645 4279637777
0.72664171 -0.053256236 0.0077574849 4280030997
0.72689474 -0.051456593 0.0098330379 4282531915
0.72707844 -0.049698099 0.011309624 4286088326
0.72727364 -0.04794259 0.012886167 4282469711
0.72742265 -0.04621347 0.014063358 4281020721
0.72756004 -0.044494834 0.015140772 4281084715
0.72768587 -0.042785909 0.016118348 4280953382
0.72778857 -0.041089658 0.016896307 4283648049
0.7278797 -0.039401043 0.01757443 4283187498
0.72793621 -0.037725743 0.017952919 4293052015
0.72796965 -0.036058459 0.018131673 4293642286
0.72798002 -0.034397636 0.018110693 4289431552
0.72799039 -0.032736812 0.018089712 4292392511
0.72796619 -0.031082571 0.017769039 4292195132
0.72790742 -0.029432578 0.017148793 4292196133
0.72779101 -0.027787857 0.016028881 4292195872
0.7276516 -0.026140271 0.014709055 4287656485
0.72750068 -0.024487106 0.013289332 4283182592
0.72730374 -0.022830283 0.011469841 4281280019
0.72706079 -0.021166692 0.0092505813 4280888094
0.72685248 -0.019490559 0.0073310137 4280758050
0.72665572 -0.017804462 0.0055111051 4281218601
0.72640145 -0.016108351 0.0031914711 4280429085
0.72620487 -0.014402307 0.0013714433 4279046412
0.72745192 -0.060508449 0.000441432 4279373847
0.72767723 -0.058680519 0.0023168921 4279440147
0.72790241 -0.056862444 0.0041924119 4279374354
0.72816145 -0.055036735 0.0063676238 4279703572
0.72836399 -0.053250253 0.008043766 4279965717
0.72860026 -0.05145666 0.010019481 4282663499
0.72879136 -0.049693611 0.011595964 4286020737
0.72897112 -0.047943637 0.013072789 4283191638
0.72911698 -0.046215016 0.014249921 4281412912
0.72926283 -0.044492614 0.015427232 4281281326
0.7293635 -0.042792466 0.016205192 4281083945
0.72945285 -0.041100211 0.016883194 4282265631
0.72954214 -0.039411586 0.017561376 4282989354
0.72960889 -0.037733048 0.018039703 4292722019
0.72963059 -0.036068991 0.01811862 4292919077
0.72964096 -0.034408167 0.018097639 4292128291
0.72965127 -0.032747343 0.018076718 4292589638
0.72963911 -0.031090911 0.017855942 4292918603
0.72952557 -0.029450873 0.01673609 4292262195
0.72945708 -0.027798422 0.016015768 4292261928
0.729321 -0.026150856 0.014695942 4286539291
0.72915125 -0.024500035 0.013076365 4283118080
0.72895896 -0.022842722 0.011256814 4281148949
0.72874427 -0.021177366 0.009237349 4280560669
0.72851831 -0.019502031 0.0071178079 4280364577
0.72829247 -0.017815813 0.0049982071 4281284394
0.72807795 -0.016118852 0.0029783845 4280100120
0.72782975 -0.014410345 0.00065851212 4278848780
0.7291705 -0.060512677 0.00052785873 4279375377
0.72943503 -0.058659609 0.0028027296 4279309584
0.72964424 -0.056848876 0.0045784712 4279506963
0.72985345 -0.055047464 0.006354332 4279309333
0.73007357 -0.053249825 0.0082302094 4279769363
0.73031574 -0.051451411 0.010305882 4283846738
0.73048067 -0.04969921 0.01168263 4286018420
0.7306565 -0.047949471 0.013159394 4284373595
0.73078823 -0.046225615 0.014236748 4280951076
0.73095304 -0.044494655 0.015613854 4281018154
0.73102957 -0.042803034 0.016192079 4280952359
0.73113912 -0.041103262 0.017069876 4281672724
0.73120463 -0.039422128 0.017548263 4283054377
0.7312811 -0.03774035 0.018126547 4292458831
0.73131353 -0.036073573 0.018305421 4292590630
0.73135692 -0.034405123 0.018584073 4288509440
0.73133421 -0.032752965 0.018263459 4288377605
0.73127854 -0.031105842 0.017643094 4288640777
0.73121184 -0.02945755 0.016922772 4292327740
0.73111212 -0.027810667 0.015902758 4292065591
0.73099047 -0.026161443 0.014682829 4284959753
0.73083586 -0.024509486 0.01316309 4282985984
0.73063725 -0.022853365 0.011243641 4281083156
0.73041672 -0.021188684 0.0091242194 4280690717
0.73018521 -0.019513506 0.0069047213 4280756512
0.72997582 -0.017826684 0.0048848987 4280954661
0.72975546 -0.016129361 0.0027651191 4280296731
0.7295242 -0.014420766 0.00054520369 4278782989
0.73094249 -0.060483884 0.0011134744 4279637779
0.73113632 -0.058670398 0.0027893782 4279375377
0.73137325 -0.056841381 0.0048646927 4279375377
0.73158854 -0.055034894 0.0067403913 4279309584
0.73183608 -0.053221557 0.0089159012 4279769363
0.73199737 -0.051462073 0.010292649 4283913036
0.73220176 -0.049689654 0.012068868 4284901219
0.7323845 -0.047936134 0.013645589 4284177496
0.73252416 -0.04620903 0.0148229 4281676852
0.73264217 -0.044496685 0.015800476 4280756009
0.73273873 -0.042797547 0.016578496 4280821543
0.73284596 -0.0410988 0.017456293 4281738515
0.73292089 -0.039415199 0.018034577 4283317547
0.7329635 -0.03774441 0.018313348 4292525128
0.73301691 -0.036072202 0.018691838 4293577788
0.73303801 -0.034410216 0.018770814 4291997742
0.73299462 -0.032763492 0.018250406 4292655170
0.73297274 -0.031109786 0.017929673 4292720963
0.73291862 -0.029460341 0.017309308 4292261427
0.73281074 -0.027816191 0.016189337 4292262195
0.73265994 -0.026172031 0.014669716 4284236812
0.73253065 -0.024517773 0.013349771 4282657792
0.73231548 -0.022864006 0.011230469 4281082904
0.73211116 -0.021198718 0.0092108846 4280690462
0.7318961 -0.019523449 0.0070912838 4280756512
0.73164892 -0.017837683 0.0046717525 4281085220
0.73142326 -0.016139746 0.0024519563 4280624669
0.7312299 -0.014431583 0.00053179264 4278848782
0.73265868 -0.060488097 0.0011999607 4279505936
0.73286921 -0.05866215 0.0030755401 4279309584
0.73310065 -0.056833882 0.0051509142 4279112205
0.73332155 -0.05502231 0.0071265697 4279703313
0.73352134 -0.053232241 0.0089026093 4279111426
0.73374212 -0.051440883 0.010878623 4284115028
0.73389971 -0.049690187 0.01225549 4284838501
0.73409933 -0.047927581 0.014031947 4282798918
0.73424637 -0.04619696 0.015309095 4280758062
0.73435134 -0.044490166 0.016186953 4280625715
0.73443526 -0.042796064 0.016865015 4280757810
0.73454016 -0.041098081 0.017742932 4281279499
0.73459256 -0.039422236 0.018121481 4284898114
0.73466587 -0.037741993 0.018699765 4292328767
0.73470777 -0.036073789 0.018978536 4289761542
0.73471808 -0.034415297 0.018957555 4291208475
0.73469698 -0.032764185 0.018636882 4291077151
0.73466539 -0.031113718 0.018216431 4290024463
0.73459178 -0.029468942 0.017396152 4292393512
0.73448682 -0.027825072 0.016276181 4292262193
0.73439229 -0.026174078 0.015256107 4283316995
0.73420352 -0.02452838 0.013336599 4282330112
0.73401475 -0.022872839 0.011417091 4280952860
0.73381555 -0.0212081 0.0093975663 4280756508
0.73357451 -0.019534547 0.0069780946 4280427293
0.733365 -0.017848175 0.004858315 4281020454
0.73315549 -0.016150922 0.0027383566 4280888868
0.73294616 -0.01444279 0.00061833858 4278717964
0.73442572 -0.060459271 0.0017856359 4279374607
0.73464155 -0.058628503 0.0037611127 4279374354
0.73482656 -0.056826364 0.0054371357 4279374354
0.73506272 -0.055003881 0.007612586 4282071861
0.73527837 -0.053203944 0.0095884204 4284444002
0.73547345 -0.051424984 0.011364698 4282603597
0.73564792 -0.049665459 0.01294142 4285497974
0.73579162 -0.047928598 0.014218509 4283063633
0.73594552 -0.046193942 0.015595615 4280166946
0.73606867 -0.044479363 0.016673207 4280561714
0.73617125 -0.042778511 0.017551124 4280495921
0.73624307 -0.041093595 0.018129408 4281738244
0.73631489 -0.039411787 0.018707693 4287330649
0.73636621 -0.03773956 0.019086301 4292720944
0.73640728 -0.036072392 0.019365013 4293642286
0.73641765 -0.034414936 0.019344032 4291076388
0.73642796 -0.03275748 0.019323111 4290683165
0.73633599 -0.031122046 0.018303156 4292064818
0.73630542 -0.029469769 0.017882586 4292328489
0.73620325 -0.027827213 0.016762614 4292131388
0.73607045 -0.026183229 0.015342832 4282528000
0.73592746 -0.024533158 0.013823092 4281345562
0.73571295 -0.022881664 0.011603773 4281411355
0.73550868 -0.021218125 0.0094841719 4281085470
0.73529428 -0.019544091 0.0072646737 4280756510
0.73508 -0.017858662 0.0050448775 4281743407
0.73486578 -0.016161831 0.0028249621 4281151270
0.73465157 -0.014453605 0.00060492754 4278979598
0.73617965 -0.060437039 0.0022714734 4279177745
0.73639029 -0.05860753 0.0042470098 4279242770
0.73658085 -0.05680057 0.0060229301 4278913805
0.73681134 -0.054979607 0.0081984997 4284771686
0.73696184 -0.053214617 0.0095751882 4282207055
0.73717219 -0.051425003 0.011551261 4283194720
0.73738253 -0.049645755 0.013527453 4283983714
0.73753285 -0.047905635 0.014904439 4282799440
0.73764312 -0.046190906 0.015882134 4280233252
0.73775339 -0.044481363 0.016859889 4280300080
0.73785365 -0.042781018 0.017737806 4280364589
0.73792398 -0.041096605 0.01831615 4281671936
0.73800421 -0.039411809 0.018994331 4288317026
0.73805445 -0.037740357 0.01937288 4292656434
0.73809475 -0.03607396 0.019651711 4292984352
0.73811507 -0.03441456 0.019730687 4293312064
0.73811543 -0.032760601 0.019609869 4292458806
0.7380659 -0.031117145 0.018989503 4292919357
0.73800647 -0.029472526 0.018269181 4292262698
0.73792708 -0.02782765 0.017349064 4292196929
0.73779792 -0.026185244 0.015929282 4282461952
0.73763883 -0.024539089 0.014209569 4281476378
0.73744994 -0.02288685 0.012190044 4281476378
0.73725116 -0.021224899 0.010070503 4281413152
0.73702252 -0.019553237 0.007651031 4280624669
0.73679399 -0.017869143 0.0052313805 4282006579
0.73659539 -0.016172994 0.0031114221 4281611821
0.7363869 -0.01446558 0.00089132786 4279045642
0.73746181 -0.099832281 0.00095677376 4280821278
0.73748225 -0.098112777 0.0010350347 4280690719
0.73748314 -0.096417904 0.00091362 4280361754
0.7377255 -0.062253393 0.00078189373 4279111952
0.73789203 -0.060441222 0.0023580194 4278389264
0.73813641 -0.058586542 0.0047329068 4284573806
0.7383126 -0.056786936 0.006409049 4284639599
0.73850816 -0.054984473 0.0082850456 4279507743
0.73871338 -0.053186279 0.010260999 4279706155
0.7389186 -0.051398445 0.012237132 4284838777
0.73906535 -0.04965131 0.013614118 4282532165
0.73920226 -0.047916222 0.014891326 4283058509
0.73933917 -0.046187866 0.016168714 4280298532
0.73943716 -0.04448336 0.017046571 4279971626
0.73955452 -0.042775482 0.018124282 4280429867
0.73962325 -0.041092098 0.018702567 4283779885
0.73967248 -0.039418828 0.019081175 4289767048
0.73974115 -0.037741143 0.019659638 4291673190
0.73976123 -0.036081482 0.019738555 4292460882
0.73982018 -0.034411445 0.02021718 4292657228
0.73978192 -0.032768644 0.019696712 4291999284
0.73979223 -0.031112224 0.019675791 4292328249
0.73970544 -0.029475268 0.018655837 4291276327
0.73961866 -0.02783313 0.017635703 4292591712
0.73950285 -0.026190098 0.016315877 4282000896
0.73937726 -0.024541497 0.014895856 4281280033
0.73918384 -0.022892015 0.012776434 4281148447
0.73896134 -0.021233607 0.010357082 4281280033
0.73874867 -0.019562369 0.0080374479 4280491030
0.73853606 -0.017879216 0.0057177544 4281216806
0.73834288 -0.016184401 0.0035977364 4280756255
0.7381013 -0.014476774 0.0009778738 4280624672
0.73915845 -0.10155031 0.00096493959 4280032532
0.73923576 -0.099755123 0.0016418099 4280229911
0.73926538 -0.098025143 0.0018197894 4280822046
0.73927605 -0.096320271 0.0017982125 4280427293
0.73928666 -0.094615415 0.0017766953 4280034329
0.73923075 -0.092991278 0.0010566711 4280034840
0.73947942 -0.062229864 0.0012677908 4279571478
0.73967969 -0.060392525 0.0032432675 4279640614
0.73984206 -0.058590945 0.0048195124 4284838261
0.74005175 -0.056767203 0.0068951249 4281088060
0.74024236 -0.054965999 0.0087711811 4279573027
0.74043298 -0.053174645 0.010647297 4279047966
0.74059504 -0.051409077 0.012223959 4284772982
0.74073815 -0.049661916 0.013601005 4282532163
0.74090964 -0.047907621 0.015277743 4282795335
0.7410242 -0.046189357 0.016355336 4280889386
0.74113876 -0.044476792 0.017432988 4280365099
0.74123436 -0.04277797 0.018311024 4280561453
0.74132043 -0.041087575 0.019089103 4284043577
0.74138761 -0.03940833 0.019667566 4289175431
0.74143577 -0.037738673 0.020046175 4289175150
0.74147451 -0.03607408 0.020325005 4289239128
0.74148482 -0.034419216 0.020304084 4289632592
0.74149513 -0.032764353 0.020283163 4291080794
0.74144876 -0.031122729 0.019662797 4289633348
0.74142128 -0.029474102 0.019242167 4291672677
0.74134654 -0.027831845 0.018322051 4291868536
0.741234 -0.026190646 0.017002225 4281606922
0.74106485 -0.024549738 0.015082657 4281148960
0.74089575 -0.022898985 0.01316303 4281148960
0.7406795 -0.02124165 0.010743618 4280952610
0.74049163 -0.019570701 0.0086238384 4280228374
0.74028498 -0.01788914 0.0063040257 4281085220
0.74006891 -0.016195539 0.0038842559 4280361497
0.73984349 -0.014489119 0.0013642311 4280559649
0.74088424 -0.10153548 0.0011510253 4279639830
0.74095047 -0.09975338 0.0017282367 4279442451
0.74098885 -0.098011315 0.0020059943 4282137911
0.74103653 -0.096258759 0.0023835897 4280361502
0.74101013 -0.09460263 0.0019629598 4279772188
0.7410208 -0.092898279 0.0019413829 4279707422
0.74096668 -0.091272861 0.0012212992 4279575836
0.74119383 -0.062233809 0.0013541579 4281282353
0.74138898 -0.06039669 0.0033297539 4284378224
0.74153793 -0.0586017 0.0048061609 4281085494
0.74174213 -0.056777921 0.0068818331 4280427564
0.74192786 -0.054976687 0.0087579489 4279572255
0.74212277 -0.053179722 0.010733962 4279375646
0.74227148 -0.051419709 0.012210786 4284835177
0.74244785 -0.04965229 0.013987362 4282333499
0.74259645 -0.047908597 0.015464425 4283780945
0.74272662 -0.046181757 0.016741753 4281545774
0.74281073 -0.044483058 0.017519832 4280888614
0.7429316 -0.042772416 0.018697441 4280887593
0.74300635 -0.041086804 0.019375682 4280687894
0.74304438 -0.039418835 0.019654512 4283516993
0.74311912 -0.037739441 0.020332873 4283714108
0.74315703 -0.036075618 0.020611644 4286213472
0.74314898 -0.034426987 0.020390928 4285951332
0.74317771 -0.032767445 0.020569861 4284969317
0.74314201 -0.031124398 0.020049393 4283587664
0.7431156 -0.029476814 0.019628823 4283655002
0.74302477 -0.02783899 0.018508852 4285692777
0.74291563 -0.026198331 0.017188907 4281151520
0.7427606 -0.024556799 0.015369356 4280888098
0.74260557 -0.02290594 0.013549566 4280888098
0.74238634 -0.021250337 0.011030197 4280295450
0.74218553 -0.019580988 0.0087105036 4279768855
0.7420032 -0.017899454 0.0065906048 4281413933
0.74179339 -0.016206667 0.0041707158 4279900694
0.74161118 -0.014502592 0.0020504594 4279111954
0.74262702 -0.10149497 0.001536727 4279704342
0.7427007 -0.09970133 0.0022136569 4279375377
0.74272931 -0.09797287 0.002391696 4280033826
0.74280292 -0.096185178 0.0030687451 4280693803
0.74277759 -0.094530866 0.0026481152 4279641627
0.7427972 -0.0928168 0.0027264357 4279313432
0.74277186 -0.091159642 0.0023056865 4279576604
0.74271953 -0.089533463 0.0015856028 4279642397
0.74289876 -0.06224462 0.0013407469 4283257694
0.74308872 -0.060407467 0.0033164024 4281022015
0.7432338 -0.058612455 0.0047928095 4279374874
0.74342364 -0.056794737 0.0067686439 4279638046
0.74359548 -0.05499905 0.0085449219 4279900443
0.7437852 -0.053201534 0.010520995 4280031259
0.74393898 -0.051435661 0.012097716 4285229681
0.74408382 -0.049683135 0.01357466 4282729544
0.74426436 -0.047919177 0.015451312 4283782232
0.74439114 -0.046192311 0.016728699 4281611059
0.74447316 -0.044493597 0.017506778 4281150761
0.74459094 -0.042782936 0.018684447 4280953382
0.74466389 -0.041097313 0.019362688 4280756003
0.74473691 -0.039415319 0.020041108 4281084968
0.74477404 -0.037749935 0.020319879 4287926409
0.7447933 -0.036092084 0.020398796 4287993488
0.74482155 -0.03443202 0.020577788 4286942340
0.74483186 -0.032777932 0.020556867 4287274138
0.74479747 -0.031134896 0.020036399 4284445039
0.74477208 -0.029487317 0.019615829 4280692787
0.7446931 -0.027847819 0.018595755 4281086247
0.7445873 -0.026207441 0.01727581 4280954657
0.74444586 -0.024565024 0.015556037 4280757280
0.74427766 -0.022916544 0.013536453 4280625694
0.74408275 -0.021259669 0.011216819 4280296731
0.74389684 -0.01959048 0.0089971423 4279572507
0.74369311 -0.017910169 0.0065773129 4280821800
0.74349844 -0.016217545 0.0042573214 4279505940
0.74331272 -0.014513384 0.0020371079 4279242770
0.74431527 -0.10153146 0.0013237596 4279769882
0.74443084 -0.099674419 0.0024995804 4279375124
0.74448514 -0.097909778 0.0029770732 4279771165
0.74455696 -0.096123636 0.0036541224 4281022768
0.74456757 -0.094423696 0.0036326051 4279707420
0.74456942 -0.092735291 0.0035113096 4279575834
0.7445364 -0.091091484 0.0029909015 4279707420
0.74448586 -0.089467138 0.0022707582 4279970592
0.7444092 -0.087871417 0.0012512207 4279903772
0.74459505 -0.062262304 0.0012275577 4281020734
0.74475366 -0.060444709 0.0029035807 4280100654
0.74492967 -0.05862321 0.0047795177 4279243288
0.74507082 -0.056835946 0.0062560439 4279309081
0.74524671 -0.055033099 0.0081321597 4279900443
0.74541384 -0.053245675 0.0099085569 4279834652
0.74557221 -0.051472899 0.011585176 4285165430
0.74573922 -0.04970387 0.013361812 4282401352
0.74586272 -0.047968172 0.014639139 4283388247
0.74599481 -0.046234671 0.016016424 4281807672
0.74610955 -0.044516996 0.017194092 4281149478
0.74619812 -0.042817615 0.018072069 4281281064
0.74626935 -0.041130424 0.01875037 4281084966
0.74635786 -0.03943985 0.019628465 4281413931
0.74642032 -0.037763678 0.020206928 4286677625
0.74643934 -0.036105566 0.020285964 4287532939
0.74644965 -0.034450699 0.020265102 4287272072
0.74645996 -0.032795835 0.020244181 4287076757
0.74642694 -0.031152029 0.019723654 4285431932
0.74640256 -0.029503681 0.019303024 4280823092
0.74634349 -0.027860034 0.018482745 4280757030
0.74624109 -0.02621942 0.0171628 4280690465
0.74607801 -0.024580296 0.015143275 4280756512
0.745915 -0.022930814 0.013123572 4280822305
0.74572605 -0.021272941 0.010803998 4280230938
0.74555451 -0.019602353 0.0086840391 4279243542
0.74537438 -0.017921027 0.0064641237 4280625444
0.74518567 -0.016228179 0.0041440129 4279572756
0.74501431 -0.014524174 0.0020237565 4279374350
0.74594295 -0.10335319 0.00053369999 4280098079
0.74605542 -0.10149094 0.0017095804 4279900698
0.74615937 -0.099647477 0.0027856827 4279834905
0.74620396 -0.097895935 0.0031632781 4279638296
0.74626547 -0.096122354 0.0037405491 4281811520
0.74631846 -0.094363689 0.0042180419 4279905571
0.74633753 -0.092653751 0.004296422 4279773213
0.74633968 -0.09096691 0.0041751266 4279970592
0.74630791 -0.089323625 0.0036546588 4280101666
0.74624223 -0.087720811 0.0027348399 4280232739
0.74615121 -0.086144835 0.0015156865 4280756255
0.74629176 -0.062279999 0.0011143088 4279836195
0.74641222 -0.060488589 0.0023908615 4279376159
0.74656641 -0.058678474 0.0040671229 4279243288
0.74669528 -0.056895476 0.005443871 4279177495
0.74685776 -0.055096362 0.0072200894 4279505944
0.74702871 -0.053300995 0.0090963244 4279175702
0.74717426 -0.051531438 0.010673106 4283522403
0.74730289 -0.049780298 0.012050211 4282732635
0.74745673 -0.048022002 0.013727009 4282206291
0.74755156 -0.046304327 0.014704823 4281085494
0.7476716 -0.044578977 0.01598233 4281282347
0.74775785 -0.042876471 0.016860247 4281282599
0.7478441 -0.041178621 0.017738283 4281019684
0.74790508 -0.039495971 0.018316686 4281151270
0.7479744 -0.037813172 0.018995106 4281218351
0.74803531 -0.036136996 0.019573629 4281218098
0.74802035 -0.034488514 0.019252896 4281939505
0.74803072 -0.032831058 0.019231915 4282069808
0.74801582 -0.031180242 0.018911302 4281938222
0.74794197 -0.029541554 0.017891169 4281150510
0.74789339 -0.027892601 0.017170727 4280296228
0.74779439 -0.026248638 0.015850723 4280690984
0.74767017 -0.024601471 0.014230788 4280625191
0.74752921 -0.022947852 0.012410879 4280625191
0.74734622 -0.021288203 0.010091245 4279574037
0.74717176 -0.019616237 0.0078713298 4279505940
0.7470057 -0.017932732 0.0057512522 4280690208
0.74684817 -0.016238464 0.0037309527 4279374348
0.74669069 -0.014533833 0.0017105341 4279505166
0.74776065 -0.10150175 0.0016961694 4279638296
0.74788642 -0.099620551 0.0030716062 4279638296
0.74794638 -0.097845137 0.0036488771 4279506963
0.7480557 -0.096000478 0.0048249364 4280955443
0.7480827 -0.094280049 0.0050030351 4280563501
0.74813437 -0.092526034 0.0054806471 4280035873
0.74813676 -0.090842292 0.0053594708 4280035873
0.74811447 -0.089191109 0.0049387813 4279969314
0.74803472 -0.087613195 0.003819406 4280166693
0.74795496 -0.086029589 0.0026999712 4280559649
0.74787527 -0.084440291 0.0015804768 4279505936
0.74794811 -0.062332083 0.0005017519 4279966241
0.74806517 -0.060539097 0.0017784238 4279244058
0.74819863 -0.05874012 0.0032548904 4279374104
0.74833202 -0.056948926 0.0047314167 4279439897
0.74844897 -0.055177178 0.0060083866 4279505944
0.7486068 -0.053384256 0.0077847242 4279569173
0.74874824 -0.051611304 0.0093615055 4283850855
0.74886507 -0.049861845 0.010638714 4283062114
0.74899006 -0.048114307 0.01201582 4281088324
0.74912316 -0.046369478 0.013493001 4280693302
0.74920714 -0.044658147 0.014370918 4281085995
0.74929929 -0.042947453 0.015348792 4281217579
0.74936688 -0.041253243 0.016027033 4280494626
0.7494508 -0.039555646 0.016905069 4280823591
0.7494694 -0.037888721 0.016983986 4281153071
0.74952877 -0.036207352 0.017562389 4280889646
0.7495473 -0.034542758 0.017641306 4281545523
0.74955767 -0.032881156 0.017620325 4281807921
0.74953538 -0.031228419 0.017199636 4281676335
0.74948865 -0.029579476 0.016479194 4281020202
0.74941748 -0.027931996 0.015458941 4280560681
0.74933815 -0.026280776 0.014338672 4280758060
0.74922627 -0.024628568 0.012818575 4280560681
0.74906552 -0.022974113 0.010698855 4280494375
0.7489211 -0.021307454 0.0087788105 4279508244
0.74880123 -0.019629745 0.0071585178 4279178766
0.74864066 -0.017944463 0.0050382614 4280361502
0.74848831 -0.016248412 0.003017962 4279637779
0.74836862 -0.014543504 0.0013972521 4279504653
0.74944991 -0.10153824 0.0014831424 4279572756
0.749596 -0.099618748 0.0031580329 4279572756
0.74968624 -0.097794324 0.0041344762 4279637777
0.74978447 -0.095963001 0.0052107573 4279704859
0.74984276 -0.094196394 0.0057881474 4280432175
0.74989319 -0.092444435 0.0062657595 4280036136
0.74991965 -0.090728924 0.0064439774 4279772964
0.7499541 -0.089003414 0.006722033 4279903523
0.74994075 -0.08734405 0.0064012408 4280100900
0.74980021 -0.085851267 0.0044833422 4280232739
0.74971539 -0.084276885 0.0032640696 4280363807
0.74961472 -0.082716271 0.0018451214 4280100635
0.74957764 -0.081070557 0.0012245774 4279311117
0.74971336 -0.060596246 0.0010659695 4279440151
0.74983495 -0.058801796 0.0024425387 4279308565
0.74996448 -0.057008501 0.0039191246 4279308308
0.75007021 -0.055240504 0.0050961971 4279505683
0.75019169 -0.053467557 0.006473124 4280094740
0.75030524 -0.05170719 0.0077501535 4284178533
0.75042659 -0.049948495 0.0091271996 4283456610
0.75054008 -0.048201855 0.010404468 4280495925
0.75065345 -0.046461958 0.011681855 4280692271
0.75073516 -0.044745952 0.012559652 4280627497
0.75081682 -0.043034606 0.013437569 4279902489
0.75087476 -0.041339237 0.014015853 4279902743
0.75094056 -0.039643466 0.014694095 4279902743
0.75098258 -0.037961081 0.015072644 4279968536
0.75103253 -0.036277771 0.01555115 4279573524
0.75104296 -0.034610733 0.01553005 4279836958
0.75102967 -0.032951117 0.015209317 4280494377
0.75100845 -0.03129217 0.014788568 4280362791
0.7509715 -0.029635062 0.014167905 4280625961
0.75092661 -0.027976545 0.013447285 4281020202
0.75088179 -0.0263144 0.012726605 4281218351
0.75075799 -0.024660436 0.011006653 4281218351
0.75063431 -0.022997666 0.0092865825 4280823593
0.75048697 -0.021328073 0.0072664022 4280034077
0.75037915 -0.019646101 0.005746007 4279507985
0.75025558 -0.017956648 0.0040255189 4279704342
0.75015575 -0.016258728 0.0026047826 4279243791
0.75004017 -0.014552807 0.00098413229 4279373329
0.75023723 0.019540031 0.00035351515 4279046679
0.75027144 0.021227192 0.00063204765 4280824106
0.75028205 0.022931017 0.00061053038 4280890667
0.75114793 -0.1015619 0.0013699532 4279507733
0.75128961 -0.099642128 0.0030448437 4279573526
0.75141579 -0.097755805 0.0045202971 4279770133
0.75151885 -0.095913455 0.0056964159 4279572756
0.75158334 -0.094136313 0.0063736439 4279576357
0.75165552 -0.092351273 0.00715065 4279445282
0.75171226 -0.090592936 0.0077281594 4279576868
0.7517305 -0.088892847 0.0078066587 4279772450
0.75167179 -0.087300956 0.0068870187 4279969314
0.7515977 -0.085725412 0.0057677031 4280232739
0.75158519 -0.084062174 0.0054467916 4280232737
0.75142658 -0.082587212 0.0032292604 4279969565
0.75136799 -0.080974326 0.0023093224 4279311117
0.75133246 -0.079328373 0.001688838 4279769617
0.75125086 -0.077734575 0.00046926737 4279769360
0.75144482 -0.058888953 0.0012306571 4279308306
0.75154746 -0.057110835 0.00240767 4279176977
0.75167304 -0.055321399 0.0038843155 4279637526
0.75176793 -0.053562082 0.0049615502 4280095258
0.75188577 -0.051792476 0.0063385367 4284835697
0.75196528 -0.050055474 0.0072160959 4283322456
0.75207537 -0.048303891 0.0084934235 4281085494
0.75217015 -0.046568144 0.0095709562 4280954156
0.75225723 -0.044842392 0.010548592 4280495139
0.7523213 -0.043133914 0.011226714 4279704340
0.75239295 -0.041425291 0.012004733 4279835156
0.75243402 -0.03973487 0.012383163 4279835156
0.75247508 -0.03804652 0.012761652 4280164375
0.75250083 -0.036366235 0.012940288 4280098582
0.75250363 -0.034695193 0.012819231 4279967512
0.75251406 -0.033021159 0.012798071 4279769882
0.75250161 -0.031353779 0.01247716 4279967261
0.75245857 -0.029692683 0.011756539 4280229406
0.75243849 -0.028022859 0.011335671 4280952099
0.75234967 -0.026363935 0.010015309 4281217328
0.75226086 -0.024698276 0.0086949468 4281348914
0.75217217 -0.02302588 0.0073744655 4280888363
0.75206053 -0.021348741 0.0057541132 4281017892
0.7519719 -0.019662099 0.0044334531 4280690462
0.75186044 -0.017969158 0.0028128624 4279441691
0.7517795 -0.01626838 0.0015919209 4278783761
0.75190997 0.014415406 0.00040471554 4279242770
0.75193584 0.016109936 0.00058329105 4279308563
0.75199205 0.01778226 0.0011618137 4281350969
0.75201029 0.019479241 0.0012403727 4280825136
0.7520209 0.021181516 0.0012188554 4280824627
0.75198597 0.022920214 0.00059717894 4280561455
0.75196624 0.024649363 0.00017547607 4280561455
0.75280178 -0.10166261 0.00065797567 4279639581
0.75296885 -0.099690661 0.0027321577 4279507995
0.75310606 -0.097778887 0.0044071078 4279967261
0.75320596 -0.095936239 0.0055833459 4279441687
0.75329101 -0.094123438 0.0065599084 4279771685
0.75339085 -0.092292711 0.0077362061 4280430894
0.75345349 -0.090524644 0.0084135532 4280036136
0.75350863 -0.088771224 0.0089911819 4279838241
0.75348198 -0.087139368 0.0084707737 4280100130
0.7534256 -0.08554697 0.007551074 4280034337
0.75336182 -0.083960161 0.0065315366 4280231969
0.75329804 -0.08236818 0.0055118799 4280231969
0.75318229 -0.080839142 0.0037933588 4279442190
0.75312603 -0.079225495 0.0028734803 4279901203
0.75304753 -0.077634826 0.0016539097 4279834383
0.75299132 -0.076011091 0.00073379278 4281416495
0.75316036 -0.057194907 0.0011957288 4279504917
0.75323766 -0.055437412 0.0020731688 4279046159
0.75332236 -0.053679001 0.0030505061 4279050011
0.75342917 -0.051909782 0.0043275356 4284442992
0.75349903 -0.050172653 0.0051051974 4284179820
0.75359839 -0.048420418 0.0062825084 4281611061
0.75367552 -0.046688061 0.0071601868 4282139451
0.75373787 -0.044968951 0.00783813 4280296729
0.75380754 -0.043249436 0.0086160302 4279901203
0.75386977 -0.041537836 0.0092940927 4279769363
0.75391728 -0.039836898 0.0097723603 4279769363
0.75394255 -0.038148321 0.0099509358 4279966996
0.75396782 -0.036460776 0.010129511 4280031760
0.75397831 -0.034779746 0.010108292 4279835153
0.75396663 -0.033106152 0.0097873211 4279900946
0.75395501 -0.031431008 0.0094662309 4279833878
0.75392121 -0.029760189 0.0088455081 4280358939
0.75391698 -0.028079456 0.0086243749 4280491548
0.75383896 -0.026412115 0.0074038506 4281611061
0.75378311 -0.024735004 0.0064831376 4282203198
0.75369036 -0.023057858 0.0050625205 4280954158
0.75360507 -0.021372788 0.00374192 4281084198
0.75354934 -0.019679358 0.0028209686 4280953380
0.75347149 -0.017981708 0.0016000867 4279178778
0.75338632 -0.01627773 0.00027918816 4278652434
0.75358605 0.010999644 0.00033438206 4279308807
0.75365543 0.012668379 0.0011129379 4279440395
0.75369543 0.014352079 0.001491487 4279638300
0.75372803 0.016038731 0.0017700195 4279835679
0.75375336 0.017729122 0.001948595 4281549377
0.75375664 0.019435138 0.0018270612 4280759347
0.7537306 0.021164909 0.0013054609 4280692787
0.7537412 0.022866923 0.0012839437 4280758580
0.75367117 0.024638552 0.00016206503 4280692787
0.75464243 -0.099751785 0.0023195744 4279507995
0.75476086 -0.0978636 0.0037950873 4279836958
0.75488645 -0.095971122 0.0053703785 4279507993
0.75499046 -0.09412235 0.0066464543 4279640351
0.75507998 -0.092303425 0.0077229142 4280099621
0.75514078 -0.090535343 0.008400321 4282665548
0.75520158 -0.088770881 0.0090777874 4280231716
0.75521213 -0.087085441 0.0090565085 4280100383
0.75522262 -0.085400015 0.0090351701 4279837981
0.75513273 -0.083858117 0.0076162815 4280297762
0.75505 -0.082298979 0.0062972307 4280429348
0.75497448 -0.08072336 0.0050778389 4279703567
0.75489908 -0.079141527 0.0038583875 4280229911
0.75480217 -0.077581123 0.0023393631 4282469953
0.75474113 -0.075968161 0.001319468 4281879625
0.75485456 -0.055518396 0.00086122751 4281946184
0.75491518 -0.053773627 0.0015388727 4280827707
0.75498301 -0.052027155 0.0023164153 4280232751
0.75504363 -0.050289899 0.0029941797 4280561716
0.75511849 -0.048546646 0.0038717389 4280034341
0.75517905 -0.046817161 0.0045496225 4279836962
0.75523245 -0.0450956 0.0051276088 4279310618
0.75527871 -0.043381181 0.0056056976 4279506710
0.75533921 -0.041661799 0.0062837005 4279506710
0.75536406 -0.039963633 0.0064620972 4279376147
0.75538886 -0.038266502 0.0066406131 4279769365
0.75541365 -0.036570404 0.0068190694 4280032278
0.7554242 -0.034880824 0.0067977309 4279900949
0.75543475 -0.033191249 0.0067763329 4279835156
0.75543106 -0.031506114 0.0065552592 4279702292
0.75539172 -0.029829754 0.005834341 4279965468
0.75535959 -0.028148066 0.0052133203 4280162843
0.7553274 -0.02646327 0.0045923591 4280688674
0.75528818 -0.024776548 0.0038713813 4284438875
0.75524187 -0.023087129 0.0030503869 4281151535
0.75516707 -0.021396235 0.001829505 4281151788
0.75511366 -0.019697897 0.0009085536 4281809718
0.75532997 0.0092559978 0.0010425448 4279308555
0.75539017 0.010929266 0.0017211437 4279701514
0.75543618 0.012607936 0.0021997094 4279440143
