# .PCD v0.7 - Point Cloud Data file format
VERSION 0.7
FIELDS x y z rgb
SIZE 4 4 4 4
TYPE F F F U
COUNT 1 1 1 1
WIDTH 1024
HEIGHT 1
VIEWPOINT 0 0 0 1 0 0 0
POINTS 1024
DATA ascii
0.68749583 -0.062956542 0.028176978 4285957006
0.68781281 -0.06204344 0.028413296 4285959307
0.70944512 -0.036460176 0.045176268 4285090869
0.70960516 -0.035640039 0.045289353 4294958718
0.70968688 -0.034814965 0.045340165 4294695032
0.70969045 -0.033984169 0.045328632 4294235483
0.70977223 -0.033159867 0.045379415 4294760796
0.70977575 -0.032329328 0.045367882 4294956909
0.70985752 -0.031505808 0.04541871 4289102373
0.7100175 -0.030690074 0.045531869 4289957682
0.71002102 -0.029860318 0.04552035 4291144016
0.70994633 -0.029022768 0.045446455 4288642339
0.71002805 -0.0282008 0.045497298 4293968992
0.70987517 -0.027354425 0.045361042 4294824024
0.70980042 -0.026515579 0.045287132 4294824024
0.70949107 -0.025649738 0.045026124 4294890835
0.70933813 -0.024799995 0.044889823 4294692704
0.69109082 0.0094819702 0.029785275 4283057737
0.69093823 0.010412272 0.029647857 4282662979
0.69070745 0.011362556 0.029447898 4281413684
0.69063306 0.012275998 0.02937296 4280232236
0.69055867 0.013189975 0.029298007 4280167724
0.69032794 0.014143888 0.029098034 4280625191
0.6904881 0.014999513 0.029210642 4280164640
0.69041377 0.015914772 0.029135689 4280164123
0.684726 -0.07405372 0.024996772 4283192671
0.6849643 -0.073122717 0.025171205 4285167740
0.68512446 -0.072198436 0.025283292 4285957757
0.6853627 -0.071270272 0.02545774 4286154622
0.685601 -0.070343673 0.025632218 4284378476
0.68591738 -0.069414236 0.025869116 4285102199
0.68623376 -0.068486869 0.02610606 4285169793
0.68655014 -0.067561582 0.026343018 4282406485
0.68686646 -0.066638365 0.026579991 4283191888
0.6871047 -0.065720573 0.026754618 4282201147
0.68742102 -0.064801238 0.026991636 4282530112
0.68765926 -0.063886814 0.027166307 4284571253
0.68805367 -0.062968791 0.02746582 4285825168
0.68844807 -0.06205336 0.027765349 4285628809
0.68860817 -0.061146688 0.027877659 4285694602
0.71097696 -0.035714157 0.045323327 4294959483
0.7111367 -0.034897901 0.045436904 4294959716
0.71114016 -0.034070212 0.045425415 4294234965
0.71114373 -0.033242524 0.045413911 4294693969
0.71114719 -0.032414839 0.045402408 4294693206
0.71115077 -0.031587154 0.045390919 4293904485
0.71115422 -0.030759465 0.04537943 4292917590
0.71131396 -0.029946838 0.045493037 4291603538
0.71131742 -0.029119669 0.045481548 4293509473
0.711321 -0.028292499 0.045470059 4294954602
0.71140254 -0.027473638 0.04552114 4294757979
0.71148413 -0.02665529 0.045572221 4294955358
0.69587386 -0.0056021065 0.032726884 4280490525
0.69195032 0.0085043088 0.02934587 4283124808
0.69164193 0.0094698705 0.029082671 4282398526
0.69125563 0.010456178 0.028756693 4282332733
0.69110334 0.011388291 0.028618842 4281280815
0.69102913 0.012302261 0.028543696 4280493609
0.6908769 0.013236184 0.02840583 4280297511
0.69095874 0.014112037 0.028456122 4279835675
0.69080651 0.015047271 0.028318226 4280098847
0.68474483 -0.074105933 0.023839012 4282268746
0.68506062 -0.073167674 0.024076611 4281415231
0.68537635 -0.072231486 0.02431424 4287141280
0.68569213 -0.071297377 0.024551898 4286353297
0.68592989 -0.070369989 0.024726972 4285565064
0.68624568 -0.069439754 0.024964675 4285565064
0.68656135 -0.068511605 0.025202394 4283986032
0.68695509 -0.067581646 0.025502771 4285367172
0.68727076 -0.066657901 0.025740549 4286286471
0.68766451 -0.065732859 0.026041001 4284375392
0.68798018 -0.064813517 0.026278853 4283256911
0.6883738 -0.0638934 0.026579365 4281481533
0.68861151 -0.062981039 0.026754647 4281218363
0.68892717 -0.062067907 0.026992589 4281281848
0.68939877 -0.06115273 0.02735582 4284374374
0.68987036 -0.06024066 0.02771908 4285892748
0.71242326 -0.035793908 0.045424521 4294959740
0.71258259 -0.034980755 0.045538545 4294761048
0.7125861 -0.034156177 0.045527086 4294497876
0.71258962 -0.033331595 0.045515642 4294233416
0.71259314 -0.032507021 0.045504183 4294627661
0.71267456 -0.03168945 0.045555472 4294431311
0.71260011 -0.030857863 0.045481279 4291470624
0.71268153 -0.030040814 0.045532584 4294694481
0.71276295 -0.029224275 0.045583889 4294758730
0.71276647 -0.028400213 0.045572445 4294758481
0.71284789 -0.027584458 0.045623779 4294889815
0.71285135 -0.026760655 0.045612335 4294955865
0.71293277 -0.025945673 0.045663655 4294956122
0.6964125 -0.006492734 0.032047704 4279834652
0.69633836 -0.0055997521 0.031972647 4279834901
0.69610846 -0.0046772137 0.031771854 4279964951
0.69595635 -0.0037679039 0.031633914 4279702294
0.69280851 0.0075287409 0.028908089 4280889137
0.69257867 0.0084740669 0.028706998 4281085225
0.69219315 0.0094577707 0.028380066 4281281577
0.69180757 0.010444064 0.028053075 4281018405
0.69157779 0.011395078 0.027851894 4280755752
0.69134796 0.01234768 0.027650714 4280689957
0.69127393 0.013262931 0.027575329 4280690210
0.6911999 0.014178704 0.027499959 4279572503
0.68618202 -0.070400968 0.023757681 4286221459
0.68665272 -0.069460906 0.024121806 4285892494
0.68704557 -0.068528078 0.024423137 4286090895
0.68743849 -0.067597844 0.024724528 4284840056
0.68798697 -0.066662967 0.025151551 4285825154
0.68837988 -0.065738432 0.025453031 4286811536
0.68869495 -0.064819589 0.025691688 4284180843
0.68916559 -0.063897133 0.026056051 4282733397
0.68955839 -0.062980369 0.026357606 4280889650
0.68995118 -0.062066201 0.026659206 4280821550
0.69049966 -0.061150491 0.027086526 4281279278
0.69065905 -0.060247432 0.027199686 4282335563
0.69105184 -0.059340775 0.027501404 4284046181
0.71379143 -0.035045624 0.045456246 4294760798
0.71387267 -0.034229606 0.045507759 4294563419
0.7137984 -0.033401132 0.045433402 4294497104
0.71387964 -0.032585628 0.04548493 4294957655
0.71396089 -0.031770639 0.045536458 4294826839
0.71380889 -0.03093439 0.045399144 4293641795
0.71381235 -0.030112145 0.045387715 4294497104
0.71381587 -0.029289899 0.045376301 4294956886
0.71405262 -0.028491771 0.045553789 4294758479
0.71413386 -0.027678596 0.045605347 4294890063
0.7142151 -0.026865946 0.045656919 4294956115
0.71414083 -0.026036175 0.045582533 4294956115
0.6971103 -0.0065326318 0.031482413 4279967512
0.6969586 -0.0056259185 0.031344101 4279835156
0.69696236 -0.004747197 0.031331897 4279703064
0.6968106 -0.003838934 0.031193569 4279045389
0.69665885 -0.0029296242 0.031055197 4279505940
0.69619632 -0.0019581169 0.030664563 4282862658
0.69436109 0.0055091344 0.029052198 4280758584
0.69397628 0.0064847767 0.028724343 4280890170
0.69343609 0.0074987747 0.028270259 4280692019
0.69312906 0.0084619895 0.028005421 4280756777
0.69274426 0.0094456635 0.027677462 4281085477
0.6925149 0.010394614 0.027475685 4280624926
0.69197476 0.011420798 0.027021423 4280493083
0.69166774 0.012393076 0.026756465 4280427293
0.69151616 0.013328541 0.026617751 4280493083
0.68792224 -0.067614049 0.023945868 4285301379
0.68846965 -0.066678889 0.024374321 4285630857
0.68901694 -0.06574735 0.024802834 4284511865
0.68956429 -0.06481944 0.025231391 4285366402
0.69011164 -0.063895158 0.025659993 4285892746
0.69058132 -0.062977083 0.026025638 4283720546
0.69112861 -0.062059797 0.026454344 4283456345
0.69152057 -0.061150268 0.026757032 4281479734
0.69183493 -0.060245141 0.026996702 4281279793
0.69214928 -0.059342086 0.027236432 4281674551
0.71546644 -0.034327846 0.045745105 4294563419
0.7154699 -0.033509485 0.045733735 4294694233
0.71539581 -0.032684386 0.045659229 4290614040
0.71532166 -0.031858765 0.045584679 4291667755
0.71532512 -0.031039888 0.045573309 4292916818
0.71525103 -0.030213492 0.045498773 4288048136
0.71525455 -0.029394357 0.045487404 4291271491
0.715258 -0.028575217 0.045476019 4294956915
0.71533906 -0.027764373 0.045527816 4294626643
0.71549773 -0.026962601 0.045642808 4294955858
0.71550119 -0.02614424 0.045631438 4294955858
0.69780749 -0.0065725222 0.030917957 4280494360
0.69750094 -0.0056378283 0.030652717 4282732092
0.69773734 -0.0048026405 0.030830294 4282602302
0.69758594 -0.0038951561 0.030691564 4282733886
0.6974346 -0.0029866323 0.030552834 4282668093
0.69736075 -0.0020923652 0.030477345 4282931013
0.69713181 -0.0011664852 0.030275285 4282007097
0.69698042 -0.00025485456 0.030136496 4281809467
0.69698417 0.00062567741 0.030124262 4282137407
0.69667768 0.0015715174 0.029858872 4281545270
0.69637114 0.0025194176 0.029593438 4281215801
0.69598711 0.0034862421 0.029264703 4281413432
0.69560313 0.0044556558 0.028935909 4281282101
0.69514155 0.0054450259 0.028543785 4280494127
0.69414091 0.0074509606 0.027696088 4280363056
0.69367939 0.0084499046 0.02730383 4280494377
0.69329542 0.0094335638 0.026974857 4280494878
0.69267881 0.010475788 0.026455864 4280494878
0.6922949 0.011465404 0.026126817 4280429083
0.69167829 0.012515139 0.025607705 4280165911
0.68949878 -0.065762997 0.024026617 4285499785
0.69019997 -0.06482859 0.024583057 4284972927
0.69090116 -0.063898839 0.025139555 4284907134
0.69160229 -0.062973753 0.025696114 4285958791
0.69230342 -0.062053338 0.026252717 4284838509
0.6926946 -0.061145864 0.026556477 4282930003
0.6930083 -0.060242794 0.026796982 4281216053
0.71728456 -0.035258602 0.046189547 4294892130
0.71721059 -0.034438428 0.046114862 4294694233
0.71721405 -0.033624209 0.046103552 4294496854
0.71698523 -0.032789789 0.045902178 4292390199
0.71683377 -0.031960804 0.045764118 4289890842
0.71683729 -0.031145291 0.045752794 4289035799
0.71676326 -0.030322269 0.045678109 4288706834
0.7168442 -0.029514272 0.045730144 4289232930
0.71684766 -0.028698759 0.045718819 4294957935
0.71685112 -0.02788325 0.045707494 4294626645
0.71685457 -0.027067738 0.045696154 4294626891
0.71685803 -0.026252227 0.045684829 4294758477
0.71693897 -0.025445784 0.045736909 4294429512
0.69835293 -0.005706735 0.030215189 4282995262
0.69843405 -0.0048435517 0.030266449 4282666045
0.69836044 -0.003951367 0.030190796 4281809198
0.69813186 -0.003028594 0.02998817 4281809198
0.69821304 -0.0021654256 0.030039459 4281743405
0.69798458 -0.001240585 0.029836819 4280887595
0.69783348 -0.00033000484 0.029697642 4281413682
0.69745022 0.00062981248 0.029367954 4281215533
0.69722176 0.0015595704 0.029165238 4281412912
0.69699335 0.0024908781 0.028962493 4280231720
0.69668746 0.003440585 0.028696239 4280100134
0.69638163 0.0043923594 0.02842994 4280230435
0.69422972 0.0084378198 0.026602253 4280889135
0.69361436 0.0094766505 0.026081666 4280559649
0.69299906 0.01051962 0.025561064 4280757028
0.6923064 0.011585642 0.024976835 4280691489
0.69161373 0.012656335 0.02439256 4279969815
0.69075799 -0.064840838 0.02387169 4285499785
0.69168967 -0.063902505 0.024620309 4285499785
0.69269866 -0.062967792 0.025432467 4285171072
0.69332099 -0.06205149 0.025927499 4284972662
0.69441104 -0.060234945 0.026790872 4285102969
0.71894276 -0.036169037 0.046513662 4294693731
0.71910077 -0.035370879 0.046629518 4294628438
0.71902692 -0.034555115 0.046554729 4294693967
0.71895313 -0.033738822 0.046479911 4294628174
0.71880198 -0.03291529 0.046341524 4292324658
0.71872813 -0.032097712 0.046266705 4291339058
0.71857703 -0.031272359 0.046128288 4294497637
0.71850324 -0.030453485 0.046053454 4293314362
0.71842939 -0.029634092 0.045978591 4292524846
0.71835554 -0.028814178 0.045903742 4294761044
0.71835899 -0.028002035 0.045892462 4294759251
0.71836245 -0.02718989 0.045881182 4294955606
0.71836591 -0.026377747 0.045869902 4294889815
0.71836936 -0.025565604 0.045858622 4294560850
0.69904912 -0.0057471171 0.02965194 4281546546
0.69913012 -0.0048844554 0.029703423 4281808691
0.69905663 -0.0039927848 0.029627576 4281348138
0.69890583 -0.0030855723 0.029488027 4281150759
0.69898677 -0.0022231638 0.029539526 4281348138
0.69875884 -0.001299113 0.029336274 4280888363
0.69845355 -0.00035771728 0.029069319 4281348914
0.69814831 0.0005857572 0.02880232 4280361249
0.69792032 0.0015149899 0.028598994 4280558628
0.69776964 0.002429191 0.028459355 4279902240
0.69746441 0.0033781081 0.028192282 4279639066
0.6970048 0.0043632798 0.027797788 4280691235
0.69377983 0.0095564909 0.025059834 4280427042
0.69308865 0.010619376 0.024473816 4281216558
0.69224292 0.011724737 0.023760274 4281282602
0.69139719 0.012835812 0.023046657 4280168475
0.6926316 -0.063900433 0.024229556 4286419090
0.69356132 -0.062969573 0.024980724 4285631623
0.69402808 -0.062058948 0.025350153 4285829768
0.72090816 -0.036288187 0.04708764 4294430043
0.72091156 -0.035483036 0.047076464 4294562632
0.7207607 -0.034665465 0.046937734 4294759748
0.7206099 -0.033846859 0.046799019 4294759748
0.7204591 -0.033027213 0.046660274 4289954307
0.7203083 -0.032206535 0.04652153 4293968463
0.72015744 -0.031384818 0.04638277 4289430543
0.72000664 -0.030562066 0.046243981 4291997240
0.71993297 -0.029746043 0.046168968 4291273517
0.7198593 -0.028929504 0.046093971 4293513305
0.7197085 -0.02810416 0.045955151 4293838909
0.71971196 -0.027294865 0.045943916 4294824790
0.71971542 -0.026485572 0.045932665 4294956390
0.71971881 -0.025676278 0.04592143 4294363739
0.69959426 -0.0048818365 0.028949589 4281412912
0.69990635 -0.0040637106 0.029192924 4281150761
0.69975591 -0.0031575374 0.029052973 4280756001
0.69960546 -0.0022503398 0.028913036 4280756001
0.69945502 -0.0013420954 0.028773069 4280032278
0.69915044 -0.00040122494 0.02850531 4280295709
0.69892287 0.00052566081 0.028301418 4280229916
0.69869542 0.0014541075 0.028097466 4280295709
0.69846791 0.0023841001 0.027893543 4280296996
0.69816333 0.0033324845 0.02762565 4281349165
0.69434571 -0.062973917 0.024466828 4285564033
0.72233206 -0.035565332 0.0472105 4294958677
0.72233546 -0.034763291 0.047199354 4294495806
0.72218496 -0.033948317 0.047060266 4294955088
0.72203445 -0.033132307 0.046921164 4294295873
0.72188389 -0.032315262 0.046782061 4294956380
0.72173345 -0.03149718 0.046642959 4294824024
0.7216599 -0.030685565 0.046567798 4290351391
0.72143245 -0.029857907 0.046364665 4290482977
0.7213589 -0.029044736 0.046289474 4294431327
0.72113144 -0.028214488 0.046086311 4294825806
0.72105795 -0.027399765 0.04601112 4294956376
0.72106135 -0.02659332 0.045999929 4294626909
0.70067787 -0.0041198544 0.028695837 4280756003
0.70060468 -0.0032294802 0.028619587 4279900949
0.70045447 -0.002323322 0.028479233 4280427293
0.70030439 -0.0014161207 0.028338864 4279966742
0.69992352 -0.00046050921 0.028006196 4280099100
0.69954264 0.00049769133 0.027673513 4280561451
0.69923866 0.0014421791 0.02740486 4280758830
0.69901168 0.0023721606 0.027200311 4280496171
0.69870776 0.0033205301 0.026931614 4280890418
0.72367871 -0.034043215 0.047263056 4294956619
0.72345173 -0.03322386 0.047059447 4292258335
0.7233783 -0.032416906 0.046984121 4288310016
0.7232281 -0.0316022 0.046844646 4289691403
0.72307789 -0.030786458 0.046705142 4294098512
0.72308129 -0.029985195 0.04669401 4294957157
0.72293115 -0.029167898 0.046554521 4294889565
0.72285771 -0.028357837 0.04647918 4294824792
0.72270757 -0.027538728 0.046339616 4294891100
0.7226342 -0.026727377 0.046264276 4294562135
0.72256076 -0.025915504 0.046188906 4294430549
0.70137167 -0.0041612238 0.028135672 4280361245
0.70122182 -0.0032563582 0.027994931 4279769365
0.70099527 -0.0023351945 0.027789891 4280098330
0.70084548 -0.0014279969 0.027649105 4280888614
0.70046538 -0.00047240779 0.027315423 4280758311
0.70016211 0.00046972185 0.027046025 4281022766
0.69993556 0.0013976321 0.026840866 4280956973
0.69963223 0.0023436546 0.026571393 4280496936
0.69940567 0.0032749251 0.026366219 4280562731
0.72501165 -0.034921445 0.047353446 4294891084
0.72501504 -0.034125105 0.04734239 4294495808
0.72486514 -0.033315323 0.047202572 4294824773
0.72479188 -0.032511488 0.047127128 4287520512
0.72479528 -0.031714369 0.047116056 4291730738
0.72464538 -0.030902263 0.046976194 4290086426
0.72457212 -0.03009687 0.046900705 4289559565
0.72442222 -0.029282944 0.046760827 4294691419
0.72442561 -0.028484531 0.046749741 4294824792
0.72427577 -0.027669057 0.046609834 4294825305
0.72420251 -0.02686133 0.046534345 4294562135
0.72397602 -0.02603499 0.046330005 4294363471
0.70175838 -0.0041435771 0.027318344 4280361243
0.7016089 -0.0032382049 0.0271772 4280690465
0.70145941 -0.002331797 0.027036041 4280822051
0.70123339 -0.0014088303 0.026830345 4281545771
0.70100725 -0.00048430637 0.026624635 4281217833
0.70062798 0.00047386065 0.02628991 4280824104
0.7004019 0.0014020167 0.026084155 4280889897
0.69994605 0.0023814067 0.025684819 4281351218
0.7262646 -0.035787955 0.047383666 4294498123
0.72619152 -0.034988008 0.047308072 4294496576
0.72619486 -0.034194 0.047297046 4294955848
0.72612178 -0.033393279 0.047221407 4291139854
0.72612512 -0.03259901 0.04721038 4290943018
0.72605205 -0.031797506 0.047134772 4292654148
0.72605538 -0.031002978 0.04712373 4294430043
0.72598231 -0.030200701 0.047048107 4294957396
0.72598571 -0.029405914 0.047037065 4294823240
0.7259891 -0.028611127 0.047026023 4294956360
0.72591597 -0.027807813 0.04695037 4294957655
0.72584289 -0.027003979 0.046874717 4294693456
0.72576976 -0.026199626 0.046799049 4294626629
0.70192015 -0.0032050535 0.026293933 4282334254
0.70177102 -0.0022978857 0.026152372 4281742117
0.70154542 -0.0013741404 0.025946051 4281413665
0.70109046 -0.00040151179 0.025545612 4281677612
0.7007885 0.00054215267 0.02527453 4281415210
0.70048642 0.0014878958 0.025003433 4281349417
0.69972587 0.0025350526 0.024343982 4281284394
0.72736514 -0.035846189 0.047277346 4294629460
0.72736847 -0.035054512 0.047266349 4294628675
0.72737181 -0.034262836 0.047255367 4294826056
0.72722256 -0.033457734 0.047114789 4289957909
0.72730219 -0.03267251 0.047168568 4290813218
0.7272293 -0.031873342 0.04709278 4291011374
0.72730899 -0.031088635 0.047146574 4289562656
0.72738862 -0.030304447 0.047200382 4293642578
0.72731566 -0.029504761 0.047124565 4294825291
0.72724277 -0.028704558 0.047048762 4294891084
0.72724611 -0.027912362 0.047037765 4294891096
0.7272495 -0.027120167 0.047026768 4294627674
0.72725284 -0.026327971 0.047015756 4294560600
0.70200354 -0.0031269267 0.025214761 4281545769
0.70177841 -0.0022029467 0.025007859 4281545251
0.70147705 -0.0012618862 0.024736002 4280756505
0.70117563 -0.00031875074 0.024464116 4281019430
0.7001915 0.0016552173 0.023595661 4281348395
0.7283107 -0.035892505 0.047044337 4294958933
0.72846639 -0.035114765 0.047163323 4294300216
0.7285459 -0.034331605 0.047217354 4294958415
0.72847307 -0.033535551 0.047141388 4288708101
0.72855264 -0.032752916 0.04719542 4293576783
0.72863215 -0.031970792 0.047249451 4290550575
0.72855932 -0.031174222 0.0471735 4287260423
0.72856271 -0.030384876 0.047162533 4288773394
0.72864223 -0.029603533 0.047216579 4294957910
0.72864556 -0.028814444 0.047205612 4294825553
0.7286489 -0.028025357 0.04719466 4294891100
0.72865224 -0.02723627 0.047183692 4294693217
0.728351 -0.026411025 0.04691264 4294363739
0.70186043 -0.0030038469 0.023937821 4281742378
0.70171195 -0.0020927936 0.023795366 4281479458
0.70133507 -0.0011341646 0.023457557 4280691485
0.72948241 -0.035956562 0.047009319 4294629193
0.72948575 -0.035168767 0.046998382 4294431035
0.72956514 -0.034387425 0.047052637 4294957407
0.72972047 -0.033613302 0.047172084 4293839975
0.72972381 -0.032826286 0.047161147 4292260943
0.72980314 -0.032046489 0.047215417 4291997517
0.72980648 -0.031259738 0.047204494 4293972336
0.72996181 -0.030488465 0.047323987 4291800642
0.72996515 -0.029702226 0.047313064 4294430282
0.73004454 -0.028924249 0.047367364 4294956626
0.72997183 -0.028129749 0.047291219 4294957410
0.73005122 -0.02735229 0.047345534 4294693983
0.73080629 -0.03524746 0.047097847 4294628166
0.73088545 -0.03446896 0.047152355 4294824792
0.73096466 -0.033690974 0.047206834 4290943798
0.73096794 -0.032906551 0.047195941 4291733314
0.73112297 -0.032136567 0.047315866 4292917322
0.73112631 -0.031352662 0.047304973 4293050457
0.73112965 -0.030568756 0.04729408 4293970787
0.7312088 -0.029792847 0.047348619 4294692956
0.73136377 -0.029025711 0.047468558 4294758749
0.73129129 -0.028234066 0.047392264 4294957153
0.73137045 -0.027459452 0.047446802 4294693721
0.73137379 -0.026676323 0.047435939 4294495057
0.73189622 -0.035307534 0.047005013 4294825291
0.7319752 -0.034531102 0.04705973 4294956122
0.73212993 -0.033761885 0.047180071 4289100814
0.73213321 -0.032979794 0.047169209 4294956122
0.73221225 -0.032204919 0.04722397 4294824022
0.73236692 -0.031438038 0.047344342 4294298709
0.73237026 -0.03065672 0.047333479 4291206198
0.73244923 -0.029883398 0.047388241 4294692715
0.73252821 -0.02911059 0.047443017 4294824803
0.73253155 -0.028329793 0.047432169 4294890596
0.73253483 -0.027548995 0.047421321 4294430547
0.73253816 -0.026768198 0.047410473 4294626891
0.73305911 -0.035373725 0.046981245 4294628679
0.73321348 -0.034606062 0.047102019 4294824272
0.73329234 -0.033832733 0.04715696 4289099266
0.73337114 -0.033059925 0.047211975 4294099788
0.73345 -0.032287635 0.047266945 4294956382
0.73345327 -0.031508394 0.047256127 4293574221
0.73353213 -0.030736882 0.047311127 4289297941
0.73353541 -0.029957898 0.047300309 4294956653
0.73368979 -0.029195409 0.047421128 4294956903
0.73369306 -0.028416943 0.047410324 4294956903
0.73362088 -0.027629711 0.047333688 4294430809
0.7337752 -0.026869038 0.047454536 4294560068
0.7336275 -0.026072262 0.047312051 4294230368
0.73421913 -0.035439856 0.046961144 4294496578
0.73437321 -0.03467451 0.047082335 4294890566
0.73445183 -0.033903517 0.047137544 4294955600
0.73445511 -0.033126086 0.04712674 4294366051
0.73445845 -0.032348655 0.047115952 4293773914
0.73453712 -0.031578697 0.04717119 4293250398
0.73461574 -0.030809252 0.047226414 4294166612
0.73469442 -0.030040327 0.047281668 4294626641
0.73484844 -0.029280161 0.047402918 4294957667
0.73485172 -0.028504027 0.047392145 4294957153
0.73477966 -0.027719133 0.047315329 4294298963
0.73478293 -0.026942739 0.047304541 4294495043
0.73471093 -0.026157066 0.047227725 4294099795
0.73552668 -0.035518266 0.047077119 4294628148
0.73553002 -0.034742907 0.047066346 4294035246
0.7355333 -0.033967551 0.047055587 4289758208
0.7356118 -0.033199139 0.047111019 4288837888
0.73561507 -0.03242404 0.047100261 4288706304
0.73561835 -0.031648941 0.047089487 4287588608
0.73569685 -0.030881569 0.047144964 4291073837
0.73570013 -0.030106731 0.047134206 4294957150
0.73577863 -0.029340131 0.047189668 4294958697
0.73578191 -0.02856555 0.047178909 4294891362
0.73578525 -0.027790971 0.047168151 4294562397
0.73578852 -0.027016392 0.047157392 4294100537
0.73586702 -0.026251091 0.047212899 4293378371
0.73675895 -0.034817658 0.047120437 4294693176
0.73676229 -0.034044892 0.047109693 4294561340
0.73669052 -0.033265181 0.04703255 4293904704
0.7366938 -0.032492153 0.047021821 4293312567
0.73669708 -0.031719133 0.047011077 4292853062
0.73685044 -0.030961547 0.047133207 4292127804
0.73685372 -0.030189041 0.047122478 4294824024
0.736857 -0.029416531 0.04711175 4294957931
0.73686028 -0.028644023 0.047101021 4294957160
0.73686355 -0.027871517 0.047090292 4294562397
0.73686683 -0.02709901 0.047079563 4293639734
0.73694515 -0.026335778 0.047135279 4293575500
0.73687339 -0.025553996 0.047058091 4281802763
0.73805964 -0.034898765 0.047245219 4289499222
0.73798805 -0.034122165 0.047167912 4290551647
0.73791641 -0.033345051 0.047090575 4290814047
0.73791969 -0.032574616 0.047079876 4292064114
0.7378481 -0.031796724 0.047002554 4290156117
0.73785138 -0.031026032 0.046991855 4294235283
0.73785466 -0.030255336 0.046981141 4291538794
0.7379328 -0.029492876 0.04703708 4292721263
0.73793608 -0.028722441 0.047026381 4293050228
0.73786449 -0.027943254 0.046949029 4294432133
0.7380175 -0.027190585 0.047071636 4293182836
0.73802078 -0.026420407 0.047060937 4293049728
0.73809892 -0.025659762 0.047116891 4281604884
0.73920733 -0.034966953 0.047240853 4289108364
0.73913586 -0.034192696 0.047163367 4289042308
0.73906446 -0.033417914 0.047085866 4285091384
0.73906767 -0.032649808 0.047075197 4288842857
0.73892152 -0.031866796 0.046930835 4284829484
0.73899949 -0.031105891 0.046987027 4292460702
0.73892802 -0.030329553 0.046909481 4287264336
0.7389313 -0.029560933 0.046898812 4290025076
0.73893458 -0.028792311 0.046888128 4289825900
0.73893785 -0.028023688 0.046877459 4289036384
0.73894107 -0.027255066 0.046866775 4291472788
0.73894435 -0.026486447 0.046856105 4288510831
0.73894763 -0.025717827 0.046845436 4281540125
0.73902559 -0.024958991 0.046901643 4280228628
0.74027765 -0.035028674 0.047173128 4287727244
0.74013174 -0.034249812 0.047028422 4287730065
0.74006045 -0.033476848 0.046950728 4286873982
0.74006367 -0.032710556 0.046940088 4287992463
0.73991781 -0.031929366 0.046795368 4288584600
0.73999566 -0.031170268 0.046851769 4287729291
0.73984981 -0.030387782 0.046707019 4289440157
0.73985302 -0.029620716 0.046696365 4286806641
0.7398563 -0.028853647 0.046685711 4287531399
0.73993409 -0.028095322 0.046742111 4285294437
0.7398628 -0.027319513 0.046664402 4286677628
0.73994064 -0.026561707 0.046720803 4289305493
0.73986936 -0.025785379 0.046643093 4280423958
0.73994714 -0.025028091 0.046699509 4279835153
0.74134207 -0.03585377 0.04711923 4289900460
0.7412709 -0.03508392 0.047041401 4288850339
0.74112535 -0.03430688 0.046896338 4288655791
0.74112862 -0.033542663 0.046885714 4288722863
0.74105746 -0.032771256 0.046807855 4288130209
0.74098629 -0.031999335 0.046729997 4287998623
0.74098957 -0.031234596 0.046719372 4287274134
0.74084401 -0.030453932 0.04657425 4285825144
0.74084723 -0.029688677 0.046563625 4285163099
0.74077612 -0.028914941 0.046485737 4283322454
0.74070495 -0.028140685 0.046407819 4282598731
0.74070823 -0.027374912 0.046397194 4281150008
0.74071145 -0.026609143 0.046386555 4280752936
0.74064034 -0.025833853 0.046308652 4280162845
0.74064362 -0.025067821 0.046298012 4280360475
0.74057245 -0.02429175 0.046220079 4280360475
0.74225873 -0.035901003 0.046923146 4288325278
0.74218774 -0.035132706 0.046845123 4286812039
0.74204248 -0.034357231 0.046699643 4287800991
0.74211997 -0.033601493 0.046756506 4287934627
0.74204898 -0.032831907 0.046678454 4287867807
0.74197793 -0.0320618 0.046600416 4288065186
0.741907 -0.031291176 0.046522379 4289445303
0.74183595 -0.030520033 0.046444312 4290628807
0.74176502 -0.029748369 0.046366259 4286743416
0.74176824 -0.028984673 0.046355665 4282927446
0.74169725 -0.028212231 0.046277568 4281677379
0.74162626 -0.027439276 0.046199501 4281543998
0.74155527 -0.026665803 0.046121404 4280556072
0.74148428 -0.025891811 0.046043321 4280491558
0.74133909 -0.025107525 0.045897737 4280754982
0.74134231 -0.024342272 0.045887113 4280360224
0.74119711 -0.023556426 0.045741484 4280032280
0.74324435 -0.036714412 0.046807677 4282791483
0.74324757 -0.035954338 0.046797127 4285094238
0.7431767 -0.035187863 0.04671891 4284699480
0.7430318 -0.034414206 0.046573073 4284634708
0.74296093 -0.033646435 0.046494856 4285162333
0.74296415 -0.03288532 0.046484292 4285691505
0.74296737 -0.032124214 0.046473712 4288520101
0.74289656 -0.031355411 0.046395496 4287993757
0.74282575 -0.030586082 0.04631725 4287268239
0.74282897 -0.029824454 0.04630667 4283844424
0.74275815 -0.029054351 0.046228439 4281018929
0.74268728 -0.028283728 0.046150178 4280887343
0.74254239 -0.027503595 0.046004236 4281216312
0.74247158 -0.026731681 0.04592596 4281216305
0.74225259 -0.025940225 0.045712337 4280954156
0.74225581 -0.025176525 0.045701727 4280955441
0.74203682 -0.024382731 0.045488045 4281284406
0.74196607 -0.023607964 0.045409739 4281679667
0.74174714 -0.022811584 0.045196041 4281284392
0.7441538 -0.037518524 0.046627179 4280823593
0.74408311 -0.03675412 0.046548814 4282200116
0.74401242 -0.035989203 0.046470433 4282528313
0.74401563 -0.035230167 0.046459898 4282462520
0.74394488 -0.034464471 0.046381503 4282133040
0.7439481 -0.033705175 0.046370953 4282133291
0.7438035 -0.032931522 0.046224684 4282332982
0.74380672 -0.032171711 0.046214134 4282333249
0.74381 -0.031411897 0.046203583 4282530628
0.74381322 -0.030652083 0.046193033 4282134589
0.74381644 -0.02989227 0.046182469 4282330932
0.74381965 -0.029132456 0.046171919 4281084722
0.74367505 -0.028355177 0.046025619 4280755757
0.74353051 -0.027576867 0.045879319 4281282101
0.74338591 -0.026797518 0.04573299 4281085225
0.74324131 -0.026017133 0.045586646 4281679665
0.7430228 -0.025225941 0.045372367 4280824874
0.74287826 -0.024443224 0.045226008 4281088046
0.74273366 -0.023659471 0.045079619 4281548597
0.7424413 -0.022853592 0.044797421 4281679665
0.74222285 -0.022056442 0.044583097 4281743153
0.74193048 -0.021246675 0.044300824 4281874231
0.74476624 -0.038298037 0.046176955 4280953382
0.74484324 -0.037545659 0.046234474 4281349165
0.74492025 -0.036793794 0.046291977 4281480235
0.74477589 -0.036024038 0.046145365 4281413415
0.74470538 -0.035259642 0.046066806 4281676587
0.7447086 -0.034501381 0.046056271 4281478695
0.74471182 -0.033743121 0.046045735 4281609511
0.74471503 -0.03298486 0.0460352 4281608744
0.74471825 -0.032226603 0.04602468 4281937458
0.74472153 -0.031468347 0.046014145 4282200630
0.74472475 -0.030710084 0.04600361 4281280041
0.74465418 -0.029943617 0.045925021 4281017902
0.74473119 -0.029193565 0.04598254 4280887086
0.74458688 -0.02841785 0.045835853 4280754984
0.74444258 -0.027641099 0.045689151 4280360226
0.74437207 -0.026872559 0.045610532 4279703064
0.74430156 -0.026103498 0.045531869 4279572503
0.74400979 -0.02530463 0.04524897 4281086765
0.74379176 -0.024513707 0.045034111 4281218351
0.74349999 -0.023710947 0.044751108 4280890669
0.74328202 -0.02291666 0.044536218 4281218611
0.74291658 -0.022099219 0.044185087 4281283891
0.74262482 -0.021290243 0.04390201 4281218613
0.74233311 -0.020479199 0.043618917 4281744957
0.74218887 -0.019689236 0.043472037 4281349167
0.74523091 -0.039066311 0.045591071 4281872952
0.74545497 -0.038324382 0.045785278 4281347117
0.74545819 -0.037567157 0.045774758 4281018154
0.74538779 -0.036804058 0.045695975 4281216558
0.74539101 -0.036046579 0.045685455 4281019430
0.74546778 -0.03529549 0.045743197 4281085223
0.745471 -0.034538265 0.045732692 4281019430
0.74540067 -0.03377413 0.045653895 4281545774
0.74547744 -0.033023819 0.045711651 4281282347
0.74548066 -0.032266598 0.045701131 4281611059
0.74548388 -0.031509373 0.045690611 4281216301
0.74548709 -0.030752152 0.045680106 4281150508
0.74549031 -0.029994927 0.045669585 4281150515
0.74549353 -0.029237702 0.045659065 4281085496
0.74549675 -0.028480481 0.045648545 4281611838
0.74542642 -0.027714273 0.045569718 4281677631
0.74542964 -0.026956793 0.045559198 4280954930
0.74513847 -0.026161304 0.045275524 4281349937
0.74506807 -0.025393026 0.045196682 4281876281
0.74485058 -0.024604186 0.044981256 4281942074
0.74448586 -0.023793237 0.044629186 4280824876
0.74419475 -0.022990238 0.044345379 4281218361
0.74383008 -0.022174366 0.04399325 4281284154
0.74346536 -0.021355901 0.043641061 4280955189
0.74302715 -0.020523537 0.04322055 4281942084
0.74266249 -0.019699633 0.042868286 4282467648
0.74259216 -0.018920477 0.04278931 4280624672
0.74576896 -0.039839417 0.045073643 4281542700
0.74599254 -0.039096959 0.045268416 4281345321
0.74592233 -0.038334642 0.045189485 4280820260
0.74592555 -0.03757742 0.045178965 4280952363
0.7460022 -0.036826067 0.045236886 4281150765
0.74593198 -0.036062974 0.045157924 4281217063
0.74600863 -0.035312138 0.045215845 4280888098
0.74601185 -0.034555174 0.04520534 4281085477
0.74601507 -0.03379821 0.04519482 4281348649
0.74609172 -0.033048414 0.045252785 4280888616
0.74616838 -0.032299135 0.045310736 4281085225
0.74617159 -0.031542689 0.04530023 4280887846
0.74624825 -0.030794188 0.045358196 4280690467
0.74625146 -0.030038003 0.045347691 4280558378
0.74632812 -0.029290274 0.045405671 4280623923
0.7462579 -0.028525628 0.045326695 4281020219
0.74626112 -0.027769439 0.04531619 4281480770
0.74619085 -0.027004015 0.045237184 4281480502
0.74612063 -0.026238071 0.045158193 4281809716
0.74605042 -0.025471609 0.045079172 4281942072
0.7458334 -0.024684595 0.044863135 4281678902
0.74554288 -0.023885751 0.044578582 4281086765
0.7451055 -0.023063762 0.044156969 4280955189
0.74474168 -0.022249464 0.043803841 4281152570
0.74430436 -0.021421529 0.043382153 4280758582
0.74386704 -0.020590473 0.042960435 4281087547
0.74342978 -0.01975631 0.042538643 4282796611
0.74299252 -0.018919047 0.042116851 4280888868
0.74292231 -0.018139109 0.042037636 4280100381
0.75452107 0.014176492 0.052253693 4280954676
0.75430405 0.014977764 0.052037477 4283127113
0.75430715 0.015706223 0.05202736 4282534976
0.74008405 -0.055812757 0.039007962 4279703064
0.74001408 -0.055033863 0.038928583 4279439892
0.74623024 -0.041365169 0.044498488 4281674286
0.74638003 -0.040616572 0.044625238 4280753699
0.74638325 -0.039859351 0.044614717 4280097052
0.74645972 -0.039107218 0.044672832 4280294431
0.74653625 -0.038355604 0.044730961 4280689959
0.74646616 -0.03759329 0.044651806 4280624423
0.74646938 -0.036836326 0.044641286 4281019181
0.7464726 -0.036079362 0.044630781 4280164640
0.74654913 -0.035328783 0.044688925 4280296226
0.7466256 -0.034578718 0.044747069 4280559651
0.74662882 -0.033822276 0.044736564 4280034077
0.74670529 -0.033072997 0.044794738 4280363042
0.74678183 -0.032324232 0.044852898 4280493856
0.7468583 -0.031575982 0.044911057 4280757028
0.74693477 -0.030828256 0.044969246 4280625444
0.74693799 -0.030072846 0.044958755 4280492580
0.74701446 -0.029325895 0.045016944 4280032808
0.74701768 -0.028570743 0.045006454 4281152572
0.7470209 -0.027815592 0.044995964 4281218365
0.74702406 -0.027060444 0.044985473 4281152822
0.74695408 -0.026295796 0.044906288 4281811253
0.74688399 -0.025530633 0.044827089 4282140988
0.74681389 -0.024764953 0.044747889 4281810999
0.7465241 -0.023967937 0.044462547 4281810999
0.74616098 -0.023158317 0.04410845 4281415990
0.74579787 -0.022346113 0.043754339 4280889396
0.74536151 -0.021520257 0.043331444 4280823603
0.74485189 -0.020679992 0.042839795 4281415740
0.74434233 -0.019836102 0.042348102 4282666049
0.74383271 -0.01898858 0.041856349 4281941554
0.74354291 -0.018173691 0.041570753 4280428315
0.75504029 0.013414945 0.051760152 4283191890
0.75526303 0.014069583 0.051956758 4282732370
0.75511968 0.014845286 0.051808834 4282668626
0.75504959 0.015597235 0.051729828 4282208075
0.74055839 -0.057381801 0.03841649 4280163365
0.74048853 -0.056603428 0.038336903 4279964703
0.74049187 -0.055823926 0.038326085 4279703323
0.74042201 -0.055044778 0.038246468 4279440151
0.74691409 -0.04214533 0.044119298 4281607209
0.74699044 -0.041392677 0.044177622 4280884260
0.74692053 -0.040631402 0.044098273 4280359713
0.74692374 -0.039874438 0.044087753 4279505690
0.74692696 -0.039117478 0.044077232 4279768862
0.74693018 -0.038360514 0.044066727 4280887595
0.74700654 -0.037609152 0.044125065 4281218100
0.74700975 -0.036852449 0.04411456 4280889648
0.74708605 -0.036101863 0.044172898 4280890418
0.7471624 -0.035351805 0.044231266 4281285176
0.74716562 -0.034595616 0.04422076 4281154101
0.74724197 -0.033846326 0.044279113 4281153841
0.74731827 -0.033097558 0.044337481 4280758311
0.74739462 -0.032349315 0.044395864 4281284655
0.74739784 -0.031593904 0.044385374 4281218862
0.74754727 -0.030854367 0.044512644 4280692520
0.7476967 -0.030115867 0.044639945 4280690986
0.74769992 -0.029361494 0.04462947 4280559400
0.74770308 -0.028607121 0.044618994 4280494379
0.74777943 -0.027861718 0.044677407 4280560172
0.74770951 -0.027098374 0.044598028 4281152818
0.74771273 -0.026344001 0.044587553 4281548851
0.74771595 -0.025589628 0.044577077 4282207040
0.74771917 -0.024835253 0.044566602 4282207040
0.74750304 -0.02405007 0.044349357 4282207040
0.74721384 -0.023252815 0.04406321 4281745976
0.74692464 -0.022453476 0.043777019 4281876543
0.74641609 -0.02161894 0.043284014 4280955443
0.74598068 -0.020792075 0.042859882 4281350201
0.74532604 -0.019927409 0.042228907 4282863174
0.74496377 -0.019105371 0.041873649 4282664255
0.74445534 -0.018256586 0.04138045 4280559649
0.74387378 -0.017391823 0.040818259 4280296477
0.75592756 0.013261106 0.051602408 4283060567
0.75593066 0.013986971 0.05159232 4282731602
0.75593376 0.014712851 0.051582247 4282667090
0.75579077 0.015488263 0.051433951 4282008647
0.74096304 -0.058172997 0.037745237 4279771167
0.74096632 -0.057393495 0.037734404 4279834905
0.74082363 -0.05661574 0.037585661 4279703066
0.74089998 -0.055835105 0.03764376 4280165160
0.7475208 -0.043676578 0.043682784 4282595641
0.74752402 -0.042920128 0.043672279 4281542953
0.74745429 -0.042159636 0.043592751 4280358941
0.7474575 -0.041402932 0.043582231 4280359976
0.74753368 -0.040650792 0.043640748 4280097827
0.7475369 -0.039894346 0.043630242 4279309335
0.74754012 -0.039137904 0.043619737 4279704093
0.74754333 -0.038381454 0.043609232 4280559400
0.74754655 -0.037625007 0.043598726 4280493605
0.74754977 -0.036868565 0.043588221 4280428584
0.74762595 -0.036118239 0.043646783 4280887340
0.74762917 -0.03536205 0.043636277 4280755754
0.74770534 -0.034612499 0.043694839 4280953133
0.74778146 -0.03386347 0.0437534 4281611569
0.74785769 -0.033114955 0.043811992 4281020202
0.74800676 -0.032374378 0.04393965 4281677879
0.74808294 -0.03162716 0.043998241 4281612086
0.74808615 -0.030872528 0.043987766 4281875260
0.74816233 -0.030126089 0.044046387 4281611316
0.7483114 -0.029388618 0.044174105 4280954926
0.74838758 -0.028643472 0.044232726 4279442972
0.74853671 -0.027907817 0.044360459 4279508765
0.74846691 -0.027145511 0.044280887 4280100383
0.74847013 -0.026392173 0.044270411 4280955177
0.7485463 -0.025648583 0.044329077 4282073922
0.74854946 -0.024895504 0.044318616 4284048997
0.74840677 -0.024121895 0.044169918 4282535758
0.74826407 -0.023347251 0.044021204 4282075968
0.74797553 -0.022550002 0.043734208 4282272574
0.74761403 -0.021739639 0.043378085 4281022255
0.74703372 -0.020892791 0.042814523 4281219634
0.7464534 -0.02004179 0.042250872 4282270269
0.74601895 -0.019210279 0.041825473 4283584330
0.74529278 -0.018327352 0.04112345 4281151018
0.75608099 0.012620319 0.050764158 4282274381
0.75637561 0.013251264 0.051031277 4282602581
0.75652444 0.013928626 0.051159829 4283387477
0.75660044 0.014629472 0.051219091 4283059536
0.75653064 0.015379351 0.051139683 4282402635
0.74151367 -0.058961406 0.03721188 4279834907
0.74151695 -0.058182165 0.037201062 4279507993
0.74137461 -0.057405196 0.037051901 4279507480
0.74130511 -0.056626312 0.036971927 4279834907
0.74130839 -0.055846293 0.036961094 4280231466
0.74813014 -0.044449806 0.043236554 4281151016
0.7481333 -0.043693878 0.043226063 4282727227
0.74813652 -0.042937949 0.043215558 4281148195
0.74813974 -0.042182021 0.043205053 4280622885
0.74814296 -0.041426096 0.043194562 4280099369
0.74807334 -0.040665604 0.043114826 4280098597
0.74807656 -0.039909419 0.043104321 4280033826
0.74807978 -0.039153233 0.043093815 4279968033
0.748083 -0.038397044 0.04308331 4280494375
0.74808621 -0.037640862 0.043072805 4280558628
0.74816227 -0.036890529 0.04313156 4280229408
0.74816549 -0.036134601 0.043121055 4279962134
0.74824142 -0.035385046 0.043179825 4279764755
0.74831748 -0.034636013 0.04323861 4280292123
0.7483207 -0.033880603 0.043228105 4279767574
0.74846947 -0.033139497 0.04335618 4279832597
0.74854553 -0.032392018 0.043414965 4280163872
0.7486943 -0.03165273 0.043543071 4280361251
0.7487703 -0.030906545 0.0436019 4281807418
0.74891913 -0.030169064 0.043729991 4281676086
0.74899507 -0.029424177 0.043788835 4280889648
0.74907112 -0.028679805 0.04384768 4279640864
0.74914706 -0.027935954 0.043906525 4279640864
0.74915028 -0.027183395 0.043896079 4279772448
0.74929905 -0.026449803 0.044024244 4280692518
0.74937505 -0.025707504 0.044083104 4281941823
0.74930549 -0.024945717 0.044003353 4284704877
0.74930865 -0.024193678 0.043992907 4283783775
0.74916625 -0.023420595 0.043843806 4282469450
0.74902391 -0.022646476 0.043694705 4282534724
0.74866319 -0.021838203 0.043337584 4281745725
0.74822968 -0.021016043 0.042911068 4281677879
0.74765062 -0.02016766 0.042345822 4281612088
0.74707162 -0.019315135 0.041780561 4283056705
0.75645685 0.012634199 0.050122693 4282404432
0.75696909 0.01319344 0.050599188 4282274383
0.75704491 0.013894547 0.050658628 4282666829
0.75712067 0.01459514 0.050718069 4282927948
0.75683284 0.015419055 0.050429896 4282074440
0.74213666 -0.059747372 0.036748305 4279834905
0.74206734 -0.058970306 0.036668137 4279834905
0.74199796 -0.058192722 0.036587954 4280098847
0.74192858 -0.057414621 0.036507756 4280295456
0.74193192 -0.056635119 0.036496937 4281150508
0.74178982 -0.055856861 0.036347359 4284506459
0.74888408 -0.045227997 0.042929977 4281220397
0.74874198 -0.044466577 0.042780638 4281285675
0.7487452 -0.043711167 0.042770147 4281938222
0.74874842 -0.042955756 0.042759657 4280556569
0.74875164 -0.042200349 0.042749166 4280360994
0.74875486 -0.041444939 0.042738676 4279507230
0.74875808 -0.040689528 0.042728171 4279505942
0.74868858 -0.039929301 0.042648226 4279374097
0.74876446 -0.03917871 0.04270719 4279242511
0.74876767 -0.0384233 0.0426967 4279899162
0.74877089 -0.037667889 0.042686209 4280031259
0.74877411 -0.036912482 0.042675719 4279768855
0.74877733 -0.036157072 0.042665213 4278913296
0.74878049 -0.035401661 0.042654723 4278979089
0.74892902 -0.034659512 0.042783186 4279372048
0.74893224 -0.03390462 0.04277271 4279108874
0.74900806 -0.033156876 0.042831689 4278912776
0.74915653 -0.032417063 0.042960197 4278848014
0.74923241 -0.031670615 0.04301922 4278716428
0.74930823 -0.030924685 0.043078244 4281281594
0.74952936 -0.030195642 0.04327625 4281281846
0.74960518 -0.029451272 0.043335304 4280955189
0.74975365 -0.028716119 0.043463871 4281022519
0.74982947 -0.027973037 0.043522924 4280956726
0.74983263 -0.027221257 0.043512478 4281615938
0.74990851 -0.026478957 0.043571576 4281419070
0.74991167 -0.025727432 0.043561131 4281351998
0.75006008 -0.024995903 0.043689728 4283454044
0.7500633 -0.024244899 0.043679297 4284638318
0.75006652 -0.023493892 0.043668866 4282205258
0.74992448 -0.022721332 0.043519378 4282205508
0.74978238 -0.021947742 0.043369859 4282271299
0.74942243 -0.021139227 0.043011695 4281349684
0.74898994 -0.020316575 0.042583972 4281086512
0.74804908 -0.019408122 0.041669354 4283452233
0.75727165 0.013231594 0.049889013 4282469963
0.75741982 0.013908964 0.050018385 4282731852
0.75756806 0.01458532 0.050147757 4282731339
0.74276233 -0.059754081 0.036274716 4279442192
0.74254811 -0.058980864 0.036055222 4280100122
0.74247891 -0.05820328 0.03597483 4280034590
0.74240971 -0.057425182 0.035894439 4284046427
0.74234045 -0.056646567 0.035814017 4284177239
0.74956429 -0.046001341 0.042555392 4281611312
0.74964005 -0.04525023 0.042614549 4281544747
0.74949825 -0.044489853 0.042464823 4281413931
0.74950147 -0.043735478 0.042454332 4281083935
0.74943215 -0.042977326 0.042374194 4280032280
0.74943537 -0.042222694 0.042363718 4279769108
0.74943852 -0.041468062 0.042353228 4279243288
0.74944174 -0.040713429 0.042342752 4279242772
0.74937248 -0.039953984 0.042262629 4279700496
0.74930322 -0.039194018 0.042182475 4279634703
0.74937892 -0.038444199 0.042241648 4279569427
0.74938208 -0.03768931 0.042231172 4279242515
0.7493853 -0.03693442 0.042220682 4278914575
0.74938852 -0.036179528 0.042210191 4278652688
0.74946421 -0.035431001 0.042269379 4278718481
0.74946737 -0.034676366 0.042258903 4279110155
0.74954307 -0.033928625 0.042318121 4279240198
0.74961877 -0.033181395 0.042377323 4278848261
0.74969447 -0.032434687 0.042436555 4278390535
0.74984264 -0.031696156 0.04256545 4278456328
0.74999082 -0.030958666 0.042694375 4279244060
0.75006646 -0.03021403 0.042753637 4279703066
0.75014216 -0.029469909 0.042812884 4279570708
0.75029027 -0.028735008 0.042941839 4280097052
0.75036597 -0.027992185 0.043001145 4279899673
0.75051409 -0.027259097 0.043130115 4279636251
0.75058973 -0.02651757 0.043189406 4283256661
0.75066543 -0.025776558 0.043248698 4283195483
0.75081354 -0.02504606 0.043377727 4281022265
0.7508167 -0.02429609 0.043367311 4283390813
0.75081992 -0.023546122 0.043356895 4282337096
0.75082308 -0.02279615 0.04334648 4281809465
0.75053644 -0.022002053 0.043057099 4281942334
0.7503947 -0.02122847 0.042907193 4282270267
0.750108 -0.020430751 0.042617738 4281612337
0.74316698 -0.06054502 0.035603449 4279704594
0.74324268 -0.059764627 0.035662413 4279640084
0.74310124 -0.058989752 0.03551206 4279771670
0.74295986 -0.058213841 0.035361707 4281813566
0.74303555 -0.057433449 0.035420656 4283457623
0.75002658 -0.046765674 0.041972518 4281940281
0.75024676 -0.046019774 0.042171523 4282006074
0.75017762 -0.045263439 0.042091236 4281741362
0.75018084 -0.044509843 0.04208076 4281677360
0.75018406 -0.043756247 0.042070299 4281084450
0.75004256 -0.042995103 0.04192014 4279767825
0.75004578 -0.042240988 0.041909665 4279767825
0.750049 -0.041486874 0.041899189 4279308565
0.75005221 -0.040732756 0.041888714 4279504663
0.75005537 -0.039978646 0.041878238 4279504404
0.74998629 -0.039219461 0.041797921 4279570197
0.74998951 -0.038465086 0.041787431 4279504402
0.74999267 -0.037710711 0.041776955 4279504913
0.74992359 -0.036950491 0.041696578 4279177998
0.74999911 -0.036201969 0.041756004 4278850067
0.75000226 -0.03544759 0.041745529 4278718481
0.75007784 -0.034699842 0.041804925 4278914573
0.75015336 -0.033952609 0.04186435 4278913799
0.75015658 -0.033198755 0.041853875 4278979590
0.7502321 -0.032452304 0.041913286 4278521351
0.75045222 -0.031721685 0.042112499 4278587144
0.75052774 -0.030976787 0.042171955 4279243540
0.75060326 -0.030232405 0.042231411 4279307021
0.75075108 -0.029496977 0.042360768 4279833878
0.7508266 -0.028753893 0.042420268 4279964955
0.75097442 -0.028020278 0.04254964 4279701783
0.75112224 -0.027287703 0.042679057 4279964705
0.7511977 -0.026546692 0.042738557 4281016623
0.75127321 -0.025806192 0.042798057 4282667092
0.75134873 -0.025066217 0.042857572 4281418822
0.75149655 -0.024337005 0.042987034 4282274131
0.75149971 -0.023587815 0.042976633 4282599501
0.75157523 -0.022849392 0.043036148 4281479983
0.75150609 -0.022089429 0.042955816 4281613622
0.75136465 -0.021317668 0.042805508 4281810486
0.75122321 -0.020544864 0.0426552 4281744693
0.7439363 -0.060546819 0.035270795 4280231716
0.74379516 -0.059773244 0.035120055 4281546798
0.74372625 -0.058996968 0.035039291 4285362792
0.74358523 -0.058221579 0.034888536 4282799943
0.74351633 -0.057444006 0.034807742 4283064148
0.75085294 -0.046788272 0.041729301 4281679682
0.75071174 -0.046029981 0.041578785 4281482303
0.75085932 -0.045282632 0.041708395 4281415227
0.75086248 -0.044529814 0.041697934 4281744192
0.7508657 -0.043776993 0.041687474 4280622885
0.75086892 -0.043024175 0.041677028 4279701779
0.75072777 -0.042263296 0.041526467 4279767572
0.75073093 -0.041509956 0.041516006 4279309083
0.75073415 -0.04075662 0.04150553 4279373849
0.75066519 -0.039998475 0.04142502 4279373849
0.75059623 -0.039239816 0.041344494 4279308056
0.75059944 -0.038485959 0.041334018 4280097050
0.7506026 -0.037732109 0.041323557 4279834899
0.75060582 -0.036978252 0.041313082 4279376912
0.75060904 -0.036224395 0.041302606 4279180816
0.75061226 -0.035470538 0.041292146 4279180816
0.75061548 -0.034716681 0.04128167 4279311889
0.75083512 -0.033983465 0.041481465 4279375896
0.75083834 -0.033230387 0.041471004 4279900443
0.75091368 -0.03248471 0.041530639 4279375896
0.75098908 -0.031739548 0.041590288 4279441689
0.75106442 -0.030994901 0.041649938 4279965202
0.75113976 -0.030250775 0.041709602 4279439120
0.75128728 -0.0295156 0.041839391 4279964951
0.75136262 -0.028772769 0.041899055 4280097052
0.75151008 -0.028039411 0.042028874 4279833880
0.75158542 -0.027297873 0.042088553 4280095004
0.75173295 -0.026566325 0.042218387 4280291873
0.75180829 -0.025826089 0.042278111 4280097579
0.75195575 -0.025096353 0.04240796 4282797915
0.75203109 -0.024357408 0.042467684 4282271571
0.75217855 -0.02362949 0.042597577 4282534475
0.75218177 -0.022881072 0.042587191 4281219634
0.75225705 -0.022143681 0.04264693 4281285938
0.75218809 -0.021384243 0.042566389 4281548851
0.7445569 -0.061329883 0.034810245 4279245591
0.74448818 -0.06055516 0.034729302 4281284404
0.7444194 -0.059779923 0.034648299 4284967780
0.74442267 -0.059002493 0.034637511 4284441436
0.74428195 -0.058227893 0.034486353 4283391314
0.74414116 -0.057452254 0.034335181 4282074692
0.75131434 -0.047551293 0.041147426 4280231720
0.75138962 -0.046800945 0.041207224 4281479482
0.75146478 -0.046051115 0.041266993 4281479482
