# .PCD v0.7 - Point Cloud Data file format
VERSION 0.7
FIELDS x y z rgb
SIZE 4 4 4 4
TYPE F F F U
COUNT 1 1 1 1
WIDTH 1023
HEIGHT 1
VIEWPOINT 0 0 0 1 0 0 0
POINTS 1023
DATA ascii
0.71055079 -0.021290615 0.043888822 4280691485
0.7112599 -0.020822816 0.043603778 4280624926
0.71190655 -0.020316191 0.043387219 4281875761
0.71261799 -0.01984527 0.043102115 4282269226
0.71326661 -0.019335948 0.042885512 4281545503
0.71391618 -0.018825345 0.042668909 4281675804
0.71456665 -0.01831349 0.042452276 4281280794
0.71521807 -0.017800413 0.042235628 4279440395
0.68712246 -0.078424424 0.031828716 4283126346
0.68734694 -0.077500224 0.032157436 4280954661
0.68783152 -0.076842666 0.032145843 4280954661
0.68831599 -0.076185092 0.03213425 4280559901
0.6888532 -0.075580016 0.032054573 4280296729
0.68939066 -0.074974522 0.031974912 4280691487
0.6899814 -0.074420691 0.031827152 4280363290
0.69057274 -0.073866025 0.031679347 4280100118
0.69127119 -0.073413834 0.031395361 4280230934
0.69197083 -0.07295996 0.031111374 4280164371
0.6927253 -0.072555706 0.030759215 4280296729
0.69353497 -0.072200343 0.030338958 4281217831
0.69434649 -0.071842507 0.029918626 4281481003
0.69526786 -0.07158339 0.029362068 4279704844
0.69608343 -0.07122013 0.028941631 4280230159
0.69695508 -0.070904568 0.028453052 4279901194
0.6974476 -0.070236146 0.02844128 4280360977
0.69848639 -0.070065558 0.027748227 4280623384
0.69914484 -0.069543764 0.027532041 4280754200
0.69969428 -0.068922013 0.027452081 4280820763
0.70013386 -0.068201527 0.027508378 4280689177
0.7007941 -0.06767723 0.027292132 4280492061
0.69931626 -0.048493877 0.038753316 4282334263
0.69949496 -0.047631815 0.039083153 4284373583
0.69961393 -0.046726882 0.039481193 4280556308
0.69961441 -0.045734867 0.040015742 4281280544
0.6996125 -0.044746205 0.040550321 4280888091
0.69960809 -0.043760896 0.041084975 4280822298
0.69966 -0.042823046 0.041551456 4280690712
0.69970977 -0.041888133 0.042017981 4280493333
0.6997574 -0.04095614 0.042484567 4281151009
0.69992131 -0.040114105 0.042814746 4281348390
0.7001431 -0.039317489 0.043076694 4281480231
0.70036364 -0.038522512 0.043338701 4281348645
0.7006427 -0.037772119 0.043532476 4281217829
0.7009806 -0.03706567 0.043658033 4281349417
0.70125794 -0.036317557 0.043851852 4281744943
0.70147419 -0.035528451 0.044113949 4282862654
0.70174956 -0.034783058 0.044307813 4282270001
0.70208442 -0.034080774 0.04443346 4282664759
0.70229745 -0.033296049 0.044695616 4284110397
0.70263076 -0.032595843 0.044821277 4290419278
0.70296347 -0.031896487 0.044946954 4291537202
0.70323455 -0.031156942 0.045140922 4291537981
0.70350462 -0.030418634 0.04533492 4291603774
0.70389664 -0.029762805 0.045392349 4292197485
0.70428824 -0.029107377 0.045449823 4292528278
0.70461792 -0.028412193 0.045575559 4292594339
0.70507061 -0.027797796 0.045564726 4292860087
0.70552337 -0.027183399 0.045553908 4292004778
0.70597613 -0.026569001 0.045543075 4290887592
0.70642883 -0.025954604 0.045532241 4283979079
0.70700651 -0.025418483 0.045384794 4280822051
0.70752215 -0.02484262 0.045305625 4280165913
0.70810091 -0.024305053 0.045158133 4280297499
0.70868027 -0.023766652 0.045010641 4280756251
0.70932329 -0.023265719 0.044794813 4280623895
0.70984077 -0.022687338 0.044715628 4280493081
0.71048534 -0.022184327 0.04449974 4280361495
0.7111944 -0.021717742 0.04421553 4280493079
0.71184099 -0.021212026 0.043999583 4280690715
0.71248847 -0.020705052 0.04378365 4280756251
0.71320087 -0.020233884 0.043499336 4282794803
0.71378624 -0.01968734 0.043351695 4282531631
0.71443647 -0.019176617 0.043135688 4282071334
0.71502322 -0.01862821 0.042988017 4281413152
0.71567518 -0.018115178 0.042771965 4279569423
0.71645761 -0.017672941 0.042419165 4279372044
0.6876049 -0.07763502 0.033000186 4280822305
0.68808901 -0.076978073 0.032988608 4280756512
0.68852043 -0.07626833 0.033044904 4280427545
0.68910992 -0.075716779 0.032897577 4280427545
0.68964708 -0.075112 0.032818094 4281019680
0.69029063 -0.074611142 0.032602876 4280625692
0.69088197 -0.074057087 0.032455504 4280428313
0.69158059 -0.073605686 0.032172337 4280165141
0.69228047 -0.073152602 0.031889156 4280230164
0.69308895 -0.072800547 0.03147015 4280033557
0.69384539 -0.072394863 0.031118989 4281941554
0.69465744 -0.072037995 0.030699879 4285231976
0.69552541 -0.071729347 0.030212834 4285101669
0.69628698 -0.071316749 0.029861569 4284640089
0.69710451 -0.070952401 0.02944234 4284245331
0.6978693 -0.070535436 0.029090971 4280690462
0.69863558 -0.070116386 0.028739586 4280492059
0.69923878 -0.069546252 0.028591931 4280557591
0.69978744 -0.068925858 0.02851218 4280820761
0.7002812 -0.068255782 0.028500378 4280623382
0.70088571 -0.067683771 0.028352693 4280294934
0.69947225 -0.05060178 0.038578138 4279966994
0.69971144 -0.049780399 0.038838878 4281545001
0.7000075 -0.049006149 0.03903161 4282729275
0.70012814 -0.048097298 0.039428413 4282925621
0.70024693 -0.047190949 0.039825231 4281147929
0.70018858 -0.046152502 0.040426135 4280491026
0.70018601 -0.045162484 0.04095909 4281151266
0.70023978 -0.044220224 0.041424096 4281085468
0.70011467 -0.043148175 0.042093217 4281348640
0.70022273 -0.04225643 0.042490289 4281348640
0.70026976 -0.041323364 0.042955443 4281480485
0.70025522 -0.040349588 0.043488696 4281612071
0.70059538 -0.039639607 0.043613791 4281546278
0.70081556 -0.038844064 0.043874964 4281217313
0.70121396 -0.038179174 0.04393205 4281547048
0.70149213 -0.037429124 0.044125214 4282798398
0.70182955 -0.036722913 0.044250369 4283127361
0.702106 -0.035975143 0.044443592 4282929217
0.70238155 -0.035228655 0.044636846 4281084448
0.70265621 -0.034483403 0.044830114 4281873964
0.70299065 -0.033781141 0.044955328 4282070564
0.7033245 -0.033079714 0.045080572 4287328833
0.70359665 -0.032337815 0.045273885 4291342180
0.70386791 -0.031597145 0.045467257 4292858263
0.70426095 -0.030939542 0.045524448 4293318814
0.70465374 -0.030282363 0.045581669 4293582259
0.70498449 -0.029585123 0.045706972 4293056183
0.70537651 -0.028928965 0.045764208 4293121976
0.7058301 -0.028313316 0.04575336 4292860605
0.70628381 -0.027697667 0.045742497 4292268468
0.7067374 -0.027082019 0.045731649 4291874487
0.70719111 -0.02646637 0.045720801 4288979599
0.70770735 -0.025889978 0.04564184 4280295707
0.70828664 -0.025352165 0.045494765 4280624674
0.70880365 -0.024774715 0.045415774 4280690467
0.70938408 -0.024235457 0.045268655 4280690460
0.70996505 -0.023695365 0.045121536 4280427286
0.71054667 -0.023154438 0.044974402 4280427288
0.71119237 -0.022650659 0.044759125 4280295702
0.71177542 -0.022107854 0.044611946 4280493079
0.71242285 -0.021601789 0.044396624 4280624665
0.71307117 -0.021094456 0.044181287 4280887321
0.71365631 -0.020548739 0.044034064 4282465070
0.71430635 -0.020039126 0.043818653 4282859828
0.71495736 -0.019528262 0.043603271 4282531115
0.71560919 -0.019016147 0.043387845 4281872931
0.71619725 -0.018466458 0.043240547 4280952864
0.71691573 -0.01798816 0.042956918 4279439625
0.68786204 -0.077769235 0.033841744 4280494108
0.68834567 -0.077112928 0.033830166 4280230936
0.68888205 -0.076509491 0.033750921 4280361495
0.68931293 -0.075800285 0.033807024 4280492311
0.68990266 -0.075248912 0.033660099 4280558104
0.69049299 -0.074696705 0.033513159 4280558106
0.69113725 -0.074195728 0.033298522 4280623899
0.69188946 -0.073797181 0.032948494 4280493083
0.69258958 -0.073344886 0.032666117 4280427545
0.69329089 -0.072890937 0.03238374 4279835151
0.69410139 -0.072537765 0.031965896 4279835151
0.69491374 -0.072182104 0.031548023 4281016358
0.69567364 -0.071773112 0.031197816 4283451461
0.69654393 -0.071463227 0.030712157 4284309082
0.69725263 -0.07099928 0.030429587 4284901219
0.69801736 -0.070583835 0.03007926 4285035375
0.69867373 -0.070066363 0.029864341 4285958527
0.6993311 -0.069547638 0.029649377 4285827191
0.69993418 -0.068978131 0.029502138 4285170796
0.70048255 -0.068358436 0.029422641 4285302382
0.7010867 -0.067787454 0.029275373 4282996810
0.70082206 -0.04661566 0.04076995 4281085468
0.70087785 -0.045668811 0.041233465 4281547818
0.70081365 -0.044635773 0.041832641 4281809448
0.70080578 -0.043650836 0.042364076 4282072620
0.70073622 -0.042625114 0.0429634 4282072617
0.70072329 -0.041647032 0.04349497 4281677607
0.70082682 -0.040759727 0.043890923 4282203951
0.70110756 -0.040005445 0.044083431 4282072617
0.70138729 -0.039252415 0.044275939 4282072617
0.70166618 -0.038500622 0.044468507 4281743652
0.70206428 -0.037835851 0.044525385 4282072363
0.70240188 -0.037128806 0.044650123 4282532412
0.70279926 -0.036465064 0.044707 4281741615
0.70307517 -0.035717234 0.044899642 4281938994
0.70335019 -0.034970678 0.04509227 4281412900
0.70368516 -0.034267187 0.045217067 4281544738
0.70395851 -0.033522904 0.045409754 4283317299
0.70435327 -0.032862708 0.045466721 4289568663
0.70462501 -0.032120511 0.045659423 4292598723
0.70501888 -0.031461582 0.045716405 4292598723
0.70535076 -0.030762255 0.045841277 4292795325
0.70574385 -0.030104354 0.045898288 4292795325
0.70613664 -0.02944687 0.0459553 4292795071
0.70652908 -0.028789803 0.046012327 4292139196
0.70698351 -0.028173111 0.046001464 4291810231
0.70743793 -0.027556419 0.045990586 4292138944
0.70795494 -0.026979268 0.045911789 4292270532
0.70847225 -0.026401699 0.045833021 4282731072
0.70898986 -0.02582372 0.045754224 4279967766
0.70950776 -0.025245301 0.045675427 4280690218
0.71008921 -0.024705186 0.04552871 4280361502
0.71060789 -0.024125747 0.045449913 4280427547
0.71125388 -0.023622461 0.045235217 4280427288
0.71177346 -0.02304177 0.045156389 4280427288
0.71235716 -0.022498526 0.045009613 4280887069
0.71300542 -0.021992102 0.044794887 4280886554
0.71365464 -0.021484442 0.044580132 4281083933
0.7143048 -0.02097553 0.044365376 4281148958
0.71489143 -0.020428322 0.044218525 4282070060
0.71554327 -0.019917101 0.04400371 4282595375
0.716196 -0.019404665 0.043788865 4282399529
0.71671993 -0.01881811 0.043709934 4281480485
0.71743923 -0.018339768 0.043427095 4281546278
0.68817103 -0.077956319 0.034614563 4280493081
0.68860161 -0.077247232 0.034670487 4280229909
0.68908477 -0.076591536 0.034658924 4280426518
0.68962097 -0.075988621 0.034579888 4280426516
0.69026375 -0.0754904 0.034365922 4280492309
0.69080091 -0.074886233 0.034286872 4280492311
0.69144523 -0.074385941 0.034072846 4280492311
0.69214422 -0.073936328 0.033791333 4280821278
0.69295192 -0.073588505 0.033374816 4280822303
0.69370759 -0.073186666 0.033025742 4280096268
0.69451886 -0.07283406 0.03260912 4279898889
0.69527775 -0.072427824 0.032259971 4281213225
0.69609255 -0.07207042 0.031843275 4281935912
0.69680011 -0.071609139 0.031561539 4283255367
0.69750887 -0.071146175 0.031279802 4283784278
0.69821888 -0.070681557 0.030998006 4284705380
0.69882011 -0.070115149 0.030851215 4284114786
0.69942188 -0.069547907 0.030704424 4283457875
0.70007962 -0.06902945 0.030490085 4285631097
0.70062733 -0.068410918 0.030410782 4285367925
0.70117533 -0.067791924 0.030331478 4287011213
0.70177948 -0.067221552 0.030184627 4287403656
0.70142823 -0.043126807 0.043234468 4281611817
0.70147443 -0.042190984 0.043696761 4281217061
0.7013396 -0.041126639 0.044361994 4283125058
0.7015605 -0.040328071 0.044621512 4282467380
0.70189995 -0.039617941 0.044745773 4282138415
0.70229888 -0.038951799 0.044802457 4281807910
0.70263726 -0.0382431 0.044926763 4281543714
0.70303547 -0.037578031 0.044983432 4281873201
0.70337272 -0.036870807 0.045107752 4281478192
0.70370948 -0.036164418 0.045232102 4281807157
0.70410639 -0.035501003 0.045288801 4281741613
0.70444202 -0.034796074 0.045413181 4281873964
0.704777 -0.034091994 0.045537561 4282529332
0.70511138 -0.033388734 0.045661971 4284109393
0.70544517 -0.032686308 0.045786381 4289636005
0.70577836 -0.031984717 0.045910805 4292205514
0.7061727 -0.031324849 0.045967579 4292402114
0.70656669 -0.03066539 0.046024352 4292664257
0.70696044 -0.030006349 0.046081126 4292664257
0.7072916 -0.02930747 0.04620561 4292532671
0.70774698 -0.028689533 0.046194717 4292203965
0.70826483 -0.028111428 0.046116143 4292007356
0.70872033 -0.027493283 0.046105251 4291809209
0.70923871 -0.026914552 0.046026632 4290492836
0.70975733 -0.026335411 0.045948029 4287926909
0.71021318 -0.025716841 0.045937121 4280755485
0.71079564 -0.025175869 0.045790792 4280690465
0.71131521 -0.024595477 0.045712158 4280559903
0.71189868 -0.024053037 0.045565814 4280099352
0.71248281 -0.023509778 0.045419425 4280033559
0.71313155 -0.023003645 0.04520531 4280624924
0.71365297 -0.022420749 0.045126632 4280821274
0.71423894 -0.021874979 0.044980213 4280623895
0.71488994 -0.02136571 0.044766039 4280954407
0.71547729 -0.02081807 0.04461959 4281020200
0.71606529 -0.020269588 0.044473127 4281481005
0.71665382 -0.019720286 0.044326648 4281743403
0.71730804 -0.019206628 0.044112399 4281743657
0.71802837 -0.01872804 0.043830365 4281217313
0.68890953 -0.077434242 0.035442337 4280031247
0.6893394 -0.076725885 0.035498053 4280096522
0.68992841 -0.076176569 0.035351977 4280163083
0.69051802 -0.075626388 0.035205871 4280426257
0.69110829 -0.075075373 0.03505978 4280163085
0.69169915 -0.074523553 0.034913644 4280426257
0.69245189 -0.074126974 0.034565657 4280689177
0.69315231 -0.073676482 0.034284934 4282008369
0.69396204 -0.073327556 0.033869594 4281012747
0.69477367 -0.072976142 0.03345421 4280881161
0.69558716 -0.07262221 0.033038795 4279963919
0.69634789 -0.072214782 0.032690614 4280095505
0.69711018 -0.071805269 0.032342404 4280556569
0.69781917 -0.071343109 0.032061473 4280622111
0.69847441 -0.0708289 0.031847805 4281148455
0.6990754 -0.070263311 0.031701446 4282202948
0.69967699 -0.069696873 0.031555071 4282335811
0.70033467 -0.069179341 0.031341344 4284046427
0.70093769 -0.068611041 0.03119494 4283980634
0.7013182 -0.067844599 0.031317815 4284309082
0.70253319 -0.040070757 0.045081586 4283388228
0.7028724 -0.039360434 0.045205459 4282006572
0.70321101 -0.03865096 0.045329332 4281479204
0.70373058 -0.038070858 0.045250922 4281347368
0.70406842 -0.037362397 0.045374826 4281281577
0.70446646 -0.036697239 0.045431286 4281084198
0.70480317 -0.035990238 0.045555234 4281611310
0.70513928 -0.035284087 0.045679182 4281282602
0.70547479 -0.034578755 0.045803145 4281611312
0.70587116 -0.033915877 0.045859635 4282332731
0.70620561 -0.033212006 0.045983642 4282464317
0.7066012 -0.032550171 0.046040177 4290623670
0.70693457 -0.03184776 0.046164185 4291876801
0.70732939 -0.031186976 0.046220735 4292271557
0.70778608 -0.030567154 0.046209812 4290955695
0.70811808 -0.029866628 0.046333849 4291350453
0.70851195 -0.029207081 0.046390429 4289901987
0.70896828 -0.028587885 0.046379507 4292334272
0.70948732 -0.028008424 0.046301097 4292531134
0.70994377 -0.02738902 0.046290174 4289109388
0.71040016 -0.026769616 0.046279266 4290622627
0.71091986 -0.026189297 0.046200842 4281016857
0.71143991 -0.025608599 0.046122402 4281018403
0.71202385 -0.025066145 0.045976445 4280560673
0.7126084 -0.024522848 0.045830473 4279903254
0.71312964 -0.023940459 0.045752004 4280034840
0.71371531 -0.023395717 0.045606002 4280494106
0.71430153 -0.022850141 0.045460001 4280559383
0.71488839 -0.02230373 0.045313969 4280427797
0.71547586 -0.021756485 0.045167908 4280625176
0.71612859 -0.021245614 0.04495433 4280691489
0.71665263 -0.020659469 0.044875801 4281020970
0.71724194 -0.020109713 0.04472971 4281546278
0.71783185 -0.019559123 0.044583619 4282072620
0.71861827 -0.019116879 0.044234827 4281809448
0.68916404 -0.077567503 0.036280438 4280162581
0.68969953 -0.076966032 0.036201864 4279834381
0.69023538 -0.07636413 0.036123231 4279703563
0.69082499 -0.07581456 0.035977557 4280358927
0.69141519 -0.075264171 0.035831839 4280491280
0.69211346 -0.074817598 0.035551995 4280491280
0.6927591 -0.074317232 0.035339177 4282334000
0.69351375 -0.07391946 0.034992203 4283456065
0.6942699 -0.073519588 0.03464517 4280164114
0.69502765 -0.073117629 0.034298092 4279308805
0.69578695 -0.072713628 0.033950984 4279437829
0.69654775 -0.072307497 0.033603832 4279897614
0.69731009 -0.07189928 0.03325665 4280032280
0.69801897 -0.071438327 0.032976553 4280095769
0.69872916 -0.070975706 0.032696411 4280358941
0.69938517 -0.070461154 0.032483339 4280162845
0.69998676 -0.069895327 0.032337382 4280425506
0.70053339 -0.069278821 0.032258511 4281609780
0.70113599 -0.068711534 0.032112524 4281807159
0.70157158 -0.067995176 0.032167882 4282465336
0.70338637 -0.039726272 0.045676917 4281941284
0.70390654 -0.039145663 0.045598656 4281743657
0.70436639 -0.038521662 0.045587659 4281151016
0.70476532 -0.037854925 0.045643926 4281216809
0.70516402 -0.037188619 0.045700178 4281282602
0.70556235 -0.036522716 0.045756429 4281939505
0.70596045 -0.035857245 0.045812696 4281808943
0.70635819 -0.035192192 0.045868948 4281612591
0.70669407 -0.034485847 0.045992494 4281874482
0.70702934 -0.033780336 0.046116069 4281545517
0.70742583 -0.033116922 0.046172366 4283448900
0.70776004 -0.032412872 0.046295956 4291279801
0.70815575 -0.03175053 0.046352267 4291415226
0.70855123 -0.031088598 0.046408579 4286809968
0.70894635 -0.030427083 0.046464935 4289639067
0.70934123 -0.029765978 0.046521276 4286871654
0.70979857 -0.029145323 0.046510339 4291281067
0.71019292 -0.028484851 0.046566695 4291677108
0.71065009 -0.027864397 0.046555758 4292335040
0.71117061 -0.027283356 0.046477512 4292203454
0.71162796 -0.026662707 0.046466574 4288190342
0.71214885 -0.026081041 0.046388328 4281281818
0.71273381 -0.025537729 0.046242759 4280955161
0.71325552 -0.024955004 0.046164483 4280496145
0.71384156 -0.02441024 0.046018898 4280298766
0.71442819 -0.023864642 0.045873284 4280430352
0.71501553 -0.023318209 0.045727655 4280363792
0.71560335 -0.022770941 0.045582011 4280428565
0.71612722 -0.022185311 0.045503691 4280231186
0.71678102 -0.021673903 0.045290679 4280428317
0.71730578 -0.021087006 0.045212343 4280626464
0.71789598 -0.020536609 0.045066655 4281153573
0.71848679 -0.019985378 0.044920936 4281876781
0.71914363 -0.019469798 0.044707865 4281350437
0.68957704 -0.077860624 0.036916763 4280031249
0.69005942 -0.077205971 0.036905229 4279899661
0.69059521 -0.076604381 0.036826849 4279900172
0.69118488 -0.076055214 0.036681548 4280620302
0.69182897 -0.075557843 0.036469385 4280688146
0.69247389 -0.07505922 0.036257222 4280424974
0.69311976 -0.074559346 0.03604503 4284242762
0.69382071 -0.07411024 0.035765931 4284377169
0.69457728 -0.073711246 0.035419911 4287075471
0.69533539 -0.073310181 0.035073876 4284970095
0.69609499 -0.072907045 0.034727767 4280228123
0.69685614 -0.072501808 0.034381658 4279568647
0.69761884 -0.07209447 0.034035504 4279834129
0.69832796 -0.071634308 0.033756196 4279899411
0.69887251 -0.071020827 0.033677608 4279965204
0.69963908 -0.070608303 0.033331335 4280096790
0.70018488 -0.069993138 0.033252701 4280294431
0.70078671 -0.06942749 0.033107147 4280426017
0.70448214 -0.03955479 0.046004102 4281481771
0.7050032 -0.038973227 0.045926034 4281151788
0.70552456 -0.038391218 0.045847997 4281348397
0.70598513 -0.037766188 0.045836985 4281282604
0.70632315 -0.037056312 0.045960069 4282070580
0.70672202 -0.036389515 0.046016082 4282137138
0.7071206 -0.03572309 0.046072155 4281809200
0.70751882 -0.035057113 0.046128184 4281808689
0.70791674 -0.034391522 0.046184272 4281742896
0.70825237 -0.033684999 0.046307415 4283712585
0.70864952 -0.033020467 0.046363488 4282529848
0.70904636 -0.032356367 0.046419561 4291151806
0.70938045 -0.031651922 0.046542734 4288586122
0.70983917 -0.031029388 0.046531767 4286875504
0.71023512 -0.03036651 0.046587884 4287070317
0.71056777 -0.029663943 0.046711087 4291611828
0.71102607 -0.029042035 0.046700135 4291678645
0.71142107 -0.028380439 0.046756268 4291875770
0.71187919 -0.027758747 0.0467453 4291875770
0.71240085 -0.027176321 0.046667248 4292203454
0.71292281 -0.026593506 0.046589166 4285558872
0.71338129 -0.025971398 0.046578199 4280955413
0.7140317 -0.025465257 0.046365902 4280562190
0.71455479 -0.024880983 0.04628779 4280364811
0.71514249 -0.02433452 0.046142578 4280495884
0.71566629 -0.023749188 0.046064466 4280559883
0.7161904 -0.02316343 0.045986339 4280427797
0.71677965 -0.022614889 0.045841083 4280427797
0.7173695 -0.022065513 0.045695812 4280690717
0.71795994 -0.021515302 0.04555051 4280624922
0.71855104 -0.020964257 0.045405194 4280363803
0.71907729 -0.020375594 0.045327038 4281876531
0.71973503 -0.019859664 0.045114547 4281547566
0.69009864 -0.077125609 0.038008124 4280032012
0.69074064 -0.076631844 0.037796646 4280360975
0.69132984 -0.076083913 0.037651792 4280031499
0.69191962 -0.075535133 0.037506938 4280557843
0.69261801 -0.075090572 0.037228718 4280228878
0.69337189 -0.074696645 0.036883801 4282925621
0.6941272 -0.074300632 0.036538854 4282726191
0.69488412 -0.073902532 0.036193863 4282398260
0.69564253 -0.073502362 0.035848826 4285490531
0.69645727 -0.073151559 0.035437077 4289045418
0.69716406 -0.072695732 0.035158649 4288193954
0.69787198 -0.072238252 0.034880221 4283786074
0.70536238 -0.04018122 0.046076581 4283258186
0.70588481 -0.039598048 0.045998722 4282006577
0.70628536 -0.038928643 0.046054497 4281874736
0.70680809 -0.038345069 0.045976639 4281743150
0.70720834 -0.037676081 0.046032429 4282004785
0.70754677 -0.036965176 0.04615508 4281611564
0.70800793 -0.036339313 0.046144038 4281677357
0.70834541 -0.035629675 0.04626672 4281545517
0.70874429 -0.03496255 0.046322569 4281545517
0.70914286 -0.034295842 0.046378419 4281939505
0.70954114 -0.033629559 0.046434253 4282793785
0.70993906 -0.032963671 0.046490118 4284636505
0.7102741 -0.032257363 0.046612859 4291612096
0.71060854 -0.031551898 0.046735615 4291875268
0.71100527 -0.030887708 0.046791494 4292598475
0.7114017 -0.030223913 0.046847388 4292993483
0.71179777 -0.029560544 0.046903297 4292139969
0.71219361 -0.028897598 0.046959192 4291876797
0.71265262 -0.028274648 0.046948209 4292074176
0.71317536 -0.027691066 0.046870336 4291876024
0.71363455 -0.027067915 0.046859354 4292270528
0.7141577 -0.026483722 0.046781465 4282004767
0.71474534 -0.025937855 0.046636656 4280623114
0.71526933 -0.025352634 0.046558723 4280757012
0.71585804 -0.024805322 0.046413884 4280428049
0.71638274 -0.024219029 0.046335965 4280559383
0.71697259 -0.023670256 0.046191111 4280361750
0.71749806 -0.023082942 0.046113163 4280427543
0.71808892 -0.022532709 0.045968279 4280888096
0.71861517 -0.021944344 0.045890301 4280428313
0.71920717 -0.021392658 0.045745373 4280297499
0.71973419 -0.020803235 0.04566741 4281875509
0.72026151 -0.020213425 0.045589402 4281941302
0.69040155 -0.076179251 0.03936252 4279835401
0.6913119 -0.075952619 0.038819388 4279901196
0.69200867 -0.075511321 0.038542047 4280163346
0.69281501 -0.075173602 0.038131714 4280360725
0.70642745 -0.040939435 0.045952439 4282466878
0.70658529 -0.040094718 0.046274528 4284506452
0.7070477 -0.039467171 0.046263471 4282202416
0.70751011 -0.038839638 0.0462524 4282005037
0.70791101 -0.038169488 0.046307966 4281807919
0.70837331 -0.037542164 0.046296909 4281349419
0.70877373 -0.036872655 0.046352521 4281349419
0.70917386 -0.036203548 0.046408102 4281678384
0.70963579 -0.035576642 0.046397045 4281217063
0.70997322 -0.034866609 0.046519339 4281807660
0.71043485 -0.034240112 0.046508282 4282464820
0.71083391 -0.033572495 0.046563894 4282135090
0.7111699 -0.032864332 0.046686202 4285029982
0.71156818 -0.032197744 0.046741858 4292335821
0.7119031 -0.031491041 0.046864182 4292006854
0.7123006 -0.030825488 0.046919852 4292927690
0.71276116 -0.030200452 0.046908826 4292336580
0.71309471 -0.029495634 0.047031194 4292270787
0.71355498 -0.028871015 0.047020182 4292336580
0.71401525 -0.028246403 0.04700917 4292467137
0.71447551 -0.027621783 0.046998158 4291808948
0.71506405 -0.027075283 0.046853736 4287662965
0.71558887 -0.026489101 0.046776012 4280952079
0.71617848 -0.025941148 0.046631575 4281084700
0.71670413 -0.025353916 0.046553805 4280427286
0.71716529 -0.024728045 0.046542779 4280494110
0.71775627 -0.024178207 0.046398297 4280494110
0.71821779 -0.023551926 0.046387255 4280428317
0.71874446 -0.022963226 0.046309501 4280691489
0.71927148 -0.022374131 0.046231702 4280559901
0.7197988 -0.021784604 0.046153918 4280559901
0.72039211 -0.021231636 0.046009392 4281414958
0.72092015 -0.020641074 0.045931607 4281809716
0.70765424 -0.040852234 0.046153769 4283319614
0.70805705 -0.040179282 0.046209097 4284767060
0.70839798 -0.039463863 0.046330869 4281412902
0.70879996 -0.03879194 0.046386242 4281349167
0.70920169 -0.038120478 0.04644157 4281414958
0.70960307 -0.037449405 0.046496943 4280888614
0.71000409 -0.036778748 0.046552315 4281151786
0.71040493 -0.036108524 0.046607688 4281348649
0.71080536 -0.035438702 0.046663091 4281546028
0.71126807 -0.034810752 0.046652019 4281742380
0.71160537 -0.034100324 0.046773881 4282530110
0.71206778 -0.033472784 0.046762809 4282859075
0.71246713 -0.032804422 0.046818212 4287727757
0.71286619 -0.032136485 0.046873644 4292401614
0.713265 -0.031468965 0.046929061 4292665293
0.71366346 -0.03080187 0.046984479 4292533702
0.71406162 -0.03013517 0.047039941 4292599495
0.71452326 -0.029508673 0.047028899 4293123784
0.71498489 -0.028882176 0.047017857 4292990655
0.71544653 -0.028255686 0.047006816 4292923831
0.71590817 -0.027629189 0.046995759 4292988845
0.71643424 -0.027041651 0.046918198 4288843886
0.71696061 -0.026453674 0.046840638 4281282331
0.71748728 -0.025865287 0.046763092 4280626212
0.7180143 -0.02527649 0.046685517 4279904287
0.71847653 -0.024649158 0.046674445 4280233250
0.71900398 -0.024059728 0.046596885 4280167457
0.71946639 -0.023432195 0.046585828 4280297760
0.71999431 -0.022842139 0.046508208 4280428833
0.72045684 -0.022214398 0.046497151 4280560419
0.72105104 -0.02166079 0.046352997 4280495139
0.72164583 -0.021106333 0.046208844 4280297760
0.70884877 -0.041698635 0.045905039 4282728508
0.70913047 -0.040936485 0.04609257 4283123266
0.70953447 -0.040261552 0.046147674 4283648840
0.70987642 -0.039544255 0.046269 4281219116
0.71027964 -0.038870409 0.046324119 4281021483
0.71062052 -0.038154572 0.046445489 4281020200
0.71102297 -0.03748174 0.046500608 4281217579
0.71142513 -0.036809325 0.046555758 4281611821
0.71176445 -0.036095589 0.046677157 4281479206
0.71222854 -0.035465762 0.046666056 4281150761
0.71256697 -0.034753263 0.046787485 4281545523
0.71296775 -0.034082741 0.046842635 4281348144
0.71343136 -0.033453532 0.046831548 4282135352
0.71376836 -0.032742918 0.046953008 4289436578
0.71416831 -0.032073632 0.047008201 4291481016
0.71456778 -0.031404763 0.047063395 4292665795
0.71503085 -0.030776396 0.047052324 4292665795
0.71549386 -0.030148022 0.047041252 4292861366
0.71589285 -0.029479988 0.047096461 4293581214
0.71629143 -0.028812379 0.0471517 4293246049
0.71681857 -0.028223664 0.047074318 4292721992
0.71728146 -0.027595498 0.047063246 4291866683
0.71780902 -0.027006172 0.046985865 4282592768
0.71827203 -0.026377797 0.046974778 4280626464
0.71880013 -0.025787838 0.046897396 4280234018
0.71926332 -0.025159255 0.04688631 4280494110
0.71979177 -0.024568677 0.046808913 4280559903
0.72025514 -0.023939885 0.046797827 4280165915
0.72071844 -0.023311093 0.04678674 4280560419
0.72124755 -0.022719666 0.046709344 4280624672
0.72177696 -0.022127844 0.046631902 4280690719
0.72230673 -0.021535575 0.046554491 4280756512
0.68836224 -0.076036081 0.044114605 4280099348
0.69006532 -0.075501487 0.043170124 4279570706
0.69075739 -0.075069889 0.042895347 4280097553
0.70982379 -0.043357596 0.045408681 4282269499
0.71004671 -0.042547464 0.045661554 4282269497
0.71039158 -0.041825607 0.045782432 4282466876
0.71067411 -0.041061506 0.045969307 4282269242
0.71107954 -0.040384397 0.046024188 4282929221
0.71142256 -0.039665043 0.046145082 4281021483
0.71170282 -0.038904071 0.046332031 4281611310
0.71210682 -0.03822884 0.046386927 4281808689
0.71244806 -0.037512004 0.04650785 4281742380
0.71272594 -0.036754146 0.046694875 4281807658
0.71312857 -0.036080822 0.0467498 4281413161
0.71359396 -0.035449326 0.046738669 4281545519
0.71393299 -0.034735389 0.046859667 4281348140
0.71433473 -0.034063287 0.046914622 4281939254
0.7147361 -0.033391625 0.046969563 4282987583
0.71513724 -0.032720372 0.047024518 4290621603
0.71553802 -0.032049537 0.047079474 4292861103
0.71600246 -0.031419292 0.047068372 4292400552
0.71640283 -0.030749075 0.047123343 4291872888
0.71680284 -0.030079275 0.047178328 4293248863
0.71726698 -0.029449448 0.047167227 4293509180
0.71779561 -0.02885896 0.047090024 4292590893
0.7181952 -0.028189786 0.047145024 4292656686
0.71865928 -0.027559958 0.047133923 4283775232
0.71925336 -0.02700755 0.046990603 4280557589
0.71958745 -0.026300296 0.04711172 4280429600
0.72005159 -0.025670461 0.047100604 4280756510
0.72051567 -0.025040634 0.047089502 4280624924
0.72097981 -0.024410799 0.047078401 4280427543
0.72144389 -0.023780972 0.047067299 4280495391
0.72190797 -0.023151144 0.047056198 4280427288
0.72250426 -0.022595815 0.046912834 4280493081
0.72303486 -0.022002615 0.046835586 4280690717
0.68828213 -0.07583724 0.045329303 4280427286
0.68891597 -0.075358644 0.045121104 4280031508
0.68955064 -0.074878812 0.044912875 4279899922
0.71057123 -0.045843348 0.044667393 4282599753
0.71079803 -0.045026809 0.044919357 4282598464
0.71114653 -0.044299543 0.045039728 4282401853
0.71118647 -0.043355122 0.045489207 4281941302
0.71140945 -0.042543784 0.04574126 4281941304
0.71181691 -0.04186368 0.045795843 4281546546
0.71209997 -0.041098043 0.045982108 4281481270
0.71250647 -0.040419176 0.04603675 4282535492
0.71278799 -0.039655626 0.046223044 4282137138
0.71313107 -0.038935676 0.046343535 4281873966
0.71347356 -0.038216546 0.046464041 4281674791
0.71381539 -0.037498266 0.046584561 4281674791
0.71415663 -0.036780804 0.046705097 4281478192
0.71456039 -0.036105722 0.046759784 4281347117
0.71490061 -0.035389721 0.046880335 4281281324
0.71536696 -0.034756765 0.046869174 4281741875
0.71570623 -0.034042023 0.046989754 4282660918
0.71610862 -0.033368796 0.047044456 4283250211
0.71657455 -0.032736465 0.04703331 4290682715
0.71697646 -0.032063864 0.047088057 4292524919
0.71737808 -0.031391695 0.047142804 4292986445
0.71784371 -0.030759774 0.047131658 4293640247
0.71830934 -0.030127861 0.047120526 4293771306
0.71877497 -0.02949594 0.04710938 4293771306
0.71917582 -0.028824791 0.047164142 4293311523
0.71964133 -0.028193086 0.047153011 4293182279
0.72004169 -0.027522579 0.047207773 4286143789
0.72050703 -0.026891083 0.047196642 4281280535
0.72090691 -0.026221178 0.047251433 4281346328
0.7213065 -0.025551721 0.04730621 4281215255
0.72177154 -0.024920642 0.047295094 4281019157
0.72217071 -0.024251781 0.0473499 4280822548
0.72263557 -0.023620911 0.047338784 4280822550
0.72316664 -0.02302739 0.047261715 4280625171
0.72376436 -0.022470586 0.047118723 4280888091
0.68857789 -0.076015577 0.046082303 4284904294
0.71177161 -0.046706289 0.044437051 4283322957
0.71206129 -0.045930758 0.04462254 4282138165
0.7122885 -0.04511258 0.044873685 4282666047
0.71245283 -0.044252396 0.045190454 4281876531
0.71267742 -0.043437764 0.045441657 4281547063
0.71296287 -0.042668104 0.045627251 4281415479
0.71324736 -0.041899681 0.045812845 4281086512
0.71359324 -0.04117538 0.045932859 4282337345
0.71387607 -0.040409237 0.046118513 4282732103
0.71422058 -0.039686799 0.046238557 4281611821
0.7145645 -0.038965195 0.046358615 4281543718
0.71484482 -0.03820242 0.046544328 4281542951
0.71518737 -0.037482694 0.046664417 4281674799
0.7155925 -0.036805391 0.046718881 4281674799
0.71599734 -0.036128536 0.046773329 4281543983
0.71633834 -0.035410896 0.046893463 4281807408
0.7167424 -0.034735084 0.046947941 4282266928
0.71714616 -0.034059674 0.04700242 4283513899
0.7176137 -0.033425257 0.046991244 4283579692
0.71801698 -0.032750487 0.047045708 4291603313
0.71848428 -0.032116279 0.047034532 4292657216
0.71888715 -0.031442113 0.047089055 4293706542
0.71935433 -0.030808106 0.047077879 4293703712
0.71982151 -0.030174106 0.047066703 4294032677
0.72028869 -0.029540107 0.047055528 4294032931
0.72069079 -0.028867006 0.047110036 4292917544
0.72109258 -0.028194308 0.047164574 4289631029
0.72149402 -0.027522042 0.047219113 4282528022
0.72196072 -0.026888669 0.047207952 4281804299
0.72236174 -0.026216999 0.047262505 4281477398
0.72276247 -0.025545776 0.047317058 4281150230
0.72309685 -0.024837106 0.04743734 4281019157
0.72349679 -0.024166919 0.047491893 4280887573
0.72396272 -0.023534581 0.047480747 4280953366
0.72449517 -0.022939481 0.047403887 4281151261
0.71308208 -0.046660528 0.044593036 4282730041
0.71343368 -0.045927897 0.044712484 4282731322
0.71366102 -0.045108512 0.044962794 4282073392
0.7138871 -0.044290796 0.045213133 4281482288
0.71398771 -0.043388024 0.045594335 4281285174
0.71427333 -0.042617232 0.045779318 4281152818
0.71455801 -0.041847706 0.045964301 4281678132
0.71490443 -0.041122153 0.046083882 4281941304
0.71518743 -0.040354908 0.046268925 4282073142
0.71553248 -0.039631233 0.046388537 4280888091
0.71581376 -0.038866282 0.046573624 4281411878
0.71615744 -0.038144514 0.046693265 4281083432
0.71656382 -0.037465259 0.046747491 4281346604
0.71696997 -0.036786422 0.046801701 4281543983
0.71743941 -0.036149293 0.046790466 4281806123
0.71778125 -0.035429999 0.046910167 4281871906
0.71818638 -0.034752421 0.046964422 4283249178
0.71865541 -0.034115918 0.046953201 4283380764
0.71906018 -0.033438958 0.047007456 4286929173
0.71952903 -0.032802664 0.046996236 4291207202
0.71999788 -0.032166369 0.046985015 4293378095
0.72046673 -0.031530067 0.046973795 4294033956
0.72093564 -0.030893773 0.046962589 4293902370
0.7213394 -0.03021808 0.047016844 4294624037
0.72174287 -0.029542781 0.047071144 4294164002
0.72214609 -0.028867923 0.047125414 4293378333
0.72261453 -0.028232247 0.047114208 4286340098
0.72301722 -0.027557991 0.047168523 4283379456
0.72341961 -0.026884176 0.047222823 4281411605
0.72382176 -0.026210763 0.047277153 4281281818
0.72422349 -0.025537767 0.047331482 4281413915
0.72449243 -0.024789721 0.047516838 4281282329
0.72489327 -0.024117962 0.047571197 4281348122
0.72542709 -0.023521297 0.047494471 4281413915
0.77426672 0.0016328245 0.02573882 4280888091
0.77463371 0.0023862943 0.025857925 4280360977
0.77477491 0.00321652 0.026174203 4280623897
0.77536583 0.0038907602 0.026096135 4280623897
0.77580643 0.004616335 0.026149526 4279835153
0.71381342 -0.048172399 0.044383377 4286548095
0.71410543 -0.04739216 0.04456757 4284505682
0.71445835 -0.046657249 0.044686586 4283716166
0.71456277 -0.045747653 0.045066461 4283189561
0.71485168 -0.044971555 0.045250744 4282598707
0.7150774 -0.044153288 0.045500278 4282072622
0.71536434 -0.043379918 0.045684591 4281809968
0.71558774 -0.04256475 0.045934185 4281941556
0.71593541 -0.041836932 0.04605332 4281875763
0.71609378 -0.040982068 0.046368182 4282795836
0.71650285 -0.040298983 0.046422109 4282730298
0.71678513 -0.039531857 0.046606556 4280953634
0.71712989 -0.038808018 0.046725765 4281149730
0.71753752 -0.038126796 0.046779752 4281610281
0.7178812 -0.037404403 0.046898991 4282068254
0.71828812 -0.03672421 0.046952963 4282393608
0.7187587 -0.036085621 0.046941712 4284762406
0.71922922 -0.035447031 0.046930462 4289039687
0.7196998 -0.034808442 0.046919197 4291605614
0.72004151 -0.034088776 0.047038481 4293248849
0.72051173 -0.033450603 0.04702723 4293642826
0.72098202 -0.032812431 0.04701598 4288837120
0.72145224 -0.032174259 0.04700473 4294427941
0.72185743 -0.031496361 0.047058791 4294362148
0.72232753 -0.030858397 0.047047541 4294427941
0.72273231 -0.030181147 0.047101587 4294427939
0.72313672 -0.029504307 0.047155634 4293704720
0.72360653 -0.028866753 0.047144383 4293705789
0.72401047 -0.028190538 0.047198474 4290613518
0.72448009 -0.027553201 0.047187239 4283049984
0.72481751 -0.026839361 0.047306627 4282396447
0.72528684 -0.02620244 0.047295392 4282069285
0.72562331 -0.025489844 0.047414809 4281938726
0.7260257 -0.024815716 0.047468901 4281741347
0.72642785 -0.024142012 0.047523007 4281610529
0.77353323 -0.0018130541 0.02568391 4281809465
0.77360535 -0.00094724447 0.026064575 4280690984
0.77375019 -0.00011073053 0.026379764 4280627244
0.77389348 0.0007237047 0.026694998 4280232739
0.77411008 0.0015296936 0.026944712 4279902743
0.77432549 0.0023340061 0.027194485 4279705364
0.77469015 0.0030847639 0.027313218 4280296477
0.77520478 0.0037832111 0.027300909 4280033305
0.77556849 0.0045327172 0.027419686 4279704342
0.68839455 -0.076585993 0.049060732 4281147931
0.6888088 -0.075895473 0.049114361 4280687904
0.68911362 -0.075097024 0.049297631 4281413682
0.68936282 -0.074245825 0.04954578 4281413682
0.714715 -0.048819065 0.044492617 4287995280
0.71488428 -0.047948077 0.044806167 4284704083
0.71523786 -0.047211722 0.044924781 4284243532
0.71546656 -0.046388283 0.045173392 4283124022
0.7157563 -0.045610249 0.045357034 4282598709
0.71604514 -0.044833466 0.045540705 4282598966
0.71627051 -0.044014603 0.045789406 4282072368
0.71655738 -0.043240547 0.045973107 4281940782
0.71684325 -0.042467728 0.046156839 4282006577
0.71700221 -0.041610733 0.046470657 4282269749
0.71734917 -0.040883347 0.046589404 4282269751
0.71763217 -0.040114492 0.04677321 4282072370
0.71804124 -0.039431095 0.046826944 4281806365
0.71838635 -0.038706228 0.046945751 4282069537
0.71879464 -0.038023874 0.046999499 4284629007
0.71926659 -0.037383407 0.046988204 4287916831
0.71961033 -0.036660418 0.047107026 4291471448
0.72008193 -0.036020353 0.047095746 4291011651
0.72055358 -0.035380319 0.047084466 4293643371
0.72096062 -0.034699604 0.047138259 4293380435
0.72143209 -0.034059763 0.047126979 4293575248
0.72190362 -0.033419922 0.047115698 4288835328
0.72237509 -0.032780081 0.047104418 4294953770
0.72284657 -0.03214024 0.047093153 4294559012
0.72318739 -0.031421214 0.04721202 4294427426
0.72372407 -0.030821189 0.047135666 4294230299
0.72412974 -0.030142367 0.047189489 4293770511
0.72466671 -0.029541917 0.047113121 4293902097
0.72507209 -0.028863519 0.047166944 4293771054
0.72547716 -0.028185546 0.047220796 4283641600
0.72594815 -0.027546331 0.047209516 4282789406
0.72635281 -0.026868977 0.047263354 4282134826
0.72675705 -0.026192039 0.047317222 4281871654
0.72716105 -0.025515519 0.04737106 4281676583
0.7276985 -0.024914443 0.047294691 4281676583
0.77353287 -0.0028595775 0.026315197 4281477671
0.77353084 -0.0019644499 0.026759923 4281020202
0.77352667 -0.0010722578 0.027204677 4279838243
0.77366978 -0.0002367422 0.027518868 4280364587
0.7738862 0.00057003647 0.027767792 4280167208
0.77410144 0.0013751537 0.028016746 4279837979
0.77439058 0.0021523312 0.028200388 4279640854
0.77460349 0.0029543117 0.028449401 4279968795
0.77511704 0.0036512986 0.028437108 4279639830
0.77563065 0.0043482855 0.028424829 4279639066
0.68821859 -0.077397048 0.049819469 4280687644
0.68868703 -0.07676138 0.049808264 4280490778
0.68904632 -0.076016709 0.049926296 4280687904
0.68935025 -0.075218588 0.050108999 4281609006
0.68965334 -0.074421719 0.050291702 4281543213
0.68984544 -0.073518366 0.050603703 4281609259
0.69003594 -0.072617099 0.050915733 4281281575
0.69022501 -0.071717903 0.051227808 4281281575
0.71537161 -0.049288437 0.044864267 4284111178
0.71566463 -0.048505113 0.045047224 4287271809
0.71583259 -0.047634497 0.04535979 4284245331
0.71612352 -0.046854109 0.045542791 4283914821
0.7164135 -0.046074986 0.045725793 4282861363
0.71670258 -0.045297086 0.045908853 4282926902
0.71699071 -0.044520453 0.046091914 4281677607
0.71727794 -0.043745071 0.046274975 4281809193
0.71756423 -0.042970926 0.046458095 4282137906
0.71784961 -0.042198047 0.046641216 4282006579
0.71813405 -0.041426435 0.046824366 4281941556
0.71854448 -0.040740833 0.046877876 4282466351
0.71882743 -0.039971307 0.047061056 4290553192
0.71930075 -0.039328948 0.047049731 4292855947
0.71971011 -0.03864482 0.047103271 4293904201
0.72011924 -0.03796114 0.047156781 4294625089
0.72052801 -0.037277833 0.047210336 4294560589
0.72100085 -0.036636114 0.047199026 4293705280
0.72147369 -0.035994396 0.047187716 4289954059
0.7219466 -0.035352677 0.047176406 4289888530
0.72241944 -0.034710959 0.047165096 4291338788
0.72289234 -0.03406924 0.047153786 4293377550
0.72336519 -0.033427522 0.047142476 4293903894
0.72383809 -0.032785803 0.047131151 4294296072
0.72424549 -0.03210441 0.047184706 4294492176
0.72471821 -0.0314629 0.047173411 4294426640
0.72512513 -0.030782118 0.047226995 4294230029
0.7256636 -0.030179881 0.047150791 4293966857
0.72607023 -0.029499516 0.047204375 4293967627
0.72654283 -0.028858215 0.04719308 4290483718
0.72701538 -0.028216913 0.04718177 4284169737
0.72748792 -0.027575612 0.04717046 4281740580
0.72782707 -0.026858278 0.047288984 4281477408
0.72836614 -0.026255198 0.047212765 4280955427
0.72883856 -0.025614105 0.04720147 4281284646
0.77352464 -0.0066165328 0.025617391 4280952610
0.77345824 -0.0038788989 0.027011976 4281279265
0.77338195 -0.0029540658 0.027520359 4281280546
0.77337778 -0.0020599738 0.027963683 4281019684
0.77352089 -0.001223132 0.028276846 4280036125
0.77366239 -0.00038839877 0.028590038 4280299297
0.77395242 0.0003907457 0.028773054 4279838494
0.77424145 0.001168631 0.028956115 4279903523
0.77452958 0.0019452497 0.029139161 4280034842
0.77481681 0.002720654 0.029322237 4280165915
0.77532995 0.0034170076 0.029309958 4280034329
0.68861961 -0.077681661 0.050437346 4280359960
0.68897897 -0.076936394 0.050554976 4280228374
0.68933773 -0.076191962 0.050672635 4280820511
0.68969584 -0.075448349 0.050790295 4281741613
0.68999833 -0.074651435 0.050972372 4281412648
0.69024473 -0.073801771 0.051218942 4281609259
0.69043463 -0.072900042 0.051529959 4281412648
0.69051206 -0.07189329 0.051969886 4281084196
0.71613634 -0.048840389 0.045613676 4288062358
0.71655262 -0.048146576 0.045666844 4286417533
0.71678156 -0.047320709 0.045913801 4283849803
0.71707177 -0.046540454 0.046096206 4283189561
0.71736103 -0.045761451 0.046278626 4282795316
0.71758652 -0.044940159 0.046525672 4282139183
0.71787381 -0.044163868 0.046708137 4281941804
0.71816021 -0.043388844 0.046890602 4281875761
0.71850896 -0.042657956 0.0470085 4281875763
0.71892047 -0.041970596 0.047061771 4282138935
0.71926814 -0.041241199 0.047179669 4282334504
0.719679 -0.040554896 0.047232956 4283255606
0.72008944 -0.039869025 0.047286272 4293709972
0.72049963 -0.039183557 0.047339544 4293641797
0.72097373 -0.03854017 0.047328204 4294691386
0.72144783 -0.037896782 0.047316864 4294493496
0.72192192 -0.037253395 0.047305524 4294361910
0.72239602 -0.036610007 0.047294185 4294822465
0.72287011 -0.03596662 0.047282845 4294165057
0.72334421 -0.035323232 0.047271505 4292325661
0.7238183 -0.034679845 0.047260165 4293443343
0.7242924 -0.034036458 0.047248825 4294035480
0.72476649 -0.03339307 0.047237471 4294428428
0.72524059 -0.032749683 0.047226131 4294361617
0.72571468 -0.032106295 0.047214791 4294427156
0.72618878 -0.031462908 0.047203451 4294230027
0.72672892 -0.030858681 0.047127441 4294164234
0.72713697 -0.030176133 0.047180772 4294560016
0.7276774 -0.029571488 0.047104746 4293640490
0.72815168 -0.0289279 0.047093391 4289104437
0.72862589 -0.028284304 0.047082052 4282069797
0.72910011 -0.027640708 0.047070712 4282069797
0.72950745 -0.026959203 0.047124058 4281152290
0.73018289 -0.026428916 0.046918571 4281218853
0.73052287 -0.02570992 0.047036678 4281217313
0.77306604 -0.0093221366 0.025759876 4280754452
0.77314806 -0.0084379613 0.026136592 4280753687
0.77322829 -0.007556282 0.026513353 4281213724
0.7732327 -0.0066486076 0.026955023 4281148960
0.77330911 -0.0057721585 0.027331859 4281280546
0.7732352 -0.0048420131 0.027838543 4281149476
0.77315879 -0.0039151907 0.028345257 4280754202
0.77337801 -0.0031024516 0.028592467 4281347109
0.77337205 -0.0022089556 0.029034391 4281018655
0.7735883 -0.0014001727 0.029281661 4280494108
0.7738784 -0.00062012672 0.029464066 4280954659
0.77424264 0.00013180822 0.029581577 4280363553
0.77453101 0.00090957433 0.029764026 4280297762
0.77481842 0.0016860589 0.029946491 4280034842
0.77518058 0.0024350882 0.030064046 4280429085
0.77569354 0.0031312332 0.030051768 4280363292
0.68885714 -0.077800974 0.051247865 4279966994
0.68932509 -0.077165931 0.051236674 4280361500
0.68968338 -0.076421514 0.051353917 4280361500
0.69004107 -0.075677946 0.051471159 4281216036
0.69028789 -0.074826673 0.051716894 4281216036
0.69058877 -0.0740311 0.05189842 4281346855
0.69072247 -0.07307528 0.052272648 4281084198
0.6909098 -0.072175577 0.052582696 4280756009
0.71760571 -0.046918586 0.046597034 4283783758
0.71783209 -0.046095029 0.046843231 4283980871
0.71818316 -0.045360431 0.046960637 4282666551
0.71847051 -0.044583231 0.047142491 4282469172
0.71888351 -0.04389371 0.047195524 4282008115
0.7192328 -0.043161601 0.047312975 4281942326
0.71958137 -0.042430326 0.047430456 4282270519
0.71999311 -0.041742489 0.047483489 4282727979
0.72046846 -0.041097432 0.047472119 4283714874
0.72094381 -0.040452376 0.04746075 4287458383
0.7214191 -0.039807335 0.04744938 4294232166
0.72176576 -0.039078757 0.047566921 4294625845
0.72224075 -0.038434133 0.047555551 4294624807
0.72278041 -0.037830815 0.047479734 4294690600
0.72332036 -0.037227109 0.047403902 4294955310
0.72379571 -0.036582053 0.047392532 4294954529
0.72433615 -0.035977691 0.0473167 4294758449
0.72481161 -0.035332426 0.047305331 4291733524
0.72528708 -0.034687169 0.047293961 4293444142
0.72576261 -0.034041904 0.047282577 4292588581
0.72623807 -0.033396639 0.047271207 4292851250
0.72671354 -0.032751381 0.047259837 4294298931
0.727189 -0.032106116 0.047248453 4293640970
0.72779691 -0.031539351 0.047108099 4293772556
0.72820628 -0.030854627 0.047161222 4294364429
0.72874844 -0.030247986 0.047085345 4293706763
0.72929084 -0.029640935 0.047009453 4292724526
0.7298336 -0.02903346 0.046933562 4283451141
0.73030972 -0.028387368 0.046922177 4282464256
0.73078585 -0.027741268 0.046910793 4281414687
0.73126191 -0.027095169 0.046899393 4281217829
0.7318728 -0.026524238 0.04675895 4282138156
0.77245533 -0.011980951 0.026035517 4281413663
0.7726137 -0.011120677 0.026346251 4281543707
0.77308398 -0.0076427385 0.027718961 4281282595
0.77301222 -0.0067074448 0.028223917 4281676585
0.77308643 -0.0058323145 0.02859959 4282202929
0.77315873 -0.0049596801 0.028975293 4282005552
0.77330375 -0.0041175485 0.029286355 4282005550
0.77344716 -0.0032774955 0.029597461 4281544997
0.77366388 -0.0024670959 0.029843897 4282662447
0.77387935 -0.0016583577 0.030090362 4282135844
0.77424377 -0.00090560317 0.03020747 4282530602
0.77453238 -0.00012674928 0.030389279 4281414435
0.77489543 0.00062412769 0.030506402 4281217063
0.77533346 0.001347661 0.030558839 4280625696
0.77561975 0.0021233857 0.030740708 4280756508
0.77620858 0.0027934238 0.030663699 4280559129
0.68925774 -0.078085318 0.051865146 4279507983
0.68967092 -0.077395275 0.051917955 4280098851
0.69008374 -0.076705664 0.05197078 4280361500
0.69044119 -0.075961918 0.05208762 4281018403
0.69074273 -0.075164601 0.05226852 4281084196
0.69104338 -0.074368581 0.05244942 4281215782
0.69106525 -0.073304072 0.052950501 4280822051
0.71894157 -0.044916138 0.047706485 4282599734
0.71935451 -0.044226304 0.047759324 4282270517
0.71983075 -0.043580011 0.047747925 4281942326
0.72017956 -0.042847916 0.047864988 4282139703
0.72065556 -0.042202026 0.047853589 4282662447
0.72119552 -0.041598603 0.047777981 4283451963
0.72160739 -0.040910244 0.04783082 4285091130
0.7221477 -0.040306419 0.047755197 4294561420
0.72268826 -0.039702162 0.047679573 4294363191
0.7231645 -0.039055854 0.047668174 4294625057
0.72370553 -0.038450986 0.047592521 4294690850
0.72424686 -0.037845686 0.047516882 4294954791
0.72478855 -0.037239984 0.047441214 4294559762
0.7252652 -0.03659305 0.0474298 4293903394
0.72574192 -0.035946116 0.047418401 4292060964
0.72621864 -0.035299182 0.047407001 4289824002
0.72669536 -0.034652248 0.047395587 4288640768
0.72717202 -0.034005314 0.047384188 4288838144
0.72771478 -0.033398151 0.047308519 4291995672
0.72825778 -0.032790549 0.047232836 4293575179
0.72880113 -0.032182544 0.047157124 4293904144
0.72927833 -0.031534985 0.047145709 4294165769
0.7298221 -0.030926354 0.047070011 4293837579
0.73029941 -0.030278593 0.047058582 4292591893
0.7309106 -0.029707849 0.046918571 4292855065
0.73138821 -0.029059663 0.046907142 4283382784
0.73193312 -0.028449573 0.046831384 4281939226
0.73247826 -0.027839065 0.046755657 4281414181
0.73302376 -0.027228139 0.046679899 4282072365
