# .PCD v0.7 - Point Cloud Data file format
VERSION 0.7
FIELDS x y z rgb
SIZE 4 4 4 4
TYPE F F F U
COUNT 1 1 1 1
WIDTH 1023
HEIGHT 1
VIEWPOINT 0 0 0 1 0 0 0
POINTS 1023
DATA ascii
0.77538937 0.0011781901 0.05538933 4281151537
0.77603281 0.00096537173 0.055387124 4281347620
0.7766763 0.00075255334 0.055384919 4281544990
0.77731979 0.00053973496 0.055382714 4280953366
0.77796179 0.00025287271 0.055308476 4282400812
0.77860552 3.9979815e-05 0.055306256 4281874986
0.77924824 -0.00024710596 0.055232048 4281546024
0.77989298 -0.00038580596 0.05530183 4281087267
0.7805351 -0.00082178414 0.055083558 4280890401
0.78117931 -0.0011093765 0.055009335 4281285159
0.77462006 0.0010703504 0.055999309 4280692768
0.77526325 0.00085762143 0.055997103 4282006827
0.77590424 0.00057095289 0.055923089 4281873449
0.77654773 0.00035813451 0.055920884 4281543714
0.77718937 7.1197748e-05 0.05584684 4283190074
0.77783155 -0.00021588802 0.055772826 4283124281
0.77847552 -0.00042885542 0.055770621 4281677357
0.77911741 -0.0007905364 0.055624768 4281415730
0.77976185 -0.0010036677 0.055622548 4281219116
0.78040516 -0.0013658553 0.05547671 4281219114
0.78104985 -0.0016537458 0.055402666 4281021735
0.78169495 -0.001941815 0.055328622 4281281827
0.78234076 -0.0023047924 0.055182785 4281216804
0.7764191 -3.6299229e-05 0.056456834 4280885273
0.7770589 -0.00039763749 0.056311414 4285492829
0.77770126 -0.00068496168 0.056237578 4282729523
0.77834278 -0.0010468364 0.056092158 4281677105
0.77898526 -0.0014090687 0.055946723 4281283893
0.77962959 -0.0016970485 0.055872887 4281349937
0.78027445 -0.0019851625 0.055799067 4281349935
0.78091973 -0.0022734702 0.055725232 4281086763
0.78156555 -0.0025619268 0.055651397 4281084966
0.7822119 -0.0028505474 0.055577546 4281281825
0.78285867 -0.0031393319 0.055503726 4281546271
0.78350717 -0.0035784096 0.055286661 4281283099
0.78415632 -0.0039428324 0.055141196 4281349151
0.77885628 -0.0018045455 0.056484118 4281219381
0.77949876 -0.0022421479 0.056267679 4281481523
0.78014404 -0.0025305897 0.056194052 4281218351
0.78078979 -0.0028192103 0.056120411 4281284144
0.78143609 -0.003107965 0.056046799 4280955179
0.78208292 -0.0034719557 0.055901736 4281544997
0.7827307 -0.003836289 0.055756703 4281479456
0.7833789 -0.0041256994 0.055683076 4281479456
0.78402764 -0.0044152886 0.055609405 4281545767
0.78467792 -0.0047803968 0.055464372 4281546028
0.78532785 -0.0050704032 0.055390731 4281480235
0.70473897 0.017757371 0.053003281 4290235324
0.70545596 0.017670646 0.053143233 4290564289
0.70620024 0.017650113 0.053354293 4290564035
0.70691502 0.017564118 0.053494245 4292011230
0.7806592 -0.0034405738 0.056445226 4280756779
0.78130615 -0.0037297308 0.056371808 4281415728
0.78195363 -0.0040942878 0.056227177 4281284394
0.78260177 -0.004383862 0.056153715 4281547564
0.78325099 -0.0047489554 0.056009099 4281481771
0.78390038 -0.005038932 0.055935651 4280823843
0.78455126 -0.0054046214 0.055791005 4281349937
0.78520316 -0.0057706237 0.05564636 4281416495
0.78585601 -0.0061369538 0.055501685 4281021483
0.78650987 -0.006503582 0.055357054 4280889897
0.78716671 -0.0069464445 0.055141166 4281349167
0.70374376 0.017110765 0.053058937 4290628285
0.70440543 0.016891927 0.053056657 4290366140
0.70512426 0.016804948 0.053196192 4291155656
0.70584208 0.016718298 0.053335741 4290695875
0.78247249 -0.0048565716 0.05662258 4280890147
0.78312224 -0.0052975863 0.056407347 4281811249
0.78377211 -0.0055879056 0.056334108 4281284907
0.78442341 -0.0059540272 0.05618988 4281546293
0.78507566 -0.0063205063 0.056045622 4281350702
0.78572893 -0.0066872686 0.055901393 4282205244
0.78638488 -0.0071303397 0.055686131 4281547314
0.78704232 -0.0075738728 0.055470869 4281151535
0.70340776 0.016243801 0.053115189 4291549395
0.70407116 0.016024396 0.053112909 4291485401
0.70484906 0.016069293 0.053393424 4292209124
0.70553982 0.015916362 0.053461835 4293918716
0.70382297 0.015353158 0.053383484 4292668643
0.70454466 0.015265897 0.053522184 4293787642
0.70688963 -0.0086462945 0.033020943 4280756512
0.70765185 -0.0088225007 0.033088699 4280690719
0.70829093 -0.0093373805 0.032804951 4281216034
0.7089563 -0.0097850263 0.032591507 4281413413
0.70592886 -0.0090574473 0.033427402 4280230684
0.70671719 -0.0091660768 0.033565059 4281085220
0.70740521 -0.0095457137 0.033422336 4281085220
0.70809424 -0.0099256635 0.033279598 4281281827
0.70875996 -0.010373935 0.033066779 4281281827
0.70947528 -0.010686532 0.032994151 4281743403
0.71011961 -0.011203796 0.032711193 4281611817
0.74775183 -0.019695595 0.036231413 4280625694
0.74844581 -0.020153254 0.036018476 4281546796
0.74917442 -0.020394206 0.036015972 4282138163
0.74990302 -0.020635173 0.036013469 4281281316
0.70488948 -0.0096721798 0.033625454 4281414958
0.7056545 -0.009848997 0.033692792 4280888868
0.70639396 -0.01009354 0.033690259 4280625696
0.70720798 -0.010134131 0.03389737 4280888098
0.70792198 -0.010446489 0.033824965 4280756255
0.70858777 -0.010895297 0.033612758 4280755485
0.70925504 -0.011344612 0.033400521 4280361495
0.7099238 -0.011794373 0.033188283 4280624667
0.71061766 -0.012176275 0.033045962 4281282854
0.74693769 -0.019539565 0.037189826 4280559901
0.74764115 -0.019924626 0.037047461 4280691487
0.74833423 -0.020382464 0.036835149 4281941554
0.74903989 -0.02076824 0.036692768 4281940784
0.74977911 -0.020936519 0.036760196 4280360214
0.75048602 -0.021322727 0.036617815 4280887069
0.7045877 -0.010532886 0.033823401 4282072118
0.70537966 -0.010642067 0.033960238 4281612591
0.70617068 -0.010750905 0.034097061 4281152040
0.70696062 -0.010859415 0.034233898 4280691489
0.70770031 -0.011104047 0.034231365 4280690462
0.70839113 -0.011485264 0.034089431 4280821278
0.7090829 -0.011866808 0.033947513 4280887841
0.70975173 -0.012317136 0.033735886 4280690462
0.71042204 -0.012767941 0.033524275 4280887841
0.71111727 -0.013150603 0.033382326 4281019684
0.71179026 -0.013602316 0.033170715 4281282856
0.74684 -0.019695178 0.038073972 4281678384
0.74754238 -0.020080209 0.037932009 4281875763
0.74826854 -0.020320356 0.03792952 4282270521
0.74896121 -0.020778552 0.037717834 4280624415
0.74965537 -0.021237269 0.037506118 4280623132
0.75039363 -0.021405041 0.037573352 4280557852
0.75112098 -0.021645606 0.037570864 4280557852
0.75182807 -0.022032186 0.037428886 4280492829
0.75255591 -0.022272915 0.037426397 4280690208
0.70338702 -0.011557549 0.033609509 4281543213
0.70505339 -0.011572883 0.034090757 4281808946
0.70592189 -0.011477396 0.034435615 4281808946
0.70671296 -0.011585951 0.034572035 4281612591
0.70747828 -0.01176253 0.034638971 4280690462
0.70816976 -0.012144297 0.034497455 4280623899
0.70888638 -0.012457833 0.034425437 4280690462
0.70957959 -0.012840167 0.034283921 4280822048
0.71027368 -0.013222829 0.03414239 4281085220
0.71096885 -0.013605788 0.034000859 4281151013
0.71161842 -0.014126822 0.033720344 4281019684
0.71231604 -0.014510587 0.033578843 4280624672
0.74606681 -0.019319877 0.039237067 4280559903
0.74677855 -0.019631803 0.039165065 4281941556
0.74745572 -0.020161912 0.038884446 4281809970
0.74815774 -0.020547181 0.0387429 4280888098
0.74887192 -0.020859927 0.038670883 4280426266
0.74958664 -0.021172836 0.03859885 4280557339
0.75030178 -0.02148588 0.038526833 4280557852
0.75099653 -0.021945268 0.038315758 4280755231
0.75172341 -0.022185653 0.038313255 4280623645
0.75244033 -0.022499323 0.038241208 4280690208
0.75316745 -0.022739798 0.038238719 4280690465
0.75389457 -0.022980273 0.038236216 4280558879
0.75461245 -0.02329421 0.038164198 4280229914
0.70310825 -0.01235418 0.033882886 4281083685
0.70390511 -0.0124643 0.034018859 4280952612
0.70475197 -0.012437537 0.034293413 4280887844
0.70562214 -0.012341797 0.034637243 4281677360
0.70641482 -0.012450531 0.034773245 4281611821
0.70720649 -0.012558937 0.034909263 4281809200
0.70794809 -0.01280421 0.034906715 4281742380
0.70868969 -0.013049483 0.034904167 4280755485
0.70940733 -0.01336351 0.034832343 4280623899
0.7101016 -0.01374653 0.034691229 4280755485
0.71079689 -0.014129907 0.034550115 4280360727
0.71149313 -0.014513597 0.034409001 4279440141
0.71214432 -0.015035763 0.034129307 4279703313
0.7128886 -0.015281931 0.034126744 4279769106
0.71352017 -0.015874341 0.033777773 4280427036
0.74528581 -0.019016057 0.040327534 4280757028
0.7459833 -0.019400135 0.040186435 4281611819
0.74669379 -0.019711807 0.040114626 4282269749
0.74739301 -0.020096481 0.039973482 4282072370
0.74808168 -0.020554364 0.039763048 4280427288
0.74880558 -0.020793781 0.03976056 4280492313
0.74949652 -0.021252394 0.039550096 4280492313
0.75019968 -0.021638364 0.039408937 4280032532
0.75091434 -0.021951437 0.039337113 4280164118
0.75162947 -0.022264645 0.039265305 4280032278
0.75233507 -0.022651419 0.039124146 4280164893
0.75306118 -0.022891566 0.039121658 4280493856
0.75378734 -0.023131713 0.039119169 4280230684
0.75451344 -0.02337186 0.039116666 4280625442
0.75523961 -0.023612007 0.039114177 4280230684
0.7018984 -0.013382658 0.033677414 4280557854
0.70269877 -0.013493612 0.03381297 4280821024
0.70357561 -0.013399214 0.034155741 4280426266
0.70442438 -0.013372436 0.034429491 4280558879
0.70529652 -0.013276502 0.034772277 4280690465
0.70611608 -0.013316929 0.034976915 4281415982
0.70695895 -0.01328817 0.035250664 4281481005
0.70772612 -0.013465017 0.035317212 4281677614
0.70849282 -0.01364173 0.035383716 4281085220
0.70923495 -0.013887167 0.035381168 4280624669
0.70995325 -0.014201567 0.035309553 4280887071
0.71067202 -0.014516175 0.035237908 4280426520
0.7113446 -0.01496923 0.035028145 4280032278
0.7120648 -0.015284315 0.034956485 4280229657
0.712717 -0.01580748 0.03467764 4280032278
0.71346158 -0.016053736 0.034675077 4280032278
0.71420616 -0.016299978 0.034672529 4280624415
0.71484017 -0.016894057 0.034324527 4280624415
0.74519163 -0.019167647 0.041205317 4281151016
0.74588805 -0.019551709 0.041064605 4282006320
0.74659747 -0.019863203 0.04099302 4282138161
0.74730736 -0.020174876 0.040921405 4280164373
0.74801779 -0.020486683 0.04084982 4280098580
0.74871743 -0.020871803 0.040709108 4280755483
0.74941802 -0.021257266 0.040568367 4280755485
0.75011957 -0.021643043 0.040427655 4280229911
0.75083268 -0.021955758 0.040356055 4279966739
0.75153601 -0.022342101 0.040215313 4280164121
0.75225031 -0.022655219 0.040143713 4280033305
0.75295532 -0.023042142 0.040002957 4280296477
0.75368047 -0.023281962 0.040000468 4280164891
0.75439632 -0.023595586 0.039928854 4280296477
0.75513077 -0.0237616 0.039995492 4280494110
0.75585592 -0.024001434 0.039993003 4280296731
0.70068145 -0.014412791 0.033476874 4280558881
0.7014854 -0.014524579 0.033612013 4281282599
0.7023927 -0.014362425 0.034022614 4282005552
0.70321953 -0.014404729 0.034226656 4281414185
0.70409614 -0.014309421 0.034568399 4279836698
0.70499557 -0.014144674 0.034979016 4279441940
0.70584184 -0.014116392 0.03525193 4279442451
0.70666128 -0.014156252 0.035456002 4279836696
0.70747924 -0.014195666 0.035660043 4282139453
0.70827138 -0.014303535 0.035795227 4281744947
0.70903838 -0.014480159 0.035861537 4281810740
0.70978099 -0.01472576 0.035858989 4281217063
0.71052361 -0.014971361 0.035856441 4281019684
0.71124279 -0.015286252 0.035785019 4280756001
0.71193933 -0.015670717 0.035644725 4280361243
0.71265984 -0.01598604 0.035573274 4279703313
0.7133581 -0.016371027 0.035432994 4279505164
0.7140798 -0.016686767 0.035361558 4279241481
0.71482408 -0.016932935 0.035358995 4279505166
0.71550268 -0.017388463 0.035149813 4279570959
0.71618271 -0.017844513 0.0349406 4280623647
0.74432659 -0.019371122 0.041808292 4280166946
0.74504757 -0.019609571 0.041805819 4282401083
0.74576849 -0.019848004 0.04180333 4281677614
0.74648947 -0.020086437 0.041800857 4280098580
0.74718678 -0.020471126 0.041660562 4279835408
0.74790823 -0.020709738 0.041658089 4279835408
0.74860698 -0.021094918 0.041517764 4280427288
0.74931782 -0.021407038 0.041446388 4280427288
0.75001836 -0.021792799 0.041306078 4280624667
0.75073045 -0.022105351 0.041234687 4280822046
0.75143266 -0.022491664 0.041094348 4280361752
0.75213581 -0.022878319 0.040954039 4280493856
0.75285977 -0.023117736 0.04095155 4280363040
0.75356442 -0.023504868 0.040811211 4279968536
0.75427949 -0.023818374 0.040739819 4280165915
0.75500411 -0.024058029 0.040737331 4280559899
0.75573766 -0.024223611 0.040803745 4280494106
0.75642753 -0.024759933 0.040525556 4280691485
0.69959188 -0.015103027 0.033624545 4279704089
0.70039815 -0.015215233 0.033759281 4280099098
0.70120335 -0.015327156 0.033893988 4280295961
0.70205992 -0.0153016 0.034166053 4280361750
0.70288861 -0.015344039 0.034369454 4280230166
0.70379281 -0.015179813 0.034778848 4280295959
0.70466864 -0.015083432 0.035119578 4280165145
0.70554203 -0.014986217 0.035460338 4279507731
0.70641291 -0.014888212 0.035801098 4280297762
0.707232 -0.014927492 0.036004528 4279441687
0.7080496 -0.014966279 0.036207944 4281678900
0.70884156 -0.015073776 0.03634274 4281942072
0.70960861 -0.015250236 0.036408857 4281876531
0.71037519 -0.015426546 0.036474958 4281810740
0.7111178 -0.015672132 0.03647241 4281019682
0.71186042 -0.015917733 0.036469862 4280493333
0.71258008 -0.016232952 0.036398649 4280493333
0.71330023 -0.016548336 0.036327422 4280492311
0.71399838 -0.016933665 0.036187515 4279572756
0.71471977 -0.017249435 0.036116302 4279572505
0.71539772 -0.017705262 0.035907745 4279704091
0.71609885 -0.018091574 0.035767823 4280361251
0.71680093 -0.0184782 0.035627916 4280690214
0.7175253 -0.018794969 0.035556659 4280558628
0.71820813 -0.019252419 0.035348073 4280494888
0.7202453 -0.020698249 0.034653589 4280758060
0.7209543 -0.021087155 0.034513667 4280165661
0.72166431 -0.021476373 0.034373716 4280691489
0.74418247 -0.019813046 0.042408779 4281483056
0.74494129 -0.019832358 0.042612448 4281415210
0.74563682 -0.020216778 0.042472556 4281216811
0.7463575 -0.020455137 0.042470083 4280098580
0.74707824 -0.020693496 0.042467609 4280229909
0.7477873 -0.021005243 0.042396411 4280164116
0.74849689 -0.021317109 0.042325228 4280295959
0.74919581 -0.021702677 0.042185336 4280230168
0.7499066 -0.022014976 0.042114124 4280559903
0.75060725 -0.022401094 0.041974247 4280559903
0.75131929 -0.022713795 0.041903034 4280494110
0.75202167 -0.02310051 0.041763112 4280034329
0.7527349 -0.023413584 0.041691929 4279903256
0.75344867 -0.023726866 0.041620731 4280430368
0.75417233 -0.023966208 0.041618243 4279706645
0.75488681 -0.024279699 0.041547045 4280494360
0.7556197 -0.024444878 0.041613266 4280690712
0.75632596 -0.024832889 0.041473329 4281281566
0.69082671 0.0079438537 0.052582681 4281741093
0.69148159 0.0076498687 0.052511856 4282991160
0.69866127 -0.015383914 0.034185812 4279968284
0.69941449 -0.015633017 0.034183219 4279836698
0.70022106 -0.015745014 0.034317538 4279967514
0.70100021 -0.015925303 0.034383416 4279770387
0.70183122 -0.01596804 0.034586191 4279967764
0.7026608 -0.016010284 0.034788966 4279836178
0.70354033 -0.015914276 0.035128668 4279836178
0.70439196 -0.015886411 0.035399914 4279572754
0.70529199 -0.015719816 0.035808116 4279506710
0.70616412 -0.015621379 0.036147833 4279705110
0.70698434 -0.015660524 0.036350638 4279507731
0.70782757 -0.015629902 0.036621928 4280099100
0.70866883 -0.015598625 0.036893219 4281546546
0.70946014 -0.015705571 0.037027583 4281678382
0.7102505 -0.015812188 0.037161976 4281678380
0.71101636 -0.015988126 0.037227884 4281810220
0.71175849 -0.016233563 0.037225321 4281217054
0.71250057 -0.016479 0.037222773 4280624917
0.71324271 -0.016724437 0.037220225 4280953634
0.71396232 -0.017039776 0.037149221 4279573273
0.71466017 -0.017425328 0.037009731 4280098847
0.71538103 -0.017741114 0.036938697 4280492578
0.71608055 -0.018127233 0.036799207 4280426785
0.71678114 -0.01851365 0.036659732 4280689957
0.71748263 -0.018900409 0.036520228 4280558628
0.71816409 -0.019357935 0.036312237 4280493605
0.71888864 -0.019674927 0.036241218 4280559398
0.7195726 -0.020133227 0.036033243 4280363302
0.72029859 -0.020450726 0.035962179 4280364072
0.72096491 -0.020980597 0.035685703 4280297760
0.72167283 -0.021369487 0.035546198 4280428833
0.72236222 -0.02182959 0.035338193 4280363040
0.72311097 -0.022077218 0.03533563 4280888614
0.72384065 -0.022395924 0.035264581 4281151016
0.72458965 -0.022643641 0.035262018 4281282856
0.7253015 -0.023033813 0.035122484 4281217063
0.72601438 -0.023424312 0.034982935 4281282854
0.72676438 -0.023672357 0.034980357 4281677612
0.72753221 -0.023848936 0.035046265 4281282854
0.7282995 -0.024025321 0.035112187 4281020200
0.72908372 -0.024129912 0.035246581 4281414958
0.72988403 -0.024162486 0.03544946 4280561702
0.74331743 -0.020016521 0.043011755 4280627747
0.74405134 -0.020181835 0.043077812 4281943607
0.74478471 -0.020347029 0.043143824 4281282599
0.74550515 -0.020585299 0.04314135 4280558628
0.74622566 -0.020823583 0.043138877 4279901203
0.74693418 -0.021135271 0.043067902 4280164116
0.74765491 -0.02137363 0.043065429 4280164116
0.74836421 -0.0216856 0.042994425 4280230168
0.74908513 -0.021924034 0.042991951 4280295961
0.74979514 -0.022236213 0.042920977 4280230938
0.75048429 -0.022696257 0.042712957 4280428317
0.7511853 -0.023082837 0.042573482 4280494110
0.75189751 -0.023395777 0.042502493 4280165661
0.75261027 -0.023708865 0.042431504 4280100381
0.7533235 -0.024022132 0.0423605 4280495139
0.7540372 -0.024335518 0.04228951 4280363553
0.75475138 -0.024649113 0.042218506 4280429085
0.75548404 -0.024814025 0.042284533 4280756508
0.7561987 -0.025127783 0.042213529 4281084446
0.68918228 0.0077108294 0.052886918 4280624417
0.68996918 0.0076832175 0.053089216 4281281829
0.69068933 0.0075225979 0.053155109 4281148960
0.6913442 0.0072284639 0.053084493 4281280546
0.69773006 -0.015664935 0.034747496 4280690986
0.69848353 -0.015914112 0.034744903 4280559651
0.69926393 -0.016094685 0.034810558 4280428065
0.69999039 -0.016412467 0.034739733 4279770135
0.70079684 -0.016524091 0.034873635 4279638801
0.70160228 -0.016635373 0.035007551 4279901201
0.70245874 -0.016608477 0.035277948 4279770385
0.70331323 -0.016580895 0.035548389 4279704592
0.70419127 -0.016483575 0.035887077 4279375896
0.70504159 -0.016454622 0.036157519 4279310867
0.70591491 -0.016355753 0.036496207 4279377428
0.70676106 -0.016325399 0.036766663 4279639317
0.70762974 -0.01622501 0.037105367 4280558879
0.70847172 -0.016193271 0.037375838 4280427293
0.70928764 -0.016230509 0.037578061 4280755231
0.71010214 -0.016267225 0.0377803 4281544999
0.7108916 -0.016373232 0.037914261 4281876013
0.71165675 -0.016548768 0.037979975 4281941804
0.71242142 -0.016724125 0.038045675 4281349667
0.71316284 -0.016969308 0.038043126 4280494108
0.7139042 -0.017214507 0.038040578 4279968795
0.71460098 -0.017600015 0.037901521 4280560673
0.71532077 -0.017915621 0.037830696 4280756512
0.71601927 -0.01830171 0.037691608 4280690719
0.71674025 -0.018617705 0.037620798 4280624926
0.71744049 -0.019004375 0.037481725 4280690719
0.71814167 -0.019391343 0.037342623 4280297247
0.71884382 -0.019778669 0.037203535 4280165661
0.71952641 -0.020237014 0.036996186 4280298530
0.72023076 -0.02062507 0.036857083 4280232737
0.72091603 -0.021084324 0.036649719 4280297760
0.72164249 -0.021402121 0.036578864 4280363553
0.72233021 -0.021862194 0.036371499 4280231967
0.7230581 -0.022180483 0.036300629 4280297760
0.7237674 -0.022570163 0.036161527 4280429348
0.72451544 -0.022817552 0.036158949 4281019432
0.72524488 -0.023136318 0.036088124 4281347368
0.7259931 -0.023383781 0.036085546 4281413161
0.72674137 -0.02363126 0.036082983 4280756001
0.72748965 -0.023878723 0.036080405 4280952610
0.72825557 -0.024054483 0.036146104 4280295199
0.72903836 -0.024158284 0.036280096 4280624164
0.72983736 -0.024189904 0.036482379 4280625961
0.73061794 -0.024292961 0.0366164 4280032027
0.7314142 -0.024323687 0.036818683 4279767572
0.74317336 -0.020458445 0.043612257 4281351470
0.74390727 -0.020623595 0.04367809 4281812021
0.74464071 -0.02078864 0.043743908 4280294934
0.74536115 -0.021026924 0.043741435 4280033305
0.74608165 -0.021265194 0.043738961 4279771668
0.74680209 -0.021503463 0.043736488 4279969045
0.74752259 -0.021741748 0.043733999 4279837459
0.74824309 -0.021980032 0.043731526 4279837461
0.74894106 -0.022365957 0.043592438 4280100122
0.74966204 -0.022604391 0.043589965 4280100635
0.7503615 -0.022990808 0.043450892 4280232221
0.75107241 -0.023303464 0.043380126 4280232991
0.7517736 -0.023690447 0.043241024 4280233250
0.75248581 -0.024003521 0.043170258 4280299043
0.75318873 -0.024391085 0.043031156 4280364323
0.75390214 -0.024704576 0.042960346 4280364323
0.75461602 -0.0250182 0.042889565 4280430370
0.7553485 -0.025182918 0.042955384 4280560673
0.7560541 -0.025571361 0.042816281 4280822303
0.68973297 0.0070613474 0.053457811 4280822048
0.69048661 0.0069675297 0.053591475 4281016861
0.6911419 0.0066731125 0.053521112 4281082654
0.69760704 -0.016058162 0.035443068 4280559398
0.69830567 -0.016444623 0.035304382 4280296226
0.69905937 -0.01669389 0.035301805 4280230433
0.69983983 -0.016874284 0.03536728 4279704342
0.70061982 -0.017054558 0.035432726 4279703570
0.70142555 -0.017165616 0.035566226 4279835410
0.70228249 -0.017138168 0.035835817 4279967764
0.70311165 -0.017179266 0.036037371 4279836178
0.70396483 -0.017150596 0.036306992 4279573778
0.70484138 -0.01705195 0.036644652 4279574291
0.70569044 -0.017021909 0.036914274 4279508498
0.70656234 -0.016921714 0.037251949 4279967766
0.70743173 -0.016820714 0.037589639 4280755485
0.70827436 -0.016788557 0.037859291 4280492313
0.70911509 -0.016755745 0.038128957 4280491800
0.70992994 -0.016792104 0.03833054 4281412132
0.71074331 -0.016827971 0.038532168 4281546024
0.71153188 -0.016933367 0.038665727 4282007599
0.71231949 -0.01703842 0.038799286 4281547048
0.71306038 -0.017283455 0.038796738 4280954659
0.71382385 -0.01745823 0.038862273 4280034840
0.7145645 -0.01770319 0.038859725 4280758050
0.71526092 -0.018088907 0.038721055 4280822303
0.7159583 -0.018474981 0.038582399 4280624924
0.71667832 -0.018790811 0.038511783 4280822048
0.71737742 -0.019177437 0.038373128 4280822305
0.71807754 -0.019564405 0.038234428 4280230938
0.71877861 -0.019951701 0.038095757 4280296731
0.71948069 -0.020339295 0.037957072 4280365090
0.72016335 -0.020798191 0.037750334 4280232991
0.72086763 -0.021186545 0.037611634 4280296731
0.72157288 -0.021575212 0.037472948 4280625696
0.72227913 -0.021964192 0.037334248 4280559903
0.7229864 -0.02235353 0.037195534 4280363294
0.72371376 -0.022671789 0.037124917 4280495393
0.72446054 -0.022918776 0.037122354 4280757030
0.72518867 -0.023237303 0.037051708 4281281064
0.72591728 -0.023555964 0.036981076 4280820513
0.72666454 -0.0238031 0.036978513 4279834901
0.72744775 -0.023906693 0.037112087 4280032280
0.72819453 -0.02415368 0.037109524 4279505944
0.72899365 -0.024184838 0.037311181 4279638298
0.72977412 -0.024287537 0.037444785 4279572505
0.7305705 -0.024317816 0.037646443 4280161049
0.73136544 -0.024347574 0.03784813 4279898390
0.7321589 -0.024376869 0.038049802 4279636501
0.73296714 -0.024333313 0.038319573 4279440143
0.74228126 -0.020808399 0.04407905 4281285675
0.74300271 -0.021046996 0.044076577 4281154089
0.74375021 -0.021138802 0.04421027 4281088296
0.74448395 -0.021303728 0.04427591 4280295702
0.74520469 -0.021542087 0.044273436 4279968536
0.74593765 -0.021706805 0.044339046 4279904026
0.74665815 -0.021945089 0.044336572 4279640854
0.74737859 -0.022183374 0.044334099 4279772440
0.74809909 -0.022421643 0.044331625 4279772186
0.74880826 -0.022733882 0.044261068 4279903772
0.74950689 -0.023120359 0.044122383 4280101405
0.75021732 -0.02343303 0.044051796 4280298784
0.75092822 -0.023745835 0.043981239 4280299297
0.7516396 -0.024058834 0.043910637 4280167457
0.75234139 -0.024446338 0.043771982 4280628008
0.75305402 -0.024759755 0.043701395 4280364836
0.75376713 -0.02507329 0.043630823 4280299043
0.75448078 -0.025387019 0.043560207 4280496674
0.75520396 -0.025626197 0.043557718 4280693540
0.75590944 -0.026014939 0.043419033 4281021222
0.69670331 -0.016270742 0.036072984 4280559651
0.69745648 -0.01651983 0.036070406 4280493856
0.69818234 -0.016837746 0.035999998 4280361500
0.69890869 -0.017155856 0.035929546 4280098328
0.69971609 -0.017267123 0.036062643 4280032280
0.70046926 -0.017516226 0.03606005 4279769365
0.70127517 -0.017626986 0.036193147 4279769363
0.70210612 -0.017668203 0.036394075 4279836178
0.7029357 -0.017708883 0.036595032 4279967764
0.70378935 -0.017679721 0.036863819 4279902741
0.70461565 -0.017719373 0.037064776 4279705362
0.70546561 -0.01768896 0.037333593 4279574289
0.70633852 -0.017588258 0.03767024 4279836950
0.70720893 -0.017486736 0.038006887 4280361495
0.70805252 -0.017454222 0.038275719 4280229909
0.70889413 -0.017421052 0.038544551 4280492311
0.70975763 -0.017317265 0.038881227 4280557591
0.71057141 -0.017352775 0.039082229 4281017890
0.7113837 -0.017387792 0.039283231 4281478954
0.71217138 -0.017492548 0.039416373 4282005298
0.71293521 -0.017667264 0.039481699 4282401337
0.71372116 -0.017771438 0.039614856 4282203699
0.71446133 -0.018016234 0.039612323 4281282849
0.71517926 -0.018331572 0.039541915 4281084700
0.7158978 -0.01864706 0.039471522 4280821528
0.71659505 -0.019033417 0.039333269 4280689177
0.71731478 -0.019349322 0.039262861 4280755485
0.71803498 -0.01966539 0.039192468 4280690208
0.71873474 -0.020052582 0.039054185 4280690208
0.71941477 -0.020511106 0.038848057 4281019684
0.72009629 -0.020970151 0.038641915 4280494110
0.72081971 -0.021287248 0.038571522 4280624669
0.72150367 -0.021747082 0.038365394 4280492313
0.72220886 -0.022136062 0.038227096 4280558106
0.72293448 -0.022453919 0.038156673 4280887071
0.72366059 -0.02277194 0.03808625 4281216036
0.72438717 -0.023090124 0.038015813 4281084196
0.725133 -0.023336783 0.03801325 4280095767
0.72587878 -0.023583442 0.038010687 4279832595
0.72662461 -0.023830086 0.038008124 4279374099
0.72737038 -0.024076745 0.038005561 4279439892
0.72816944 -0.024107352 0.038206622 4279374358
0.72894949 -0.024209574 0.038339809 4279571476
0.72972858 -0.024311483 0.038472995 4279439890
0.73052365 -0.024340823 0.038674057 4280093459
0.73133403 -0.024297312 0.038942993 4279635216
0.73212588 -0.024325579 0.039144069 4279570706
0.73293257 -0.024280861 0.03941302 4279636752
0.7337693 -0.024090335 0.039817706 4279702545
0.73455578 -0.024116799 0.040018812 4280952862
0.73535633 -0.024070039 0.040287793 4280298010
0.73626184 -0.0235129 0.041031897 4280232991
0.7413466 -0.021378562 0.044343039 4280955944
0.74209642 -0.021470785 0.044476315 4281745458
0.74284524 -0.021562696 0.044609621 4280822048
0.74357998 -0.021727815 0.044675007 4280427290
0.74432707 -0.021819159 0.044808298 4280558104
0.74506062 -0.021983847 0.044873729 4280558102
0.74578136 -0.022222206 0.044871256 4280295959
0.74650204 -0.022460565 0.044868782 4280690719
0.74722278 -0.022698924 0.044866309 4281151270
0.74794352 -0.022937283 0.044863835 4280495141
0.74866426 -0.023175642 0.044861361 4280102950
0.74936277 -0.023562416 0.044723079 4280496936
0.75007313 -0.023875251 0.044652715 4280891694
0.75079459 -0.024113849 0.044650227 4280759596
0.75150567 -0.024426892 0.044579864 4280759345
0.75220716 -0.024814636 0.044441596 4281613622
0.7529096 -0.025202721 0.044303313 4281678384
0.75361305 -0.02559112 0.04416503 4281481005
0.75432688 -0.025905058 0.044094667 4281612589
0.7550503 -0.026144311 0.044092178 4281481773
0.75574708 -0.026608393 0.043885976 4281745456
0.69652492 -0.016801208 0.036632702 4280691489
0.69730598 -0.016981497 0.036697745 4280428565
0.69800442 -0.01736857 0.03655988 4280427286
0.69875807 -0.017617822 0.036557287 4280229907
0.69956553 -0.017728791 0.036689982 4279900944
0.70031875 -0.017977893 0.036687389 4279638547
0.70112473 -0.018088356 0.036820069 4279573524
0.70192969 -0.01819849 0.036952764 4279705362
0.70278555 -0.018169358 0.037220731 4279639569
0.70358807 -0.018278673 0.037353426 4280034325
0.70444047 -0.018248424 0.037621394 4279771666
0.7052657 -0.018287212 0.03782174 4279574287
0.70613933 -0.018185914 0.038157359 4279836946
0.70701045 -0.018083811 0.038492993 4279902739
0.70785475 -0.018050849 0.03876102 4280361750
0.70872122 -0.017947197 0.039096668 4280361493
0.70956129 -0.017912865 0.039364681 4280164116
0.71039939 -0.017877847 0.039632708 4280361497
0.7112121 -0.017912507 0.039833099 4280032280
0.71202332 -0.017946675 0.040033475 4280361245
0.7128101 -0.018050805 0.040166229 4281019179
0.71359593 -0.018154591 0.040298983 4281546028
0.71433586 -0.018399298 0.040296435 4281875759
0.71507573 -0.01864399 0.040293887 4281415462
0.71581566 -0.018888697 0.040291354 4280757532
0.71651208 -0.019275129 0.040153518 4280690712
0.71725249 -0.01952 0.04015097 4280822046
0.71795046 -0.019906923 0.04001312 4281216034
0.71864939 -0.020294145 0.039875269 4280887069
0.71934927 -0.020681694 0.039737418 4281084448
0.72005016 -0.021069586 0.039599568 4280428315
0.720752 -0.021457806 0.039461687 4280099350
0.72145486 -0.021846354 0.039323837 4280230166
0.72215873 -0.0222352 0.039185956 4280690717
0.72286355 -0.022624403 0.039048091 4281083935
0.7236079 -0.02287057 0.039045528 4281083937
0.72433323 -0.023188472 0.038975328 4280886558
0.72507781 -0.023434728 0.038972765 4279439894
0.72582233 -0.02368097 0.038970217 4279242515
0.72656691 -0.023927227 0.038967654 4279242770
0.72732955 -0.024101406 0.039032742 4279242770
0.72810948 -0.024203256 0.039165512 4279046929
0.72890592 -0.024232537 0.039365962 4279308812
0.72970092 -0.024261311 0.039566413 4279374605
0.73047739 -0.024362028 0.039699197 4279767823
0.73126966 -0.024389908 0.039899647 4279045132
0.732077 -0.024344757 0.040167779 4279111954
0.73288244 -0.024298951 0.04043591 4279702032
0.73371798 -0.024107024 0.040839389 4279899411
0.73451895 -0.024059743 0.041107565 4281084196
0.73536468 -0.023793131 0.041578725 4280429085
0.73622227 -0.023452416 0.042117596 4280298782
0.74042308 -0.021876052 0.044676736 4281218351
0.74117446 -0.021968469 0.04480961 4281940532
0.74192488 -0.022060558 0.044942483 4281808691
0.74266088 -0.022225931 0.045007691 4280361502
0.74340957 -0.022317454 0.04514055 4280098330
0.74415725 -0.022408649 0.045273438 4281217063
0.74487871 -0.022647247 0.045270965 4281677614
0.74561256 -0.02281189 0.045336172 4281481773
0.74633378 -0.023050413 0.045333698 4281547564
0.74705499 -0.023288935 0.045331225 4281350185
0.74777621 -0.023527458 0.045328736 4281547566
0.74848598 -0.023840263 0.045258567 4281285938
0.7492075 -0.024078861 0.045256093 4280628010
0.74991804 -0.024391904 0.045185938 4281285940
0.75062907 -0.024705112 0.045115754 4281482553
0.75134063 -0.025018468 0.045045599 4281483066
0.75205266 -0.025331989 0.04497543 4281941821
0.75276518 -0.025645688 0.04490526 4281084198
0.75346851 -0.0260344 0.04476738 4281544749
0.75417286 -0.026423424 0.044629514 4281676335
0.75487816 -0.026812777 0.044491634 4281414960
0.75558448 -0.027202442 0.044353768 4282009402
0.69637436 -0.01726304 0.037260249 4280954659
0.6971001 -0.017581284 0.037190214 4280494358
0.6978538 -0.017830536 0.037187621 4280624917
0.69860744 -0.018079802 0.037185043 4280295952
0.69941503 -0.018190458 0.037317321 4279900942
0.7001949 -0.018370166 0.037382171 4279573778
0.70100075 -0.018480241 0.037514448 4279507985
0.70183182 -0.018520474 0.037714139 4279836948
0.70266134 -0.018560216 0.037913859 4279836948
0.70346373 -0.018669143 0.038046151 4280034325
0.70423967 -0.01884757 0.038110986 4279640080
0.70509076 -0.018816203 0.038378164 4279574289
0.70593995 -0.01878418 0.038645327 4279902741
0.70676237 -0.018821552 0.038845047 4280165913
0.70760781 -0.018788308 0.03911224 4280361750
0.70847553 -0.018684223 0.039446875 4280361493
0.70934075 -0.018579319 0.039781511 4280361495
0.71017981 -0.018543988 0.040048704 4280164375
0.71101689 -0.018507987 0.040315911 4280098328
0.71182877 -0.018541843 0.040515691 4280295707
0.71263915 -0.018575236 0.040715486 4280099100
0.71342528 -0.018678799 0.040847823 4280428835
0.71421051 -0.018782049 0.040980175 4281350187
0.71495014 -0.019026667 0.040977627 4281547564
0.71568978 -0.019271284 0.040975094 4281415978
0.71642947 -0.019515917 0.040972546 4280625692
0.71714759 -0.019831643 0.04090254 4280756001
0.71786624 -0.020147517 0.040832564 4281281314
0.71856427 -0.020534813 0.040695131 4280952349
0.71928418 -0.020851105 0.04062511 4280952349
0.71998394 -0.021238968 0.040487677 4280756508
0.72066444 -0.021698654 0.040282771 4280034325
0.72140658 -0.021944091 0.040280223 4280295959
0.72208929 -0.022404507 0.040075317 4280624924
0.72281259 -0.022721931 0.040005311 4280822046
0.72353637 -0.02303952 0.039935321 4280953632
0.72426063 -0.023357272 0.039865285 4280952864
0.72500426 -0.023603201 0.039862737 4279506193
0.72574782 -0.023849115 0.039860174 4279177228
0.72652811 -0.023950741 0.039992556 4279440141
0.72728926 -0.024124265 0.040057465 4279112205
0.72806782 -0.024225309 0.040189832 4278981902
0.72884536 -0.024326041 0.040322199 4279374605
0.72963929 -0.024353981 0.040522039 4279308812
0.73043168 -0.024381429 0.040721878 4279636750
0.7312395 -0.024335742 0.04098919 4278915093
0.73204535 -0.024289399 0.041256517 4278980886
0.73284924 -0.024242416 0.041523844 4279505683
0.73366725 -0.024121895 0.041858628 4279571476
0.73446691 -0.024073526 0.04212597 4280624674
0.73529589 -0.02387844 0.042528227 4280625694
0.73613727 -0.023609236 0.042997986 4280429596
0.73694497 -0.023485273 0.043332845 4280232989
0.73777997 -0.023213968 0.043802604 4280232989
0.73862618 -0.022868142 0.044339865 4280298782
0.73945403 -0.022594467 0.044809669 4280626466
0.74020773 -0.022687301 0.044942126 4282072372
0.74098825 -0.022632584 0.045209542 4282334515
0.74173945 -0.022724599 0.045341998 4282006070
0.74247628 -0.022890091 0.045406982 4280955179
0.74322581 -0.022981539 0.045539454 4280626214
0.74396139 -0.0231466 0.045604452 4281086763
0.74470919 -0.023237512 0.045736909 4281415728
0.74544358 -0.023402169 0.045801923 4281416495
0.74616528 -0.023640856 0.045799449 4281350952
0.74688697 -0.023879543 0.045796975 4281153573
0.74760866 -0.024118215 0.045794487 4281481771
0.74831891 -0.024431348 0.045724511 4281285677
0.7490409 -0.024670109 0.045722023 4281483058
0.74975187 -0.024983451 0.045652077 4281219886
0.75046337 -0.025296956 0.045582131 4281746491
0.75117534 -0.025610656 0.045512155 4281089075
0.75187761 -0.025999337 0.045374691 4281218351
0.75259084 -0.026313409 0.045304731 4280952610
0.75329483 -0.026702657 0.045167267 4281084196
0.75400925 -0.027017161 0.045097277 4281412650
0.75470573 -0.027482122 0.044892326 4281216811
0.7554127 -0.027872354 0.044754863 4281744695
0.69622374 -0.017724857 0.037887797 4282992963
0.69694948 -0.01804325 0.03781797 4282005289
0.69770312 -0.018292516 0.037815377 4280819478
0.69845682 -0.018541768 0.037812784 4280358927
0.69926447 -0.018652126 0.03794466 4280426516
0.70004439 -0.018831685 0.038009301 4279966992
0.70087683 -0.018871844 0.03820838 4279769615
0.70168155 -0.018981233 0.038340256 4280296727
0.70248526 -0.01909028 0.038472131 4280165141
0.70328802 -0.019198999 0.038604006 4280034577
0.70411527 -0.019237474 0.038803101 4280166163
0.70494103 -0.019275457 0.039002225 4280297749
0.70576537 -0.019312918 0.039201349 4280034579
0.70658821 -0.019349933 0.039400458 4280166165
0.70738506 -0.019456699 0.039532363 4280100120
0.708278 -0.019281775 0.039933175 4280296731
0.70911992 -0.019246712 0.040199548 4280165145
0.70995992 -0.019210994 0.040465936 4280230936
0.71079797 -0.019174635 0.040732324 4279967764
0.71161067 -0.019208297 0.040931478 4280165143
0.71242195 -0.019241467 0.041130647 4280099098
0.71323174 -0.01927416 0.041329816 4280033305
0.7140401 -0.019306347 0.041528985 4280164893
0.71480232 -0.01948005 0.041593701 4281612337
0.71556401 -0.019653603 0.041658387 4281809716
0.71630347 -0.019898146 0.041655853 4281349417
0.71704286 -0.020142689 0.041653305 4281151011
0.71776092 -0.020458534 0.041583538 4281412898
0.71847951 -0.020774573 0.041513726 4280886554
0.71919858 -0.021090761 0.041443959 4280689175
0.71989757 -0.021478683 0.041306928 4280887837
0.72061789 -0.021795288 0.041237116 4280559383
0.72131854 -0.022183776 0.041100085 4280231188
0.72204006 -0.022500783 0.041030303 4280296981
0.7227425 -0.022889853 0.040893242 4280691739
0.72348464 -0.02313529 0.040890694 4280888864
0.72420764 -0.023452759 0.040820912 4280888094
0.72495002 -0.02369827 0.040818363 4279506193
0.72569233 -0.023943797 0.040815815 4279374607
0.72645307 -0.024117023 0.040880501 4280031249
0.7272315 -0.024217695 0.041012466 4279178250
0.72800887 -0.024318039 0.041144431 4278850568
0.72880292 -0.024345517 0.041343644 4279178766
0.72959554 -0.024372503 0.041542888 4279178766
0.73038661 -0.024399012 0.041742101 4278981136
0.73119313 -0.024352238 0.042008609 4278981653
0.73199773 -0.024304822 0.042275086 4279243542
0.7328003 -0.024256751 0.042541608 4279440398
0.73360091 -0.024208009 0.04280813 4279375126
0.73441553 -0.024085522 0.043141901 4280098849
0.73521197 -0.024035409 0.043408453 4280494876
0.73602188 -0.023911372 0.043742239 4280429083
0.73684448 -0.023713157 0.044143319 4280429596
0.7376492 -0.023587421 0.04447712 4280693792
0.73845148 -0.023460865 0.044810966 4280825378
0.73925132 -0.023333505 0.045144781 4281482025
0.74002028 -0.023352683 0.045344099 4282467126
0.7407738 -0.023445129 0.045476153 4282597435
0.74154007 -0.023463428 0.045675457 4281940534
0.74230486 -0.02348122 0.045874789 4281677362
0.74304175 -0.023646533 0.04593958 4281547316
0.7437911 -0.023737609 0.046071634 4281942326
0.74452674 -0.023902535 0.046136424 4281744947
0.74524945 -0.02414155 0.046133935 4282337082
0.7459721 -0.02438055 0.046131462 4282929219
0.7466948 -0.024619564 0.046128973 4282140216
0.74741751 -0.024858579 0.046126485 4281942837
0.74814016 -0.025097579 0.046124011 4282074675
0.7488516 -0.025411248 0.046054259 4282006577
0.74957454 -0.025650337 0.04605177 4281282854
0.75028676 -0.02596426 0.045981988 4280034337
0.7509889 -0.02635324 0.045844957 4280627246
0.75170231 -0.02666755 0.045775205 4280099868
0.75240624 -0.027057111 0.045638144 4280559131
0.75310129 -0.027522117 0.045433804 4280624924
0.75381696 -0.027837172 0.045364022 4281084450
0.75453305 -0.028152391 0.045294255 4281152040
0.75524968 -0.028467774 0.045224458 4281348392
0.69682664 -0.018435851 0.038512751 4282663732
0.69758004 -0.018685028 0.038510159 4281281314
0.69836074 -0.018864706 0.038574576 4281018142
0.69914103 -0.019044191 0.038639024 4280427286
0.69994754 -0.019153833 0.038770482 4280098578
0.70072651 -0.019332916 0.0388349 4280098578
0.70155764 -0.01937215 0.039033368 4280427797
0.70236117 -0.019480839 0.039164841 4280427797
0.70316374 -0.019589171 0.039296314 4280165393
0.7039398 -0.019767284 0.039360747 4280494612
0.70474064 -0.019875064 0.03949222 4280494610
0.70559072 -0.019841999 0.039757743 4280166417
0.70638907 -0.019948959 0.039889231 4280166417
0.70721108 -0.019985169 0.04008773 4280165911
0.70805597 -0.019950405 0.040353283 4280363292
0.70889884 -0.019914985 0.040618852 4280428315
0.70973974 -0.019878909 0.04088442 4280165911
0.71057868 -0.019842222 0.041149959 4279902739
0.71139234 -0.019875646 0.041348502 4280034325
0.71222758 -0.019837707 0.041614085 4280165143
0.71303803 -0.019870102 0.041812643 4280230938
0.71384698 -0.019902021 0.042011186 4280361500
0.71463209 -0.020004585 0.042142719 4280558881
0.71539414 -0.02017805 0.042207226 4281216811
0.71615565 -0.020351365 0.042271718 4282006579
0.7168951 -0.020595908 0.04226917 4281874732
0.7176345 -0.020840451 0.042266637 4282005289
0.71837389 -0.021084994 0.042264089 4280887067
0.71911335 -0.021329537 0.042261556 4280558102
0.71981144 -0.021717504 0.042124927 4280756762
0.72053099 -0.022034004 0.042055354 4280559383
0.72125095 -0.022350684 0.041985765 4280427795
0.72197145 -0.022667512 0.041916177 4280427795
0.72269249 -0.02298452 0.041846573 4280757530
0.72343338 -0.023229539 0.041844025 4280560921
0.72413588 -0.023618981 0.041707411 4280626716
0.7248773 -0.023864165 0.041704848 4279243538
0.72565603 -0.023964629 0.041836396 4279243538
0.72641534 -0.024137199 0.041900918 4279767823
0.72719234 -0.024237081 0.042032465 4279440650
0.72796834 -0.024336621 0.042164043 4278981639
0.72874337 -0.024435878 0.042295575 4279113740
0.72955233 -0.024389237 0.042561248 4279113740
0.73034215 -0.024414778 0.04275988 4279243791
0.73113042 -0.024439871 0.042958513 4278915856
0.73193395 -0.024391413 0.043224201 4279374099
0.73275197 -0.024269253 0.043556944 4279702282
0.73353511 -0.024292603 0.043755576 4279442190
0.73431677 -0.024315476 0.043954238 4280034327
0.73509693 -0.024337873 0.044152886 4280429850
0.7359066 -0.024212912 0.044485658 4280560669
0.73669857 -0.024160668 0.044751391 4280625692
0.73748857 -0.024107754 0.045017123 4280955681
0.7382766 -0.024054214 0.045282856 4280955681
0.7390337 -0.024147496 0.045414492 4281547818
0.73981827 -0.024092793 0.04568024 4282072370
0.74057287 -0.02418527 0.045811877 4281677103
0.74132651 -0.024277434 0.045943514 4282072118
0.7420792 -0.024369255 0.04607515 4281808946
0.7428441 -0.024386615 0.046273857 4281482034
0.74356854 -0.024626195 0.046271369 4281942324
0.74431849 -0.024717122 0.046403021 4282073138
0.7450549 -0.024882138 0.046467587 4282467896
0.74579084 -0.025046974 0.046532184 4282533689
0.7465263 -0.025211677 0.046596751 4282139703
0.74724948 -0.025450855 0.046594277 4282008117
0.74797267 -0.025690019 0.046591789 4281875759
0.74868453 -0.026003987 0.046522245 4281677357
0.74939692 -0.026318148 0.046452686 4281414185
0.75010979 -0.026632443 0.046383128 4280231718
0.75081259 -0.027021974 0.046246484 4280429097
0.75150609 -0.02748695 0.04604277 4280034842
0.75222117 -0.027802005 0.045973197 4280559131
0.75292695 -0.028192505 0.045836538 4280756510
0.75364321 -0.028507933 0.045766979 4281216802
0.75433207 -0.029049948 0.045496166 4281349415
0.75505918 -0.029290423 0.045493662 4282927679
0.69670385 -0.018828183 0.039207086 4281282602
0.69742948 -0.019146845 0.039137706 4281745206
0.6982376 -0.019256696 0.039268732 4281482034
0.6990447 -0.01936619 0.039399788 4279706645
0.69982398 -0.019545212 0.039463997 4280098580
0.70062935 -0.019654155 0.039595053 4280492309
0.70140743 -0.019832775 0.039659277 4280821015
0.70221108 -0.019941151 0.039790332 4280821015
0.70301378 -0.020049185 0.039921403 4280755735
0.70378989 -0.020227149 0.039985627 4281151770
0.70459086 -0.020334631 0.040116683 4280560403
0.70539081 -0.020441771 0.040247753 4280429596
0.70618981 -0.020548582 0.040378824 4280363803
0.70701247 -0.020584524 0.040576711 4280429087
0.70783365 -0.020619944 0.040774629 4280165661
0.70865333 -0.020654902 0.040972516 4280494110
0.70951927 -0.020547748 0.041304097 4280361750
0.71033555 -0.020581543 0.041502029 4280559129
0.71117365 -0.020543933 0.041766748 4280230164
0.71200991 -0.020505622 0.042031497 4279835410
0.71282119 -0.020537794 0.042229459 4279703572
0.71363103 -0.020569488 0.042427391 4279703572
0.71443939 -0.020600721 0.042625323 4279571476
0.71522415 -0.020702809 0.042756453 4279703062
0.71600789 -0.020804599 0.042887583 4280821543
0.71674728 -0.021049142 0.042885035 4281478703
0.71748674 -0.021293685 0.042882502 4282728760
0.71826851 -0.021394804 0.043013617 4280757280
0.71898651 -0.021710977 0.042944238 4280428315
0.71970499 -0.022027299 0.042874873 4280430620
0.72044438 -0.022271842 0.042872339 4280560921
0.72116363 -0.022588402 0.042802975 4280494358
0.7218833 -0.022905141 0.042733565 4280296979
0.72262323 -0.023149848 0.042731032 4280429848
0.7233631 -0.023394555 0.042728484 4280298264
0.72410303 -0.023639262 0.04272595 4280428063
0.72484291 -0.023883969 0.042723402 4279440147
0.72558284 -0.024128661 0.042720869 4279374354
0.72635972 -0.024228171 0.042852014 4279440400
0.72713554 -0.024327338 0.042983159 4280297501
0.72791046 -0.024426192 0.043114319 4280165911
0.72870207 -0.024451882 0.043312311 4279573774
0.72949225 -0.02447708 0.043510318 4280165911
0.730281 -0.024501756 0.043708339 4280364055
0.73106819 -0.024525985 0.043906361 4279446805
0.7318539 -0.024549723 0.044104367 4280171039
0.73263818 -0.024572954 0.044302404 4281152542
0.73342097 -0.024595708 0.04450044 4282006827
0.7342183 -0.024544537 0.044765338 4282138413
0.73499787 -0.024566248 0.044963375 4282402355
0.73577601 -0.024587438 0.045161441 4283122233
0.73655266 -0.024608165 0.045359477 4283121203
0.73732781 -0.024628401 0.045557529 4282136105
0.73810148 -0.024648145 0.045755595 4282136105
0.73885918 -0.024741292 0.0458868 4282269744
0.73963016 -0.024760127 0.046084881 4282072111
0.74037158 -0.024926633 0.046149239 4282268722
0.7411263 -0.025018796 0.046280459 4282072115
0.74188 -0.025110647 0.046411678 4281743150
0.74261945 -0.025276512 0.046476036 4282072372
0.74337149 -0.025367782 0.046607271 4282927931
0.74413532 -0.025384247 0.046805397 4282861363
0.74485999 -0.025623918 0.046802908 4283256117
0.74559695 -0.025788948 0.046867266 4283058738
0.74632138 -0.026028529 0.046864778 4282729775
0.74704576 -0.02626811 0.046862289 4282203954
0.74777019 -0.026507691 0.046859801 4282401335
0.74849463 -0.026747271 0.046857312 4281414709
0.74920791 -0.02706188 0.046787962 4280296228
0.74991089 -0.027451783 0.046651736 4280033574
0.75062543 -0.027766824 0.046582356 4280296998
0.75131971 -0.028232574 0.046379253 4279968795
0.75203574 -0.028548107 0.046309888 4280297501
0.75274241 -0.028939202 0.046173677 4280429087
0.75345004 -0.029330671 0.046037421 4281941034
0.75415862 -0.029722452 0.045901164 4283060287
0.69733417 -0.019469202 0.039898455 4281745208
0.6980871 -0.019718215 0.039895862 4281416243
0.69889432 -0.019827411 0.040026501 4280365604
0.69967365 -0.020006284 0.040090516 4280034329
0.70050573 -0.020044863 0.040287748 4280361750
0.70131004 -0.02015309 0.040418401 4280690712
0.70208716 -0.020331204 0.040482447 4280822298
0.70288968 -0.02043888 0.040613085 4280953114
0.70366561 -0.020616606 0.04067713 4281282331
0.7044664 -0.020723701 0.040807784 4280625176
0.70526624 -0.020830452 0.040938437 4280363040
0.70604014 -0.021007538 0.041002467 4280099868
0.70683825 -0.021113738 0.04113315 4280296996
0.70765984 -0.021148801 0.041330412 4280295456
0.70847988 -0.021183386 0.041527718 4280295707
0.70929849 -0.02121748 0.04172501 4279769363
0.71013933 -0.021180034 0.041988939 4280098328
0.71095473 -0.021213084 0.042186245 4279637779
0.71179187 -0.021174431 0.042450175 4279439120
0.71260405 -0.021206394 0.042647481 4279242768
0.71341479 -0.021237895 0.042844817 4279571476
0.71422404 -0.021268889 0.043042138 4279636499
0.71503186 -0.021299407 0.043239474 4279636499
0.7158162 -0.021401048 0.043370172 4279834650
0.71659952 -0.021502361 0.0435009 4280753701
0.71736044 -0.02167514 0.043564975 4281872683
0.71812081 -0.021847725 0.043629065 4281021220
0.71885973 -0.022092104 0.043626532 4281021220
0.71959865 -0.022336483 0.043623999 4280825891
0.72033757 -0.022580862 0.043621466 4280626714
0.72107649 -0.022825241 0.043618917 4280690967
0.72179544 -0.023141891 0.043549746 4280494358
0.7225346 -0.023386359 0.043547213 4280560151
0.72327375 -0.023630813 0.043544665 4280297499
0.72401291 -0.023875281 0.043542132 4280429087
0.72477114 -0.024047136 0.043606237 4280034077
0.72554761 -0.024146169 0.043736979 4279968284
0.72628599 -0.024390385 0.043734446 4280364323
0.72707927 -0.024416104 0.043931812 4280759333
0.727835 -0.024587154 0.043995932 4281284905
0.72862583 -0.024612069 0.044193327 4280100372
0.72941518 -0.024636492 0.044390708 4281745962
0.73018569 -0.024733558 0.044521466 4281811755
0.7309553 -0.024830312 0.044652224 4281156138
0.73174071 -0.024853438 0.044849634 4280500518
0.73252463 -0.024876043 0.04504706 4281353001
0.73330706 -0.024898186 0.045244485 4281745708
0.73405588 -0.025066972 0.045308605 4281745708
0.73483586 -0.025088295 0.045506045 4282139185
0.7355988 -0.025182843 0.045636818 4282793783
0.73636079 -0.025277078 0.04576762 4282595891
0.7371217 -0.025371015 0.045898393 4282268207
0.73789656 -0.02539061 0.046095848 4282070828
0.73864073 -0.025557861 0.046159983 4282334765
0.73939872 -0.025650784 0.04629077 4281874984
0.74016988 -0.025669187 0.04648824 4282466351
0.74089795 -0.02590999 0.046485737 4282467123
0.74165326 -0.02600202 0.046616554 4282467123
0.74239421 -0.026168182 0.046680719 4282666297
0.74314785 -0.026259646 0.046811536 4282666810
0.74390042 -0.026350811 0.046942338 4282469170
0.7446394 -0.026516333 0.047006503 4283125555
