# .PCD v0.7 - Point Cloud Data file format
VERSION 0.7
FIELDS x y z rgb
SIZE 4 4 4 4
TYPE F F F U
COUNT 1 1 1 1
WIDTH 1024
HEIGHT 1
VIEWPOINT 0 0 0 1 0 0 0
POINTS 1024
DATA ascii
0.71651447 -0.043814659 0.04027541 4283655782
0.71574867 -0.044059128 0.040284961 4283459173
0.71498281 -0.044303581 0.040294513 4283262307
0.71424854 -0.044615939 0.040371105 4283130721
0.71348298 -0.044860318 0.040380642 4282999137
0.71274942 -0.045172468 0.040457249 4283063647
0.7119841 -0.045416772 0.0404668 4283063395
0.71125132 -0.045728654 0.040543377 4282538334
0.71048623 -0.045972884 0.040552914 4282867299
0.70968819 -0.046149671 0.040495425 4283131755
0.70892286 -0.046393976 0.040504977 4283592819
0.70809054 -0.046503723 0.040380478 4283262571
0.70722353 -0.046546578 0.040188938 4282867813
0.70635498 -0.046589911 0.039997429 4281219394
0.70545071 -0.046566695 0.039738938 4281284156
0.70454454 -0.046544075 0.039480448 4281284926
0.7035321 -0.046321437 0.039020941 4281483070
0.70251632 -0.046099901 0.038561493 4281285691
0.70146173 -0.045812741 0.038035065 4281155387
0.7004742 -0.045660123 0.037642702 4280960320
0.69941229 -0.045375347 0.037116379 4280567611
0.69841838 -0.045224786 0.036724091 4280962369
0.69745767 -0.045141608 0.036398858 4281290051
0.69649452 -0.045059204 0.036073625 4280829500
0.6956023 -0.045110077 0.035882398 4280762939
0.6947825 -0.045293808 0.035825193 4279512872
0.69396222 -0.045477688 0.035767972 4280627244
0.69317889 -0.045727745 0.035777748 4280955443
0.69243324 -0.046043739 0.035854489 4280957758
0.69172603 -0.046425447 0.03599821 4281025861
0.69101983 -0.046806827 0.036141902 4280565310
0.69042987 -0.047384992 0.036486492 4281487693
0.68972635 -0.047765523 0.036630154 4281749836
0.6891017 -0.048276827 0.036907747 4282142797
0.74857163 -0.038910076 0.045541137 4282203706
0.74790919 -0.039434135 0.045818403 4282137913
0.74718428 -0.039743662 0.045894668 4281414960
0.74648166 -0.040124267 0.046037927 4280890669
0.74571413 -0.040291131 0.04598026 4281021485
0.74494612 -0.040458143 0.045922577 4281020972
0.74420005 -0.040696293 0.045931891 4280757800
0.74343133 -0.040863559 0.045874238 4282270267
0.74268496 -0.041101798 0.045883551 4282271291
0.74193865 -0.041340038 0.045892864 4282404160
0.74119234 -0.041578263 0.045902163 4282798918
0.74044603 -0.041816503 0.045911476 4282799945
0.73965192 -0.041913733 0.045786887 4282076491
0.73890507 -0.042152122 0.045796201 4282732622
0.73815829 -0.042390525 0.045805514 4282929732
0.7374115 -0.042628914 0.045814827 4282798146
0.73663974 -0.042797133 0.045757204 4282732605
0.73589271 -0.043035597 0.045766518 4282667328
0.73512024 -0.043204024 0.045708895 4282733123
0.73429602 -0.043232709 0.045517445 4282272320
0.72712392 -0.042161971 0.042715326 4284317566
0.72617018 -0.041919425 0.042256504 4284185208
0.72526926 -0.041816309 0.04193151 4284053622
0.72445089 -0.041921243 0.041807219 4284447865
0.72363156 -0.04202649 0.041682944 4284973179
0.72284013 -0.042200983 0.041625559 4284249966
0.72201908 -0.042306796 0.041501313 4284184173
0.72122633 -0.042481706 0.041443944 4284119665
0.72040355 -0.042588055 0.041319713 4283265641
0.71963948 -0.042831957 0.04132925 4280106040
0.71884531 -0.043007344 0.041271925 4282670688
0.718081 -0.043251336 0.041281447 4283328618
0.71728611 -0.043426931 0.041224107 4283526765
0.71649069 -0.043602705 0.041166782 4283657579
0.71572584 -0.043846846 0.041176319 4283130721
0.71496105 -0.044090986 0.041185871 4283064930
0.7142278 -0.044403195 0.041262254 4283064930
0.71346319 -0.044647262 0.041271791 4282933342
0.71269864 -0.044891328 0.041281313 4282669657
0.71193403 -0.045135394 0.041290849 4282867036
0.71113694 -0.045311719 0.041233554 4283000421
0.71033931 -0.045488179 0.041176245 4283132007
0.70957422 -0.045732409 0.041185781 4282341205
0.70870924 -0.045774102 0.040994853 4282404434
0.70787632 -0.04588367 0.040870741 4279445804
0.70700866 -0.045926243 0.040679827 4281288008
0.70610547 -0.045901969 0.040422097 4280826172
0.70520031 -0.045878336 0.040164411 4281154105
0.7043277 -0.045922458 0.039973557 4281551430
0.70331448 -0.045698896 0.03951548 4281420617
0.70233285 -0.045543373 0.039124236 4281486410
0.70127767 -0.045255065 0.038599432 4281552973
0.70028961 -0.045101598 0.038208276 4281685326
0.69933438 -0.045015812 0.037883952 4281816912
0.69830465 -0.044797525 0.037426099 4281816912
0.69734395 -0.044713452 0.03710182 4281290566
0.69649029 -0.044829682 0.036977991 4281685324
0.69556218 -0.044813365 0.036720574 4281355848
0.69474304 -0.044996694 0.036663547 4279974195
0.69392347 -0.045180187 0.03660652 4280563250
0.69314086 -0.045430005 0.036616281 4281219898
0.69243377 -0.045812011 0.036759585 4281289035
0.6916517 -0.046061665 0.036769345 4281289805
0.69094604 -0.046443224 0.03691265 4281092426
0.69031835 -0.046956137 0.037189439 4281685074
0.7483651 -0.038221821 0.045949653 4282072890
0.74765956 -0.038603663 0.04609254 4282007097
0.74693352 -0.038913742 0.046168625 4281480751
0.74620795 -0.039223686 0.04624474 4280825128
0.74543893 -0.039390847 0.046187267 4281218862
0.74471384 -0.039700627 0.046263367 4281218349
0.74394429 -0.039867952 0.046205908 4280955177
0.74321973 -0.040177584 0.046282008 4281415982
0.74242675 -0.040274084 0.046157792 4281942324
0.74170244 -0.040583611 0.046233863 4281942324
0.74093163 -0.040751338 0.046176434 4282731840
0.74018407 -0.04098998 0.046185762 4283062088
0.73943657 -0.041228607 0.04619509 4282140487
0.73868901 -0.041467234 0.046204403 4282139717
0.73794144 -0.041705862 0.046213731 4282667080
0.73716921 -0.041874066 0.046156317 4282996045
0.73642141 -0.042112768 0.046165645 4282338880
0.73567361 -0.042351484 0.046174973 4282602052
0.73490036 -0.042520016 0.046117574 4282667843
0.73412663 -0.042688668 0.046060175 4282601539
0.73330051 -0.042717442 0.045869336 4282601539
0.7270059 -0.041750804 0.043400109 4284117107
0.7261079 -0.041645885 0.043076083 4284905340
0.72520745 -0.041541755 0.042752087 4284971133
0.72438973 -0.041646153 0.042628199 4284577656
0.7236284 -0.041889191 0.042637691 4284446581
0.7228092 -0.04199405 0.042513818 4284579705
0.72198904 -0.042099237 0.042389959 4284250740
0.72119731 -0.04227367 0.042332783 4283857265
0.72040504 -0.042448238 0.042275608 4283727224
0.71964216 -0.042691752 0.042285129 4284385152
0.71884918 -0.042866573 0.042227983 4282871143
0.71808612 -0.043110177 0.042237505 4282805350
0.71726173 -0.04321669 0.042113692 4283265387
0.71649814 -0.043460444 0.042123213 4283461483
0.7157346 -0.043704197 0.042132735 4283328868
0.71497101 -0.04394795 0.042142257 4282868065
0.71414417 -0.044055253 0.042018473 4282868065
0.7133801 -0.044299155 0.042027995 4282867549
0.7125839 -0.044475004 0.041970909 4282406998
0.71181953 -0.044718996 0.04198043 4282671454
0.71102262 -0.044895083 0.041923314 4283132007
0.71019232 -0.045003474 0.041799575 4283197800
0.709328 -0.045044467 0.041609228 4280759093
0.7084955 -0.045153573 0.041485518 4281152568
0.7076956 -0.045330614 0.041428447 4280102451
0.70675981 -0.045237735 0.041104883 4281484104
0.70585573 -0.045213088 0.040847987 4281155137
0.70494962 -0.045189068 0.040591106 4281088824
0.70400691 -0.045098409 0.040267631 4281749836
0.70306182 -0.045008525 0.039944172 4281487693
0.70207918 -0.044852331 0.039554164 4281290314
0.70116413 -0.044831142 0.039297402 4282014291
0.70017606 -0.044676661 0.038907439 4282211670
0.69922078 -0.044590011 0.038584143 4282276948
0.69829917 -0.044570953 0.038327456 4282145362
0.69733924 -0.044485807 0.038004205 4282211666
0.6964134 -0.04446809 0.037747547 4282080080
0.69555914 -0.044584155 0.037624136 4281684813
0.69470394 -0.044700533 0.037500709 4280762423
0.69384778 -0.044817194 0.037377283 4280894009
0.69306564 -0.045066863 0.037387043 4281287486
0.69228357 -0.045316517 0.037396789 4281158217
0.69157755 -0.045698538 0.037539691 4281749584
0.69091076 -0.046146318 0.037749141 4281091654
0.69012988 -0.046395585 0.037758887 4282079830
0.74740946 -0.037771627 0.046368688 4282073142
0.74668223 -0.038082257 0.04644461 4281546794
0.74597728 -0.038464278 0.046587095 4281481771
0.74520719 -0.038631588 0.046529844 4281021735
0.74445891 -0.038870454 0.046539173 4281416493
0.74366558 -0.03896676 0.046415389 4281482286
0.74293959 -0.039276987 0.04649128 4281679917
0.74216801 -0.039444804 0.04643406 4282271541
0.7414425 -0.039754882 0.046509951 4281745197
0.74067044 -0.039922848 0.046452731 4281810990
0.73994541 -0.040232778 0.046528623 4282139701
0.7391969 -0.040471718 0.046537951 4281348144
0.73844838 -0.040710658 0.046547294 4281874231
0.73769987 -0.040949613 0.046556622 4282336062
0.73695129 -0.041188553 0.046565965 4282072890
0.73617774 -0.041357011 0.046508774 4282139713
0.73542899 -0.041596025 0.046518102 4282929229
0.73468018 -0.041835055 0.046527445 4282732353
0.73390567 -0.04200381 0.046470255 4282601537
0.73313069 -0.04217273 0.046413094 4282601537
0.73232889 -0.042271674 0.046289384 4282997070
0.73144674 -0.042160854 0.045966178 4283196504
0.73056209 -0.042050809 0.045642972 4282208336
0.72964799 -0.041871697 0.045253307 4282339922
0.72875816 -0.041763306 0.04493019 4282733397
0.72781092 -0.041516259 0.044474065 4282930262
0.72688794 -0.041339979 0.044084519 4282798163
0.72601789 -0.041303754 0.043827996 4283455064
0.72511768 -0.041198686 0.043504998 4283323478
0.72430044 -0.041302592 0.043381497 4283258966
0.72353953 -0.04154548 0.043390989 4282866005
0.72272074 -0.041649878 0.043267488 4283986030
0.72195941 -0.041892916 0.043276995 4283591272
0.72113913 -0.041997775 0.043153539 4284249720
0.72037727 -0.042240977 0.043163046 4283922554
0.71958548 -0.042415261 0.043106079 4283856761
0.71879315 -0.042589679 0.043049097 4283527796
0.71803081 -0.042833045 0.043058604 4283462003
0.71726847 -0.043076396 0.043068111 4283988862
0.71644425 -0.043182522 0.0429447 4284054394
0.71568143 -0.043426037 0.042954206 4284251769
0.71488714 -0.043601096 0.042897284 4283132522
0.71412408 -0.0438447 0.042906806 4282737764
0.71329713 -0.04395169 0.042783424 4283132005
0.71246922 -0.044058993 0.042660058 4282671708
0.71167272 -0.044234768 0.042603165 4280764490
0.71081048 -0.044274554 0.042413354 4280230187
0.70997959 -0.044382811 0.042290017 4279506464
0.70914775 -0.044491395 0.04216674 4279963156
0.7083149 -0.044600278 0.042043418 4279701011
0.70738012 -0.044506222 0.041720837 4279044116
0.70647681 -0.044480637 0.041464746 4279438874
0.70560563 -0.044523254 0.041275054 4280296750
0.70466423 -0.044431344 0.040952578 4280361001
0.70375496 -0.044407636 0.040696532 4280693304
0.70284373 -0.044384599 0.040440544 4280630589
0.70193052 -0.044362158 0.040184543 4281091140
0.70098001 -0.044273153 0.039862171 4282014041
0.70002699 -0.044184908 0.039539814 4283066214
0.69910735 -0.044164553 0.039283931 4282737501
0.69818574 -0.044144779 0.039028049 4282671708
0.69726217 -0.044125646 0.038772166 4282803805
0.69633663 -0.044107154 0.038516328 4283198050
0.69548285 -0.044222713 0.038393274 4282079830
0.69459093 -0.044271991 0.03820388 4280436802
0.69384688 -0.044587985 0.03828001 4280502595
0.6929906 -0.044704348 0.038157001 4281422674
0.69220901 -0.044953853 0.038166746 4281487693
0.6914655 -0.045269683 0.038242862 4281684813
0.69072247 -0.045585364 0.038318977 4281750606
0.74711621 -0.03679432 0.046514079 4281876529
0.7463873 -0.03710568 0.046589836 4281612587
0.74570256 -0.037560225 0.046798304 4281482286
0.74495304 -0.037799492 0.046807647 4280955690
0.74420351 -0.038038746 0.046817005 4281613620
0.74340886 -0.038135111 0.046693623 4281613870
0.74268162 -0.038445905 0.046769336 4281285929
0.74190879 -0.038613945 0.046712324 4281745710
0.74115878 -0.038853377 0.046721682 4281810736
0.74043238 -0.039163932 0.046797395 4281810736
0.73965877 -0.039332211 0.046740383 4281942835
0.73893279 -0.039642602 0.046816096 4281019432
0.73818302 -0.039881945 0.046825439 4281742645
0.73743325 -0.040121287 0.046834797 4281808695
0.73670828 -0.040431365 0.04691048 4281479730
0.73593372 -0.040599972 0.046853498 4281677113
0.73518395 -0.040839314 0.046862841 4281217332
0.73443419 -0.041078642 0.046872199 4281547568
0.73368442 -0.041317984 0.046881557 4282008117
0.73293465 -0.041557327 0.0468909 4282600254
0.73210603 -0.041585848 0.046701282 4282602052
0.73124945 -0.041544691 0.0464454 4282997072
0.73036402 -0.041434005 0.046123207 4282404684
0.72950321 -0.041394174 0.045867383 4282207305
0.72861314 -0.041285023 0.045545265 4282273098
0.72679782 -0.040999249 0.044834822 4282930512
0.72590011 -0.040892512 0.044512779 4282667080
0.72505641 -0.04092586 0.04432337 4282601287
0.72421128 -0.040959686 0.044133991 4282929482
0.72342217 -0.041132912 0.044077173 4283193171
0.7226615 -0.041375712 0.044086665 4283325274
0.72187167 -0.041549206 0.044029862 4282864723
0.72105181 -0.041653603 0.043906793 4282668378
0.72029042 -0.041896656 0.043916285 4283853681
0.71952903 -0.042139694 0.043925792 4284511095
0.71873748 -0.04231374 0.043869033 4283985521
0.71794534 -0.042487919 0.04381226 4284117107
0.71715277 -0.042662263 0.043755502 4283920755
0.71635967 -0.04283677 0.043698743 4284119417
0.71559733 -0.043080136 0.04370825 4285830031
0.71477205 -0.043186247 0.043585241 4283394409
0.71397746 -0.043361247 0.043528527 4283262823
0.71311855 -0.043399483 0.043339297 4282800727
0.71232247 -0.043574914 0.043282568 4282210387
0.71146107 -0.04361394 0.043093398 4280433990
0.71059811 -0.043653414 0.042904198 4278986544
0.70973372 -0.043693364 0.042715058 4279047194
0.70893419 -0.043869942 0.042658389 4279570193
0.70800042 -0.043774709 0.042336807 4279437324
0.70709789 -0.043748185 0.042081505 4279240208
0.7062273 -0.043790102 0.041892409 4279371794
0.70528692 -0.043697 0.041570917 4278979091
0.70441288 -0.043740049 0.041381896 4279569177
0.70350271 -0.043715954 0.041126654 4279702814
0.70259053 -0.043692499 0.040871456 4280294951
0.70167643 -0.043669686 0.040616289 4280035374
0.7007603 -0.043647483 0.040361136 4281286732
0.69984221 -0.043625906 0.040105999 4280890691
0.6989581 -0.043672189 0.039917111 4282603868
0.69803631 -0.043651789 0.039662018 4283196005
0.69714892 -0.043699086 0.039473146 4283263845
0.69626009 -0.043746829 0.039284304 4283263073
0.69536978 -0.043795064 0.039095461 4282474842
0.69451511 -0.043910563 0.038972855 4280567876
0.69369686 -0.044093117 0.038916409 4281028427
0.69284046 -0.044209182 0.038793802 4281159248
0.69205886 -0.044458687 0.038803548 4281749584
0.69127727 -0.044708177 0.038813293 4282012754
0.69049567 -0.044957682 0.038823038 4282078547
0.74690789 -0.036102861 0.046927035 4282205494
0.74604839 -0.035983071 0.046605527 4281021222
0.74536157 -0.036438793 0.046813414 4281349937
0.74460983 -0.036678761 0.046822786 4281020721
0.74390286 -0.037062109 0.046964511 4281086514
0.74310637 -0.037158698 0.046841547 4281678384
0.74240041 -0.037541732 0.046983242 4281481003
0.74162602 -0.0377101 0.046926469 4281415730
0.74089789 -0.038021356 0.047001988 4281744693
0.74014664 -0.038261175 0.047011346 4281678900
0.73939538 -0.03850098 0.047020718 4281613874
0.73866826 -0.038811937 0.047096238 4281941302
0.73791724 -0.039051667 0.04710561 4281480751
0.73716623 -0.039291397 0.047114968 4281416243
0.73641527 -0.039531142 0.047124341 4281482036
0.73568934 -0.039841682 0.04719983 4281613371
0.73493856 -0.040081337 0.047209203 4280757810
0.73416221 -0.040250331 0.047152445 4280955441
0.73343706 -0.040560648 0.047227919 4281940532
0.73263413 -0.040659294 0.047105044 4282401083
0.73183024 -0.040758252 0.046982169 4281481523
0.73102534 -0.040857539 0.046859324 4281416243
0.73013896 -0.040746331 0.046538174 4281613369
0.72927725 -0.040706098 0.046283126 4281284404
0.72844082 -0.040736601 0.046094239 4282009150
0.72665232 -0.040519238 0.045452118 4281878077
0.72575432 -0.040411726 0.045131087 4282403906
0.7249105 -0.040444598 0.044942275 4282272320
0.72409379 -0.040547654 0.044819564 4282401853
0.72330487 -0.040720671 0.044762969 4282402625
0.7225154 -0.040893823 0.04470636 4282600517
0.72172552 -0.041067168 0.04464978 4282600517
0.72096461 -0.041310042 0.044659272 4283060819
0.72020376 -0.041552931 0.044668749 4283323739
0.71938282 -0.041657344 0.044546098 4283323739
0.71862143 -0.041900381 0.04455559 4283257685
0.71782959 -0.042074353 0.04449904 4283718236
0.71700639 -0.04217945 0.044376418 4283586648
0.71624428 -0.042422727 0.044385925 4283587933
0.71541965 -0.042528301 0.044263303 4282732883
0.71462554 -0.042702958 0.044206753 4282597188
0.71376741 -0.042740405 0.044018134 4282860360
0.7129398 -0.042846933 0.043895572 4281744446
0.71211118 -0.042953774 0.043773025 4280630589
0.71124911 -0.042992473 0.043584436 4280697668
0.71035278 -0.042963266 0.043329835 4280763461
0.70952052 -0.0430713 0.043207318 4280435005
0.70862079 -0.043043196 0.042952776 4281485633
0.70771903 -0.043015733 0.042698264 4281878075
0.70684904 -0.043056935 0.04250975 4279968031
0.70590961 -0.04296267 0.042189255 4279441687
0.70503622 -0.043005019 0.04200083 4278914573
0.70412683 -0.042979985 0.041746378 4278848012
0.70321542 -0.042955577 0.04149197 4279437839
0.70233709 -0.042999476 0.041303605 4279569425
0.70145726 -0.043043867 0.041115239 4278782739
0.70057589 -0.043088704 0.040926903 4279112224
0.69965738 -0.043066591 0.0406726 4279570726
0.69873691 -0.043045104 0.040418282 4281217348
0.69785058 -0.043091521 0.040230006 4283585896
0.69696289 -0.04313843 0.040041745 4283523946
0.69607365 -0.0431858 0.039853513 4283393382
0.69518292 -0.043233618 0.039665267 4283658349
0.69432795 -0.043348908 0.039543062 4281617482
0.6935094 -0.043531373 0.039486825 4281683275
0.6926527 -0.043647185 0.039364606 4282207053
0.6918329 -0.043830052 0.039308399 4283916644
0.69112718 -0.044212997 0.039450094 4282338127
0.69023025 -0.044262797 0.039261937 4281548611
0.74499786 -0.035242543 0.046766192 4281020202
0.74428797 -0.035627156 0.046907544 4281348914
0.74355674 -0.035939589 0.046982899 4281546293
0.74280322 -0.036180109 0.046992302 4281809718
0.74209559 -0.036563993 0.04713361 4281546546
0.74131948 -0.036732763 0.04707706 4281481270
0.74058968 -0.037044719 0.047152385 4281678900
0.73983669 -0.037285089 0.047161773 4281678900
0.73908371 -0.037525445 0.047171161 4281678900
0.73835492 -0.037837088 0.047246501 4281612337
0.73760217 -0.038077384 0.047255889 4281744947
0.73684943 -0.038317665 0.047265276 4281482804
0.73612159 -0.038629025 0.047340602 4281482804
0.73536915 -0.038869232 0.047349989 4281286452
0.73461664 -0.039109439 0.047359377 4280957489
0.7338385 -0.039278805 0.047302827 4281088822
0.73308581 -0.039519086 0.0473122 4281418040
0.73230696 -0.039688721 0.04725568 4281483833
0.73152757 -0.03985852 0.047199175 4280890416
0.73069447 -0.039887443 0.047010824 4281218611
0.72988677 -0.039987281 0.046888396 4280758830
0.72899669 -0.039876401 0.046568289 4280758830
0.72815895 -0.03990683 0.046380013 4281680185
0.72737485 -0.040078104 0.046323538 4281350702
0.72647893 -0.039969116 0.046003506 4281809200
0.72563666 -0.04000096 0.045815289 4281742380
0.72479296 -0.040033296 0.045627072 4281545001
0.72391915 -0.039996222 0.045372993 4282269494
0.72315878 -0.040238947 0.045382485 4282270521
0.72236931 -0.040411934 0.045326069 4282337597
0.72157937 -0.040585116 0.045269683 4282534976
0.7207889 -0.040758446 0.045213282 4282798148
0.72002774 -0.041001409 0.045222774 4282732103
0.71923655 -0.041174978 0.045166403 4282929231
0.71841455 -0.041279376 0.045044184 4283982170
0.7176221 -0.041453332 0.044987828 4283718998
0.71686 -0.041696623 0.044997334 4282732873
0.71603578 -0.041801736 0.044875115 4282273096
0.71524185 -0.041976154 0.044818759 4282536268
0.71441585 -0.042081818 0.044696584 4281942338
0.7135253 -0.042050108 0.044442728 4281942338
0.71269685 -0.042156562 0.044320568 4281942854
0.71186745 -0.042263314 0.044198424 4281418307
0.71097195 -0.042233169 0.043944612 4282078287
0.71010727 -0.042272195 0.043756679 4281683529
0.70920801 -0.042243227 0.043502912 4281881155
0.70834017 -0.042283282 0.043315008 4281879872
0.70747077 -0.042323783 0.043127105 4281748288
0.7065323 -0.042228341 0.042807594 4281090877
0.70565951 -0.042269975 0.042619765 4280827705
0.70478517 -0.042312056 0.042431921 4281222463
0.70384032 -0.042218655 0.042112485 4281025082
0.70296258 -0.042261854 0.041924715 4280169773
0.70208335 -0.042305529 0.041736946 4279840808
0.70120257 -0.042349666 0.041549206 4279641629
0.70032036 -0.04239428 0.041361466 4278785557
0.69943666 -0.042439371 0.041173771 4279438620
0.69855154 -0.042484924 0.040986061 4279635234
0.69762862 -0.042463526 0.040732622 4283385435
0.69674021 -0.042510092 0.040544957 4283982700
0.69585037 -0.042557165 0.040357322 4284246636
0.694996 -0.042671874 0.040235505 4283852132
0.69410342 -0.042719811 0.040047899 4283325788
0.69332182 -0.042969316 0.040057644 4282669390
0.69242704 -0.043017939 0.039870068 4282143046
0.69164467 -0.043267682 0.039879829 4282008647
0.74719793 -0.031482637 0.045238063 4281085220
0.74465513 -0.034115329 0.046788767 4281678380
0.74394315 -0.034500957 0.046929732 4282074421
0.74325466 -0.034958243 0.047136441 4281613870
0.74249947 -0.035199314 0.047145858 4281219886
0.74181318 -0.035655916 0.047352538 4281678384
0.74101228 -0.03575325 0.047230452 4281743153
0.74025732 -0.035994232 0.04723987 4282006579
0.73954982 -0.036378413 0.04738076 4282072372
0.73879534 -0.036619261 0.047390163 4281809198
0.73804086 -0.036860093 0.04739958 4281678382
0.73731089 -0.037172303 0.047474742 4281481773
0.73655665 -0.037413061 0.047484145 4281613872
0.73580247 -0.037653819 0.047493547 4281613872
0.73504823 -0.037894577 0.04750295 4281417524
0.73429406 -0.038135335 0.047512367 4281023282
0.73353982 -0.038376093 0.04752177 4281023282
0.73278564 -0.038616851 0.047531173 4281286454
0.73200524 -0.038786784 0.047474846 4281154866
0.73119795 -0.038886175 0.04735285 4280890669
0.7303896 -0.038985834 0.04723084 4281021485
0.7295534 -0.039015234 0.047043145 4280824623
0.72871572 -0.039045125 0.04685545 4280693037
0.72787654 -0.039075494 0.046667799 4281088048
0.72703594 -0.039106309 0.046480149 4281022253
0.72619379 -0.039137617 0.046292529 4281481773
0.7253502 -0.039169401 0.046104923 4281677612
0.7245335 -0.039271757 0.045983016 4281480233
0.72368717 -0.039304391 0.045795426 4281809198
0.72292602 -0.039547354 0.045804918 4282138933
0.72213578 -0.039720446 0.04574874 4282075193
0.72134507 -0.039893717 0.045692578 4282404158
0.72058344 -0.040136829 0.04570207 4282470716
0.71982181 -0.040379956 0.045711577 4282469953
0.71899992 -0.040483952 0.04558973 4282667080
0.71820748 -0.040657759 0.045533568 4283390033
0.71744514 -0.04090111 0.045543075 4283061068
0.71662104 -0.04100582 0.045421258 4282536007
0.71576482 -0.041041628 0.045233816 4282075970
0.71496987 -0.041216224 0.045177683 4282404935
0.7141428 -0.041321889 0.045055926 4281746752
0.71328294 -0.041358843 0.044868499 4281746752
0.71245366 -0.041465223 0.044746757 4281418307
0.71159101 -0.041503057 0.044559389 4281418307
0.71072698 -0.041541398 0.044372052 4281813317
0.70982856 -0.041511491 0.044119075 4281944903
0.70892817 -0.04148221 0.043866128 4281878591
0.70805913 -0.041522101 0.04367885 4282272320
0.70715505 -0.041494012 0.043425933 4281945152
0.70628279 -0.04153493 0.043238699 4281091641
0.70540905 -0.041576296 0.043051451 4280960055
0.70446521 -0.041481733 0.042733014 4280960318
0.70358807 -0.041524231 0.042545825 4281223490
0.70274425 -0.041635245 0.042424262 4281222974
0.70186436 -0.041678607 0.042237118 4281354560
0.70098299 -0.041722417 0.042049959 4280892464
0.70010012 -0.041766733 0.04186286 4280167973
0.69921583 -0.041811511 0.041675746 4279902753
0.69832999 -0.041856751 0.041488662 4281415227
0.69744271 -0.041902483 0.041301608 4282796880
0.69655395 -0.041948676 0.041114569 4284509044
0.69566369 -0.041995317 0.040927529 4284575089
0.69480896 -0.042109832 0.040806115 4284377960
0.69395328 -0.042224646 0.0406847 4283654237
0.69305909 -0.042272553 0.04049772 4282603082
0.6922012 -0.042388052 0.04037632 4281879874
0.69138032 -0.042570919 0.040320516 4281811268
0.69055897 -0.04275395 0.040264726 4280297259
0.74682009 -0.030200914 0.045137599 4281414960
0.7462256 -0.031025425 0.045671731 4281678130
0.74559194 -0.03170377 0.046074688 4281614390
0.74502665 -0.032598332 0.046674341 4281745458
0.74433357 -0.033057585 0.046880499 4282139953
0.74364203 -0.033516407 0.047086671 4281418028
0.7429294 -0.033902586 0.047227249 4281220649
0.74217224 -0.034144282 0.047236696 4281878327
0.74148411 -0.034601957 0.047442794 4284111953
0.74072766 -0.03484343 0.047452226 4283190853
0.73997122 -0.035084903 0.047461659 4281940786
0.73921484 -0.035326362 0.047471091 4284570185
0.73848236 -0.03563951 0.047546059 4282790942
0.73772621 -0.035880893 0.047555491 4282333734
0.7369945 -0.036193818 0.047630474 4281743907
0.73626333 -0.036506563 0.047705412 4281809700
0.73550761 -0.036747798 0.047714844 4281876011
0.73472673 -0.036917746 0.047658756 4281350698
0.73397076 -0.037159055 0.047668174 4281088559
0.73321486 -0.037400365 0.047677606 4280891694
0.73245889 -0.037641674 0.047687039 4280957487
0.73165047 -0.037741035 0.04756543 4281155120
0.73086756 -0.037911594 0.047509342 4281022507
0.73005748 -0.038011536 0.047387779 4281350700
0.72924638 -0.038111761 0.0472662 4281022505
0.72840708 -0.038141638 0.047079116 4281219884
0.72756624 -0.038172007 0.046892092 4281285675
0.72675169 -0.038273335 0.046770558 4281415978
0.72590822 -0.038304567 0.046583563 4281284392
0.72509146 -0.03840661 0.046462059 4281547564
0.72424519 -0.038438708 0.046275094 4281415978
0.72342622 -0.038541451 0.04615362 4282138165
0.72266412 -0.038784742 0.046163127 4281940786
0.72190201 -0.039028019 0.046172619 4281811251
0.72111046 -0.039201334 0.04611665 4282534974
0.72034812 -0.0394447 0.046126157 4282602048
0.71952587 -0.039548457 0.046004713 4281877044
0.71873283 -0.039722279 0.045948774 4282139703
0.71796978 -0.039965868 0.045958295 4282598716
0.71714532 -0.040070355 0.045836881 4282927681
0.71631992 -0.040175155 0.045715481 4283256646
0.71552467 -0.040349677 0.045659587 4283192393
0.71466613 -0.040385693 0.045472741 4282733638
0.71383774 -0.040491447 0.045351386 4281354811
0.71297646 -0.040528342 0.045164615 4281815362
0.71214586 -0.040634796 0.045043275 4281222976
0.7112819 -0.04067257 0.044856533 4281418307
0.71041644 -0.040710822 0.044669807 4282140998
0.70951658 -0.040680677 0.04441765 4282733135
0.70864791 -0.040719926 0.044230953 4282467900
0.70774436 -0.040690988 0.043978855 4282929221
0.70687246 -0.040731266 0.043792188 4282469951
0.70596522 -0.04070352 0.04354015 4281747775
0.70512426 -0.040813267 0.043418959 4281484603
0.70424795 -0.040854961 0.043232337 4281485633
0.70337009 -0.040897161 0.043045759 4281617219
0.70249081 -0.040939808 0.042859212 4281222461
0.70161009 -0.040982917 0.042672649 4281748805
0.70076317 -0.041094586 0.042551562 4281944131
0.69987971 -0.04113856 0.042365029 4281548599
0.69899476 -0.04118304 0.042178556 4281680696
0.6980722 -0.041160151 0.041926667 4282536005
0.69722033 -0.04127337 0.04180561 4282207040
0.69633096 -0.041319266 0.041619182 4281418307
0.69544005 -0.041365623 0.041432768 4281285187
0.69458479 -0.04147996 0.041311741 4280756531
0.69369119 -0.041527167 0.041125357 4281151289
0.69283366 -0.041642189 0.04100436 4281545275
0.69201303 -0.041824833 0.040948763 4281546815
0.74710447 -0.028306425 0.044705078 4280823853
0.74652553 -0.029206887 0.045303062 4281481783
0.74590832 -0.029960513 0.045770258 4281876028
0.74527299 -0.030640408 0.046172023 4281745978
0.74464071 -0.03131935 0.046573773 4281877044
0.74398923 -0.031924888 0.046910107 4282404669
0.7433179 -0.032457262 0.04718104 4281680946
0.74262595 -0.03291668 0.047386602 4281023532
0.74188989 -0.033231184 0.047461435 4281811769
0.74117738 -0.033617675 0.047601596 4283651150
0.74041921 -0.033859685 0.047611043 4287403658
0.73966104 -0.03410171 0.047620505 4286548349
0.73892665 -0.034415632 0.047695294 4288320382
0.73816878 -0.034657568 0.047704756 4283185940
0.73743516 -0.034971282 0.04777956 4282790412
0.73667753 -0.035213143 0.047789007 4282399000
0.73591983 -0.035455003 0.047798455 4282596379
0.73516214 -0.035696864 0.047807902 4282203681
0.7344045 -0.035938725 0.047817349 4281482277
0.73364687 -0.036180586 0.047826797 4281023016
0.73286337 -0.036351144 0.047770917 4280891946
0.73210549 -0.036593094 0.047780365 4280957739
0.73132128 -0.036763906 0.047724515 4281089325
0.73053658 -0.036934853 0.047668651 4280955944
0.72972465 -0.037035018 0.047547489 4281350700
0.7288847 -0.037064597 0.047361046 4281154091
0.72801602 -0.037023827 0.047109306 4281285677
0.72720039 -0.03712517 0.046988189 4281482284
0.72638381 -0.037226841 0.046867117 4281678634
0.72553813 -0.037258208 0.046680719 4281546794
0.72474754 -0.037431076 0.046624929 4281809966
0.72392797 -0.037533671 0.046503887 4281678380
0.72313613 -0.037706912 0.046448097 4282532664
0.7223438 -0.037880331 0.046392351 4281875761
0.72160941 -0.038194269 0.04646714 4281548849
0.72078711 -0.038297743 0.046346128 4281351470
0.71999359 -0.038471535 0.046290368 4281878327
0.71922946 -0.038715437 0.04629989 4281416243
0.71843517 -0.038889483 0.046244174 4281350189
0.71760988 -0.038993895 0.046123177 4281678382
0.7168144 -0.039168313 0.046067446 4282402105
0.71598738 -0.039273277 0.045946464 4282795066
0.71519059 -0.039448127 0.045890778 4282993217
0.71436191 -0.039553627 0.045769826 4282929480
0.7135005 -0.039590061 0.04558365 4282732101
0.71266949 -0.039696276 0.045462728 4282076738
0.71177316 -0.039664328 0.045211345 4281551679
0.71093976 -0.039771348 0.045090437 4281219644
0.7100727 -0.039809585 0.044904336 4282469963
0.70920414 -0.039848313 0.044718251 4282864721
0.70833409 -0.039887488 0.044532165 4282600002
0.70746255 -0.039927155 0.044346109 4282798148
0.70655584 -0.039898515 0.044094846 4282469951
0.70568109 -0.039939225 0.04390882 4281681980
0.70483905 -0.040048972 0.043788046 4281484601
0.703996 -0.040159062 0.043667272 4281748035
0.70311731 -0.040201008 0.04348132 4281682242
0.70223713 -0.040243417 0.043295354 4281747522
0.70139068 -0.040354609 0.043174654 4281944901
0.70050776 -0.040397882 0.042988718 4282008897
0.69962341 -0.040441647 0.042802826 4282008899
0.69873756 -0.040485889 0.042616948 4282009663
0.69785023 -0.040530577 0.042431086 4282009663
0.69699782 -0.040643647 0.042310417 4282009663
0.6961078 -0.040689215 0.042124614 4280957758
0.69525313 -0.040803015 0.042003974 4280233015
0.69436038 -0.040849447 0.041818187 4280033326
0.6935035 -0.040963948 0.041697592 4280757049
0.69268334 -0.041146234 0.041642174 4281742399
0.74620914 -0.028137714 0.045406178 4281548851
0.74561173 -0.028965935 0.045937166 4281614390
0.74497497 -0.029647306 0.046337739 4281417273
0.74434119 -0.030327767 0.046738297 4288525997
0.74368823 -0.030934647 0.047073647 4289512381
0.742993 -0.031395659 0.047278658 4290301897
0.74227661 -0.031783685 0.04741846 4281746754
0.74156123 -0.032171428 0.047558263 4282599753
0.74084681 -0.032558858 0.047698051 4283059013
0.74011004 -0.03287375 0.047772691 4283320620
0.73935014 -0.033116311 0.047782168 4286347098
0.73861414 -0.033430949 0.047856793 4292200056
0.73785448 -0.033673435 0.047866255 4292463712
0.7371192 -0.033987865 0.04794088 4292792666
0.73635983 -0.034230277 0.047950357 4290292291
0.73560041 -0.034472689 0.047959819 4289042224
0.73484105 -0.034715101 0.047969297 4284436491
0.73408163 -0.034957513 0.047978759 4282991119
0.73332226 -0.035199925 0.047988236 4282269215
0.73253703 -0.035370871 0.04793258 4282335787
0.73172522 -0.03547065 0.047811806 4282072615
0.73093879 -0.035642013 0.047756195 4281876011
0.73015183 -0.035813525 0.047700554 4281614124
0.7293644 -0.035985202 0.047644943 4281285929
0.7285223 -0.036014959 0.047459126 4281088550
0.72770607 -0.036116123 0.047338426 4281285929
0.7268613 -0.036146715 0.047152609 4281876013
0.72604287 -0.036248624 0.047031939 4281941036
0.7252515 -0.036421567 0.046976373 4281678634
0.72443128 -0.036523998 0.046855718 4281547048
0.72363865 -0.036697343 0.046800181 4281481255
0.72281677 -0.03680034 0.046679541 4282072370
0.72205192 -0.03704448 0.046689078 4281217829
0.72128713 -0.037288636 0.046698615 4281416232
0.72043371 -0.03732197 0.046512917 4281284646
0.71966815 -0.037566364 0.046522468 4281284646
0.71887255 -0.037740648 0.046466962 4281350702
0.71807647 -0.037915096 0.046411455 4281022507
0.71727991 -0.038089663 0.046355933 4280890921
0.71648282 -0.038264424 0.046300441 4280825128
0.71565425 -0.038369551 0.046179891 4281939505
0.71482468 -0.038474977 0.046059355 4282006070
0.71399415 -0.038580731 0.04593882 4282466878
0.7131626 -0.038686782 0.045818314 4282401085
0.71226609 -0.038654208 0.045567706 4282271552
0.71146435 -0.038830474 0.045512289 4281746743
0.7105971 -0.038868263 0.045326784 4281154352
0.70972842 -0.0389065 0.04514128 4281220147
0.70885819 -0.038945213 0.044955805 4281088561
0.70795333 -0.038915321 0.044705331 4282074173
0.70714688 -0.039093077 0.044649944 4282139964
0.70627248 -0.039133117 0.044464514 4282272572
0.70543057 -0.039242506 0.044344157 4282141501
0.70455348 -0.039283425 0.044158742 4282207294
0.70367491 -0.039324835 0.043973386 4282339912
0.70282954 -0.039435297 0.043853045 4282208073
0.70198321 -0.039546102 0.043732718 4283127891
0.70110065 -0.039588749 0.043547407 4283193684
0.70025212 -0.03970027 0.04342711 4282009661
0.69940257 -0.039812073 0.043306813 4282009410
0.69851607 -0.039856002 0.043121561 4282206789
0.69762808 -0.039900377 0.042936295 4282404170
0.69673866 -0.039945245 0.042751074 4281877826
0.69588441 -0.040058568 0.042630836 4279772202
0.69506615 -0.040240094 0.042575598 4279771435
0.69417298 -0.040286124 0.042390406 4280032554
0.74850947 -0.024393752 0.043979302 4281088561
0.74787641 -0.025154874 0.044443905 4281614903
0.74722612 -0.025841594 0.04484345 4280825126
0.74657881 -0.026527405 0.04524298 4281219884
0.74597681 -0.027358428 0.045772403 4282272572
0.74533588 -0.028042197 0.046171844 4281813820
0.74471962 -0.028797925 0.046636224 4282471498
0.74404103 -0.029333979 0.046905652 4288921008
0.74336439 -0.029869422 0.047175065 4286617487
0.74268973 -0.03040421 0.047444418 4289907137
0.74199444 -0.030865759 0.047648817 4282469448
0.74127764 -0.031254277 0.047788247 4288325540
0.74053872 -0.031570017 0.047862709 4289114022
0.73977685 -0.031813219 0.047872201 4287663971
0.73901498 -0.032056421 0.047881708 4289571968
0.73827702 -0.032371864 0.047956169 4292397919
0.73753953 -0.032687128 0.048030585 4292660296
0.7367782 -0.03293018 0.048040077 4292790847
0.73601681 -0.033173218 0.048049569 4293185875
0.73525542 -0.033416256 0.048059061 4293317461
0.73449409 -0.033659309 0.048068568 4291542097
0.73370731 -0.033830598 0.048013151 4289964096
0.73294574 -0.034073725 0.048022658 4285886502
0.73218411 -0.034316838 0.04803215 4282924817
0.73137021 -0.034416914 0.047911808 4282530059
0.73055542 -0.034517318 0.047791481 4282399516
0.72973955 -0.034618005 0.047671184 4281547298
0.72897649 -0.034861609 0.047680706 4281614122
0.72815919 -0.034962788 0.047560409 4281745708
0.72731352 -0.034993172 0.047375232 4281745195
0.72649395 -0.035095066 0.047254965 4281348897
0.72570127 -0.035268217 0.047199607 4281678632
0.72490811 -0.035441563 0.047144264 4281612839
0.72408611 -0.035544246 0.047024041 4281612839
0.72326314 -0.035647243 0.046903804 4281678634
0.72246802 -0.035821214 0.046848491 4281415978
0.72170144 -0.036065906 0.046858042 4281677610
0.72093487 -0.036310598 0.046867609 4281611817
0.72010922 -0.036414474 0.046747431 4281480231
0.71928251 -0.036518633 0.046627253 4281217313
0.71851498 -0.036763653 0.04663682 4281350187
0.71771711 -0.036938474 0.046581522 4281350700
0.71688819 -0.037043378 0.046461403 4281284907
0.71608913 -0.037218586 0.04640612 4280824874
0.71525848 -0.037324026 0.046285987 4281545774
0.71445817 -0.037499666 0.046230733 4281742896
0.71362579 -0.037605643 0.04611063 4281677362
0.71276063 -0.037642241 0.045925707 4281545776
0.71192604 -0.037748933 0.045805618 4281810488
0.71105814 -0.037786379 0.04562071 4281613620
0.71022135 -0.037893802 0.045500666 4281351218
0.70935076 -0.037932128 0.045315802 4281417524
0.70851171 -0.038040251 0.045195788 4281417524
0.70763844 -0.038079441 0.045010969 4281943355
0.70676368 -0.038119122 0.04482615 4281942839
0.70595497 -0.0382974 0.044770986 4282403136
0.70511174 -0.038406864 0.044651017 4281679413
0.7042675 -0.038516626 0.044531062 4281679932
0.70342231 -0.03862673 0.044411138 4282270788
0.70254135 -0.038668349 0.044226393 4282402372
0.70169395 -0.038779154 0.044106469 4282008899
0.70088077 -0.038958877 0.044051394 4282008899
0.69999611 -0.039001688 0.043866694 4281878340
0.6991815 -0.039181873 0.043811604 4282009926
0.6982944 -0.039225489 0.043626949 4282075205
0.69740576 -0.039269552 0.043442294 4283256145
0.69651568 -0.039314121 0.043257684 4280690218
0.69569761 -0.039495423 0.043202654 4280625711
0.7488966 -0.022770509 0.043824509 4280297511
0.74823892 -0.023460627 0.044222966 4279969316
0.74758422 -0.02414979 0.044621363 4279971364
0.74697399 -0.024984851 0.045149311 4281022766
0.74634671 -0.025745317 0.04561241 4281878075
0.74574405 -0.026577935 0.046140254 4282205757
0.74510247 -0.027262911 0.046538487 4283457098
0.74442035 -0.027800784 0.046807155 4290037425
0.7437622 -0.028411031 0.047140568 4288722848
0.74306208 -0.028874636 0.047344446 4289573542
0.74238586 -0.029410586 0.047613025 4283981137
0.74168897 -0.029873163 0.047816858 4288521626
0.74094754 -0.030189842 0.047891125 4285564271
0.74020672 -0.030506387 0.047965407 4287470705
0.73946631 -0.030822754 0.048039675 4291348338
0.73870271 -0.031066507 0.048049197 4291348338
0.73796308 -0.031382635 0.048123464 4292333130
0.73719972 -0.031626314 0.048132986 4292923454
0.73643637 -0.031869978 0.048142508 4293119030
0.73567307 -0.032113656 0.04815203 4293184050
0.7348848 -0.032285273 0.048096821 4293447222
0.7341212 -0.032529011 0.048106343 4293512511
0.73333216 -0.032700866 0.048051149 4293248038
0.73256838 -0.032944694 0.04806067 4293774132
0.73177856 -0.033116758 0.048005462 4293774132
0.73096216 -0.033217311 0.047885582 4294234965
0.73019761 -0.033461377 0.047895119 4293183060
0.72937971 -0.033562392 0.047775224 4291080008
0.72856081 -0.03366375 0.047655344 4286806045
0.72776806 -0.033836782 0.04760021 4285161220
0.72697484 -0.034009963 0.047545075 4283712016
0.72615349 -0.034112081 0.047425225 4283712286
0.72535908 -0.03428565 0.047370076 4282070551
0.72450781 -0.034317285 0.047185585 4281479960
0.72374028 -0.034562305 0.047195151 4281479960
0.72291547 -0.03466554 0.047075361 4281613091
0.72217631 -0.034981504 0.047149613 4281416230
0.72135031 -0.035085157 0.047029853 4281679402
0.72055262 -0.035259724 0.046974748 4281809448
0.71972489 -0.035363913 0.046854988 4281612069
0.71895587 -0.035609394 0.046864569 4281546276
0.7181567 -0.035784483 0.046809509 4281217829
0.7173267 -0.035889357 0.046689779 4281416491
0.71649575 -0.03599456 0.046570063 4281153319
0.71569461 -0.036170274 0.046515018 4280824874
0.71486193 -0.036276013 0.046395317 4281022255
0.71405959 -0.036452115 0.046340287 4281022255
0.71319354 -0.036488473 0.046155959 4280758830
0.71235788 -0.036595181 0.046036288 4280693037
0.71152121 -0.036702186 0.045916647 4281942074
0.71068358 -0.036809519 0.045797005 4280824876
0.70981234 -0.036847532 0.045612767 4281022002
0.70897245 -0.03695558 0.045493156 4281416243
0.70816469 -0.037133411 0.045438185 4281284657
0.70728981 -0.037172601 0.045253977 4280955179
0.70644695 -0.037281573 0.045134395 4282270269
0.70563698 -0.037460119 0.04507947 4281941823
0.70479238 -0.037569657 0.044959918 4281481272
0.70394683 -0.037679508 0.044840381 4281481020
0.70310032 -0.037789673 0.044720843 4282466372
0.70225281 -0.03790015 0.044601351 4282466627
0.70143938 -0.038079798 0.044546455 4281745727
0.70059013 -0.038190842 0.044426963 4281745727
0.69977546 -0.038370878 0.044372097 4281419074
0.69892448 -0.038482457 0.044252619 4281813830
0.69803643 -0.03852582 0.04406856 4281943619
0.69718325 -0.03863813 0.043949142 4282201917
0.69647521 -0.039024189 0.044088021 4281017643
0.74930829 -0.021215469 0.043739051 4280758311
0.74864668 -0.021907881 0.044136345 4280297249
0.74800837 -0.022673056 0.044598192 4280560168
0.74735296 -0.023363501 0.044995412 4281088046
0.74672133 -0.02412653 0.045457169 4282338626
0.74609315 -0.024888486 0.045918882 4282207040
0.74548966 -0.025722712 0.046445131 4282730048
0.7448256 -0.026335746 0.046777621 4290561972
0.7442075 -0.027094454 0.047239214 4288722594
0.74348277 -0.02748622 0.047377929 4289643187
0.74278128 -0.027950734 0.047581196 4283914572
0.74208128 -0.028414786 0.047784433 4285690983
0.74136001 -0.028805435 0.047923118 4288983190
0.74061674 -0.029122919 0.047997236 4288654477
0.73989719 -0.029513001 0.048135862 4288519769
0.73913163 -0.02975738 0.048145413 4292137030
0.73836607 -0.03000176 0.048154965 4291939651
0.73760051 -0.030246153 0.048164502 4288317952
0.73683494 -0.030490533 0.048174053 4291277859
0.73606938 -0.030734912 0.048183605 4292856380
0.73530382 -0.030979291 0.048193142 4292724794
0.73451328 -0.031151459 0.048138186 4293513540
0.73374748 -0.031395912 0.048147738 4294037838
0.73298168 -0.031640381 0.04815729 4293708609
0.73216438 -0.031740844 0.048037797 4293379894
0.73139811 -0.031985462 0.048047349 4293248308
0.7306056 -0.032158256 0.047992393 4293708857
0.7297861 -0.032259449 0.047872946 4293774134
0.72901905 -0.032504305 0.047882512 4293970997
0.72819811 -0.032605961 0.047763065 4293380657
0.72740334 -0.032779455 0.047708124 4293183278
0.7266081 -0.032953113 0.047653198 4293579852
0.72581238 -0.033126935 0.047598302 4293252183
0.72501618 -0.033300877 0.047543392 4291804499
0.72419125 -0.033403799 0.047423989 4287462177
0.7233938 -0.033578172 0.047369093 4286014731
0.72259587 -0.03375268 0.047314197 4283777796
0.72179741 -0.033927351 0.047259331 4283054604
0.72099847 -0.034102187 0.04720445 4282661402
0.7201696 -0.03420639 0.047085106 4282398230
0.71933979 -0.034310877 0.046965778 4282005537
0.71853888 -0.034486338 0.046910927 4281940261
0.71770728 -0.034591377 0.046791613 4281676835
0.71690512 -0.03476724 0.046736777 4281809448
0.71610248 -0.034943253 0.046681941 4281677862
0.71526849 -0.035049111 0.046562672 4281218601
0.7144646 -0.035225496 0.04650785 4281481783
0.71359742 -0.03526172 0.046324149 4280693554
0.7127921 -0.035438582 0.046269342 4280956726
0.71195436 -0.035545617 0.046150133 4281022519
0.7111156 -0.035652965 0.046030894 4281284144
0.71027589 -0.035760596 0.0459117 4281349935
0.70943522 -0.03586857 0.04579249 4281350448
0.70862639 -0.036046535 0.045737728 4281021483
0.70778394 -0.03615506 0.045618579 4280560681
0.70694053 -0.036263898 0.045499414 4281021485
0.70609617 -0.036373034 0.045380265 4281875509
0.7052846 -0.036551878 0.045325533 4281020469
0.7044726 -0.0367309 0.04527083 4281086262
0.70362574 -0.036840826 0.045151711 4281217078
0.70281249 -0.037020236 0.045097008 4281545525
0.70199871 -0.037199795 0.045042306 4281677109
0.7011494 -0.037310496 0.044923231 4282072637
0.70029908 -0.037421539 0.044804141 4280888363
0.69955456 -0.037739411 0.044878289 4281481787
0.69863129 -0.037713319 0.044630438 4281812547
0.69777822 -0.037825227 0.044511393 4280826420
0.69692421 -0.037937433 0.044392347 4281676852
0.74911839 -0.020572066 0.044247285 4281153069
0.7484566 -0.021265566 0.044643372 4280824104
0.74777746 -0.021884218 0.044975042 4280627497
0.74714196 -0.022649705 0.045435429 4281747003
0.74648905 -0.023340374 0.045831412 4282469953
0.74586022 -0.024103731 0.046291739 4282404160
0.74519217 -0.024718851 0.04662326 4282928451
0.74452657 -0.025333181 0.046954751 4291283388
0.74390709 -0.026093557 0.047414973 4290037691
0.74320281 -0.026559487 0.047617689 4289510065
0.74250001 -0.027024969 0.047820359 4283851867
0.74175352 -0.027343631 0.047894314 4286417529
0.74105316 -0.027808309 0.048096955 4283917899
0.74033129 -0.028199494 0.048235238 4284966987
0.7395637 -0.028444514 0.048244819 4291346528
0.73884332 -0.028835252 0.048383087 4291478114
0.73807627 -0.029080108 0.048392653 4290490922
0.73728514 -0.029252231 0.048337877 4288975375
0.73649359 -0.029424563 0.0482831 4292330818
0.73572606 -0.029669568 0.048292682 4292066361
0.73493373 -0.029842123 0.048237905 4289237262
0.73416591 -0.030087203 0.048247486 4289367564
0.73339814 -0.030332297 0.048257053 4290616100
0.73257935 -0.030432954 0.048138008 4292655420
0.73181105 -0.030678213 0.048147589 4293446984
0.73101676 -0.030851364 0.048092857 4293183812
0.73022199 -0.031024709 0.048038125 4293709641
0.72942668 -0.031198204 0.047983393 4293774913
0.7286309 -0.031371862 0.047928691 4293643318
0.72783464 -0.031545654 0.047873959 4293577777
0.72703785 -0.03171964 0.047819287 4293840949
0.72624063 -0.03189376 0.04776457 4293577777
0.72541511 -0.031996548 0.047645599 4293119022
0.7246446 -0.032242507 0.04765521 4293776983
0.72381765 -0.032345727 0.047536239 4293448018
0.72301817 -0.032520562 0.047481567 4293186138
0.72221822 -0.032695562 0.047426909 4290620493
0.72141773 -0.032870695 0.047372237 4288382775
0.72061676 -0.033046007 0.047317594 4284436230
0.71975636 -0.033079565 0.047134414 4283449344
0.71898365 -0.033326223 0.047144055 4282922246
0.71815097 -0.033431262 0.047025159 4282792992
0.71731734 -0.033536643 0.046906263 4282399525
0.71651316 -0.033712953 0.046851635 4282006822
0.71567786 -0.033818886 0.046732798 4281743650
0.71484149 -0.033925116 0.046613947 4281546278
0.71403533 -0.034102067 0.046559349 4281876792
0.71319723 -0.034208849 0.046440527 4280694066
0.71238989 -0.034386218 0.046385959 4280956722
0.71155006 -0.034493551 0.046267152 4281154101
0.71070927 -0.034601197 0.04614836 4281612589
0.7098999 -0.034779191 0.046093822 4281611819
0.70905739 -0.034887388 0.045975044 4281415212
0.70821387 -0.034995914 0.045856297 4281349419
0.70743573 -0.035244316 0.045865998 4280626214
0.70659077 -0.035353288 0.04574725 4280758313
0.70577842 -0.035532236 0.045692742 4281678900
0.70496559 -0.035711318 0.045638233 4280889648
0.70411819 -0.03582108 0.045519531 4280955441
0.70326972 -0.035931185 0.045400828 4281086516
0.70248961 -0.036180213 0.045410559 4281479730
0.70167458 -0.036360025 0.04535608 4281545776
0.70085907 -0.036539957 0.045301601 4281546546
0.70004302 -0.036720082 0.045247152 4281151788
0.6992265 -0.036900356 0.045192704 4281480753
0.69833773 -0.036942944 0.045009851 4281481523
0.6975559 -0.037192523 0.045019597 4280562731
0.76865369 0.010612726 0.025114119 4281944653
0.76787299 0.0098802447 0.02551049 4282603866
0.76706928 0.0093015134 0.025778264 4282734932
0.76625431 0.0087997317 0.025981739 4281549373
0.74953437 -0.019009665 0.04416877 4282863937
0.74890846 -0.01985383 0.044692099 4282666558
0.74826634 -0.020622626 0.045151189 4282601539
0.74756652 -0.021168202 0.045417666 4282603082
0.74690998 -0.021861061 0.045812503 4282670412
0.74627727 -0.022626847 0.046271473 4282603845
0.74560577 -0.023243934 0.046602026 4282340673
0.7449581 -0.023933962 0.046996757 4283260494
0.74429172 -0.02454938 0.04732725 4283521617
0.74362791 -0.025164023 0.047657728 4284178015
0.74292225 -0.025630906 0.047859848 4284176988
0.74221808 -0.026097342 0.048061952 4284703332
0.74149281 -0.026489928 0.048199862 4286089081
0.74076849 -0.026882216 0.048337758 4286418033
0.739999 -0.027127862 0.048347354 4289900656
0.73925287 -0.027446613 0.048421115 4291937859
0.73850715 -0.027765185 0.048494846 4292003652
0.73773813 -0.028010666 0.048504442 4286472960
0.73696911 -0.028256148 0.048514038 4290552631
0.73620009 -0.028501645 0.04852362 4292066892
0.73543113 -0.028747126 0.048533216 4287919880
0.73463726 -0.028919995 0.048478678 4292591183
0.73384291 -0.029092997 0.04842414 4292265286
0.73304808 -0.029266194 0.048369631 4292064577
0.73225272 -0.029439524 0.048315093 4290222635
0.73145694 -0.029613033 0.048260584 4289432353
0.73068666 -0.029858917 0.048270196 4288445458
0.72986382 -0.029960483 0.048151568 4288511503
0.72909307 -0.030206531 0.048161179 4290354463
0.72829551 -0.030380592 0.0481067 4293118268
0.7274704 -0.030482888 0.047988117 4292920628
0.72669894 -0.03072916 0.047997728 4293512765
0.72589988 -0.030903667 0.047943249 4293445685
0.7251004 -0.031078354 0.047888786 4293576755
0.72430032 -0.031253174 0.047834307 4293577273
0.72347152 -0.031356677 0.047715798 4294103617
0.72264177 -0.031460464 0.047597259 4293249593
0.72183979 -0.031635925 0.04754281 4293380925
