# .PCD v0.7 - Point Cloud Data file format
VERSION 0.7
FIELDS x y z rgb
SIZE 4 4 4 4
TYPE F F F U
COUNT 1 1 1 1
WIDTH 1067
HEIGHT 1
VIEWPOINT 0 0 0 1 0 0 0
POINTS 1067
DATA ascii
-0.0089131221 0.74531472 0.073583968 8877147
-0.0091658533 0.74554878 0.073580891 9271905
-0.009418577 0.74578285 0.073577806 9403491
-0.010117009 0.74527484 0.074108392 9864042
-0.010368541 0.74550784 0.074105322 9863272
-0.010620065 0.74574077 0.07410226 10258030
-0.011313707 0.74522829 0.074632898 10916476
-0.011564039 0.74546015 0.074629843 11574406
-0.011814371 0.74569201 0.074626796 11969678
-0.012064695 0.74592388 0.074623749 12693401
-0.012315035 0.74615574 0.074620701 12693914
-0.012565359 0.7463876 0.074617647 12693914
-0.012815692 0.74661952 0.074614599 12628891
-0.013066024 0.74685138 0.074611552 12694684
-0.013316356 0.74708325 0.074608497 12694684
-0.013998032 0.74655962 0.075139292 12694684
-0.014247164 0.74679041 0.075136252 12760477
-0.014496289 0.7470212 0.075133219 12760477
-0.014745429 0.74725193 0.075130187 12694686
-0.014994562 0.74748266 0.075127147 12760479
-0.015243694 0.74771345 0.075124115 12694432
-0.015492827 0.74794424 0.075121075 12694432
-0.015741959 0.74817497 0.075118043 12760225
-0.015991092 0.74840569 0.07511501 12760225
-0.016240224 0.74863648 0.07511197 12760225
-0.026578203 0.75705701 0.075525105 13549743
-0.026826136 0.75728667 0.075522088 13615536
-0.027074069 0.75751626 0.07551907 13615538
-0.027322009 0.75774592 0.075516045 13747124
-0.02756995 0.75797558 0.075513028 13747124
-0.027817875 0.75820524 0.075510003 13747124
-0.028065816 0.75843489 0.075506985 13747124
-0.028313749 0.75866455 0.07550396 13681331
-0.028561689 0.75889421 0.075500943 13878710
-0.028809622 0.7591238 0.075497925 13878710
-0.029057562 0.75935352 0.0754949 13747124
-0.029305488 0.75958312 0.075491883 13747124
-0.029553428 0.75981277 0.075488858 13878710
-0.029801369 0.76004243 0.07548584 13878710
-0.030049302 0.76027209 0.075482823 13878710
-0.030297235 0.76050174 0.075479798 13944503
-0.030545168 0.76073134 0.075476781 13944503
-0.030793101 0.76096106 0.075473756 13944503
-0.031041041 0.76119065 0.075470738 13944503
-0.030939102 0.7622512 0.074932903 13747124
-0.031188227 0.76248193 0.074929863 13944503
-0.031437367 0.76271272 0.074926831 13944503
-0.031686492 0.76294351 0.074923798 14075319
-0.031935632 0.76317424 0.074920759 14338491
-0.032184765 0.76340497 0.074917726 14206392
-0.032433897 0.76363575 0.074914686 14206392
-0.03268303 0.76386654 0.074911654 14075319
-0.0075854212 0.7454778 0.073358789 8811100
-0.0078393444 0.745713 0.073355697 8942686
-0.0080932677 0.7459482 0.073352605 9205858
-0.0087970495 0.74544394 0.073881723 9797479
-0.0090497807 0.74567807 0.073878646 9863272
-0.0093025044 0.74591213 0.073875561 10192237
-0.0095552355 0.7461462 0.073872484 10652788
-0.0098079592 0.74638033 0.073869407 11244671
-0.010060683 0.7466144 0.07386633 12034187
-0.010756075 0.74610239 0.074395537 12298645
-0.0110076 0.74633539 0.074392475 12759196
-0.011259131 0.74656832 0.074389413 12628893
-0.011510655 0.74680132 0.074386343 12628893
-0.011762187 0.74703431 0.074383281 12628893
-0.012013718 0.74726725 0.074380219 12628893
-0.01226525 0.74750024 0.074377149 12760477
-0.012516774 0.74773324 0.074374087 12694684
-0.012768298 0.74796617 0.074371025 12694684
-0.01301983 0.74819916 0.074367955 12760477
-0.013271362 0.74843216 0.074364893 12760477
-0.013522893 0.74866509 0.074361831 12760477
-0.013774417 0.74889809 0.074358769 12760479
-0.014025949 0.74913108 0.074355699 12760479
-0.014277473 0.74936408 0.074352637 12760225
-0.014953703 0.74883431 0.074882083 12694432
-0.015204027 0.74906617 0.074879035 12826018
-0.015454367 0.74929804 0.074875981 12760225
-0.015704691 0.74952996 0.074872933 12760225
-0.029973567 0.76274633 0.074699096 13944503
-0.030223899 0.76297826 0.074696049 13944503
-0.030474231 0.76321012 0.074693002 13944503
-0.030724563 0.76344198 0.074689947 14076089
-0.030974895 0.76367384 0.0746869 14010296
-0.031225219 0.7639057 0.074683852 14206905
-0.031475559 0.76413757 0.074680798 14338491
-0.031381443 0.76520646 0.074144267 14206905
-0.031632975 0.76543945 0.074141197 14206905
-0.031884499 0.76567245 0.074138135 14141112
-0.0074688047 0.74560761 0.07365796 9272167
-0.0077227205 0.74584281 0.07365486 9534823
-0.0079766512 0.74607801 0.073651768 9600616
-0.0086809769 0.74557316 0.074179478 9732456
-0.0089337081 0.74580729 0.074176393 10521972
-0.0091864318 0.74604136 0.074173316 11114109
-0.0094391555 0.74627542 0.074170239 12166797
-0.0096918866 0.74650955 0.074167162 12693403
-0.0099446103 0.74674362 0.074164078 12824989
-0.010640547 0.74623102 0.074691884 12693916
-0.010892078 0.74646395 0.074688815 12693916
-0.01114361 0.74669695 0.074685752 12825248
-0.011395141 0.74692994 0.07468269 12693662
-0.011646666 0.74716294 0.074679621 12694686
-0.011898197 0.74739587 0.074676558 12694686
-0.012149721 0.74762887 0.074673496 12760479
-0.012401253 0.74786186 0.074670434 12760479
-0.012652785 0.7480948 0.074667364 12826272
-0.012904309 0.74832779 0.074664302 12760479
-0.01315584 0.74856079 0.07466124 12760479
-0.013407364 0.74879372 0.07465817 12760479
-0.013658896 0.74902672 0.074655108 12826018
-0.013910428 0.74925971 0.074652046 12957604
-0.014161959 0.74949265 0.074648984 12826018
-0.014838725 0.74896234 0.075177014 12826018
-0.015089065 0.7491942 0.075173967 12957604
-0.015339389 0.74942607 0.075170912 12694432
-0.015589729 0.74965793 0.075167865 12826018
-0.029858604 0.76287436 0.074994028 13944503
-0.030108929 0.76310623 0.07499098 13944503
-0.030359261 0.76333809 0.074987933 14010296
-0.030609593 0.76356995 0.074984878 14141882
-0.030859917 0.76380181 0.074981831 14076089
-0.031110257 0.76403368 0.074978784 14272698
-0.031360582 0.7642656 0.074975729 14338491
-0.031265914 0.76533508 0.074440606 14206905
-0.031517446 0.76556808 0.074437544 14272698
-0.031768978 0.76580107 0.074434482 14272698
-0.0053669065 0.74505699 0.073446438 8744537
-0.0056220219 0.74529326 0.073443323 8942686
-0.0058771446 0.74552959 0.073440216 8942686
-0.0061322674 0.74576592 0.07343711 9008995
-0.0063873902 0.7460022 0.073434003 9469546
-0.006642513 0.74623847 0.073430896 9601132
-0.0073521808 0.74573749 0.073957123 9732718
-0.007606104 0.74597269 0.073954031 9732716
-0.0078600273 0.74620783 0.073950931 10785404
-0.0085649043 0.74570239 0.074477226 11377541
-0.0088176355 0.74593651 0.074474148 12430229
-0.0090703592 0.74617058 0.074471071 12628893
-0.0093230903 0.74640465 0.074467994 12563100
-0.009575814 0.74663877 0.074464917 12563100
-0.0098285377 0.74687284 0.074461833 12628893
-0.010525025 0.74635959 0.074988224 12562846
-0.010776557 0.74659258 0.074985161 12562846
-0.011028089 0.74682558 0.074982092 12628639
-0.011279613 0.74705851 0.07497903 12628639
-0.011531144 0.74729151 0.074975967 12694432
-0.011782676 0.7475245 0.074972905 12694432
-0.012034208 0.74775749 0.074969836 12760479
-0.012285732 0.74799049 0.074966773 12760479
-0.012537256 0.74822342 0.074963711 12826272
-0.012788787 0.74845642 0.074960642 12826272
-0.013040319 0.74868941 0.074957579 12760479
-0.013291851 0.74892235 0.074954517 12760479
-0.013543375 0.74915534 0.074951455 12760479
-0.013794906 0.74938834 0.074948385 12826272
-0.014046431 0.74962127 0.074945323 12826272
-0.014723755 0.74909031 0.075471945 12826272
-0.014974087 0.74932218 0.075468898 12826272
-0.01522442 0.74955404 0.075465843 12760479
-0.015474752 0.7497859 0.075462796 12826018
-0.02788052 0.76243502 0.074776784 14010296
-0.028132051 0.76266801 0.074773721 13944249
-0.028383583 0.76290095 0.074770659 13944249
-0.028635114 0.76313394 0.07476759 13878456
-0.028886639 0.76336694 0.074764527 14010042
-0.029138163 0.76359987 0.074761465 14010042
-0.029743627 0.7630024 0.075288966 14010042
-0.029993951 0.76323426 0.075285912 14076089
-0.030244291 0.76346612 0.075282864 14141882
-0.030494615 0.76369798 0.075279817 14272698
-0.030744947 0.76392984 0.075276762 14272698
-0.03099528 0.76416171 0.075273715 14272698
-0.031245612 0.76439357 0.075270668 14338491
-0.031150401 0.76546371 0.074736953 14076089
-0.031401932 0.7656967 0.074733883 14141882
-0.031653456 0.7659297 0.074730821 14141882
-0.0052497312 0.7451874 0.073747009 9140065
-0.005504854 0.74542373 0.073743902 9074786
-0.0057599768 0.74566007 0.073740795 9469544
-0.0060150921 0.74589634 0.073737688 9864302
-0.0062702149 0.74613261 0.073734581 9535337
-0.0065253451 0.74636894 0.073731467 10455673
-0.0072355568 0.74586731 0.074256286 11179396
-0.0074894801 0.74610251 0.074253194 11772560
-0.0077434033 0.74633771 0.074250102 12233111
-0.007997334 0.74657291 0.07424701 12365721
-0.0082512572 0.74680811 0.074243911 12563100
-0.0085051805 0.74704331 0.074240819 12563359
-0.0092070177 0.74653387 0.074765749 12563359
-0.0094597414 0.746768 0.074762665 12497566
-0.0097124726 0.74700207 0.074759588 12497566
-0.0099651963 0.74723613 0.074756511 12431773
-0.01021792 0.74747026 0.074753433 12497566
-0.010470644 0.74770433 0.074750349 12694945
-0.010723375 0.74793839 0.074747272 12694945
-0.010976106 0.74817252 0.074744195 12694945
-0.01122883 0.74840659 0.074741118 12694945
-0.011481553 0.74864066 0.074738033 12760738
-0.011734277 0.74887478 0.074734956 12760738
-0.011987008 0.74910885 0.074731879 12760992
-0.012673266 0.74858505 0.075256988 12760992
-0.012924798 0.74881804 0.075253926 12760992
-0.013176322 0.74905097 0.075250857 12760992
-0.013427854 0.74928397 0.075247794 12760992
-0.013679385 0.74951696 0.075244732 12760992
-0.013930917 0.7497499 0.075241663 12826272
-0.014182441 0.74998289 0.0752386 12826272
-0.014433965 0.75021589 0.075235538 12826272
-0.014685497 0.75044882 0.075232476 12826272
-0.027764998 0.76256365 0.07507313 14010296
-0.028016537 0.76279664 0.075070068 14010042
-0.028268054 0.76302958 0.075066999 14010042
-0.028519586 0.76326257 0.075063936 14010042
-0.028771117 0.76349556 0.075060874 14075835
-0.029022649 0.7637285 0.075057805 14010042
-0.029274173 0.76396149 0.075054742 14075835
-0.029525697 0.76419449 0.07505168 14075835
-0.029777236 0.76442742 0.075048611 14207421
-0.03002876 0.76466048 0.075045548 14141628
-0.030280292 0.76489341 0.075042486 14075835
-0.030531824 0.76512641 0.075039424 14141628
-0.030783355 0.7653594 0.075036354 14141628
-0.005132556 0.74531788 0.074047588 9732202
-0.0053876787 0.74555421 0.074044481 10061167
-0.0056428015 0.74579048 0.074041367 9732202
-0.0058979243 0.74602681 0.07403826 10521718
-0.0061530471 0.74626309 0.074035153 11508613
-0.0064081699 0.74649942 0.074032046 11640461
-0.0071189404 0.74599719 0.074555449 12429977
-0.0073728561 0.74623239 0.074552357 12497568
-0.0076267868 0.74646759 0.074549265 12629154
-0.0078807101 0.74670279 0.074546173 12629152
-0.0081346333 0.74693793 0.074543081 12563359
-0.0083885565 0.74717313 0.074539982 12563359
-0.0090909451 0.74666315 0.075063497 12563359
-0.0093436688 0.74689722 0.07506042 12563359
-0.0095963925 0.74713129 0.075057343 12497566
-0.0098491237 0.74736536 0.075054266 12563359
-0.010101847 0.74759948 0.075051188 12694945
-0.010354578 0.74783355 0.075048104 12760738
-0.010607302 0.74806762 0.075045027 12760738
-0.010860026 0.74830174 0.07504195 12760738
-0.011112757 0.74853581 0.075038873 12760738
-0.011365488 0.74876988 0.075035788 12892324
-0.011618212 0.74900401 0.075032711 12760738
-0.011870936 0.74923807 0.075029634 12892578
-0.012557745 0.74871361 0.075553328 12892578
-0.012809277 0.74894661 0.075550266 12892578
-0.013060808 0.7491796 0.075547203 12892578
-0.013312332 0.7494126 0.075544134 12760992
-0.013563864 0.74964559 0.075541072 12760992
-0.013815388 0.74987853 0.075538009 12826272
-0.01406692 0.75011152 0.075534947 12826272
-0.014318451 0.75034451 0.075531878 12957858
-0.014569983 0.75057745 0.075528815 12957858
-0.027649477 0.76269227 0.07536947 14010296
-0.027901009 0.76292527 0.075366408 14076089
-0.02815254 0.7631582 0.075363345 14076089
-0.028404072 0.7633912 0.075360276 14010296
-0.028655596 0.76362419 0.075357214 14076089
-0.02890712 0.76385713 0.075354151 14075835
-0.029158652 0.76409012 0.075351089 14141628
-0.029410183 0.76432312 0.07534802 14272444
-0.029661715 0.76455605 0.075344957 14272444
-0.029913247 0.76478904 0.075341895 14272444
-0.030164771 0.76502204 0.075338826 14206651
-0.030416295 0.76525497 0.075335763 14075835
-0.030667827 0.76548797 0.075332701 14141628
-0.00052066147 0.74477023 0.07281094 7758666
-0.00077937543 0.7450099 0.072807789 7758666
-0.0010380968 0.74524951 0.072804637 7824459
-0.0017709732 0.74476659 0.073326364 7824205
-0.0020284876 0.74500513 0.073323227 7955791
-0.002286002 0.74524367 0.073320091 8350551
-0.0025435239 0.74548221 0.073316954 8482137
-0.0028010383 0.74572074 0.073313817 8811100
-0.0030585527 0.74595928 0.073310681 9205858
-0.0037830472 0.74546862 0.073832512 9600616
-0.0040393695 0.74570602 0.07382939 9666409
-0.0042956844 0.74594343 0.073826268 9863018
-0.0050153881 0.74544835 0.074348159 10257776
-0.0052705109 0.74568462 0.074345052 10522486
-0.0055256337 0.74592096 0.074341945 11180416
-0.005780749 0.74615729 0.074338838 11970191
-0.0060358718 0.74639356 0.074335732 12628121
-0.006291002 0.74662983 0.074332625 12628639
-0.0070023164 0.74612701 0.07485462 12694432
-0.0072562397 0.74636221 0.07485152 12564131
-0.0075101629 0.74659741 0.074848428 12629924
-0.0077640861 0.74683261 0.074845336 12498336
-0.0080180094 0.74706781 0.074842244 12498336
-0.0082719326 0.74730301 0.074839152 12564129
-0.0089748725 0.74679238 0.075361252 12498336
-0.0092275962 0.74702644 0.075358175 12629152
-0.0094803274 0.74726057 0.075355098 12629152
-0.0097330511 0.74749464 0.075352021 12629152
-0.0099857748 0.74772871 0.075348936 12958117
-0.010238506 0.74796283 0.075345859 12958117
-0.01049123 0.7481969 0.075342782 12892324
-0.010743961 0.74843097 0.075339705 12892324
-0.010996684 0.74866503 0.07533662 12892324
-0.011249408 0.74889916 0.075333543 12892324
-0.011502139 0.74913323 0.075330466 12892324
-0.01175487 0.7493673 0.075327389 12958371
-0.012442224 0.74884224 0.075849675 12958371
-0.012693755 0.74907523 0.075846605 12892578
-0.012945279 0.74930823 0.075843543 12892578
-0.013196811 0.74954116 0.075840481 12760992
-0.013448343 0.74977416 0.075837418 12760992
-0.013699874 0.75000715 0.075834349 12760992
-0.013951398 0.75024015 0.075831287 12892578
-0.014202923 0.75047308 0.075828224 12958371
-0.014454454 0.75070608 0.075825155 12958371
-0.013858274 0.75247729 0.074771091 12892578
-0.014112189 0.75271249 0.074767999 12958371
-0.01436612 0.75294769 0.074764907 13023651
-0.014620043 0.75318289 0.074761815 13023651
-0.014873967 0.75341809 0.074758716 13023651
-0.015127897 0.75365329 0.074755624 13089444
-0.015381813 0.75388849 0.074752532 13089444
-0.015635744 0.75412369 0.07474944 13089444
-0.015889667 0.75435889 0.074746348 13023651
-0.027533956 0.7628209 0.075665817 14076089
-0.027785495 0.76305389 0.075662747 14141882
-0.028037012 0.76328683 0.075659685 14141882
-0.028288543 0.76351982 0.075656623 14010296
-0.028540075 0.76375282 0.075653553 14076089
-0.028791606 0.76398575 0.075650491 14141628
-0.029043131 0.76421875 0.075647429 14141628
-0.029294655 0.76445174 0.075644366 14338237
-0.029546194 0.76468468 0.075641297 14338237
-0.029797718 0.76491767 0.075638235 14272444
-0.03004925 0.76515067 0.075635172 14338237
-0.030300781 0.7653836 0.07563211 14272444
-0.030552313 0.7656166 0.075629041 14272444
-0.00040183961 0.74490255 0.073115751 7824459
-0.00066055357 0.74514216 0.0731126 7890252
-0.00091926754 0.74538183 0.073109448 8021838
-0.0016527027 0.74489832 0.073629767 8218965
-0.0019102097 0.74513686 0.07362663 9074274
-0.0021677315 0.74537539 0.073623493 9140067
-0.0024252534 0.74561387 0.073620357 9666411
-0.0026827678 0.74585241 0.07361722 9732202
-0.0029402822 0.74609095 0.073614083 9797995
-0.003665328 0.74559969 0.074134499 10193007
-0.0039216429 0.74583709 0.074131377 10061421
-0.0041779652 0.7460745 0.074128255 10653818
-0.0044342875 0.7463119 0.074125133 11838092
-0.0046906024 0.74654937 0.074122012 12168340
-0.0049469247 0.74678671 0.07411889 12628891
-0.0056635812 0.7462877 0.074639417 12629406
-0.005918704 0.74652404 0.07463631 12629406
-0.0061738268 0.74676031 0.074633196 12694945
-0.0064289495 0.74699664 0.074630089 12760738
-0.0066840723 0.74723291 0.074626982 12760738
-0.0069391951 0.74746925 0.074623875 12760738
-0.0076474622 0.74696243 0.0751445 12629922
-0.0079013854 0.74719763 0.075141408 12761508
-0.0081553161 0.74743283 0.075138316 12564129
-0.0084092319 0.74766803 0.075135224 12564129
-0.0086631626 0.74790323 0.075132132 12760738
-0.0089170858 0.74813843 0.075129032 12760738
-0.0091710091 0.74837363 0.07512594 12958117
-0.0094249323 0.74860883 0.075122848 12958117
-0.0096788555 0.74884403 0.075119756 12958117
-0.010375157 0.74832612 0.075640537 12958117
-0.010627881 0.74856019 0.07563746 12892324
-0.010880612 0.74879432 0.075634375 12892324
-0.011133343 0.74902838 0.075631298 12958117
-0.011386067 0.74926245 0.075628221 12958117
-0.01163879 0.74949658 0.075625136 13023910
-0.011891514 0.74973065 0.075622059 12958117
-0.012144245 0.74996471 0.075618982 12892578
-0.012396969 0.75019878 0.075615905 12892578
-0.0126497 0.75043291 0.075612828 12892578
-0.012902424 0.75066698 0.075609744 12892578
-0.013155147 0.75090104 0.075606667 12892578
-0.012979873 0.75190157 0.075079538 12892578
-0.013233796 0.75213677 0.075076446 12958371
-0.013487726 0.75237191 0.075073354 12958371
-0.01374165 0.75260711 0.075070255 12958371
-0.013995573 0.75284231 0.075067163 13024164
-0.014249496 0.75307751 0.075064071 13024164
-0.014503419 0.75331271 0.075060979 13024164
-0.01475735 0.75354791 0.075057887 13089444
-0.015011273 0.75378311 0.075054787 13089444
-0.015265197 0.75401831 0.075051695 13155237
-0.01551912 0.75425351 0.075048603 13221030
-0.015773043 0.75448871 0.075045511 13155237
-0.00028301775 0.74503481 0.073420554 8350549
-0.00054173172 0.74527448 0.073417403 8614235
-0.00080044568 0.74551409 0.073414251 8745821
-0.0015344247 0.74502999 0.073933162 8943202
-0.0017919391 0.74526852 0.073930025 9206374
-0.002049461 0.745507 0.073926888 9469546
-0.0023069754 0.74574554 0.073923752 9535339
-0.0025644973 0.74598408 0.073920615 10061167
-0.0028220117 0.74622262 0.073917478 10126960
-0.0035476014 0.74573076 0.074436493 10916990
-0.0038039237 0.74596816 0.074433364 11838092
-0.0040602386 0.74620557 0.074430242 12628893
-0.0043165609 0.74644297 0.07442712 12694686
-0.0045728832 0.74668038 0.074423999 12629404
-0.0048291981 0.74691784 0.074420877 12760990
-0.0055464059 0.74641818 0.074939989 12630176
-0.0058015287 0.74665451 0.074936882 12564383
-0.0060566515 0.74689078 0.074933775 12629922
-0.0063117743 0.74712706 0.074930668 12629922
-0.006566897 0.74736339 0.074927561 12761508
-0.0068220198 0.74759972 0.074924454 12827301
-0.0075308383 0.74709225 0.07544367 12827301
-0.0077847689 0.74732745 0.075440571 12893094
-0.0080386922 0.74756265 0.075437479 12827301
-0.0082926154 0.74779785 0.075434387 12761508
-0.0085465387 0.74803305 0.075431295 12761508
-0.0088004619 0.74826825 0.075428203 12827301
-0.0090543851 0.74850345 0.075425103 13023910
-0.0093083084 0.74873865 0.075422011 12958117
-0.0095622391 0.74897385 0.075418919 12958117
-0.010259084 0.74845535 0.075938292 12958117
-0.010511816 0.74868941 0.075935207 12958117
-0.010764539 0.74892354 0.07593213 12958117
-0.011017263 0.74915761 0.075929053 12958117
-0.011269994 0.74939167 0.075925976 12958117
-0.011522725 0.7496258 0.075922891 13023910
-0.011775449 0.74985987 0.075919814 12958117
-0.012028173 0.75009394 0.075916737 12958117
-0.012280896 0.75032806 0.07591366 12958117
-0.012533627 0.75056213 0.075910576 12958371
-0.012786359 0.7507962 0.075907499 12958371
-0.013039082 0.75103033 0.075904422 12958371
-0.012863249 0.75203139 0.075378701 12958371
-0.013117179 0.75226659 0.075375609 12958371
-0.013371103 0.75250179 0.075372517 12958371
-0.013625026 0.75273699 0.075369425 13024164
-0.013878949 0.75297219 0.075366333 13024164
-0.014132872 0.75320739 0.075363234 13024164
-0.014386803 0.75344259 0.075360142 13089957
-0.014640726 0.75367779 0.07535705 13089957
-0.014894649 0.75391293 0.075353958 13089957
-0.015148573 0.75414813 0.075350858 13155750
-0.015402496 0.75438333 0.075347766 13221543
-0.015656427 0.75461853 0.075344674 13155750
0.0026544258 0.74372149 0.073233262 7889482
0.0023945123 0.74396223 0.073230095 7889482
0.0021345988 0.74420297 0.073226929 7889482
0.0018746853 0.74444371 0.073223762 7889482
0.0016147718 0.74468446 0.073220596 7889482
0.0013548583 0.7449252 0.073217429 8086861
0.00061194599 0.74444824 0.07373482 8152400
0.00035323203 0.74468786 0.073731668 8481365
9.4518065e-05 0.74492753 0.073728517 8811100
-0.0001641959 0.74516714 0.073725365 9337444
-0.00042290986 0.74540675 0.073722214 9403237
-0.00068162382 0.74564642 0.073719062 9600616
-0.0014161542 0.74516165 0.074236564 9863788
-0.0016736686 0.74540019 0.074233428 9403237
-0.0019311905 0.74563873 0.074230291 10192753
-0.0021887049 0.74587727 0.074227154 10455925
-0.0024462193 0.7461158 0.07422401 11838094
-0.0027037412 0.74635428 0.074220873 12101266
-0.0034298822 0.74586183 0.07473848 12891295
-0.0036862046 0.74609923 0.074735358 12825502
-0.0039425194 0.74633664 0.074732229 12695199
-0.0041988418 0.74657404 0.074729107 12760992
-0.0044551641 0.74681151 0.074725986 12760992
-0.0047114789 0.74704885 0.074722864 12892578
-0.0054292381 0.74654865 0.075240567 12827555
-0.0056843609 0.74678493 0.07523746 12761762
-0.0059394836 0.74702126 0.075234354 12827555
-0.0061946064 0.74725753 0.075231239 12827555
-0.0064497292 0.74749386 0.075228132 12827555
-0.006704852 0.74773014 0.075225025 12893348
-0.0074142218 0.74722213 0.075742833 12893348
-0.007668145 0.74745733 0.075739741 12893348
-0.0079220682 0.74769253 0.075736642 12893348
-0.0081759915 0.74792773 0.07573355 12827555
-0.0084299147 0.74816293 0.075730458 12893094
-0.0086838454 0.74839813 0.075727366 12893094
-0.0089377612 0.74863327 0.075724274 12893094
-0.0091916919 0.74886847 0.075721174 12827301
-0.0094456151 0.74910367 0.075718082 12958117
-0.010143012 0.74858457 0.076236039 12958117
-0.010395743 0.74881864 0.076232962 12958117
-0.010648467 0.74905276 0.076229885 12958117
-0.010901198 0.74928683 0.076226808 13023910
-0.011153921 0.7495209 0.076223724 13023910
-0.011406645 0.74975502 0.076220647 13023910
-0.011659376 0.74998909 0.076217569 13023910
-0.011912107 0.75022316 0.076214492 13023910
-0.012164831 0.75045729 0.076211408 13023910
-0.012417555 0.75069135 0.076208331 13023910
-0.012670286 0.75092542 0.076205254 13023910
-0.01292301 0.75115955 0.076202177 13024164
-0.012746632 0.75216126 0.075677872 13024164
-0.013000555 0.75239646 0.075674772 13024164
-0.013254479 0.75263166 0.07567168 13089957
-0.013508409 0.75286686 0.075668588 13089957
-0.013762325 0.753102 0.075665496 13089957
-0.014016256 0.7533372 0.075662404 13089957
-0.014270172 0.7535724 0.075659305 13155750
-0.014524102 0.7538076 0.075656213 13220776
-0.014778033 0.7540428 0.075653121 13220776
-0.015031949 0.754278 0.075650029 13220776
-0.015285879 0.7545132 0.075646937 13418155
-0.015539795 0.7547484 0.075643837 13286569
-0.015793726 0.7549836 0.075640745 13286569
-0.016047649 0.7552188 0.075637653 13286569
-0.016301572 0.75545394 0.075634561 13220776
0.002773799 0.7438544 0.073539481 7889482
0.0025138855 0.74409515 0.073536314 7955275
0.002253972 0.74433589 0.073533148 7824459
0.0019940585 0.74457663 0.073529981 7890252
0.001734145 0.74481738 0.073526815 8021586
0.0014742315 0.74505806 0.073523648 8416344
0.0007307753 0.74458051 0.074039631 8679516
0.00047205389 0.74482018 0.074036479 9074274
0.00021333992 0.74505979 0.074033327 9731434
-4.5374036e-05 0.74529946 0.074030176 9863020
-0.000304088 0.74553907 0.074027024 9863018
-0.00056280196 0.74577868 0.074023873 9994604
-0.00082152337 0.74601829 0.074020721 10587511
-0.0010802299 0.74625796 0.074017569 11311234
-0.0013389513 0.74649757 0.074014418 11707021
-0.0020704269 0.74600893 0.074530549 12430744
-0.0023279488 0.74624741 0.074527413 12826018
-0.0025854707 0.74648595 0.074524276 13089190
-0.0028429851 0.74672449 0.074521139 13024164
-0.0031004995 0.74696302 0.074518003 12958371
-0.0033580214 0.74720156 0.074514866 12827555
-0.0040811151 0.74670511 0.075031094 12761762
-0.0043374375 0.74694252 0.075027972 12761762
-0.0045937598 0.74717999 0.075024851 12761762
-0.0048500821 0.74741739 0.075021729 12827555
-0.005106397 0.7476548 0.075018607 12827555
-0.0053627193 0.7478922 0.075015485 13024164
-0.0060774386 0.74738801 0.075531818 12958371
-0.0063325539 0.74762428 0.075528711 12958371
-0.0065876767 0.74786061 0.075525604 13024164
-0.0068427995 0.74809694 0.075522497 13155750
-0.0070979223 0.74833322 0.075519383 13089957
-0.007353045 0.74856949 0.075516276 13023910
-0.0076081604 0.74880582 0.075513169 13023910
-0.0078632832 0.74904215 0.075510062 13023910
-0.0081184059 0.74927843 0.075506955 13023910
-0.0088211447 0.74876314 0.076023437 13023910
-0.0090750679 0.74899834 0.076020345 12958117
-0.0093289912 0.74923354 0.076017246 13089703
-0.0095829144 0.74946874 0.076014154 13023910
-0.0098368376 0.74970394 0.076011062 13023910
-0.010090768 0.74993914 0.07600797 13023910
-0.010344684 0.75017428 0.076004878 13089703
-0.010598615 0.75040948 0.076001778 13089703
-0.010852538 0.75064468 0.075998686 13023910
-0.011106461 0.75087988 0.075995594 13023910
-0.011360392 0.75111508 0.075992502 13089703
-0.011614308 0.75135028 0.07598941 13089703
-0.011868238 0.75158548 0.075986311 13089703
-0.012122162 0.75182068 0.075983219 13089703
-0.012376085 0.75205588 0.075980127 13089703
-0.012630008 0.75229108 0.075977035 13089703
-0.012883931 0.75252628 0.075973943 13089703
-0.013137862 0.75276148 0.075970843 13155496
-0.013391785 0.75299668 0.075967751 13155750
-0.013645709 0.75323188 0.075964659 13221543
-0.013899632 0.75346708 0.075961567 13221030
-0.014153555 0.75370228 0.075958475 13155237
-0.014407486 0.75393748 0.075955376 13220776
-0.014661409 0.75417268 0.075952284 13220776
-0.014915332 0.75440788 0.075949192 13286569
-0.015169255 0.75464302 0.0759461 13418155
-0.015423179 0.75487822 0.075943008 13286569
-0.015677109 0.75511342 0.075939909 13286569
-0.015931025 0.75534862 0.075936817 13286569
-0.016184956 0.75558382 0.075933725 13286569
0.0028931648 0.74398732 0.073845699 8021068
0.0026332587 0.74422801 0.073842533 8086861
0.0023733452 0.74446881 0.073839366 7955791
0.0021134317 0.74470949 0.0738362 8218963
0.0018535182 0.74495029 0.073833033 8613983
0.0015936047 0.74519098 0.073829867 9008741
0.00084959716 0.74471283 0.074344441 9271653
0.00059087574 0.74495244 0.07434129 9403239
0.00033216178 0.74519205 0.074338138 9928298
7.3447824e-05 0.74543172 0.074334987 10191470
-0.00018526614 0.74567133 0.074331835 10915706
-0.0004439801 0.745911 0.074328683 11836808
-0.00070270151 0.74615061 0.074325532 11970193
-0.00096140802 0.74639022 0.07432238 12825502
-0.0012201294 0.74662989 0.074319229 12957604
-0.0019521564 0.7461406 0.074833944 13023397
-0.0022096783 0.74637914 0.074830808 12958117
-0.0024672002 0.74661767 0.074827671 13023910
-0.0027247071 0.74685621 0.074824534 13023910
-0.002982229 0.74709469 0.074821398 13023910
-0.0032397509 0.74733323 0.074818261 12827301
-0.003963396 0.74683619 0.075333081 12827301
-0.0042197183 0.74707359 0.075329959 12893094
-0.0044760332 0.747311 0.075326838 12827301
-0.0047323555 0.74754846 0.075323716 13023910
-0.0049886778 0.74778587 0.075320594 13023910
-0.0052449927 0.74802327 0.075317472 13089957
-0.0059602633 0.74751842 0.075832397 13089957
-0.0062153786 0.74775475 0.07582929 13089957
-0.0064705014 0.74799109 0.075826176 13024164
-0.0067256242 0.74822736 0.075823069 13221543
-0.006980747 0.74846369 0.075819962 13089957
-0.0072358698 0.74869996 0.075816855 12958887
-0.0074909925 0.7489363 0.075813748 12893094
-0.0077461153 0.74917257 0.075810641 12958887
-0.0080012381 0.7494089 0.075807527 12958887
-0.0087045208 0.74889302 0.0763226 12893094
-0.008958444 0.74912822 0.076319508 12827301
-0.0092123747 0.74936336 0.076316416 12893094
-0.0094662905 0.74959856 0.076313317 12893094
-0.0097202212 0.74983376 0.076310225 12893094
-0.0099741369 0.75006896 0.076307133 12958887
-0.010228068 0.75030416 0.076304041 12958887
-0.010481998 0.75053936 0.076300949 13024680
-0.010735914 0.75077456 0.076297849 13089703
-0.010989845 0.75100976 0.076294757 13089703
-0.011243761 0.75124496 0.076291665 13089703
-0.011497691 0.75148016 0.076288573 13089703
-0.011751615 0.7517153 0.076285481 13155496
-0.012005538 0.7519505 0.076282382 13155496
-0.012259461 0.7521857 0.07627929 13155496
-0.012513384 0.7524209 0.076276198 13089703
-0.012767315 0.7526561 0.076273106 13155496
-0.013021231 0.7528913 0.076270014 13155496
-0.013275161 0.7531265 0.076266915 13286569
-0.013529077 0.7533617 0.076263823 13286569
-0.013783008 0.7535969 0.076260731 13220776
-0.014036931 0.7538321 0.076257639 13220776
-0.014290854 0.7540673 0.076254547 13220776
-0.014544785 0.7543025 0.076251447 13220776
-0.014798701 0.7545377 0.076248355 13286569
-0.015052631 0.7547729 0.076245263 13418155
-0.015306555 0.7550081 0.076242171 13418155
-0.015560478 0.7552433 0.076239079 13286569
-0.015814409 0.7554785 0.07623598 13418155
-0.016068324 0.7557137 0.076232888 13418155
0.0042877048 0.74410748 0.073645219 7955275
0.0040265992 0.74434936 0.073642038 8086861
0.0037654862 0.74459124 0.073638856 8350033
0.003012538 0.74412018 0.074151918 8481365
0.0027526319 0.74436092 0.074148752 8810330
0.0024927184 0.74460167 0.074145585 8876893
0.0022328049 0.74484241 0.074142426 9205858
0.0019728914 0.74508315 0.074139252 9535339
0.0017129779 0.7453239 0.074136093 9403753
0.00096841902 0.74484509 0.074649252 10192753
0.0007096976 0.74508476 0.0746461 10455925
0.00045098364 0.74532437 0.074642949 11178878
0.00019226968 0.74556398 0.074639797 11639429
-6.6444278e-05 0.74580365 0.074636646 12430490
-0.00032515824 0.74604326 0.074633494 13154213
-0.00058387965 0.74628294 0.074630342 12958117
-0.00084258616 0.74652255 0.074627191 12892324
-0.0011013076 0.74676216 0.074624039 12958117
-0.0018338859 0.74627227 0.075137347 13023910
-0.0020914078 0.7465108 0.07513421 13023910
-0.0023489222 0.74674934 0.075131074 13023910
-0.0026064366 0.74698782 0.075127937 13023910
-0.0028639585 0.74722636 0.0751248 13023910
-0.0031214803 0.7474649 0.075121664 13023910
-0.0038456768 0.74696726 0.075635068 13023910
-0.0041019917 0.74720466 0.075631946 13155496
-0.004358314 0.74744213 0.075628825 13023910
-0.0046146363 0.74767947 0.075625703 13023910
-0.0048709512 0.74791694 0.075622581 13089703
-0.0051272735 0.74815434 0.075619459 13089703
-0.005843088 0.74764889 0.076132968 13089703
-0.0060982108 0.74788523 0.076129861 13089703
-0.0063533336 0.7481215 0.076126754 13089703
-0.0066084564 0.74835783 0.076123647 13155496
-0.0068635792 0.74859416 0.07612054 13089703
-0.0071187019 0.74883044 0.076117434 13089703
-0.0073738173 0.74906671 0.076114319 13089703
-0.00762894 0.74930304 0.076111212 13089703
-0.0078840628 0.74953938 0.076108105 13089703
-0.0085878968 0.74902284 0.076621763 13023910
-0.0088418275 0.74925804 0.076618671 13023910
-0.0090957507 0.74949324 0.076615579 13089703
-0.009349674 0.74972844 0.076612487 13089703
-0.0096035972 0.74996364 0.076609395 13023910
-0.0098575205 0.75019884 0.076606296 13155496
-0.010111444 0.75043404 0.076603204 13089703
-0.010365367 0.75066924 0.076600112 13221289
-0.010619298 0.75090438 0.07659702 13155496
-0.010873221 0.75113958 0.076593921 13155496
-0.011127144 0.75137478 0.076590829 13155496
-0.011381067 0.75160998 0.076587737 13089703
-0.011634991 0.75184518 0.076584645 13155496
-0.011888921 0.75208038 0.076581553 13221289
-0.012142837 0.75231558 0.076578453 13221289
-0.012396768 0.75255078 0.076575361 13221289
-0.012650691 0.75278598 0.076572269 13352875
-0.012904614 0.75302118 0.076569177 13221289
-0.013158545 0.75325632 0.076566085 13221289
-0.013412461 0.75349152 0.076562986 13352875
-0.013666391 0.75372672 0.076559894 13286569
-0.013920307 0.75396192 0.076556802 13220776
-0.014174238 0.75419712 0.07655371 13418155
-0.014428169 0.75443232 0.076550618 13286569
-0.014682084 0.75466752 0.076547518 13286569
-0.014936015 0.75490272 0.076544426 13286569
-0.015189931 0.75513792 0.076541334 13418155
-0.015443861 0.75537312 0.076538242 13418155
-0.015697785 0.75560832 0.07653515 13483948
-0.015951708 0.75584352 0.076532051 13418155
0.0044076294 0.744241 0.073952846 8481617
0.0041465163 0.74448287 0.073949665 8612951
0.0038854107 0.74472475 0.073946483 9205088
0.0036242977 0.74496657 0.073943302 9468260
0.0033631846 0.74520844 0.073940121 9665639
0.003102079 0.74545026 0.073936939 9600616
0.0023521781 0.74497533 0.074448645 9797995
0.0020922646 0.74521607 0.074445479 10455927
0.0018323511 0.74545681 0.074442312 10653306
0.0015724376 0.74569756 0.074439146 11838092
0.0013125241 0.7459383 0.074435979 12232850
0.0010526106 0.74617904 0.074432813 12956575
0.00031109154 0.74569631 0.074944608 13219747
5.2377582e-05 0.74593592 0.074941456 12826018
-0.00020633638 0.74617559 0.074938305 13154983
-0.00046505034 0.7464152 0.074935153 13089190
-0.0007237643 0.74665487 0.074932002 13089190
-0.00098247826 0.74689448 0.07492885 13023910
-0.0017156154 0.74640393 0.075440742 13023910
-0.0019731373 0.74664247 0.075437605 13023910
-0.0022306517 0.74688101 0.075434469 13023910
-0.0024881661 0.74711955 0.075431332 13089703
-0.002745688 0.74735808 0.075428195 13089703
-0.0030032024 0.74759662 0.075425059 13023910
-0.0032607168 0.7478351 0.075421922 13023910
-0.0035182387 0.74807364 0.075418785 13155496
-0.0037757531 0.74831218 0.075415649 13089703
-0.0044969171 0.7478106 0.07592769 13089703
-0.004753232 0.74804801 0.075924568 13155496
-0.0050095469 0.74828541 0.075921446 13089703
-0.0052658767 0.74852282 0.075918324 13089703
-0.0055221915 0.74876022 0.075915202 13155496
-0.0057785138 0.74899763 0.075912073 13155496
-0.0060348362 0.74923503 0.075908951 13155496
-0.006291151 0.7494725 0.07590583 13089703
-0.0065474734 0.7497099 0.075902708 13089703
-0.0068037957 0.74994731 0.075899586 13089703
-0.0070601106 0.75018471 0.075896464 13089703
-0.0073164329 0.75042212 0.075893342 13089703
-0.0075727552 0.75065958 0.075890221 13089703
-0.0078290701 0.75089693 0.075887099 13023910
-0.0080853924 0.7511344 0.07588397 13089703
-0.012026221 0.7524454 0.076877624 13221291
-0.012280136 0.7526806 0.076874532 13352877
-0.012534067 0.7529158 0.076871432 13352877
-0.01278799 0.753151 0.07686834 13221291
0.0045275539 0.74437451 0.074260481 8941916
0.0042664409 0.74461639 0.074257299 9336674
0.0040053278 0.74485826 0.074254118 9468260
0.0037442222 0.74510014 0.074250937 9797225
0.0034831092 0.74534196 0.074247755 10191983
0.0032219961 0.74558377 0.074244574 10061167
0.0024715513 0.74510825 0.074754864 11245441
0.0022116303 0.74534899 0.074751697 11443334
0.0019517243 0.74558973 0.074748531 12430229
0.0016918108 0.74583048 0.074745364 12628893
0.0014318973 0.74607122 0.074742198 12826272
0.0011719838 0.74631196 0.074739031 12892324
0.0004299134 0.74582863 0.075249419 13023910
0.00017119944 0.74606824 0.075246267 13089703
-8.751452e-05 0.74630785 0.075243115 13155496
-0.00034622848 0.74654752 0.075239964 13155496
-0.00060494244 0.74678713 0.075236812 13089703
-0.0008636564 0.7470268 0.075233653 13023910
-0.0015973449 0.74653566 0.075744145 13089703
-0.0018548593 0.7467742 0.075741008 13023910
-0.0021123812 0.74701267 0.075737871 13089703
-0.0023698956 0.74725121 0.075734735 13089703
-0.0026274174 0.74748975 0.075731598 13089703
-0.0028849319 0.74772829 0.075728454 13089703
-0.0031424463 0.74796677 0.075725317 13089703
-0.0033999681 0.7482053 0.07572218 13155496
-0.0036574826 0.74844384 0.075719044 13155496
-0.0043791905 0.74794161 0.076229677 13089703
-0.0046355128 0.74817908 0.076226555 13155496
-0.0048918277 0.74841648 0.076223433 13089703
-0.00514815 0.74865389 0.076220311 13089703
-0.0054044724 0.74889129 0.076217189 13089703
-0.0056607872 0.7491287 0.076214068 13155496
-0.0059171095 0.74936616 0.076210938 13155496
-0.0061734319 0.74960351 0.076207817 13155496
-0.0064297467 0.74984097 0.076204695 13089703
-0.0066860691 0.75007838 0.076201573 13089703
-0.0069423914 0.75031579 0.076198451 13089703
-0.0071987063 0.75055319 0.076195329 13089703
-0.0074550286 0.7507906 0.076192208 13089703
-0.0077113509 0.75102806 0.076189086 13089703
-0.0079676658 0.75126547 0.076185957 13155496
-0.011909597 0.75257528 0.077176787 13221291
-0.01216352 0.75281048 0.077173695 13352877
-0.012417451 0.75304568 0.077170603 13352877
-0.012671366 0.75328088 0.077167504 13352877
0.0059314743 0.74449056 0.07406573 8810330
0.0056691691 0.74473357 0.074062541 9336674
0.0054068565 0.74497652 0.074059345 9336674
0.0046474785 0.74450803 0.074568108 9468260
0.0043863654 0.7447499 0.074564934 9863018
0.0041252524 0.74499178 0.074561752 9994604
0.0038641393 0.74523365 0.074558571 9797995
0.0036030337 0.74547547 0.07455539 11442820
0.0033419207 0.74571735 0.074552208 12167570
0.0025909245 0.74524117 0.075061083 12628121
0.0023310035 0.74548185 0.075057916 13088674
0.0020710975 0.74572265 0.07505475 13088674
0.001811184 0.74596334 0.075051583 12958371
0.0015512705 0.74620414 0.075048417 13024164
0.001291357 0.74644482 0.07504525 13023910
0.00054873526 0.74596089 0.075554229 13089703
0.0002900213 0.74620056 0.075551078 13155496
3.130734e-05 0.74644017 0.075547919 13155496
-0.00022740662 0.74667978 0.075544767 13155496
-0.00048612058 0.74691939 0.075541615 13221289
-0.00074483454 0.74715906 0.075538464 13089703
-0.0014790744 0.74666733 0.07604754 13089703
-0.0017365888 0.74690586 0.076044403 13089703
-0.0019941032 0.74714434 0.076041266 13155496
-0.0022516251 0.74738288 0.07603813 13155496
-0.0025091395 0.74762142 0.076034993 13155496
-0.0027666539 0.74785995 0.076031856 13155496
-0.0030241758 0.74809849 0.07602872 13155496
-0.0032816976 0.74833703 0.076025583 13221289
-0.0035392046 0.74857551 0.076022446 13221289
-0.0042614639 0.74807274 0.076531664 13155496
-0.0045177862 0.74831009 0.076528542 13155496
-0.0047741085 0.74854755 0.07652542 13155496
-0.0050304309 0.74878496 0.076522298 13089703
-0.0052867457 0.74902236 0.076519176 13089703
-0.0055430681 0.74925977 0.076516055 13221289
-0.0057993904 0.74949718 0.076512933 13155496
-0.0060557052 0.74973464 0.076509804 13155496
-0.0063120276 0.74997205 0.076506682 13155496
-0.0065683499 0.75020945 0.07650356 13089703
-0.0068246648 0.75044686 0.076500438 13155496
-0.0070809871 0.75068426 0.076497316 13155496
-0.007337302 0.75092167 0.076494195 13155496
-0.0075936243 0.75115907 0.076491073 13089703
-0.0078499466 0.75139654 0.076487951 13155496
-0.011792973 0.7527051 0.07747595 13352877
-0.012046896 0.7529403 0.077472858 13352877
-0.012300819 0.7531755 0.077469766 13352877
-0.01255475 0.7534107 0.077466674 13352877
0.0060519502 0.74462473 0.07437478 9665639
0.0057896376 0.74486768 0.074371584 9797225
0.0055273324 0.74511063 0.074368387 9731432
0.0052650273 0.74535358 0.074365191 10126190
0.0050027147 0.74559653 0.074361995 11048062
0.0047404021 0.74583948 0.074358799 11903371
0.0039840639 0.74536717 0.074866198 12365721
0.0037229508 0.74560899 0.074863017 12826272
0.0034618452 0.74585086 0.074859835 12892578
0.0032007322 0.74609268 0.074856654 12892578
0.0029396266 0.74633455 0.074853472 12958371
0.0026785135 0.74657643 0.074850298 13024164
0.0024174005 0.74681824 0.074847117 13024164
0.0021562874 0.74706012 0.074843936 13089957
0.0018951744 0.74730194 0.074840754 13089957
0.0011508167 0.74681848 0.07534831 13155750
0.00089090317 0.74705923 0.075345144 13221289
0.00063098967 0.74729997 0.075341977 13155496
0.00037106872 0.74754071 0.075338811 13155496
-0.0037305951 0.75016695 0.075805455 13155496
-0.0039893165 0.75040662 0.075802304 13089703
-0.0042480305 0.75064623 0.075799152 13089703
-0.0045067519 0.75088584 0.075796001 13155496
-0.0060590357 0.75232363 0.075777084 13155498
-0.0063177571 0.7525633 0.075773932 13155498
-0.006576471 0.75280291 0.07577078 13089705
-0.006835185 0.75304258 0.075767629 13221289
0.0061724186 0.74475884 0.074683823 9665639
0.0059101135 0.74500179 0.074680626 9797225
0.0056478083 0.74524474 0.07467743 9731432
0.0053854957 0.74548769 0.074674234 10126190
0.0051231906 0.7457307 0.074671037 11048062
0.004860878 0.74597365 0.074667841 11903371
0.0041039884 0.74550068 0.075173832 12365721
0.0038428754 0.7457425 0.075170651 12826272
0.0035817623 0.74598438 0.07516747 12892578
0.0033206567 0.74622619 0.075164288 12892578
0.0030595437 0.74646807 0.075161107 12958371
0.0027984381 0.74670994 0.075157925 13024164
0.002537325 0.74695176 0.075154744 13024164
0.002276212 0.74719363 0.075151563 13089957
0.0020150989 0.74743545 0.075148381 13089957
0.0012701899 0.7469514 0.075654529 13155750
0.0010102764 0.74719214 0.075651363 13221289
0.00075036287 0.74743289 0.075648196 13155496
0.00049044192 0.74767363 0.07564503 13155496
-0.0036117733 0.75029922 0.076110266 13155496
-0.0038704947 0.75053889 0.076107115 13089703
-0.0041292086 0.7507785 0.076103963 13089703
-0.00438793 0.75101817 0.076100811 13155496
-0.0059402138 0.75245595 0.076081894 13155498
-0.0061989352 0.75269556 0.076078743 13155498
-0.0064576492 0.75293523 0.076075591 13089705
-0.0067163631 0.75317484 0.07607244 13221289
0.0062928945 0.74489295 0.074992865 11508613
0.0060305893 0.7451359 0.074989669 12956059
0.0057682768 0.74537885 0.074986473 12957856
0.0055059716 0.74562186 0.074983276 13023649
0.005243659 0.74586481 0.07498008 13023910
0.0049813539 0.74610776 0.074976884 13155496
0.0047190413 0.74635077 0.074973688 13024680
0.0044567287 0.74659371 0.074970491 13024680
0.0041944236 0.74683666 0.074967295 12958887
0.0039321184 0.74707961 0.074964099 12958887
0.0036698058 0.74732256 0.07496091 13024680
0.0034075007 0.74756551 0.074957713 13024680
0.0031451881 0.74780852 0.074954517 13024680
0.002882883 0.74805146 0.074951321 13024680
0.0026205704 0.74829441 0.074948125 13024680
0.0018739104 0.74781084 0.075452834 13090473
0.0016127974 0.74805272 0.075449653 13222061
0.0013516918 0.74829453 0.075446472 13090475
0.0010905787 0.74853641 0.07544329 13090475
-0.0034929514 0.75043154 0.076415069 13286569
-0.0037516728 0.75067115 0.076411918 13220776
-0.0040103868 0.75091082 0.076408766 13155498
-0.0042691082 0.75115043 0.076405615 13221291
-0.0058213919 0.75258827 0.076386705 13155498
-0.0060801134 0.75282788 0.076383553 13155498
-0.0063388273 0.75306749 0.076380402 13352877
-0.0065975413 0.7533071 0.07637725 13352875
0.0064133704 0.74502707 0.075301908 11508613
0.0061510578 0.74527007 0.075298712 12956059
0.0058887526 0.74551302 0.075295515 12957856
0.00562644 0.74575597 0.075292319 13023649
0.0053641349 0.74599898 0.075289123 13023910
0.0051018223 0.74624193 0.075285926 13155496
0.0048395172 0.74648488 0.07528273 13024680
0.0045772046 0.74672782 0.075279534 13024680
0.0043148994 0.74697077 0.075276338 12958887
0.0040525943 0.74721372 0.075273141 12958887
0.0037902817 0.74745673 0.075269952 13024680
0.0035279766 0.74769968 0.075266756 13024680
0.003265664 0.74794263 0.07526356 13024680
0.0030033588 0.74818563 0.075260364 13024680
0.0027410462 0.74842858 0.075257167 13024680
0.001993835 0.74794436 0.075760469 13090473
0.0017327219 0.74818623 0.075757287 13222061
0.0014716163 0.74842805 0.075754106 13090475
0.0012105033 0.74866992 0.075750925 13090475
0.050903186 0.74174172 0.059799492 7101509
0.050602555 0.74202013 0.059795827 7101509
0.050301909 0.7422986 0.059792161 7100996
0.050001279 0.74257708 0.05978851 6969410
0.049700633 0.74285555 0.059784845 6969664
0.049400002 0.74313402 0.059781179 6903871
0.017366506 0.74336946 0.072165929 7823687
0.017095812 0.74362016 0.072162628 7823689
0.016825117 0.74387091 0.072159328 7823689
0.01655443 0.74412167 0.072156034 7823689
0.016283736 0.74437237 0.072152734 7823689
0.016013041 0.74462312 0.072149433 7823689
0.015742347 0.74487382 0.07214614 7823689
0.013880298 0.74424368 0.073145457 7889482
0.013611995 0.74449217 0.073142186 7889482
0.013343699 0.74474072 0.073138922 8021068
0.013075404 0.74498922 0.073135652 8152654
0.0065338388 0.74516124 0.075610951 13024164
0.0062715337 0.74540418 0.075607754 13024164
0.0060092211 0.74564713 0.075604558 13024164
0.0057469159 0.74589014 0.075601362 13089957
0.0054846108 0.74613309 0.075598165 13089703
0.0052222982 0.74637604 0.075594969 13221289
0.0049599856 0.74661899 0.075591773 13221289
0.0046976805 0.74686193 0.075588576 13221289
0.0044353753 0.74710488 0.07558538 13352877
0.0041730627 0.74734789 0.075582191 13155498
0.0039107502 0.74759084 0.075578995 13155498
0.003648445 0.74783379 0.075575799 13221291
0.0033861399 0.7480768 0.075572602 13090475
0.0031238273 0.74831975 0.075569406 13090475
0.0028615147 0.74856269 0.07556621 13090475
0.0021137595 0.74807787 0.076068096 13090475
0.0018526465 0.74831975 0.076064914 13222061
0.0015915334 0.74856162 0.076061733 13222061
0.0013304278 0.74880344 0.076058552 13287854
0.05104126 0.74189544 0.060153693 7101509
0.050740629 0.74217391 0.060150027 7101509
0.050439984 0.74245238 0.060146362 7100996
0.050139353 0.7427308 0.060142711 6969410
0.049838722 0.74300927 0.060139045 6969664
0.049538076 0.74328774 0.060135379 6903871
0.017490827 0.74350786 0.072484843 7823687
0.01722014 0.74375862 0.07248155 7823689
0.016949445 0.74400938 0.07247825 7823689
0.016678751 0.74426007 0.072474957 7823689
0.016408056 0.74451077 0.072471656 7823689
0.016137362 0.74476153 0.072468355 7823689
0.015866667 0.74501228 0.072465062 7823689
0.014003515 0.74438089 0.073461555 7889482
0.01373522 0.74462938 0.073458292 7889482
0.013466924 0.74487793 0.073455021 8021068
0.013198629 0.74512643 0.07345175 8152654
0.0055772439 0.74747151 0.075397275 13221289
0.0053137392 0.74771559 0.075394064 13221289
0.005050227 0.74795967 0.075390853 13352877
0.0047867224 0.74820375 0.075387649 13155498
0.0045232177 0.74844778 0.075384438 13155498
0.004259713 0.74869192 0.075381227 13221291
0.051179335 0.74204916 0.060507894 6904130
0.050878704 0.74232763 0.060504228 6838337
0.050578073 0.7426061 0.060500562 6575935
0.050277427 0.74288452 0.060496911 6510142
0.049976796 0.74316299 0.060493246 7104591
0.04967615 0.74344146 0.06048958 8025693
0.017615154 0.74364632 0.072803766 7889480
0.01734446 0.74389702 0.072800472 7823687
0.017073765 0.74414778 0.072797172 7823687
0.016803071 0.74439847 0.072793871 7889480
0.016532376 0.74464923 0.072790578 7889480
0.016261689 0.74489993 0.072787277 7889482
0.015990995 0.74515069 0.072783984 7955275
0.01412674 0.7445181 0.073777653 8810584
0.013858445 0.74476659 0.07377439 8810584
0.01359015 0.74501508 0.073771119 9337444
0.013321847 0.74526358 0.073767848 9271651
0.0056982636 0.74760628 0.075707734 13352875
0.005434759 0.74785036 0.075704522 13418668
0.0051712543 0.74809444 0.075701311 13352877
0.0049077496 0.74833846 0.0756981 13352877
0.0046442449 0.74858254 0.075694889 13221291
0.0043807328 0.74882662 0.075691678 13221291
0.052219331 0.74136752 0.060873076 6118477
0.051918685 0.74164593 0.060869426 6708552
0.051618055 0.74192441 0.06086576 6576966
0.051317424 0.74220288 0.060862094 6708036
0.051016778 0.74248135 0.060858428 6708036
0.050716147 0.74275982 0.060854763 7104339
0.050415501 0.7430383 0.060851112 7959648
0.05011487 0.74331677 0.060847446 7764322
0.049814239 0.74359518 0.060843781 7764322
0.01909256 0.74371219 0.072632387 7955273
0.018820666 0.74396408 0.072629079 7955273
0.018548779 0.74421585 0.072625764 7955273
0.017739475 0.74378473 0.073122688 7955273
0.01746878 0.74403548 0.073119394 7823687
0.017198093 0.74428618 0.073116094 7823687
0.016927399 0.74453688 0.073112793 7955275
0.016656704 0.74478763 0.0731095 8086861
0.01638601 0.74503839 0.0731062 8284240
0.016115315 0.74528909 0.073102899 9271135
0.015844628 0.74553978 0.073099606 9073756
0.015573934 0.74579054 0.073096305 9205342
0.014249966 0.74465525 0.074093752 9336928
0.01398167 0.7449038 0.074090488 9336928
0.013713367 0.74515229 0.074087217 9600616
0.013445072 0.74540079 0.074083947 9995374
0.0058192909 0.74774098 0.076018184 13352875
0.0055557862 0.74798506 0.076014973 13418668
0.0052922815 0.74822915 0.076011762 13352875
0.0050287694 0.74847323 0.076008551 13352875
0.0047652647 0.74871731 0.076005347 13352875
0.00450176 0.74896133 0.076002136 13352875
0.052357405 0.74152124 0.061227284 5921868
