# .PCD v0.7 - Point Cloud Data file format
VERSION 0.7
FIELDS x y z rgb
SIZE 4 4 4 4
TYPE F F F U
COUNT 1 1 1 1
WIDTH 1105
HEIGHT 1
VIEWPOINT 0 0 0 1 0 0 0
POINTS 1105
DATA ascii
0.037910946 0.74273741 0.07106442 8483164
0.037561759 0.74262869 0.071064375 8284758
0.03721258 0.74251997 0.071064331 8153172
0.036443561 0.74318576 0.07056129 7626056
0.036092818 0.74307656 0.070561245 7231298
0.035742074 0.74296731 0.070561208 6968126
0.035391331 0.74285811 0.070561163 6507575
0.035040587 0.74274892 0.070561118 6112304
0.034689844 0.74263966 0.070561081 6112304
0.0343391 0.74253047 0.070561036 5717546
0.033988357 0.74242127 0.070560992 5651753
0.033637613 0.74231207 0.070560947 5651753
0.03328687 0.74220288 0.07056091 5520167
0.032936126 0.74209368 0.070560865 5191715
0.032148398 0.74275362 0.070057817 5060129
0.031796098 0.74264395 0.070057772 4929313
0.03144379 0.74253422 0.070057727 4666141
0.031091496 0.74242455 0.070057683 4535069
0.030739188 0.74231482 0.070057645 4403483
0.030386887 0.74220514 0.070057601 4337692
0.030034587 0.74209547 0.070057556 4140313
0.029682279 0.74198574 0.070057511 4140313
0.029329978 0.74187607 0.070057474 4074520
0.028977677 0.74176633 0.070057429 4074266
0.028625377 0.74165666 0.070057385 4140059
0.027818948 0.74231082 0.069554329 4074266
0.02746509 0.74220061 0.069554292 4074266
0.027111225 0.74209046 0.069554247 4140059
0.02675736 0.74198031 0.069554202 4074266
0.026403502 0.74187011 0.069554158 4074266
0.026049644 0.7417599 0.06955412 4074266
0.025695778 0.74164975 0.069554076 4074266
0.025341921 0.7415396 0.069554031 4008473
0.024988055 0.74142939 0.069553986 4074266
0.024634197 0.74131918 0.069553949 4074266
0.024280332 0.74120903 0.069553904 4074266
0.023926467 0.74109888 0.06955386 4074266
0.02309978 0.74174666 0.069050804 4074266
0.022744358 0.74163604 0.069050759 4074266
0.022388935 0.74152535 0.069050714 4008473
0.02203352 0.74141467 0.069050677 4008473
0.021678105 0.74130404 0.069050632 4008473
0.02084206 0.74194896 0.068547569 4008473
0.020485073 0.7418378 0.068547532 4074266
0.020128101 0.74172664 0.068547487 4008473
0.019771114 0.74161547 0.068547443 4008473
0.019414142 0.74150431 0.068547398 4008473
0.019057162 0.74139321 0.068547353 4008473
0.018210202 0.74203467 0.068044305 4008473
0.017851666 0.74192309 0.06804426 4008473
0.017493129 0.74181139 0.068044215 4008473
0.017134592 0.74169981 0.068044171 4074266
0.016776055 0.74158818 0.068044133 4074266
0.016417518 0.74147654 0.068044089 4074266
0.015559644 0.74211466 0.067541026 4074266
0.015199549 0.74200255 0.067540981 4008473
0.014839455 0.74189043 0.067540936 4008473
0.014479354 0.74177825 0.067540899 4008473
0.014119253 0.7416662 0.067540854 4008473
0.013252035 0.74230134 0.067037791 4205338
0.012890376 0.74218881 0.067037746 4205338
0.012528725 0.74207616 0.067037702 4205338
0.012167066 0.74196357 0.067037657 4205338
0.011805415 0.74185097 0.067037612 4205338
0.011443757 0.74173832 0.067037567 4139545
0.010565616 0.74237013 0.066534504 4139545
0.010202393 0.74225706 0.066534467 4205338
0.0098391846 0.74214399 0.066534422 4205338
0.0094759762 0.74203086 0.066534378 4205338
0.0091127604 0.74191779 0.066534333 4008473
0.0082252771 0.74254668 0.06603127 4074266
0.0078604966 0.74243313 0.066031225 4008473
0.0074957311 0.74231952 0.06603118 4008473
0.0066020042 0.74294651 0.065528125 4008475
0.0062356591 0.74283242 0.06552808 4008475
0.005869329 0.7427184 0.065528035 4139547
0.0049693733 0.74334341 0.065024965 4205340
0.0046014786 0.74322885 0.06502492 4205340
0.0042335987 0.74311429 0.065024875 4205340
0.003865689 0.74299973 0.06502483 4205340
0.0034978092 0.74288523 0.065024786 4205340
0.0031299144 0.74277067 0.065024741 4205340
0.0027620345 0.74265611 0.065024696 4205340
0.0023941398 0.74254155 0.065024652 4139547
0.0014801472 0.74316221 0.064521588 4271133
0.0011107028 0.74304718 0.064521544 4140061
0.00074125826 0.74293214 0.064521499 4140061
0.00037179887 0.7428171 0.064521454 4074268
2.3543835e-06 0.74270207 0.06452141 4140061
-0.00036710501 0.74258703 0.064521365 4140061
-0.0007365495 0.74247199 0.06452132 4140061
-0.0011060089 0.74235702 0.064521275 4140061
-0.0014754534 0.74224198 0.064521231 4074268
-0.0024050325 0.74285775 0.064018168 4140061
-0.0027760416 0.74274218 0.064018123 4074268
-0.0031470358 0.74262667 0.064018078 4140061
-0.0035180598 0.74251115 0.064018033 4140061
-0.0038890541 0.74239564 0.064017989 4271647
-0.0048279911 0.74300855 0.063514918 4140061
-0.0052005649 0.74289256 0.063514873 4140059
-0.0055731386 0.74277651 0.063514829 4271645
-0.0070908964 0.7441144 0.062508725 4271645
-0.0074665844 0.74399745 0.06250868 4337438
-0.0078422576 0.74388051 0.062508635 4271645
-0.0082179457 0.74376351 0.062508591 4271645
-0.0085936338 0.7436465 0.062508546 4271645
-0.0089693218 0.74352956 0.062508501 4271645
-0.0093450099 0.74341261 0.062508456 4140059
-0.0097206831 0.74329561 0.062508412 4271645
-0.010096371 0.74317861 0.062508367 4140059
-0.010472059 0.74306166 0.062508315 4140059
-0.010847747 0.74294466 0.06250827 4271645
-0.011813179 0.74354935 0.062005199 4271645
-0.012190431 0.74343187 0.062005155 4271645
-0.012567669 0.74331439 0.06200511 4271645
-0.012944922 0.74319696 0.062005065 4271645
-0.01332216 0.74307948 0.062005013 4337438
-0.013699412 0.742962 0.062004969 4206365
-0.01407665 0.74284458 0.062004924 4206365
-0.014453888 0.7427271 0.062004879 4206365
-0.014831141 0.74260962 0.062004834 4206365
-0.015208378 0.7424922 0.06200479 4206365
-0.015585631 0.74237472 0.062004745 4206365
-0.015962869 0.74225724 0.062004693 4206365
-0.016948566 0.74285555 0.061501622 4272158
-0.017327368 0.74273765 0.061501577 4337438
-0.017706171 0.74261969 0.061501525 4271645
-0.018084973 0.74250174 0.061501481 4271645
-0.018463776 0.74238384 0.061501436 4271645
-0.019458815 0.74297917 0.060998358 4271645
-0.019839182 0.74286079 0.060998313 4337438
-0.02021955 0.74274236 0.060998268 4271645
-0.020599917 0.74262393 0.060998224 4140059
-0.020980269 0.74250549 0.060998172 4272158
-0.021360636 0.74238706 0.060998127 4337951
-0.022366598 0.74297905 0.060495064 4337951
-0.022748515 0.74286014 0.060495019 4206365
-0.023130432 0.74274123 0.060494974 3943965
-0.023512349 0.74262232 0.060494922 4075551
-0.023894265 0.7425034 0.060494877 4207137
-0.024276182 0.74238449 0.060494833 4338723
-0.025293067 0.74297309 0.059991755 4273441
-0.025676563 0.7428537 0.05999171 4536613
-0.02606003 0.74273431 0.059991658 4668199
-0.026443496 0.74261487 0.059991613 4733992
-0.026826993 0.74249548 0.059991568 4537383
0.045858167 0.74631238 0.070879236 9338219
0.045507424 0.74620318 0.070879191 9338219
0.04515668 0.74609399 0.070879146 9206633
0.044805937 0.74598479 0.070879102 9338221
0.044455193 0.7458756 0.070879065 9206635
0.044104449 0.74576634 0.07087902 9140842
0.043753706 0.74565715 0.070878975 9206635
0.043402962 0.74554795 0.070878938 9206635
0.043052226 0.74543869 0.070878893 9140842
0.042701483 0.7453295 0.070878848 9140842
0.042350732 0.7452203 0.070878811 9140842
0.041999996 0.74511111 0.070878766 9010026
0.041649252 0.74500191 0.070878722 9010026
0.041298501 0.74489266 0.070878677 9010026
0.040947758 0.74478346 0.07087864 8944233
0.040597014 0.74467427 0.070878595 8944233
0.040246278 0.74456507 0.07087855 8944233
0.039895527 0.74445581 0.070878513 8944233
0.039544784 0.74434662 0.070878468 9010026
0.039194047 0.74423742 0.070878424 8878438
0.038843296 0.74412823 0.070878379 8878438
0.03849256 0.74401903 0.070878342 8812645
0.038141817 0.74390978 0.070878297 8746852
0.037791066 0.74380058 0.070878252 8549473
0.03744033 0.74369138 0.070878215 8615266
0.037089586 0.74358219 0.07087817 8680030
0.036738835 0.74347293 0.070878126 8614237
0.036388099 0.74336374 0.070878088 8351065
0.036037348 0.74325454 0.070878044 8285272
0.035686605 0.74314535 0.070877999 8284758
0.035335861 0.74303615 0.070877954 8153172
0.034985118 0.7429269 0.070877917 7691849
0.034634374 0.7428177 0.070877872 7494470
0.034283631 0.7427085 0.070877828 7033919
0.033932887 0.74259925 0.07087779 6704954
0.033582151 0.74249005 0.070877746 6178610
0.033231407 0.74238086 0.070877701 5915438
0.032880656 0.74227166 0.070877656 5980718
0.03209269 0.74293244 0.070376016 5783339
0.031740382 0.74282277 0.070375971 5651753
0.031388082 0.74271303 0.070375927 5520167
0.031035781 0.74260336 0.07037589 5257508
0.030683473 0.74249363 0.070375845 5191715
0.030331179 0.74238396 0.0703758 5125922
0.029978871 0.74227428 0.070375763 4994336
0.029626563 0.74216455 0.070375718 4535069
0.02927427 0.74205488 0.070375673 4403483
0.028921962 0.74194515 0.070375629 4337692
0.028569669 0.74183547 0.070375592 4271899
0.027762987 0.74249041 0.069873944 4140059
0.027409129 0.74238026 0.069873899 4074266
0.027055264 0.74227005 0.069873855 4140059
0.026701406 0.74215984 0.069873817 4140059
0.026347548 0.74204969 0.069873773 4074266
0.025993682 0.74193954 0.069873728 4074266
0.025639817 0.74182934 0.069873683 4074266
0.025285959 0.74171913 0.069873638 4008473
0.024932101 0.74160898 0.069873601 4074266
0.024578243 0.74149883 0.069873556 4074266
0.024224371 0.74138862 0.069873512 4074268
0.023870513 0.74127841 0.069873467 4074268
0.02304358 0.74192703 0.069371819 4074268
0.02268815 0.7418164 0.069371775 4074268
0.022332735 0.74170572 0.069371738 4008475
0.02197732 0.74159503 0.069371693 4074268
0.021621898 0.7414844 0.069371648 4008475
0.0207856 0.7421301 0.068870001 4008475
0.02042862 0.74201894 0.068869956 4008475
0.020071641 0.74190784 0.068869911 4008475
0.019714668 0.74179667 0.068869866 4008475
0.019357681 0.74168551 0.068869829 4008475
0.019000709 0.74157435 0.068869784 4008473
0.018153511 0.74221665 0.068368137 4008473
0.017794967 0.74210501 0.068368092 4008473
0.01743643 0.74199343 0.068368055 4074266
0.017077893 0.74188173 0.06836801 4008473
0.016719356 0.74177015 0.068367966 4074266
0.016360819 0.74165845 0.068367921 4074266
0.015502699 0.74229741 0.067866266 4074266
0.015142605 0.74218529 0.067866229 4008473
0.014782511 0.74207318 0.067866184 4008473
0.014422409 0.74196106 0.067866139 4008473
0.014062308 0.74184895 0.067866094 4008473
0.013194844 0.74248493 0.067364439 4205338
0.012833185 0.74237233 0.067364395 4205338
0.012471534 0.74225974 0.06736435 4139545
0.012109876 0.74214709 0.067364305 4205338
0.011748224 0.74203449 0.067364268 4205338
0.011386566 0.7419219 0.067364223 4139545
0.01050818 0.74255449 0.066862568 4139545
0.010144964 0.74244142 0.066862524 4205338
0.0097817481 0.74232829 0.066862479 4205338
0.0094185323 0.74221522 0.066862434 4205338
0.0090553239 0.74210215 0.066862389 4008473
0.0081675798 0.74273181 0.066360734 4074266
0.0078028142 0.74261826 0.06636069 4008473
0.0074380487 0.74250466 0.066360645 4008473
0.0065440685 0.74313241 0.065858997 4074268
0.0061777383 0.74301839 0.065858953 4008475
0.0058114082 0.74290431 0.065858908 4139547
0.0049111992 0.74353009 0.065357246 4139547
0.0045433044 0.74341559 0.065357201 4205340
0.0041754246 0.74330103 0.065357156 4205340
0.0038075149 0.74318647 0.065357111 4139547
0.003439635 0.74307191 0.065357067 4139547
0.0030717403 0.74295735 0.065357022 4205340
0.0027038604 0.74284279 0.065356985 4205340
0.0023359656 0.74272823 0.06535694 4139547
0.0014217198 0.74334973 0.064855278 4205340
0.0010522753 0.74323469 0.064855233 4205340
0.00068283081 0.74311966 0.064855188 4205340
0.00031337142 0.74300462 0.064855143 4205340
-5.607307e-05 0.74288958 0.064855099 4271133
-0.00042553246 0.74277455 0.064855054 4271133
-0.00079497695 0.74265951 0.064855009 4205340
-0.0011644363 0.74254447 0.064854965 4140061
-0.0015338808 0.74242944 0.06485492 4074268
-0.0024636835 0.74304605 0.064353265 4074268
-0.0028346926 0.74293053 0.06435322 4074268
-0.0032057017 0.74281502 0.064353175 4140061
-0.0035767108 0.7426995 0.064353131 4140061
-0.0039477199 0.74258399 0.064353086 4140061
-0.0048869103 0.74319762 0.063851424 4140061
-0.0052594692 0.74308163 0.063851379 4140059
-0.0056320429 0.74296564 0.063851334 4271645
-0.0090287328 0.74372023 0.062847823 4140059
-0.0094044209 0.74360323 0.062847778 4140059
-0.009780094 0.74348629 0.062847733 4140059
-0.010155782 0.74336928 0.062847689 4074266
-0.01053147 0.74325234 0.062847644 4140059
-0.010907158 0.74313533 0.062847592 4271645
-0.011872828 0.7437408 0.062345929 4271645
-0.012250081 0.74362332 0.062345885 4271645
-0.012627319 0.74350584 0.06234584 4271645
-0.013004571 0.74338841 0.062345795 4271645
-0.013381809 0.74327093 0.062345743 4271645
-0.013759062 0.74315345 0.062345698 4271645
-0.014136299 0.74303603 0.062345654 4271645
-0.014513537 0.74291855 0.062345609 4206365
-0.01489079 0.74280107 0.062345564 4206365
-0.015268028 0.74268365 0.06234552 4206365
-0.01564528 0.74256617 0.062345475 4206365
-0.016022518 0.74244869 0.062345423 4271645
-0.017008469 0.74304783 0.06184376 4337438
-0.017387271 0.74292988 0.061843708 4271645
-0.017766073 0.74281192 0.061843663 4271645
-0.018144876 0.74269402 0.061843619 4271645
-0.018523678 0.74257606 0.061843574 4271645
-0.019518971 0.74317223 0.061341904 4271645
-0.019899338 0.74305379 0.061341859 4271645
-0.020279691 0.74293542 0.061341815 4271645
-0.020660058 0.74281693 0.06134177 4271645
-0.021040425 0.74269855 0.061341718 4272158
-0.021420792 0.74258006 0.061341673 4272158
-0.022426993 0.74317288 0.060840018 4272158
-0.022808909 0.74305397 0.060839973 4206365
-0.023190841 0.74293506 0.060839929 4008988
-0.023572758 0.74281615 0.060839877 4074781
-0.023954675 0.74269724 0.060839832 4206367
-0.024336591 0.74257833 0.060839787 4206367
-0.025353715 0.74316776 0.060338117 4075551
-0.025737196 0.74304831 0.060338065 4075551
-0.026120678 0.74292892 0.06033802 4272160
-0.026504144 0.74280953 0.060337976 4272160
-0.02688764 0.74269009 0.060337931 4272160
0.045802705 0.74649042 0.071196027 9338221
0.045451961 0.74638116 0.071195982 9338221
0.04510121 0.74627197 0.071195945 9338221
0.044750474 0.74616277 0.0711959 9338221
0.044399731 0.74605358 0.071195856 9338221
0.044048987 0.74594438 0.071195811 9140842
0.043698244 0.74583519 0.071195774 9206635
0.0433475 0.74572593 0.071195729 9206635
0.042996757 0.74561673 0.071195684 9140842
0.042646013 0.74550754 0.071195647 9075049
0.04229527 0.74539828 0.071195602 9140842
0.041944526 0.74528909 0.071195558 9140842
0.041593783 0.74517989 0.07119552 9140842
0.041243032 0.7450707 0.071195476 9075049
0.040892288 0.7449615 0.071195431 9075049
0.040541545 0.7448523 0.071195386 8944233
0.040190808 0.74474305 0.071195349 8944233
0.039840057 0.74463385 0.071195304 8944233
0.039489314 0.74452466 0.07119526 9010026
0.039138578 0.7444154 0.071195222 8878440
0.038787827 0.74430621 0.071195178 8878440
0.038437091 0.74419701 0.071195133 8878438
0.038086347 0.74408782 0.071195096 8812645
0.037735596 0.74397862 0.071195051 8746852
0.03738486 0.74386942 0.071195006 8812645
0.037034117 0.74376017 0.071194962 8746336
0.036683366 0.74365097 0.071194924 8680543
0.03633263 0.74354178 0.07119488 8614750
0.035981879 0.74343252 0.071194835 8614750
0.035631135 0.74332333 0.071194798 8548444
0.035280392 0.74321413 0.071194753 8680030
0.034929648 0.74310493 0.071194708 8811102
0.034578905 0.74299574 0.071194664 8218965
0.034228161 0.74288654 0.071194626 8218965
0.033877417 0.74277729 0.071194582 7890000
0.033526681 0.74266809 0.071194537 7824207
0.033175938 0.7425589 0.0711945 7692621
0.032825187 0.74244964 0.071194455 7099712
0.032036975 0.74311125 0.070694216 6573368
0.031684682 0.74300152 0.070694178 6046511
0.031332374 0.74289185 0.070694134 6112304
0.030980073 0.74278212 0.070694089 5849132
0.030627772 0.74267244 0.070694044 5651753
0.030275464 0.74256277 0.070694007 5651753
0.029923163 0.74245304 0.070693962 5651753
0.029570863 0.74234337 0.070693918 5192485
0.029218554 0.74223363 0.07069388 5126692
0.028866254 0.74212396 0.070693836 4995108
0.028513953 0.74201429 0.070693791 4863522
0.027707025 0.74267 0.070193551 4731936
0.027353168 0.74255985 0.070193507 4600350
0.02699931 0.74244964 0.07019347 4403485
0.026645452 0.74233949 0.070193425 4337692
0.026291586 0.74222928 0.07019338 4271899
0.025937721 0.74211913 0.070193335 4271899
0.025583863 0.74200892 0.070193298 4140059
0.025230005 0.74189878 0.070193253 4074266
0.024876148 0.74178857 0.070193209 4074266
0.024522282 0.74167836 0.070193164 4074266
0.024168417 0.74156821 0.070193127 4074268
0.023814559 0.74145806 0.070193082 4074268
0.022987373 0.74210745 0.069692843 4074268
0.022631943 0.74199677 0.069692798 4074268
0.022276528 0.74188614 0.069692753 4074268
0.021921113 0.74177545 0.069692709 4074268
0.021565691 0.74166477 0.069692671 4008475
0.020729154 0.7423113 0.069192424 4074268
0.020372167 0.74220014 0.06919238 4074268
0.020015195 0.74208897 0.069192342 4008475
0.019658215 0.74197781 0.069192298 4008475
0.019301236 0.74186671 0.069192253 4008475
0.018944263 0.74175555 0.069192208 4074268
0.018096812 0.74239862 0.068691976 4008475
0.017738268 0.74228698 0.068691932 4008473
0.017379731 0.74217534 0.068691887 4074266
0.017021194 0.7420637 0.068691842 4074266
0.016662657 0.74195206 0.068691798 4074266
0.01630412 0.74184048 0.068691753 4008473
0.015445754 0.74248016 0.068191513 4074266
0.015085667 0.74236804 0.068191469 4074266
0.014725566 0.74225593 0.068191424 4074266
0.014365464 0.74214381 0.068191379 4074266
0.014005363 0.74203169 0.068191335 4074266
0.013137653 0.74266851 0.067691088 4074266
0.012775995 0.74255586 0.067691043 4074266
0.012414344 0.74244326 0.067691006 4139545
0.012052685 0.74233067 0.067690961 4205338
0.011691034 0.74221802 0.067690916 4205338
0.011329375 0.74210548 0.067690872 4139545
0.010450743 0.74273884 0.067190625 4139545
0.01008752 0.74262571 0.06719058 4205338
0.0097243115 0.74251264 0.067190535 4205338
0.0093611032 0.74239957 0.067190491 4205338
0.0089978874 0.74228644 0.067190446 4008473
0.0081098974 0.74291694 0.066690199 4074266
0.0077451319 0.74280339 0.066690154 4008473
0.0073803663 0.74268979 0.06669011 4008473
0.0064861476 0.74331832 0.06618987 4074268
0.0061198026 0.7432043 0.066189826 4008475
0.0057534724 0.74309021 0.066189781 4008475
0.0048530251 0.74371684 0.065689534 4008475
0.0044851303 0.74360228 0.065689489 4074268
0.0041172504 0.74348772 0.065689445 4074268
0.0037493408 0.74337316 0.0656894 4008475
0.0033814609 0.7432586 0.065689355 4008475
0.0030135661 0.74314409 0.06568931 4074268
0.0026456863 0.74302953 0.065689266 4074268
0.0022777915 0.74291497 0.065689221 4008475
0.0013633072 0.74353719 0.065188967 4074268
0.00099384785 0.74342221 0.065188922 4074268
0.00062440336 0.74330717 0.065188877 4074268
0.00025494397 0.74319214 0.065188833 4074268
-0.00011450052 0.7430771 0.065188788 4074268
-0.00048394501 0.74296206 0.065188743 4140061
-0.0008534044 0.74284703 0.065188698 4074268
-0.0012228489 0.74273199 0.065188654 4140061
-0.0015922934 0.74261695 0.065188609 4074268
-0.0025223643 0.74323434 0.064688362 4074268
-0.0028933734 0.74311882 0.064688317 4074268
-0.0032643825 0.74300331 0.064688273 4140061
-0.0036353916 0.74288774 0.064688228 4140061
-0.0040064007 0.74277222 0.064688183 4140061
-0.0049458295 0.74338675 0.064187929 4140061
-0.0053183883 0.74327075 0.064187884 4140061
-0.0056909621 0.7431547 0.06418784 4140061
-0.0090881288 0.74391091 0.063187145 4271131
-0.0094638318 0.7437939 0.0631871 4205338
-0.009839505 0.74367696 0.063187055 4271131
-0.010215193 0.74355996 0.063187011 4140059
-0.010590881 0.74344301 0.063186966 4140059
-0.010966569 0.74332601 0.063186914 4271645
-0.011932492 0.74393225 0.062686659 4271645
-0.01230973 0.74381477 0.062686615 4271645
-0.012686968 0.74369729 0.06268657 4271645
-0.013064221 0.74357986 0.062686525 4140059
-0.013441458 0.74346238 0.062686473 4271645
-0.013818711 0.7433449 0.062686428 4271645
-0.014195949 0.74322748 0.062686384 4271645
-0.014573202 0.74311 0.062686339 4206365
-0.014950454 0.74299252 0.062686294 4074779
-0.015327692 0.7428751 0.06268625 4206365
-0.01570493 0.74275762 0.062686205 4206365
-0.016082168 0.7426402 0.062686153 4271645
-0.017068371 0.74324012 0.062185898 4271645
-0.017447174 0.74312216 0.062185846 4271645
-0.017825976 0.7430042 0.062185802 4337438
-0.018204778 0.74288625 0.062185757 4271645
-0.018583581 0.74276829 0.062185712 4271645
-0.019579127 0.74336529 0.06168545 4271645
-0.019959494 0.74324685 0.061685406 4271645
-0.020339847 0.74312842 0.061685361 4271645
-0.020720199 0.74300998 0.061685309 4271645
-0.021100566 0.74289155 0.061685264 4271645
-0.021480933 0.74277312 0.061685219 4337438
-0.022487387 0.74336672 0.061184973 4272158
-0.022869304 0.74324781 0.061184928 4074779
-0.023251221 0.7431289 0.061184883 4008988
-0.023633152 0.74300998 0.061184831 4074781
-0.024015069 0.74289107 0.061184786 4206367
-0.024396986 0.74277216 0.061184742 4206367
-0.025414363 0.74336237 0.06068448 4074781
-0.025797829 0.74324298 0.060684428 4074781
-0.02618131 0.74312353 0.060684383 4074781
-0.026564792 0.74300414 0.060684338 4074781
-0.026948273 0.74288476 0.060684294 4074781
0.046425663 0.74778748 0.071014173 9338221
0.046073362 0.7476778 0.071014129 9404014
0.045721062 0.74756813 0.071014084 9404014
0.045747235 0.7466684 0.071512818 9206635
0.045396492 0.7465592 0.071512781 9338221
0.045045748 0.74645001 0.071512736 9338221
0.044695005 0.74634081 0.071512692 9338221
0.044344261 0.74623156 0.071512654 9338221
0.043993518 0.74612236 0.07151261 9140842
0.043642774 0.74601316 0.071512565 9206635
0.043292031 0.74590397 0.071512528 9206635
0.042941295 0.74579477 0.071512483 9140842
0.042590551 0.74568552 0.071512438 9075049
0.0422398 0.74557632 0.071512394 9075049
0.041889064 0.74546713 0.071512356 9140842
0.04153832 0.74535793 0.071512312 9075049
0.041187569 0.74524868 0.071512267 9075049
0.040836826 0.74513948 0.07151223 9075049
0.040486082 0.74503028 0.071512185 9075049
0.040135346 0.74492109 0.07151214 9075049
0.039784595 0.74481189 0.071512096 8944233
0.039433852 0.74470264 0.071512058 9010026
0.039083116 0.74459344 0.071512014 8878440
0.038732365 0.74448425 0.071511969 8878440
0.038381629 0.74437499 0.071511932 8812645
0.038030885 0.74426579 0.071511887 8812645
0.037680134 0.7441566 0.071511842 8746852
0.037329398 0.7440474 0.071511805 8878438
0.036978655 0.74393821 0.07151176 8943461
0.036627904 0.74382901 0.071511716 8746082
0.036277167 0.74371976 0.071511671 8745569
0.035926417 0.74361056 0.071511634 8811362
0.035575673 0.74350137 0.071511589 8745823
0.035224929 0.74339211 0.071511544 8745823
0.034874186 0.74328291 0.071511507 8745823
0.034523442 0.74317372 0.071511462 8614237
0.034172699 0.74306452 0.071511418 8680030
0.033821955 0.74295533 0.071511373 8614237
0.033471219 0.74284613 0.071511336 8417371
0.033120476 0.74273688 0.071511291 8548957
0.032769725 0.74262768 0.071511246 8285785
0.031981267 0.74329001 0.071012422 7956820
0.031628966 0.74318033 0.071012378 7890000
0.031276658 0.7430706 0.071012333 7363656
0.030924365 0.74296093 0.071012296 7165507
0.030572057 0.74285126 0.071012251 6573370
0.030219756 0.74274158 0.071012206 6244405
0.029867455 0.74263185 0.071012162 6112819
0.029515147 0.74252218 0.071012124 5783854
0.029162847 0.74241245 0.07101208 5652268
0.028810546 0.74230278 0.071012035 5783852
0.028458245 0.7421931 0.07101199 5520680
0.027651072 0.74284959 0.070513166 5323301
0.027297214 0.74273944 0.070513122 5323301
0.026943356 0.74262923 0.070513077 5060899
0.02658949 0.74251908 0.070513032 4929313
0.026235625 0.74240887 0.070512995 4600862
0.025881767 0.74229872 0.07051295 4469276
0.025527909 0.74218851 0.070512906 4403485
0.025174052 0.74207836 0.070512861 4271899
0.024820186 0.74196815 0.070512816 4337438
0.024466321 0.74185801 0.070512779 4140059
0.024112463 0.7417478 0.070512734 4140059
0.023758598 0.74163765 0.07051269 4140059
0.022931173 0.74228781 0.070013858 4074266
0.022575743 0.74217713 0.070013814 4074266
0.022220328 0.7420665 0.070013769 4074266
0.021864906 0.74195582 0.070013732 4074266
0.021509483 0.74184513 0.070013687 4074266
0.021154068 0.7417345 0.070013642 4074266
0.020798646 0.74162382 0.070013598 4074266
0.020443231 0.74151313 0.070013553 4008473
0.019601762 0.74215901 0.069514722 4008473
0.019244783 0.74204785 0.069514677 4008473
0.018887803 0.74193668 0.069514632 4074266
0.018530823 0.74182558 0.069514595 4074266
0.018173844 0.74171442 0.06951455 4008473
0.017816871 0.74160326 0.069514506 4074266
0.016964495 0.74224567 0.069015674 4074266
0.016605966 0.74213403 0.069015637 4074266
0.016247422 0.7420224 0.069015592 4008473
0.015888892 0.74191082 0.069015548 4074266
0.015530348 0.74179912 0.069015503 4074266
0.014668629 0.74243867 0.068516664 4074266
0.014308527 0.74232656 0.06851662 4074266
0.013948426 0.74221444 0.068516582 4074266
0.013588332 0.74210232 0.068516538 4074266
0.01322823 0.74199021 0.068516493 4074266
0.012868136 0.74187809 0.068516448 4008473
0.011995494 0.74251419 0.068017609 4074266
0.011633843 0.7424016 0.068017565 4074266
0.011272185 0.74228901 0.06801752 4008473
0.010910526 0.74217641 0.068017475 4008473
0.010548867 0.74206376 0.068017431 4074266
0.010187224 0.74195117 0.068017393 4074266
0.0093036592 0.74258387 0.067518547 4074266
0.0089404508 0.7424708 0.067518502 4008473
0.008577235 0.74235773 0.067518465 4008473
0.0082140192 0.7422446 0.067518421 3942680
0.0078508034 0.74213153 0.067518376 4008473
0.0069579035 0.74276137 0.06701953 4008475
0.0065931231 0.74264777 0.067019492 4074268
0.0062283576 0.74253422 0.067019448 4008475
0.0053292215 0.7431621 0.066520609 4074268
0.0049628764 0.74304801 0.066520564 4074268
0.0045965463 0.74293399 0.06652052 4074268
0.0042302161 0.74281991 0.066520475 4074268
0.003863886 0.74270582 0.06652043 4008475
0.0034975559 0.74259174 0.066520385 4074268
0.0025874972 0.74321628 0.066021547 4008475
0.0022196025 0.74310172 0.066021502 4008475
0.0018517226 0.74298716 0.066021457 4074268
0.0014838278 0.7428726 0.066021413 4074268
0.0011159331 0.74275804 0.066021368 4074268
0.00074803829 0.74264348 0.066021323 4074268
0.00038015842 0.74252898 0.066021279 4074268
1.2263656e-05 0.74241441 0.066021234 4074268
-0.00035563111 0.74229985 0.066021189 4074268
-0.00072352588 0.74218529 0.066021144 4074268
-0.0010914207 0.74207079 0.0660211 4140061
-0.0020201653 0.74268943 0.065522254 4074268
-0.0023896247 0.74257439 0.065522209 4074268
-0.0027590692 0.74245936 0.065522164 4140061
-0.0031285137 0.74234432 0.065522119 4140061
-0.0034979582 0.74222928 0.065522075 4140061
-0.0038674176 0.74211425 0.06552203 4140061
-0.0048070699 0.74272954 0.065023191 4140061
-0.005178079 0.74261397 0.065023147 4140061
-0.0091475397 0.74410158 0.063526466 4271131
-0.0095232427 0.74398458 0.063526422 4205338
-0.0098989159 0.74386764 0.063526377 4271131
-0.010274604 0.74375063 0.063526332 4271131
-0.010650292 0.74363363 0.063526288 4271131
-0.01102598 0.74351668 0.063526236 4402717
-0.011401653 0.74339974 0.063526191 4402717
-0.011777341 0.74328274 0.063526146 4140059
-0.012153029 0.74316573 0.063526101 4271645
-0.012528718 0.74304879 0.063526057 4140059
-0.012904391 0.74293184 0.063526012 4271645
-0.013280094 0.74281484 0.063525967 4271645
-0.014255613 0.74341893 0.063027114 4271645
-0.014632851 0.74330151 0.063027069 4271645
-0.015010104 0.74318403 0.063027024 4140059
-0.015387341 0.74306655 0.06302698 4271645
-0.015764594 0.74294913 0.063026935 4271645
-0.016141832 0.74283165 0.063026883 4271645
-0.01651907 0.74271417 0.063026838 4271645
-0.016896322 0.74259675 0.063026793 4271645
-0.01727356 0.74247926 0.063026749 4337438
-0.018264681 0.74307847 0.062527895 4271645
-0.018643484 0.74296057 0.06252785 4271645
-0.019022286 0.74284261 0.062527806 4271645
-0.019401088 0.74272466 0.062527761 4271645
-0.019779891 0.74260676 0.062527716 4271645
-0.020780355 0.74320304 0.062028855 4271645
-0.021160707 0.74308461 0.06202881 4271645
-0.021541074 0.74296618 0.062028766 4271645
-0.021921441 0.74284774 0.062028721 4337438
-0.022301808 0.74272931 0.062028676 4271645
-0.022682175 0.74261087 0.062028632 4008988
-0.023693547 0.74320382 0.061529785 4074781
-0.024075463 0.74308491 0.061529741 4206367
-0.02445738 0.742966 0.061529696 4206367
-0.024839312 0.74284708 0.061529651 4074781
-0.025221214 0.74272811 0.061529599 4008988
-0.026241958 0.7433182 0.061030746 4140061
-0.02662544 0.74319875 0.061030701 4140061
-0.027008921 0.74307936 0.061030656 4140061
-0.027392402 0.74295998 0.061030604 4140061
-0.027775869 0.74284053 0.061030559 4074781
-0.02815935 0.74272114 0.061030515 4008988
0.046369955 0.74796629 0.071332373 9338221
0.046017647 0.74785662 0.071332328 9338221
0.045665354 0.74774694 0.071332291 9206635
0.045313045 0.74763721 0.071332246 9140842
0.044960745 0.74752754 0.071332201 9206635
0.044608444 0.74741781 0.071332157 9338221
0.044256136 0.74730814 0.071332119 9338221
0.043903835 0.74719846 0.071332075 9206635
0.043551534 0.74708873 0.07133203 9140842
0.043199234 0.74697906 0.071331985 9206635
0.042846933 0.74686933 0.071331948 9075819
0.042494625 0.74675965 0.071331903 9010026
0.042142324 0.74664998 0.071331859 8944233
0.041790023 0.74654031 0.071331821 8944233
0.041437723 0.74643058 0.071331777 9075049
0.041085422 0.7463209 0.071331732 9075049
0.040733114 0.74621117 0.071331687 9075049
0.040380813 0.7461015 0.07133165 9075049
0.040028512 0.74599183 0.071331605 9075049
0.039676204 0.74588209 0.071331561 9075049
0.039323904 0.74577242 0.071331516 9075049
0.038971603 0.74566269 0.071331479 9075049
0.038619295 0.74555302 0.071331434 9009256
0.038267002 0.74544334 0.071331389 9009256
0.037914693 0.74533367 0.071331352 9009254
0.037562393 0.74522394 0.071331307 8943461
0.037210092 0.74511427 0.071331263 8943461
0.036857784 0.74500453 0.071331218 9009254
0.036505491 0.74489486 0.071331181 8943461
0.036153182 0.74478519 0.071331136 8877668
0.035800882 0.74467546 0.071331091 8942948
0.035448581 0.74456578 0.071331047 8942948
0.035096273 0.74445605 0.071331009 8811362
0.034743972 0.74434638 0.071330965 8811362
0.034391671 0.74423671 0.07133092 8811616
0.034039371 0.74412698 0.071330875 8745823
0.03368707 0.7440173 0.071330838 8745823
0.033334762 0.74390757 0.071330793 8745823
0.032982461 0.7437979 0.071330748 8746336
0.03263016 0.74368823 0.071330711 8680543
0.03227786 0.74357855 0.071330667 8680543
0.031925559 0.74346882 0.071330622 8614750
0.031573251 0.74335915 0.071330577 8548957
0.03122095 0.74324942 0.07133054 8548957
0.030868649 0.74313974 0.071330495 8746336
0.030516341 0.74303007 0.07133045 8285785
0.030164048 0.74292034 0.071330406 7890260
0.029364422 0.7435801 0.07083299 7692881
0.029010564 0.74346995 0.070832945 7100232
0.028656699 0.74335974 0.070832901 6771267
0.028302833 0.74324954 0.070832856 6376759
0.027948976 0.74313939 0.070832819 6047794
0.027595118 0.74302918 0.070832774 5980718
0.02724126 0.74291903 0.070832729 5849132
0.026887394 0.74280882 0.070832685 5718059
0.026533529 0.74269867 0.070832647 5586473
0.026179671 0.74258846 0.070832603 5586473
0.025825813 0.74247831 0.070832558 5323301
0.025471948 0.7423681 0.070832513 5126692
0.02511809 0.74225795 0.070832476 4995106
0.024764225 0.74214774 0.070832431 4863522
0.024410367 0.74203759 0.070832387 4731936
0.024056502 0.74192739 0.070832342 4600350
0.023702636 0.74181724 0.070832305 4468764
0.022874966 0.74246824 0.070334874 4402717
0.022519544 0.74235755 0.070334837 4402717
0.022164121 0.74224687 0.070334792 4271131
0.021808699 0.74213624 0.070334747 4271131
0.021453284 0.74202555 0.070334703 4271131
0.021097869 0.74191487 0.070334658 4205338
0.020742446 0.74180424 0.070334621 4074266
0.020387024 0.74169356 0.070334576 4008473
0.019545317 0.74234021 0.069837146 4074266
0.01918833 0.74222904 0.069837108 4074266
0.018831357 0.74211788 0.069837064 4074266
0.01847437 0.74200672 0.069837019 4074266
0.018117398 0.74189556 0.069836974 4074266
0.017760426 0.74178445 0.069836929 4074266
0.016907796 0.74242765 0.069339514 4074266
0.016549267 0.74231601 0.069339469 4074266
0.016190723 0.74220437 0.069339424 4074266
0.015832193 0.74209273 0.06933938 4074266
0.015473649 0.74198115 0.069339335 4074268
0.014611676 0.74262142 0.068841904 4074268
0.014251575 0.74250931 0.068841867 4074268
0.013891473 0.74239719 0.068841822 4074268
0.013531387 0.74228507 0.068841778 4074266
0.013171285 0.74217296 0.068841733 4074266
0.012811191 0.74206084 0.068841688 4008473
0.011938304 0.74269778 0.068344258 4074266
0.011576653 0.74258518 0.068344213 4074266
0.011214994 0.74247253 0.068344168 4008473
0.010853335 0.74235994 0.068344131 4008473
0.010491677 0.74224734 0.068344086 4074266
0.010130033 0.74213469 0.068344042 4074266
0.0092462301 0.74276823 0.067846611 4074266
0.0088830143 0.74265516 0.067846566 4008473
0.0085197985 0.74254203 0.067846522 4008473
0.0081565827 0.74242896 0.067846477 4008473
0.0077933669 0.74231589 0.067846432 4008473
0.0069002211 0.74294651 0.067349002 4074268
0.0065354407 0.7428329 0.067348957 4074268
0.0061706752 0.74271935 0.067348912 4008475
0.0052712858 0.743348 0.066851482 4074268
0.0049049556 0.74323392 0.066851437 4074268
0.0045386255 0.7431199 0.066851392 4074268
0.0041722953 0.74300581 0.066851348 4008475
0.0038059652 0.74289179 0.066851303 4008475
0.0034396201 0.74277771 0.066851266 4074268
0.0025293231 0.74340296 0.066353828 4074268
0.0021614283 0.7432884 0.066353783 4008475
0.0017935485 0.74317384 0.066353738 4074268
0.0014256537 0.74305928 0.066353694 4205340
0.0010577589 0.74294478 0.066353649 4205340
0.00068986416 0.74283022 0.066353604 4205340
0.00032198429 0.74271566 0.066353559 4205340
-4.5910478e-05 0.74260116 0.066353515 4205340
-0.00041380525 0.7424866 0.06635347 4205340
-0.00078170002 0.74237204 0.066353425 4074268
-0.0011495948 0.74225748 0.066353381 4140061
-0.0020785928 0.74287695 0.065855943 4074268
-0.0024480522 0.74276191 0.065855898 4074268
-0.0028174967 0.74264687 0.065855853 4140061
-0.0031869411 0.74253184 0.065855809 4140061
-0.0035563856 0.7424168 0.065855764 4074268
-0.003925845 0.74230176 0.065855719 4140061
-0.0048657507 0.74291778 0.065358289 4140061
-0.0052367598 0.74280226 0.065358244 4140061
-0.0092069507 0.74429226 0.063865788 4271131
-0.0095826536 0.74417526 0.063865744 4205338
-0.0099583268 0.74405825 0.063865699 4271131
-0.010334015 0.74394131 0.063865654 4271131
-0.010709703 0.74382436 0.063865609 4271131
-0.011085391 0.74370736 0.063865557 4402717
-0.011461064 0.74359035 0.063865513 4402717
-0.011836752 0.74347341 0.063865468 4140059
-0.01221244 0.74335647 0.063865423 4140059
-0.012588128 0.74323946 0.063865378 4140059
-0.012963802 0.74312246 0.063865334 4271645
-0.013339505 0.74300551 0.063865289 4140059
-0.014315262 0.74361038 0.063367844 4140059
-0.014692515 0.74349296 0.063367799 4140059
-0.015069768 0.74337548 0.063367754 4140059
-0.015447006 0.743258 0.06336771 4271645
-0.015824243 0.74314058 0.063367665 4271645
-0.016201481 0.7430231 0.063367613 4271645
-0.016578734 0.74290562 0.063367568 4271645
-0.016955972 0.7427882 0.063367523 4140059
-0.017333224 0.74267071 0.063367479 4271645
-0.018324584 0.74327075 0.062870033 4271645
-0.018703386 0.7431528 0.062869988 4271645
-0.019082189 0.74303484 0.062869944 4271645
-0.019460991 0.74291694 0.062869899 4271645
-0.019839793 0.74279898 0.062869847 4271645
-0.020840511 0.7433961 0.062372401 4271645
-0.021220863 0.74327767 0.062372357 4271645
-0.02160123 0.74315923 0.062372312 4271645
-0.021981582 0.7430408 0.062372267 4271645
-0.022361949 0.74292237 0.062372223 4140059
-0.022742316 0.74280393 0.06237217 4074781
-0.023753941 0.74339765 0.06187474 4074781
-0.024135858 0.74327874 0.061874695 4206367
-0.024517775 0.74315983 0.06187465 4206367
-0.024899706 0.74304092 0.061874598 4074781
-0.025281623 0.74292195 0.061874554 4008988
-0.026302591 0.74351281 0.061377108 4074268
-0.026686072 0.74339342 0.061377063 4140061
-0.027069554 0.74327397 0.061377011 4140061
-0.027453035 0.74315459 0.061376967 4074268
-0.027836516 0.7430352 0.061376922 4008988
-0.028219983 0.74291575 0.061376877 4008988
0.04631424 0.7481451 0.071650572 9206635
0.045961939 0.74803543 0.071650535 9206635
0.045609638 0.7479257 0.07165049 9140842
0.04525733 0.74781603 0.071650445 9140842
0.044905029 0.74770629 0.071650408 9206635
0.044552729 0.74759662 0.071650364 9206635
0.044200428 0.74748695 0.071650319 9206635
0.043848127 0.74737728 0.071650274 9206635
0.043495819 0.74726754 0.071650237 9140842
0.043143518 0.74715787 0.071650192 9206635
0.042791218 0.74704814 0.071650147 9206635
0.042438917 0.74693847 0.071650103 9140842
0.042086616 0.74682879 0.071650065 9075049
0.041734308 0.74671906 0.071650021 9075049
0.041382015 0.74660939 0.071649976 9075049
0.041029707 0.74649966 0.071649939 9140842
0.040677398 0.74638999 0.071649894 9075049
0.040325105 0.74628031 0.071649849 9075049
0.039972797 0.74617064 0.071649805 9075049
0.039620496 0.74606091 0.071649767 9075049
0.039268196 0.74595124 0.071649723 9075049
0.038915887 0.7458415 0.071649678 9075049
0.038563587 0.74573183 0.071649633 9009254
0.038211286 0.74562216 0.071649596 9009254
0.037858985 0.74551243 0.071649551 9009254
0.037506685 0.74540275 0.071649507 8943461
0.037154377 0.74529302 0.071649462 8943461
0.036802076 0.74518335 0.071649425 9009254
0.036449775 0.74507368 0.07164938 8943461
0.036097474 0.74496394 0.071649335 8877668
0.035745174 0.74485427 0.071649298 8942948
0.035392866 0.74474454 0.071649253 8942948
0.035040557 0.74463487 0.071649209 8942948
0.034688264 0.74452519 0.071649164 8811362
0.034335956 0.74441552 0.071649127 8811362
0.033983663 0.74430579 0.071649082 8745569
0.033631355 0.74419612 0.071649037 8811362
0.033279054 0.74408638 0.071648993 8811362
0.032926753 0.74397671 0.071648955 8877668
0.032574445 0.74386704 0.071648911 8746082
0.032222152 0.74375731 0.071648866 8746082
0.031869844 0.74364763 0.071648821 8746082
0.031517543 0.7435379 0.071648784 8877922
0.031165242 0.74342823 0.071648739 8746336
0.030812934 0.74331856 0.071648695 8746336
0.030460633 0.74320889 0.071648657 8877922
0.030108333 0.74309915 0.071648613 8746082
0.029308468 0.74375969 0.071152598 8548703
0.028954603 0.74364948 0.071152553 8285531
0.028600737 0.74353933 0.071152508 8153945
0.02824688 0.74342918 0.071152471 8219225
0.027893022 0.74331897 0.071152426 7758674
0.027539156 0.74320877 0.071152382 7758414
0.027185299 0.74309862 0.071152337 6903105
0.026831433 0.74298847 0.0711523 6442552
0.026477575 0.74287826 0.071152255 5982001
0.026123717 0.74276805 0.07115221 5915438
0.025769852 0.7426579 0.071152166 5718059
0.025415987 0.74254769 0.071152128 5652266
0.025062129 0.74243754 0.071152084 5718059
0.024708271 0.74232733 0.071152039 5520680
0.024354413 0.74221718 0.071151994 5454887
0.02400054 0.74210697 0.071151957 5257508
0.023646683 0.74199682 0.071151912 5191715
0.022818759 0.7426486 0.070655897 4666143
0.022463337 0.74253792 0.070655853 4731936
0.022107914 0.74242723 0.070655808 4534557
0.021752499 0.7423166 0.070655763 4534557
0.021397084 0.74220592 0.070655718 4468764
0.021041662 0.74209523 0.070655681 4402971
0.020686239 0.74198461 0.070655636 4271131
0.020330817 0.74187392 0.070655592 4205338
0.019488864 0.74252135 0.070159577 4074266
0.019131884 0.74241018 0.070159532 4074266
0.018774912 0.74229908 0.070159487 4074266
0.018417925 0.74218792 0.070159443 4074266
0.018060952 0.74207675 0.070159398 4074266
0.017703973 0.74196559 0.070159361 4074266
0.016851097 0.74260962 0.069663346 4074266
0.016492568 0.74249798 0.069663301 4140059
0.016134024 0.74238634 0.069663256 4074266
0.015775494 0.7422747 0.069663212 4074266
0.01541695 0.74216306 0.069663174 4074268
0.014554739 0.74280417 0.069167152 4074268
0.014194638 0.74269205 0.069167107 4140061
0.013834536 0.74257994 0.069167063 4074268
0.013474442 0.74246782 0.069167018 4074266
0.013114341 0.7423557 0.069166973 4074266
0.012754247 0.74224359 0.069166929 4074266
0.011881113 0.7428813 0.068670906 4074266
0.011519462 0.7427687 0.068670869 4074266
0.011157803 0.74265611 0.068670824 4008473
0.010796145 0.74254346 0.068670779 4008473
0.010434486 0.74243087 0.068670735 4074266
0.010072842 0.74231827 0.06867069 4074266
0.0091887861 0.74295259 0.068174668 4008473
0.0088255778 0.74283946 0.068174623 4008473
0.008462362 0.74272639 0.068174578 4008473
0.0080991462 0.74261332 0.068174534 4008473
0.0077359304 0.74250019 0.068174489 4008473
0.0068425387 0.74313164 0.067678466 4074266
0.0064777583 0.74301803 0.067678422 4074266
0.0061129928 0.74290448 0.067678377 4008473
0.005213365 0.74353397 0.067182362 4074266
0.0048470199 0.74341989 0.067182317 4074266
0.0044806898 0.7433058 0.067182273 4074266
0.0041143596 0.74319172 0.067182228 4008473
0.0037480295 0.7430777 0.067182183 4008473
0.0033816993 0.74296361 0.067182139 4074266
0.002471149 0.74358964 0.066686109 4074266
0.0021032542 0.74347514 0.066686064 4074266
0.0017353743 0.74336058 0.066686019 4074266
0.0013674796 0.74324602 0.066685975 4205338
0.00099958479 0.74313152 0.06668593 4205338
0.00063169003 0.74301696 0.066685885 4271131
0.00026381016 0.7429024 0.06668584 4271131
-0.00010408461 0.74278784 0.066685796 4271131
-0.00047197938 0.74267328 0.066685751 4205338
-0.00083987415 0.74255872 0.066685706 4074266
-0.0012077689 0.74244416 0.066685662 4140059
-0.0021370053 0.7430644 0.066189632 4074266
-0.0025064647 0.74294937 0.066189587 4074266
-0.0028759092 0.74283433 0.066189542 4074268
-0.0032453686 0.74271935 0.066189498 4140061
-0.0036148131 0.74260432 0.066189453 4074268
-0.0039842725 0.74248928 0.066189408 4140061
-0.0049244165 0.74310613 0.065693386 4140061
-0.0052954257 0.74299061 0.065693341 4140061
-0.0092663616 0.74448287 0.06420511 4271131
-0.0096420646 0.74436593 0.064205065 4205338
-0.010017738 0.74424899 0.064205021 4271131
-0.010393426 0.74413198 0.064204976 4271131
-0.010769114 0.74401498 0.064204931 4271131
-0.011144802 0.74389803 0.064204879 4402717
-0.011520475 0.74378109 0.064204834 4271131
-0.011896163 0.74366409 0.06420479 4140059
-0.012271851 0.74354708 0.064204745 4140059
-0.012647539 0.74343014 0.0642047 4140059
-0.013023213 0.74331313 0.064204656 4140059
-0.013398916 0.74319619 0.064204611 4140059
-0.014374927 0.74380183 0.063708574 4271645
-0.014752164 0.74368441 0.063708529 4140059
-0.015129417 0.74356693 0.063708484 4140059
-0.015506655 0.74344945 0.063708439 4271645
-0.015883908 0.74333203 0.063708395 4337438
-0.016261145 0.74321455 0.063708343 4271645
-0.016638383 0.74309707 0.063708298 4271645
-0.017015636 0.74297965 0.063708253 4271645
-0.017392874 0.74286216 0.063708209 4271645
-0.018384486 0.74346304 0.063212171 4271645
-0.018763289 0.74334508 0.063212126 4271645
-0.019142091 0.74322712 0.063212082 4271645
-0.019520894 0.74310917 0.063212037 4140059
-0.019899696 0.74299121 0.063211985 4271645
-0.020900652 0.74358916 0.062715948 4271645
-0.021281019 0.74347067 0.062715903 4271645
-0.021661386 0.74335229 0.062715858 4271645
-0.022041738 0.7432338 0.062715814 4271645
-0.02242209 0.74311543 0.062715769 4140059
-0.022802457 0.74299699 0.062715717 4140061
-0.023814335 0.74359149 0.062219694 4271647
-0.024196252 0.74347258 0.06221965 4271647
-0.024578169 0.74335366 0.062219605 4140061
-0.024960101 0.74323475 0.062219553 4140061
-0.025342003 0.74311578 0.062219508 4074268
-0.026363239 0.74370742 0.061723471 4074268
-0.026746705 0.74358803 0.061723426 4140061
-0.027130201 0.74346864 0.061723374 4140061
-0.027513668 0.74334919 0.061723329 4074268
-0.027897164 0.74322981 0.061723284 3943195
-0.028280631 0.74311042 0.06172324 4008988
0.046258532 0.74832392 0.071968779 9206635
0.045906231 0.74821424 0.071968734 9206635
0.045553923 0.74810451 0.07196869 9140842
0.045201622 0.74799484 0.071968652 9140842
0.044849321 0.74788511 0.071968608 9140842
0.044497013 0.74777544 0.071968563 9206635
0.044144712 0.74766576 0.071968518 9140842
0.043792412 0.74755603 0.071968481 9140842
0.043440111 0.74744636 0.071968436 9140842
0.04308781 0.74733663 0.071968392 9140842
0.04273551 0.74722695 0.071968354 9140842
0.042383201 0.74711728 0.07196831 9140842
0.042030901 0.74700761 0.071968265 9075049
0.0416786 0.74689788 0.07196822 9009256
0.041326299 0.7467882 0.071968183 9009256
0.040973991 0.74667847 0.071968138 9075049
0.040621683 0.7465688 0.071968094 9075049
0.04026939 0.74645913 0.071968049 9075049
0.039917082 0.74634939 0.071968012 9075049
0.039564788 0.74623972 0.071967967 9075049
0.03921248 0.74612999 0.071967922 9075049
0.038860179 0.74602032 0.071967885 9075049
0.038507879 0.74591064 0.07196784 9009254
0.038155571 0.74580097 0.071967795 9009254
0.037803277 0.74569124 0.071967751 9009254
0.037450969 0.74558151 0.071967714 8943461
0.037098669 0.74547184 0.071967669 8943461
0.036746368 0.74536216 0.071967624 9009254
0.03639406 0.74525249 0.071967579 8943461
0.036041766 0.74514276 0.071967542 8943461
0.035689458 0.74503309 0.071967497 8877668
0.03533715 0.74492335 0.071967453 8877668
0.034984849 0.74481368 0.071967408 8942948
0.034632549 0.74470401 0.071967371 8942948
0.034280248 0.74459428 0.071967326 8942948
0.033927947 0.7444846 0.071967281 8811362
0.033575639 0.74437487 0.071967244 8811362
0.033223346 0.7442652 0.071967199 8811362
0.032871038 0.74415553 0.071967155 8877668
0.03251873 0.74404585 0.07196711 8877668
0.032166436 0.74393612 0.071967073 8746082
0.031814128 0.74382645 0.071967028 8877668
0.031461835 0.74371672 0.071966983 8877668
0.031109527 0.74360704 0.071966939 8943461
0.030757226 0.74349737 0.071966901 8746082
0.030404925 0.74338764 0.071966857 8877668
0.030052617 0.74327797 0.071966812 8877668
0.029252507 0.74393928 0.071472205 8877668
0.028898641 0.74382913 0.071472168 8746082
0.028544784 0.74371892 0.071472123 8680289
0.028190926 0.74360871 0.071472079 8614496
0.02783706 0.74349856 0.071472034 8680289
0.027483195 0.74338841 0.071471997 8679776
0.027129337 0.74327821 0.071471952 8350811
0.026775479 0.743168 0.071471907 7890260
0.026421621 0.74305785 0.071471862 8087639
0.026067756 0.7429477 0.071471825 7627088
0.025713891 0.74283749 0.071471781 7100744
0.025360033 0.74272728 0.071471736 6704956
0.025006175 0.74261713 0.071471691 6639163
0.024652317 0.74250698 0.071471654 6309683
0.024298452 0.74239677 0.071471609 5980718
0.023944587 0.74228656 0.071471564 5783339
0.023590729 0.74217641 0.07147152 5717546
0.022762559 0.74282897 0.070976913 5651753
0.022407129 0.74271834 0.070976868 5520167
0.022051714 0.74260765 0.070976824 5322790
0.021696299 0.74249697 0.070976786 5191204
0.021340877 0.74238634 0.070976742 5060131
0.020985454 0.74227566 0.070976697 4994338
0.020630032 0.74216497 0.070976652 4666143
0.020274617 0.74205434 0.070976615 4600350
0.019432411 0.74270254 0.070482001 4534557
0.019075431 0.74259138 0.070481956 4402971
0.018718451 0.74248022 0.070481911 4271131
0.018361472 0.74236906 0.070481874 4402717
0.018004492 0.74225795 0.070481829 4271131
0.01764752 0.74214679 0.070481785 4205338
0.016794406 0.74279159 0.069987178 4140059
0.016435876 0.74267995 0.069987133 4140059
0.016077332 0.74256831 0.069987096 4074266
0.015718803 0.74245667 0.069987051 4074266
0.015360251 0.74234504 0.069987006 4074268
0.015001729 0.7422334 0.069986962 4074268
0.014643177 0.74212176 0.069986917 4140061
0.014284641 0.74201012 0.069986872 4074268
0.013417497 0.74265057 0.069492258 4074266
0.013057396 0.74253845 0.069492221 4074266
0.012697309 0.74242634 0.069492176 4074266
0.012337208 0.74231422 0.069492131 4074266
0.011977114 0.7422021 0.069492087 4074266
0.011617012 0.74208999 0.069492042 4008473
0.010738954 0.74272704 0.068997428 4008473
0.010377295 0.74261445 0.068997383 4074266
0.010015652 0.74250185 0.068997338 4008473
0.0096539855 0.7423892 0.068997294 4008473
0.0092923343 0.74227661 0.068997249 4008473
0.0089306757 0.74216402 0.068997212 4008473
0.0080417097 0.74279761 0.06850259 4008473
0.0076784939 0.74268454 0.068502545 4008473
0.0073152855 0.74257147 0.068502501 4074266
0.0069520622 0.74245834 0.068502463 4140059
0.0065888539 0.74234527 0.068502419 4139545
0.0056905299 0.74297601 0.068007797 4139545
0.0053257495 0.74286246 0.068007752 4205338
0.004960984 0.74274886 0.068007708 4205338
0.0040564388 0.74337769 0.067513101 4205338
0.0036901087 0.7432636 0.067513056 4139545
0.0033237636 0.74314952 0.067513011 4074266
0.0029574335 0.7430355 0.067512967 4074266
0.0025911033 0.74292141 0.067512922 4074266
0.0022247732 0.74280739 0.067512877 4074266
0.001858443 0.74269331 0.067512833 4205338
0.0014921129 0.74257922 0.067512788 4271131
0.0011257827 0.74246514 0.067512743 4271131
0.00075945258 0.74235111 0.067512698 4205338
