# .PCD v0.7 - Point Cloud Data file format
VERSION 0.7
FIELDS x y z rgb
SIZE 4 4 4 4
TYPE F F F U
COUNT 1 1 1 1
WIDTH 1106
HEIGHT 1
VIEWPOINT 0 0 0 1 0 0 0
POINTS 1106
DATA ascii
0.054955542 0.75612992 0.070453696 11242861
0.054734156 0.75583273 0.070455149 11572596
0.054512769 0.75553548 0.070456594 11638389
0.054291368 0.75523829 0.070458047 11638389
0.054069981 0.75494105 0.0704595 11967354
0.05384858 0.7546438 0.070460945 12296317
0.053627193 0.75434661 0.070462398 12427903
0.053405806 0.75404936 0.070463851 12427131
0.05318442 0.75375217 0.070465297 12690303
0.052963018 0.75345492 0.070466749 12756096
0.052741632 0.75315773 0.070468195 12887682
0.053331241 0.75249195 0.070961125 12625280
0.053110823 0.75219601 0.070962571 12559487
0.05289042 0.75190014 0.070964016 12559487
0.052670002 0.7516042 0.070965461 12756866
0.052449584 0.75130832 0.070966899 12757120
0.052229166 0.75101238 0.070968345 12822913
0.052008748 0.75071645 0.07096979 12822913
0.05178833 0.75042057 0.070971236 12822913
0.051567912 0.75012463 0.070972681 12822913
0.051347494 0.74982876 0.070974119 12888706
0.051127076 0.74953282 0.070975564 12888706
0.050906673 0.74923694 0.07097701 12888706
0.050686255 0.748941 0.070978455 12888706
0.050465837 0.74864507 0.070979901 12822913
0.050245419 0.74834919 0.070981339 12757120
0.050025001 0.74805325 0.070982784 12822913
0.049804583 0.74775732 0.070984229 12888706
0.050411761 0.74711514 0.071477041 12822913
0.050192311 0.74682057 0.071478479 12822913
0.049972877 0.74652594 0.071479917 12822913
0.049753428 0.74623132 0.071481355 13019522
0.049533993 0.74593675 0.071482792 12887936
0.049314544 0.74564213 0.07148423 12953729
0.049095109 0.7453475 0.071485668 13019522
0.048041254 0.74539006 0.070995778 13085315
0.047820836 0.74509412 0.070997223 13085315
0.047600418 0.74479818 0.070998669 13019520
0.047380015 0.74450231 0.071000114 13019520
0.047159597 0.74420637 0.071001552 13019520
0.046939179 0.74391049 0.071002997 12953727
0.046718761 0.74361455 0.071004443 12953727
0.046498343 0.74331868 0.071005888 12953727
0.046277925 0.74302274 0.071007326 13019520
0.05709663 0.78849 0.060851783 9926737
0.056855738 0.78816658 0.060853362 9926737
0.056614831 0.78784317 0.060854942 9926737
0.057103664 0.78704071 0.06134712 9992017
0.05686374 0.78671861 0.061348692 9992017
0.056623816 0.7863965 0.061350264 10123603
0.057116553 0.78559935 0.061842419 10123603
0.056877613 0.78527856 0.061843984 10057810
0.056638658 0.78495777 0.061845548 10057810
0.057135284 0.7841658 0.062337667 10123349
0.056897312 0.78384632 0.062339231 10123349
0.056659341 0.78352684 0.062340789 10123349
0.056421369 0.78320736 0.062342346 9991763
0.057430327 0.77435106 0.065803409 9794384
0.05719918 0.77404076 0.065804929 9860177
0.056968033 0.7737304 0.065806441 9860177
0.056736887 0.7734201 0.065807953 9794384
0.05650574 0.77310979 0.065809466 9794384
0.056274593 0.77279949 0.065810978 9794384
0.056805372 0.77205336 0.066302888 9794384
0.056575209 0.77174437 0.066304393 9860177
0.056345031 0.77143532 0.066305906 9860177
0.056879714 0.77069443 0.066797785 9860177
0.056650519 0.77038676 0.066799283 9860177
0.056421325 0.77007908 0.066800788 9794384
0.05619213 0.76977134 0.066802286 9794384
0.055962935 0.76946366 0.066803791 9794384
0.05573374 0.76915598 0.066805288 9794384
0.057045937 0.76800025 0.067787454 9794384
0.056818694 0.76769513 0.067788944 9860177
0.056591451 0.76739007 0.067790434 9662798
0.057137832 0.76666486 0.068282232 9662798
0.056911558 0.76636112 0.068283714 9794384
0.056685284 0.76605737 0.068285197 9794384
0.056459025 0.76575357 0.06828668 9860177
0.056559697 0.76443005 0.068781406 9794384
0.056334406 0.76412755 0.068782881 9794384
0.056109115 0.76382512 0.068784356 9794384
0.056666225 0.76311433 0.069276087 9794899
0.056441903 0.76281321 0.069277562 9794899
0.056217581 0.76251203 0.06927903 9597520
0.055993274 0.76221091 0.069280498 9729106
0.055768952 0.76190972 0.069281965 9597520
0.05554463 0.7616086 0.069283441 9729106
0.055320308 0.76130742 0.069284908 9729106
0.056674421 0.76020801 0.070266798 9794899
0.056452051 0.75990945 0.070268251 9729106
0.056229696 0.75961095 0.070269711 9597520
0.056007326 0.75931239 0.070271164 9729106
0.055784956 0.75901389 0.070272624 9729106
0.056356698 0.75832272 0.070764259 9729108
0.056135312 0.75802553 0.070765711 10255452
0.05591391 0.75772828 0.070767157 10321245
0.055692524 0.75743109 0.07076861 11176554
0.055471137 0.75713384 0.070770063 11176552
0.055249736 0.75683665 0.070771508 11834482
0.055028349 0.7565394 0.070772961 11769203
0.054806963 0.75624216 0.070774414 12032375
0.054585561 0.75594497 0.070775859 12032375
0.054364175 0.75564772 0.070777312 12098168
0.054142788 0.75535053 0.070778765 12229754
0.053921387 0.75505328 0.07078021 12492926
0.0537 0.75475609 0.070781663 12624512
0.053478613 0.75445884 0.070783116 12887684
0.053257212 0.7541616 0.070784561 12953475
0.053035825 0.75386441 0.070786014 12953475
0.052814439 0.75356716 0.07078746 12887682
0.052593037 0.75326997 0.070788912 13019268
0.053183317 0.75260371 0.071280427 12822659
0.052962899 0.75230777 0.071281873 12625280
0.052742481 0.7520119 0.071283318 12625280
0.052522063 0.75171596 0.071284764 12756866
0.052301645 0.75142002 0.071286201 12822913
0.052081227 0.75112414 0.071287647 12888706
0.051860809 0.75082821 0.071289092 12888706
0.051640391 0.75053233 0.071290538 12888706
0.051419973 0.75023639 0.071291983 12888706
0.05119957 0.74994051 0.071293421 12888706
0.050979152 0.74964458 0.071294867 12888706
0.050758734 0.74934864 0.071296312 12888706
0.050538316 0.74905276 0.071297757 12888706
0.050317898 0.74875683 0.071299203 12822913
0.05009748 0.74846089 0.071300641 12822913
0.049877062 0.74816501 0.071302086 12888706
0.049656644 0.74786907 0.071303532 12888706
0.050264478 0.74722642 0.071794935 12888706
0.050045028 0.74693179 0.071796373 12888706
0.049825594 0.74663723 0.07179781 12888706
0.049606159 0.7463426 0.071799248 13019522
0.04938671 0.74604797 0.071800679 12953729
0.049167275 0.74575341 0.071802117 12953729
0.048947826 0.74545878 0.071803555 13019522
0.047893316 0.74550176 0.07131508 13085315
0.047672912 0.74520588 0.071316525 13085315
0.047452495 0.74490994 0.071317971 13085313
0.047232077 0.74461406 0.071319416 13019520
0.047011659 0.74431813 0.071320854 13019520
0.046791241 0.74402225 0.0713223 13085313
0.046570823 0.74372631 0.071323745 13019520
0.046350405 0.74343038 0.07132519 13019520
0.046129987 0.7431345 0.071326628 13019520
0.059376106 0.80503005 0.056739002 9662028
0.059126437 0.80469483 0.056740642 9597007
0.058876768 0.80435967 0.056742266 9597007
0.058627084 0.80402446 0.056743905 9597007
0.058377415 0.80368924 0.056745544 9597007
0.058127731 0.80335408 0.056747183 9531214
0.057878062 0.80301887 0.056748807 9531214
0.057628378 0.80268371 0.056750447 9597007
0.057378709 0.80234849 0.056752086 9531214
0.057830155 0.80149448 0.057243094 9465421
0.057581455 0.80116063 0.057244726 9465421
0.057332754 0.80082673 0.05724635 9334348
0.057084054 0.80049288 0.057247981 9136969
0.056934953 0.78861213 0.061200753 9992530
0.056694046 0.78828871 0.061202332 9992530
0.056453153 0.7879653 0.061203912 9992530
0.057673022 0.78668284 0.062183864 9926737
0.057434082 0.78636205 0.062185436 9926737
0.057195127 0.78604126 0.062187001 10123603
0.056956187 0.78572047 0.062188566 10123603
0.056717232 0.78539968 0.06219013 10057810
0.056478292 0.78507888 0.062191695 10057810
0.056975573 0.7842865 0.062682405 10057556
0.056737602 0.78396696 0.062683962 10123349
0.05649963 0.78364754 0.062685519 10057556
0.056261659 0.783328 0.062687077 9991763
0.05773747 0.77508891 0.066135228 9860177
0.057506338 0.77477854 0.06613674 9860177
0.057275191 0.77446824 0.066138253 9794384
0.057044044 0.77415794 0.066139773 9860177
0.056812897 0.77384758 0.066141285 9860177
0.057341397 0.77309704 0.066631794 9662798
0.057111233 0.77278805 0.066633306 9662798
0.056881055 0.77247906 0.066634811 9794386
0.057413474 0.77173376 0.067125298 9860179
0.057184279 0.77142602 0.067126796 9860177
0.056955084 0.77111834 0.067128301 9860177
0.056725889 0.77081066 0.067129806 9860177
0.057263166 0.77007186 0.067620248 9860177
0.057034954 0.7697655 0.067621745 9794384
0.056806728 0.76945913 0.067623243 9794384
0.056578517 0.7691527 0.067624733 9860177
0.056350291 0.76884633 0.06762623 9860177
0.056893423 0.7681154 0.068116643 9860177
0.05666618 0.76781034 0.068118133 9860177
0.056438938 0.76750529 0.068119623 9794384
0.056985959 0.7667796 0.068610013 9794384
0.0567597 0.76647586 0.068611495 9794384
0.056533426 0.76617205 0.068612978 9794384
0.056307167 0.76586831 0.068614461 9794384
0.056859076 0.76514918 0.06910482 9794384
0.056633785 0.76484668 0.069106296 9794384
0.05640848 0.76454425 0.069107771 9860177
0.056183189 0.76424181 0.069109246 9860177
0.055957898 0.76393932 0.069110721 9794384
0.056515664 0.76322806 0.069601044 9794899
0.056291357 0.76292694 0.069602512 9794899
0.056067035 0.76262575 0.06960398 9597520
0.055842713 0.76232463 0.069605455 9729106
0.056405336 0.76161993 0.070095733 9729106
0.056181997 0.76132005 0.070097193 9729106
0.055958658 0.76102018 0.070098661 9729106
0.056525186 0.76032072 0.070588924 9794899
0.056302816 0.76002222 0.070590377 9729106
0.056080446 0.75972366 0.070591837 9729106
0.055858076 0.75942516 0.07059329 9794899
0.05563572 0.7591266 0.07059475 9992278
0.056208104 0.75843501 0.071084976 10584931
0.055986717 0.75813776 0.071086422 11440240
0.055765331 0.75784051 0.071087874 11637619
0.055543929 0.75754333 0.071089327 11637619
0.055322543 0.75724608 0.071090773 11834996
0.055101156 0.75694889 0.071092226 12032375
0.054879755 0.75665164 0.071093678 12360824
0.054658368 0.75635445 0.071095124 12558203
0.054436982 0.7560572 0.071096577 12493178
0.05421558 0.75575995 0.07109803 12493178
0.053994194 0.75546277 0.071099475 12690557
0.053772792 0.75516552 0.071100928 12756350
0.053551406 0.75486833 0.071102381 12887682
0.053330019 0.75457108 0.071103826 12953475
0.053108633 0.75427389 0.071105279 12953475
0.052887231 0.75397664 0.071106724 13019268
0.052665845 0.75367939 0.071108177 12953475
0.052444443 0.75338221 0.07110963 13019268
0.053035378 0.75271547 0.071599729 12822659
0.05281496 0.75241953 0.071601175 12822659
0.052594543 0.75212359 0.07160262 12756866
0.052374125 0.75182772 0.071604066 12822659
0.052153707 0.75153178 0.071605504 12822659
0.051933303 0.7512359 0.071606949 12888452
0.051712885 0.75093997 0.071608394 12888706
0.051492468 0.75064409 0.07160984 12888706
0.05127205 0.75034815 0.071611285 12888706
0.051051632 0.75005221 0.071612723 12888706
0.050831214 0.74975634 0.071614169 12954499
0.050610796 0.7494604 0.071615614 12888706
0.050390378 0.74916446 0.071617059 12888706
0.05016996 0.74886858 0.071618505 12822913
0.049949542 0.74857265 0.071619943 12888706
0.049729124 0.74827677 0.071621388 12888706
0.049508721 0.74798083 0.071622834 12888706
0.050117195 0.7473377 0.072112821 12888706
0.04989776 0.74704307 0.072114259 12954499
0.049678311 0.74674845 0.072115697 12954499
0.049458876 0.74645388 0.072117135 13019522
0.049239427 0.74615926 0.072118573 13019522
0.049019992 0.74586463 0.072120011 12953729
0.048800543 0.74557006 0.072121449 13085315
0.047745392 0.74561352 0.071634382 13151108
0.047524974 0.74531764 0.071635827 13151108
0.047304556 0.7450217 0.071637273 13085315
0.047084138 0.74472582 0.071638718 13085315
0.04686372 0.74442989 0.071640156 13085315
0.046643302 0.74413395 0.071641602 13151108
0.046422884 0.74383807 0.071643047 13151108
0.046202466 0.74354213 0.071644492 13085315
0.045982048 0.74324626 0.07164593 13019522
0.059208542 0.80515659 0.057100691 9727821
0.058958858 0.80482143 0.057102323 9662800
0.058709189 0.80448622 0.057103962 9597007
0.05845952 0.80415106 0.057105593 9531214
0.058209836 0.80381584 0.057107233 9531214
0.057960168 0.80348063 0.057108864 9465421
0.057710484 0.80314547 0.057110503 9465421
0.057460815 0.80281025 0.057112135 9465421
0.057211131 0.80247509 0.057113774 9333835
0.057663232 0.8016206 0.057603367 9268555
0.057414532 0.8012867 0.057604998 9268555
0.057165831 0.80095285 0.05760663 9005385
0.056917131 0.80061895 0.057608254 8873799
0.057512656 0.78680402 0.062530011 9926737
0.057273701 0.78648323 0.062531576 9926737
0.057034761 0.78616244 0.062533148 10057810
0.056795806 0.78584164 0.062534712 10057810
0.057582334 0.77520609 0.066470072 9860177
0.057351202 0.77489573 0.066471584 9860177
0.057120055 0.77458543 0.066473097 9794384
0.056888908 0.77427512 0.066474609 9860177
0.056657761 0.77396482 0.066476129 9794384
0.057186916 0.77321374 0.06696523 9597518
0.056956753 0.77290475 0.066966735 9597518
0.05672659 0.77259576 0.06696824 9794899
0.057259649 0.77184993 0.067457318 9794899
0.057030454 0.77154225 0.067458816 9794899
0.05680126 0.77123451 0.067460321 9729106
0.056572065 0.77092683 0.067461818 9729106
0.057109997 0.77018762 0.067950852 9794899
0.056881785 0.76988119 0.06795235 9860179
0.056653559 0.76957482 0.067953847 9794386
0.056425348 0.76926845 0.067955337 9794386
0.056197122 0.76896203 0.067956835 9860179
0.056740895 0.76823068 0.068445839 9860179
0.056513652 0.76792556 0.068447329 9860179
0.056286409 0.7676205 0.068448812 9794386
0.056834102 0.76689434 0.068937793 9794386
0.056607842 0.76659054 0.068939276 9794384
0.056381568 0.76628679 0.068940759 9662798
0.056155294 0.76598299 0.068942241 9794384
0.056707874 0.76526338 0.069431186 9794384
0.056482568 0.76496094 0.069432661 9860177
0.056257278 0.76465845 0.069434136 9860177
0.056031987 0.76435602 0.069435611 9860177
0.055806696 0.76405358 0.069437087 9794384
0.056365117 0.76334178 0.069926001 9794899
0.056140795 0.76304066 0.069927469 9794899
0.055916473 0.76273948 0.069928937 9597520
0.055692166 0.76243836 0.069930404 9729106
0.056255445 0.76173311 0.070419274 9729104
0.056032106 0.7614333 0.070420735 9729104
0.055808753 0.76113343 0.070422202 9598034
0.056375936 0.7604335 0.07091105 10190171
0.056153566 0.76013494 0.07091251 10058585
0.055931196 0.75983644 0.070913963 10716515
0.05570884 0.75953788 0.070915423 11242859
0.05548647 0.75923932 0.070916876 11637617
0.0552641 0.75894082 0.070918337 11637617
0.05504173 0.75864232 0.070919789 11703410
0.054819375 0.75834376 0.07092125 11966580
0.05539535 0.75765556 0.071410038 12098166
0.055173948 0.75735831 0.07141149 12229752
0.054952562 0.75706112 0.071412943 12427131
0.054731175 0.75676388 0.071414389 12558717
0.054509774 0.75646669 0.071415842 12624510
0.054288387 0.75616944 0.071417294 12624764
0.054067001 0.75587225 0.07141874 12624764
0.053845599 0.755575 0.071420193 12887936
0.053624213 0.75527775 0.071421646 12887936
0.053402811 0.75498056 0.071423091 12887936
0.053181425 0.75468338 0.071424544 12887936
0.052960038 0.75438613 0.071425989 13019522
0.052738652 0.75408888 0.071427442 13019522
0.05251725 0.75379169 0.071428895 12953729
0.052295864 0.75349444 0.07143034 13019522
0.052074462 0.75319719 0.071431793 12953729
0.051853076 0.7529 0.071433246 12953729
0.051631689 0.75260282 0.071434692 12822913
0.051410303 0.75230557 0.071436144 12822913
0.051188901 0.75200832 0.071437597 12822913
0.050967515 0.75171113 0.071439043 12888706
0.050746128 0.75141388 0.071440496 12888706
0.050524727 0.75111669 0.071441948 12888706
0.05030334 0.75081944 0.071443394 12888706
0.050081939 0.75052226 0.071444847 12888706
0.049860552 0.75022501 0.071446292 12954499
0.049639165 0.74992776 0.071447745 12888706
0.049417764 0.74963057 0.071449198 12888706
0.049196377 0.74933332 0.071450643 12888706
0.048974991 0.74903613 0.071452096 12888706
0.048753604 0.74873888 0.071453549 12888706
0.048532203 0.7484417 0.071454994 13085315
0.048310816 0.74814445 0.071456447 13085315
0.048089415 0.7478472 0.0714579 13085315
0.047868028 0.74755001 0.071459346 13019522
0.047646642 0.74725276 0.071460798 13019522
0.047425255 0.74695557 0.071462251 12953729
0.047203854 0.74665833 0.071463697 12953729
0.046982467 0.74636114 0.07146515 13085315
0.059040964 0.80528319 0.057462372 9531212
0.058791295 0.80494797 0.057464011 9531214
0.058541611 0.80461282 0.057465643 9531214
0.058291942 0.80427766 0.057467282 9531214
0.058042273 0.80394244 0.057468913 9399628
0.057792589 0.80360723 0.057470553 9399628
0.05754292 0.80327201 0.057472184 9333835
0.057293236 0.80293685 0.057473823 9136969
0.057043567 0.80260164 0.057475455 9071176
0.057496324 0.80174673 0.057963639 8939592
0.057247624 0.80141282 0.057965271 8939592
0.056998923 0.80107892 0.057966903 8610627
0.056750223 0.80074501 0.057968527 8413248
0.057352275 0.78692514 0.062876157 9926224
0.057113335 0.78660434 0.062877722 9992017
0.05687438 0.78628355 0.062879294 9992017
0.056635439 0.78596276 0.062880859 9992017
0.057427213 0.77532327 0.066804916 9860177
0.057196066 0.77501297 0.066806428 9860177
0.056964919 0.77470261 0.066807941 9794384
0.056733772 0.77439231 0.066809453 9794384
0.056502625 0.77408201 0.066810973 9794384
0.057032436 0.77333045 0.067298658 9597518
0.056802273 0.77302146 0.067300163 9597518
0.056572095 0.77271247 0.067301676 9794899
0.057105824 0.77196616 0.067789331 9794899
0.05687663 0.77165842 0.067790836 9794899
0.056647435 0.77135074 0.067792334 9729106
0.05641824 0.77104306 0.067793839 9729106
0.056956828 0.77030331 0.068281457 9794899
0.056728616 0.76999688 0.068282954 9860179
0.05650039 0.76969051 0.068284452 9794386
0.056272164 0.76938415 0.068285942 9794386
0.056043953 0.76907778 0.06828744 9860179
0.056588382 0.76834583 0.068775028 9860179
0.056361139 0.76804078 0.068776518 9860179
0.056133896 0.76773572 0.068778008 9794386
0.056682244 0.76700902 0.069265574 9794386
0.05645597 0.76670527 0.069267057 9794384
0.056229696 0.76640147 0.06926854 9662798
0.056003436 0.76609772 0.069270022 9794384
0.056556657 0.76537764 0.069757551 9794384
0.056331366 0.76507515 0.069759026 9860177
0.056106076 0.76477271 0.069760501 9860177
0.055880785 0.76447022 0.069761977 9860177
0.055655494 0.76416779 0.069763452 9794384
0.056214556 0.76345551 0.070250951 9794897
0.055990249 0.76315439 0.070252419 9794897
0.055765927 0.76285321 0.070253886 9597518
0.055541605 0.76255208 0.070255361 9794897
0.056105539 0.76184636 0.070742816 9926485
0.055882201 0.76154649 0.070744276 9926485
0.055658862 0.76124668 0.070745744 10387550
0.056226686 0.76054621 0.071233176 11045480
0.056004331 0.76024771 0.071234636 11112043
0.05578196 0.75994915 0.071236089 11441008
0.05555959 0.75965059 0.071237549 11769203
0.05533722 0.75935209 0.071239002 11834996
0.05511485 0.75905359 0.071240462 12098168
0.054892495 0.75875503 0.071241915 12229754
0.054670125 0.75845647 0.071243376 12295545
0.055246755 0.7577678 0.071730755 12558717
0.055025369 0.75747061 0.071732208 12690303
0.054803967 0.75717336 0.071733654 12756096
0.054582581 0.75687611 0.071735106 12756096
0.054361194 0.75657892 0.071736559 12756096
0.054139793 0.75628167 0.071738005 12756350
0.053918406 0.75598449 0.071739458 12887936
0.053697005 0.75568724 0.071740903 12822913
0.053475618 0.75539005 0.071742356 12757120
0.053254232 0.7550928 0.071743809 12822913
0.05303283 0.75479555 0.071745254 12757120
0.052811444 0.75449836 0.071746707 12822913
0.052590057 0.75420111 0.07174816 12822913
0.052368656 0.75390393 0.071749605 12822913
0.052147269 0.75360668 0.071751058 12888706
0.051925883 0.75330949 0.071752511 12822913
0.051704496 0.75301224 0.071753956 12822913
0.051483095 0.75271505 0.071755409 12822913
0.051261708 0.7524178 0.071756862 12822913
0.051040307 0.75212061 0.071758308 12822913
0.05081892 0.75182337 0.07175976 12888706
0.050597534 0.75152612 0.071761206 12888706
0.050376132 0.75122893 0.071762659 12888706
0.050154746 0.75093168 0.071764112 12888706
0.049933359 0.75063449 0.071765557 12888706
0.049711958 0.75033724 0.07176701 12888706
0.049490571 0.75004005 0.071768463 12888706
0.049269184 0.74974281 0.071769908 12888706
0.049047783 0.74944556 0.071771361 12888706
0.048826396 0.74914837 0.071772814 13085315
0.04860501 0.74885112 0.071774259 13085315
0.048383608 0.74855393 0.071775712 13019522
0.048162222 0.74825668 0.071777165 13019522
0.047940835 0.74795949 0.07177861 13085315
0.047719449 0.74766225 0.071780063 13019522
0.047498047 0.747365 0.071781516 13019522
0.047276661 0.74706781 0.071782961 12953729
0.047055259 0.74677056 0.071784414 13019522
0.046833873 0.74647337 0.07178586 13085315
0.059622422 0.80641538 0.057819158 9531214
0.059372738 0.80608016 0.05782079 9531214
0.059123069 0.80574501 0.057822429 9531214
0.0588734 0.80540979 0.05782406 9531214
0.058623716 0.80507457 0.057825699 9465421
0.058374047 0.80473942 0.057827331 9399628
0.058124363 0.8044042 0.05782897 9399630
0.057874694 0.80406904 0.057830602 9202251
0.057625026 0.80373383 0.057832241 9071178
0.058075503 0.80287445 0.058319032 8939592
0.057826802 0.80254054 0.058320656 8873797
0.057578102 0.80220664 0.058322288 8808004
0.058032498 0.8013525 0.058809072 8347969
0.057784766 0.80101991 0.058810689 7953211
0.057537049 0.80068731 0.058812313 8087111
0.057995334 0.79983842 0.059299052 10455659
0.057748586 0.79950714 0.059300669 11511945
0.057501823 0.79917592 0.059302285 12367254
0.058672979 0.79781979 0.060274109 12434842
0.058428183 0.79749113 0.060275719 12171670
0.058183372 0.79716247 0.06027732 12170125
0.057938576 0.79683387 0.060278922 10920058
0.057191908 0.78704631 0.063222304 9926224
0.056952953 0.78672552 0.063223869 9926224
0.056714013 0.78640473 0.063225433 9926224
0.056475058 0.78608394 0.063226998 9992017
0.057272077 0.77544045 0.06713976 9860177
0.05704093 0.77513015 0.067141272 9860177
0.056809783 0.77481979 0.067142785 9794384
0.057338297 0.77406514 0.067629069 9794384
0.057108134 0.77375615 0.067630582 9794384
0.056877956 0.77344716 0.067632087 9597518
0.056647792 0.77313817 0.067633599 9597518
0.056417629 0.77282912 0.067635104 9729104
0.056951985 0.77208233 0.068121351 9794897
0.056722805 0.77177465 0.068122849 9794897
0.05649361 0.77146697 0.068124354 9729104
0.056264415 0.77115923 0.068125859 9794384
0.056803659 0.770419 0.068612061 9860177
0.056575432 0.77011263 0.068613559 9860179
0.056347221 0.76980627 0.068615057 9794386
0.056890354 0.76907122 0.069101244 9794386
0.056663111 0.76876616 0.069102734 9860179
0.056435868 0.76846105 0.069104224 9860179
0.05698292 0.76773131 0.06959039 9860179
0.056756645 0.7674275 0.069591872 9860179
0.056530371 0.76712376 0.069593355 9794386
0.056304112 0.76681995 0.06959483 9794386
0.056077838 0.76651621 0.069596313 9794386
0.055851579 0.76621246 0.069597796 9794386
0.056405455 0.76549184 0.070083916 9794386
0.056180164 0.76518941 0.070085391 9860179
0.055954859 0.76488692 0.070086867 9794386
0.056512639 0.76417154 0.070572965 9860179
0.056288332 0.76387042 0.070574433 9794386
0.05606401 0.76356924 0.070575908 9794899
0.055839688 0.76326811 0.070577376 9729106
0.05561538 0.76296693 0.070578843 9597520
0.055391058 0.76266581 0.070580311 10321243
0.055955648 0.76195961 0.071066357 10848103
0.055732295 0.76165974 0.071067818 11440240
0.055508956 0.76135993 0.071069285 11309170
0.056077451 0.76065898 0.071555309 11506549
0.05585508 0.76036042 0.071556762 11704180
0.05563271 0.76006186 0.071558222 11835766
0.055410355 0.75976336 0.071559675 12163961
0.055187985 0.7594648 0.071561135 12229754
0.054965615 0.7591663 0.071562588 12427133
0.054743245 0.75886774 0.071564049 12624512
0.05452089 0.75856924 0.071565501 12624510
0.055098161 0.75788003 0.072051473 12690303
0.054876775 0.75758284 0.072052918 12756096
0.054655388 0.75728559 0.072054371 12887682
0.054433987 0.75698841 0.072055824 12953475
0.0542126 0.75669116 0.07205727 12887682
0.053991213 0.75639391 0.072058722 12887936
0.053769812 0.75609672 0.072060168 12953729
0.053548425 0.75579947 0.072061621 12822913
0.053327039 0.75550228 0.072063074 12757120
0.053105637 0.75520504 0.072064519 12822913
0.052884251 0.75490785 0.072065972 12822913
0.052662864 0.7546106 0.072067425 12757120
0.052441463 0.75431335 0.07206887 12822913
0.052220076 0.75401616 0.072070323 12887936
0.05199869 0.75371897 0.072071776 13019522
0.051777288 0.75342172 0.072073221 12953729
0.051555902 0.75312448 0.072074674 12953729
0.051334515 0.75282729 0.072076127 12822913
0.051113114 0.75253004 0.072077572 12822913
0.050891727 0.75223285 0.072079025 12822913
0.050670341 0.7519356 0.072080478 12888706
0.050448939 0.75163841 0.072081923 12954499
0.050227553 0.75134116 0.072083376 12888706
0.050006166 0.75104392 0.072084822 12888706
0.049784765 0.75074673 0.072086275 12888706
0.049563378 0.75044948 0.072087727 12888706
0.049341992 0.75015229 0.072089173 12888706
0.04912059 0.74985504 0.072090626 12888706
0.048899204 0.74955785 0.072092079 12888706
0.048677817 0.7492606 0.072093524 13085315
0.048456416 0.74896336 0.072094977 13085315
0.048235029 0.74866617 0.07209643 13019522
0.048013642 0.74836892 0.072097875 13019522
0.047792241 0.74807173 0.072099328 13085315
0.047570854 0.74777448 0.072100773 13019522
0.047349468 0.74747729 0.072102226 13019522
0.047128066 0.74718004 0.072103679 13019522
0.04690668 0.7468828 0.072105125 13019522
0.046685278 0.74658561 0.072106577 13085315
0.040361792 0.74248874 0.070678763 12953729
0.04013747 0.74218756 0.070680231 12953729
0.039913148 0.74188644 0.070681699 13019522
0.039688841 0.74158525 0.070683166 13019522
0.039464518 0.74128413 0.070684642 12887682
0.039240196 0.74098301 0.070686109 12558717
0.039015889 0.74068183 0.070687577 12359545
0.038791567 0.74038064 0.070689045 11504236
0.038567245 0.74007952 0.070690513 10452318
0.059454843 0.80654192 0.058180846 9465421
0.059205174 0.80620676 0.058182478 9399628
0.058955491 0.80587155 0.058184117 9399630
0.058705822 0.80553639 0.058185749 9399630
0.058456153 0.80520117 0.058187388 9334350
0.058206469 0.80486596 0.05818902 9136971
0.0579568 0.8045308 0.058190659 9005385
0.057707116 0.80419558 0.05819229 8873799
0.057457447 0.80386043 0.058193929 8676420
0.05790858 0.80300051 0.058679305 8479041
0.057659879 0.80266666 0.058680937 7887934
0.057411179 0.80233276 0.058682561 8282692
0.057866231 0.80147809 0.059167929 8944733
0.057618514 0.80114555 0.059169553 11379074
0.057370782 0.80081296 0.059171177 12630426
0.057829723 0.79996353 0.059656501 12959391
0.057582974 0.79963225 0.059658118 12630424
0.057336226 0.79930103 0.059659734 12301459
0.058508679 0.79794389 0.060628735 11443572
0.058263883 0.79761529 0.060630336 9864540
0.058019072 0.79728663 0.060631946 9795665
0.057774276 0.79695797 0.060633548 9861458
0.057116941 0.77555764 0.067474604 9860177
0.056885794 0.77524734 0.067476116 9860177
0.056654647 0.77493703 0.067477629 9794384
0.057183817 0.77418184 0.067962505 9794384
0.056953654 0.77387285 0.06796401 9794384
0.056723475 0.77356386 0.067965515 9729104
0.056493312 0.77325487 0.067967027 9729104
0.056263134 0.77294582 0.067968532 9729106
0.05679816 0.77219856 0.068453372 9794899
0.056568965 0.77189088 0.068454869 9794897
0.056339785 0.77158314 0.068456374 9729104
0.056110576 0.77127546 0.068457872 9729104
0.05665049 0.77053469 0.068942666 9794897
0.056422263 0.77022833 0.068944164 9860179
0.056194052 0.76992196 0.068945661 9794386
0.05673784 0.76918644 0.069430441 9794386
0.056510597 0.76888138 0.069431923 9794386
0.056283355 0.76857626 0.069433413 9860179
0.056831047 0.76784599 0.069918171 9860179
0.056604788 0.76754224 0.069919646 9860179
0.056378514 0.7672385 0.069921128 9794386
0.056152254 0.76693469 0.069922611 9794386
0.05592598 0.76663095 0.069924094 9794386
0.055699721 0.76632714 0.069925576 9794386
0.056254238 0.76560605 0.070410281 9860179
0.056028947 0.76530361 0.070411764 9860179
0.055803657 0.76500112 0.070413239 9860179
0.056362092 0.76428527 0.070897922 9926485
0.05613777 0.76398414 0.07089939 9860692
0.055913463 0.76368296 0.070900857 10124380
0.055689141 0.76338184 0.070902325 10782310
0.055464819 0.76308066 0.070903793 11111275
0.055240497 0.76277953 0.070905268 11506033
0.055805743 0.7620728 0.071389899 11637619
0.055582404 0.76177299 0.071391359 11703412
0.055359066 0.76147318 0.071392819 11703412
0.055135712 0.76117331 0.071394287 12032377
0.054912373 0.76087344 0.071395747 12098168
0.055483475 0.76017463 0.071880348 12427133
0.055261105 0.75987607 0.071881801 12558719
0.055038735 0.75957757 0.071883261 12624512
0.054816365 0.75927901 0.071884722 12756096
0.05459401 0.75898051 0.071886174 12887682
0.05437164 0.75868195 0.071887627 12756096
0.05414927 0.75838345 0.071889088 12756096
0.0539269 0.75808489 0.071890548 12887682
0.053704545 0.75778639 0.071892001 12953475
0.053482175 0.75748783 0.071893454 12953475
0.053259805 0.75718933 0.071894914 12887682
0.053037435 0.75689077 0.071896374 12887936
0.052815065 0.75659227 0.071897827 12953729
0.05259271 0.75629371 0.07189928 12822913
0.05237034 0.75599515 0.07190074 12757120
0.05214797 0.75569665 0.071902201 12822913
0.0519256 0.75539815 0.071903653 12822913
0.05170323 0.75509959 0.071905106 12757120
0.051480874 0.75480103 0.071906567 12822913
0.051258504 0.75450253 0.071908027 12757120
0.051036134 0.75420398 0.07190948 12822913
0.050813764 0.75390548 0.071910933 12887936
0.050591394 0.75360692 0.071912393 12887936
0.050369039 0.75330842 0.071913853 12953729
0.050146669 0.75300986 0.071915306 12953729
0.049924299 0.75271136 0.071916759 12822913
0.049701929 0.7524128 0.071918219 12888706
0.049479574 0.7521143 0.07191968 12888706
0.049257204 0.75181574 0.071921133 12888706
0.049034834 0.75151718 0.071922585 12888706
0.040211231 0.74260247 0.071003713 12953729
0.039986923 0.74230134 0.07100518 12953729
0.039762601 0.74200016 0.071006656 13019522
0.039538279 0.74169898 0.071008123 13019522
0.039313957 0.74139786 0.071009591 12887936
0.039089635 0.74109674 0.071011059 12756350
0.038865328 0.74079555 0.071012527 12558205
0.038641006 0.74049437 0.071014002 12558205
0.038416699 0.74019325 0.07101547 11176041
0.05928728 0.80666852 0.058542527 9465423
0.059037596 0.80633336 0.058544166 9333837
0.058787927 0.80599815 0.058545798 9202251
0.058538243 0.80566299 0.058547437 9070665
0.058288574 0.80532777 0.058549069 8939592
0.058038905 0.80499256 0.058550708 8873799
0.057789221 0.80465734 0.05855234 8282176
0.057539552 0.80432218 0.058553979 7821625
0.057289869 0.80398697 0.05855561 8020805
0.057741657 0.80312657 0.059039578 9402458
0.057492957 0.80279273 0.05904121 10984316
0.057244256 0.80245882 0.059042841 12300176
0.057699963 0.80160367 0.059526794 12498838
0.057452247 0.80127108 0.05952841 12630424
0.057204515 0.80093855 0.059530035 12234896
0.057664111 0.80008864 0.06001395 11116415
0.057417363 0.79975736 0.060015567 10455396
0.057170615 0.79942608 0.060017183 9402708
0.058344379 0.79806805 0.06098336 9597772
0.058099583 0.79773939 0.060984962 9926737
0.057854787 0.79741073 0.060986564 10254417
0.057609975 0.79708207 0.060988165 10254417
0.056961805 0.77567482 0.06780944 9860177
0.056730658 0.77536452 0.06781096 9860177
0.056499511 0.77505422 0.067812473 9794384
0.057029337 0.77429855 0.068295933 9794384
0.056799173 0.77398956 0.068297438 9860177
0.056568995 0.77368057 0.068298951 9729106
0.056338832 0.77337152 0.068300456 9597520
0.056108668 0.77306253 0.068301961 9794899
0.056644335 0.77231473 0.068785384 9794899
0.056415141 0.77200705 0.068786889 9794897
0.056185946 0.77169937 0.068788387 9794897
0.055956766 0.77139163 0.068789892 9729104
0.056497321 0.77065039 0.069273271 9794897
0.056269094 0.77034402 0.069274768 9794899
0.056040883 0.77003765 0.069276266 9729106
0.056585327 0.76930165 0.06975963 9729108
0.056358069 0.7689966 0.06976112 9729108
0.056130826 0.76869148 0.069762602 9794901
0.056679189 0.76796073 0.070245944 9794901
0.056452915 0.76765692 0.070247427 9794901
0.056226656 0.76735318 0.070248909 9794901
0.056000382 0.76704943 0.070250392 9729108
0.055774122 0.76674563 0.070251875 9729108
0.055547848 0.76644188 0.070253357 9729108
0.056103036 0.76572031 0.070736654 9794901
0.055877745 0.76541781 0.070738129 9794901
0.055652454 0.76511538 0.070739605 9926487
0.056211531 0.76439899 0.071222872 10650724
0.055987224 0.76409787 0.071224339 10848103
0.055762902 0.76379669 0.071225815 11637619
0.05553858 0.76349556 0.071227282 11571826
0.055314273 0.76319444 0.07122875 11769205
0.055089951 0.76289326 0.071230218 11769205
0.055655852 0.76218605 0.07171344 11966584
0.055432513 0.76188624 0.0717149 12098170
0.05520916 0.76158637 0.071716361 12229754
0.054985821 0.76128656 0.071717829 12427133
0.054762483 0.76098669 0.071719289 12558717
0.055334225 0.76028734 0.072202474 12690303
0.055111855 0.75998884 0.072203934 12756096
0.0548895 0.75969028 0.072205387 12887682
0.05466713 0.75939178 0.072206847 12887682
0.05444476 0.75909323 0.0722083 12887682
0.05422239 0.75879472 0.072209761 12887682
0.054000035 0.75849617 0.072211213 12887682
0.053777665 0.75819767 0.072212674 12887682
0.053555295 0.75789911 0.072214127 12953475
0.053332925 0.75760061 0.072215587 12953475
0.053110555 0.75730205 0.07221704 12953475
0.0528882 0.75700355 0.0722185 12953475
0.05266583 0.75670499 0.072219953 12953475
0.05244346 0.75640643 0.072221413 12822913
0.05222109 0.75610793 0.072222866 12757120
0.05199872 0.75580943 0.072224326 12822913
0.051776364 0.75551087 0.072225779 12822913
0.051553994 0.75521231 0.07222724 12757120
0.051331624 0.75491381 0.072228692 12822913
0.051109254 0.75461525 0.072230153 12757120
0.050886884 0.75431675 0.072231606 12757120
0.050664529 0.75401819 0.072233066 12757120
0.050442159 0.75371969 0.072234519 12757120
0.050219789 0.75342113 0.072235979 12757120
0.049997419 0.75312263 0.072237432 12757120
0.049775064 0.75282407 0.072238892 12822913
0.049552694 0.75252557 0.072240345 12822913
0.049330324 0.75222701 0.072241805 12888706
0.049107954 0.75192845 0.072243258 12888706
0.048885584 0.75162995 0.072244719 12888706
0.040060684 0.74271619 0.07132867 13019008
0.039836362 0.74241507 0.071330138 13084801
0.03961204 0.74211389 0.071331605 13150594
0.039387733 0.74181277 0.071333073 13084801
0.039163411 0.74151158 0.071334548 12953729
0.038939089 0.74121046 0.071336016 12887936
0.038714781 0.74090928 0.071337484 12690303
0.038490459 0.74060816 0.071338952 12558717
0.038266137 0.74030697 0.071340419 11965557
0.059119701 0.80679512 0.058904216 9202251
0.058870032 0.8064599 0.058905855 9070665
0.058620349 0.80612475 0.058907486 8873286
0.059066936 0.80525601 0.059390083 8610114
0.058818251 0.8049221 0.059391707 7953727
0.058569551 0.80458826 0.059393339 8282692
0.05832085 0.80425435 0.059394971 9206622
0.05807215 0.80392045 0.059396595 11114619
0.057823449 0.8035866 0.059398226 12169873
0.058276877 0.80272698 0.059880786 12564631
0.05802916 0.80239445 0.05988241 12432529
0.057781428 0.80206186 0.059884027 12037771
0.058238745 0.80120754 0.060366549 11509115
0.057991996 0.80087626 0.060368165 10061669
0.057745248 0.80054498 0.060369782 9467218
0.058206499 0.79969585 0.060852289 9533011
0.057960734 0.79936594 0.060853899 9860690
0.057714954 0.79903597 0.060855515 9992276
0.058180079 0.79819214 0.061337978 9992017
0.057935283 0.79786348 0.061339587 10057810
0.057690486 0.79753482 0.061341189 10123601
0.057445675 0.79720616 0.061342791 10123601
0.057500094 0.77672297 0.068139747 9860177
0.057268947 0.77641267 0.068141259 9860177
0.057037815 0.7761023 0.068142772 9860177
0.056806669 0.775792 0.068144284 9860177
0.056575522 0.7754817 0.068145804 9860177
0.056344375 0.7751714 0.068147317 9860177
0.056874856 0.77441525 0.068629362 9794384
0.056644693 0.77410626 0.068630874 9794384
0.056414515 0.77379721 0.068632379 9729106
0.0569489 0.77304631 0.069114402 9597520
0.056719705 0.77273864 0.069115907 9794899
0.056490511 0.77243096 0.069117405 9860692
0.056261316 0.77212322 0.069118902 9794899
0.056032121 0.77181554 0.069120407 9794899
0.055802926 0.77150786 0.069121912 9729104
0.056344137 0.77076614 0.069603875 9794897
0.056115925 0.77045971 0.069605373 9794899
0.055887714 0.77015334 0.06960687 9729106
0.056432799 0.76941687 0.070088819 9729106
0.056205556 0.76911175 0.070090309 9729106
0.055978313 0.7688067 0.070091799 9794901
0.056527331 0.76807547 0.070573725 9794901
0.056301057 0.76777166 0.070575207 9794901
0.056074783 0.76746792 0.07057669 9794901
0.055848524 0.76716411 0.070578173 9794901
0.05562225 0.76686037 0.070579655 9597522
0.055395991 0.76655662 0.070581138 9729108
0.055951834 0.76583451 0.071063019 10650210
0.055726543 0.76553202 0.071064495 10979175
0.055501238 0.76522958 0.07106597 11571312
0.056060985 0.76451272 0.071547829 11703412
0.055836663 0.7642116 0.071549296 11769205
0.055612341 0.76391041 0.071550764 12098170
0.055388033 0.76360929 0.071552232 12098170
0.055163711 0.76330817 0.071553707 12163963
0.054939389 0.76300699 0.071555175 12427135
0.055505946 0.7622993 0.072036982 12558719
0.055282608 0.76199949 0.072038442 12558719
0.055059269 0.76169962 0.072039902 12690303
0.054835916 0.76139975 0.07204137 12756096
0.054612577 0.76109993 0.07204283 12887682
0.055184975 0.76040012 0.072524607 12887682
0.05496262 0.76010156 0.07252606 13019268
0.05474025 0.75980306 0.07252752 12953475
0.05451788 0.7595045 0.072528973 12953475
0.05429551 0.759206 0.072530434 12953475
0.054073155 0.75890744 0.072531886 12953475
0.053850785 0.75860894 0.072533347 12887682
0.053628415 0.75831038 0.0725348 12887682
0.053406045 0.75801188 0.07253626 12953475
0.05318369 0.75771332 0.072537713 12953475
0.05296132 0.75741482 0.072539173 12887682
0.05273895 0.75711626 0.072540626 12953475
0.05251658 0.7568177 0.072542086 12953475
0.05229421 0.7565192 0.072543539 12953729
0.052071854 0.75622064 0.072544999 12887936
0.051849484 0.75592214 0.072546452 12822913
0.051627114 0.75562358 0.072547913 12822913
0.051404744 0.75532508 0.072549365 12757120
0.051182374 0.75502652 0.072550826 12757120
0.050960019 0.75472802 0.072552279 12757120
0.050737649 0.75442946 0.072553739 12757120
0.050515279 0.75413096 0.072555192 12757120
0.050292909 0.7538324 0.072556652 12757120
0.050070539 0.7535339 0.072558105 12757120
0.049848184 0.75323534 0.072559565 12757120
0.049625814 0.75293684 0.072561018 12822913
0.049403444 0.75263828 0.072562478 12822913
0.049181074 0.75233972 0.072563931 12888706
0.048958704 0.75204122 0.072565392 12888706
0.048736349 0.75174272 0.072566845 12822913
0.045069426 0.74975634 0.071619824 12953729
0.044845119 0.74945521 0.071621299 13019522
0.044620797 0.74915409 0.071622767 13019522
0.043560728 0.74919921 0.071144186 13019522
0.043335438 0.74889678 0.071145661 13019522
0.043947846 0.7482506 0.07162717 13019522
0.043723524 0.74794948 0.071628645 13019522
0.043499216 0.7476483 0.071630113 13019522
0.043274894 0.74734718 0.071631581 12953729
0.039280161 0.74345249 0.071172222 13084801
0.039910123 0.74282992 0.071653619 13019008
0.039685816 0.7425288 0.071655087 13084801
0.039461493 0.74222761 0.071656562 13084801
0.039237186 0.74192649 0.07165803 13150594
0.039012864 0.74162531 0.071659498 12953729
0.038788542 0.74132419 0.071660966 12887936
0.03856422 0.741023 0.071662441 12756350
0.038339898 0.74072188 0.071663909 12690557
0.038115591 0.7404207 0.071665376 12360313
0.058952123 0.80692172 0.059265904 8675907
0.058702454 0.8065865 0.059267543 8412735
0.058452785 0.80625129 0.059269175 8086598
0.058900028 0.80538207 0.059750356 9468251
0.058651328 0.80504823 0.05975198 11050624
0.058402628 0.80471432 0.059753612 12892828
0.058153927 0.80438042 0.059755243 13222563
0.057905227 0.80404657 0.059756868 13222563
0.057656527 0.80371267 0.059758499 12300428
0.05811061 0.80285263 0.060239643 10918775
0.057862893 0.80252004 0.060241267 10125913
0.057615161 0.80218744 0.060242891 9467983
0.058073148 0.80133265 0.060723998 9992017
0.057826385 0.80100137 0.060725614 10255189
0.057579637 0.80067009 0.060727231 10057810
0.058041543 0.79982048 0.06120833 10123603
0.057795778 0.79949057 0.061209939 10057810
0.057549998 0.7991606 0.061211549 10123603
0.058015779 0.79831624 0.061692603 10057810
0.057770982 0.79798758 0.061694205 10123603
0.057526186 0.79765892 0.061695814 10255189
0.05728139 0.79733026 0.061697416 10123603
0.057344958 0.77684015 0.068474591 9860177
0.057113811 0.77652985 0.068476103 9860177
0.056882679 0.77621949 0.068477616 9860177
0.056651533 0.77590919 0.068479128 9860177
0.056420386 0.77559888 0.068480641 9925970
0.056189239 0.77528858 0.068482161 9860177
0.056720376 0.77453196 0.068962798 9662798
0.056490213 0.77422297 0.068964303 9794384
0.056260034 0.77391392 0.068965808 9794899
0.056795076 0.77316254 0.069446422 9597520
0.056565881 0.7728548 0.06944792 9794899
0.056336686 0.77254713 0.069449425 9860692
0.056107491 0.77223945 0.069450922 9794899
0.055878296 0.77193177 0.069452427 9794899
0.055649102 0.77162403 0.069453925 9729106
0.056190968 0.77088183 0.069934487 9794899
0.055962756 0.77057546 0.069935977 9794899
0.05573453 0.77026904 0.069937475 9729106
0.056280285 0.76953208 0.070418015 9729106
0.056053042 0.76922697 0.070419505 9729106
0.0558258 0.76892191 0.070420988 9794901
0.056375459 0.76819015 0.070901506 9794901
0.0561492 0.7678864 0.070902988 9794899
0.055922925 0.7675826 0.070904471 9926485
0.055696666 0.76727885 0.070905954 10255450
0.055470392 0.76697505 0.070907429 10913380
0.055244133 0.7666713 0.070908912 11440240
0.055800617 0.76594871 0.071389385 11637619
0.055575326 0.76564628 0.07139086 11703412
0.055350035 0.76534379 0.071392335 11834998
0.055124745 0.76504135 0.07139381 12032377
0.054899454 0.76473892 0.071395285 12163963
0.055461794 0.76402414 0.071875721 12295549
0.055237472 0.76372302 0.071877189 12492928
0.055013165 0.76342189 0.071878657 12558719
0.054788843 0.76312071 0.071880125 12690305
0.054564521 0.76281953 0.071881592 12756098
0.054340214 0.76251841 0.071883067 12887684
0.054115891 0.76221728 0.071884535 12887682
0.053891569 0.7619161 0.071886003 12887682
0.053667262 0.76161498 0.071887471 12953475
0.05344294 0.7613138 0.071888946 12953475
0.050219178 0.75551617 0.07239417 12757120
0.04999584 0.75521636 0.07239563 12756866
0.049772486 0.75491649 0.07239709 12625280
0.04491888 0.74987012 0.071944781 12953729
0.044694558 0.74956894 0.071946248 13019522
0.044470236 0.74926782 0.071947716 12953729
0.043409511 0.74931347 0.071470551 12953729
0.043184236 0.74901098 0.071472026 12953729
0.043797284 0.74836433 0.071952127 12953729
0.043572977 0.74806321 0.071953595 13019522
0.043348655 0.74776208 0.071955062 12953729
0.043124333 0.7474609 0.07195653 12887936
0.039128959 0.74356675 0.071498588 13084801
0.038903669 0.74326426 0.071500063 13019008
0.038678363 0.74296176 0.071501546 13084801
0.038453087 0.74265933 0.071503021 13084801
0.038227782 0.7423569 0.071504496 13150594
0.038002491 0.7420544 0.071505971 13084801
0.0377772 0.74175197 0.071507446 13019008
0.03755191 0.74144948 0.071508922 13019008
0.037326619 0.74114704 0.071510397 12887422
0.037101313 0.74084461 0.071511872 12624250
0.058784559 0.80704832 0.059627593 9075036
0.058534876 0.8067131 0.059629232 11443584
0.058285207 0.80637789 0.059630863 12696733
0.058733106 0.8055082 0.060110629 13157284
0.058484405 0.80517429 0.06011226 13223075
0.058235705 0.80484045 0.060113885 12499352
0.058687523 0.80397594 0.060593642 11509369
0.058439806 0.80364335 0.060595267 10456681
0.058192074 0.80331075 0.060596883 9927251
0.058647782 0.80245155 0.061076596 9861458
0.058401033 0.80212027 0.061078213 10188624
0.058154285 0.80178899 0.06107983 10122831
0.058613911 0.80093497 0.061559536 10188624
0.058368146 0.800605 0.061561145 10386003
0.058122367 0.80027509 0.061562754 10188624
0.058585867 0.79942632 0.062042415 10254417
0.058341071 0.79909766 0.062044024 10254417
0.058096275 0.798769 0.062045626 10254417
0.057851478 0.79844034 0.062047228 10188626
0.057606682 0.79811168 0.06204883 10254419
0.057361886 0.79778302 0.062050432 10386005
0.05711709 0.79745442 0.062052041 10254419
0.057189822 0.77695733 0.068809435 9860179
0.05695869 0.77664703 0.068810947 9860179
0.056727543 0.77633673 0.06881246 9860177
0.056496397 0.77602637 0.068813972 9925970
0.05626525 0.77571607 0.068815485 9925970
0.056034103 0.77540576 0.068817005 9860177
0.056565896 0.77464867 0.069296226 9662798
0.056335732 0.77433962 0.069297731 9794384
0.056105554 0.77403063 0.069299243 9794899
0.056641251 0.77327871 0.069778435 9729106
0.056412056 0.77297103 0.06977994 9794899
0.056182861 0.77266335 0.069781438 9860692
0.055953667 0.77235568 0.069782943 9794899
0.055724472 0.77204794 0.06978444 9860692
0.055495277 0.77174026 0.069785945 9729106
0.056037799 0.77099752 0.070265085 9794899
0.055809572 0.77069116 0.070266582 9794899
0.055581361 0.77038479 0.07026808 9729106
0.056127772 0.7696473 0.070747204 9794899
0.055900529 0.76934218 0.070748694 9860692
0.055673286 0.76903713 0.070750184 9794899
0.056223601 0.76830488 0.071229286 10189657
0.055997327 0.76800108 0.071230769 10716513
0.055771068 0.76769733 0.071232244 11177064
0.055544809 0.76739359 0.071233727 11637615
0.055318534 0.76708978 0.07123521 12032373
0.05509226 0.76678604 0.071236692 11966582
0.055649415 0.76606297 0.07171575 12098168
0.055424124 0.76576048 0.071717225 12229756
0.055198833 0.76545805 0.0717187 12295549
0.054973528 0.76515555 0.071720175 12427135
0.054748237 0.76485312 0.071721651 12690307
0.055311248 0.76413786 0.072200671 12756098
0.055086926 0.76383674 0.072202139 12887684
0.054862604 0.76353562 0.072203614 12887684
0.054638281 0.76323444 0.072205082 12887684
0.054413974 0.76293331 0.072206549 12887682
0.054189652 0.76263213 0.072208017 12953475
0.05396533 0.76233101 0.072209485 12953475
0.053741023 0.76202983 0.07221096 12953475
0.053516701 0.7617287 0.072212428 12953475
0.053292379 0.76142752 0.072213896 13019268
0.050069287 0.75562942 0.072717711 12756866
0.049845934 0.75532961 0.072719172 12625280
0.049622595 0.75502974 0.072720632 12625280
0.044768319 0.74998385 0.07226973 12887936
0.044543996 0.74968266 0.072271205 12953729
0.044319689 0.74938154 0.072272673 12953729
0.043258309 0.74942768 0.071796916 12953729
0.043033019 0.74912524 0.071798392 12887936
0.043646738 0.74847806 0.072277077 12953729
0.043422416 0.74817693 0.072278552 12953729
0.043198094 0.74787581 0.07228002 12887936
0.042973787 0.74757463 0.072281487 12887936
0.038977757 0.74368095 0.07182496 13084801
0.038752452 0.74337846 0.071826436 13019008
0.038527161 0.74307603 0.071827911 13019008
0.03830187 0.74277353 0.071829386 13084801
0.03807658 0.7424711 0.071830861 13084801
0.037851289 0.74216866 0.071832336 13084801
0.037625998 0.74186617 0.071833812 13084801
0.037400708 0.74156374 0.071835287 13019008
0.037175402 0.74126124 0.071836762 13019008
0.036950111 0.74095881 0.071838237 12887422
0.058616981 0.80717486 0.059989281 13354147
0.058367312 0.8068397 0.059990913 13222561
0.058117628 0.80650449 0.059992552 13090457
0.058566198 0.80563426 0.060470901 11971976
0.058317497 0.80530035 0.060472533 10784872
0.058068797 0.80496651 0.060474157 9403219
0.058521256 0.80410153 0.0609525 9664077
0.058273539 0.80376893 0.060954124 9729870
0.058025807 0.8034364 0.060955748 10123601
0.05848217 0.80257666 0.061434045 10123601
0.058235422 0.80224538 0.061435662 10188626
0.057988673 0.8019141 0.061437279 10254419
0.058448955 0.8010596 0.061915569 10254419
0.058203191 0.80072963 0.061917178 10386005
0.057957411 0.80039966 0.061918788 10254419
0.058421582 0.79955041 0.06239704 10254419
0.058176771 0.79922175 0.062398642 10188626
0.057931975 0.79889309 0.062400244 10188626
0.057687178 0.79856443 0.062401854 10188626
0.058156237 0.79772174 0.062880084 10254419
0.057912409 0.79739439 0.062881678 10123603
0.057668582 0.79706705 0.06288328 10123603
0.057424769 0.7967397 0.062884875 10123603
0.057180941 0.79641235 0.062886469 10057810
0.056937113 0.79608506 0.062888071 10057810
0.057728127 0.77800548 0.069139734 9729106
0.05749698 0.77769518 0.069141246 9729106
0.057265833 0.77738488 0.069142759 9729106
0.057034686 0.77707452 0.069144279 9794899
0.056803554 0.77676421 0.069145791 9794899
0.056572407 0.77645391 0.069147304 9794899
0.05710192 0.77569234 0.069625132 9860692
0.056871757 0.77538335 0.069626637 9925970
0.056641579 0.77507436 0.069628149 9860177
0.056411415 0.77476531 0.069629654 9729104
0.056181252 0.77445632 0.069631159 9597518
0.055951074 0.77414733 0.069632672 9794899
0.056487426 0.77339494 0.070110455 9729106
0.056258231 0.77308726 0.07011196 9794899
0.056029037 0.77277952 0.070113458 9860692
0.055799842 0.77247185 0.070114955 9860692
0.055570647 0.77216417 0.07011646 9860692
0.055341452 0.77185643 0.070117965 9794899
