# .PCD v0.7 - Point Cloud Data file format
VERSION 0.7
FIELDS x y z rgb
SIZE 4 4 4 4
TYPE F F F U
COUNT 1 1 1 1
WIDTH 1095
HEIGHT 1
VIEWPOINT 0 0 0 1 0 0 0
POINTS 1095
DATA ascii
0.053379238 0.75450271 0.072369754 14596755
0.053298414 0.75413436 0.072373316 14662548
0.053217605 0.753766 0.072376885 14662548
0.053136781 0.75339764 0.072380446 14596755
0.053055972 0.75302923 0.072384015 14662548
0.052975148 0.75266087 0.072387576 14662548
0.052894324 0.75229251 0.072391145 14662548
0.052813515 0.75192416 0.072394706 14662548
0.052732691 0.7515558 0.072398275 14662548
0.052651882 0.75118738 0.072401837 14727828
0.052571058 0.75081903 0.072405398 14727828
0.052490234 0.75045067 0.072408967 14727828
0.052409425 0.75008231 0.072412528 14727828
0.052328601 0.7497139 0.072416097 14728341
0.052247792 0.74934554 0.072419658 14728341
0.052166969 0.74897718 0.072423227 14662548
0.05208616 0.74860883 0.072426789 14596755
0.052005336 0.74824047 0.072430357 14662548
0.051924527 0.74787205 0.072433919 14596755
0.051843703 0.7475037 0.072437488 14662548
0.051762879 0.74713534 0.072441049 14728341
0.05168207 0.74676698 0.072444618 14794136
0.051601246 0.74639857 0.072448179 14662550
0.051520437 0.74603021 0.072451748 14794134
0.051439613 0.74566185 0.072455309 14728341
0.051358789 0.7452935 0.072458878 14727828
0.05127798 0.74492514 0.07246244 14727828
0.050275177 0.74447614 0.071998514 14793621
0.05019401 0.74410617 0.072002091 14859414
0.050112844 0.74373621 0.072005674 14859414
0.050031677 0.74336624 0.072009251 14793621
0.04995051 0.74299628 0.072012834 14793621
0.049869329 0.74262631 0.072016418 14793621
0.049788177 0.74225634 0.072019994 14727828
0.049706995 0.74188638 0.072023578 14662035
0.059239268 0.8233496 0.067362189 11966582
0.059154943 0.82296526 0.067365907 11899762
0.059070632 0.82258099 0.067369625 11899762
0.058986321 0.82219666 0.067373343 11768176
0.058901995 0.82181233 0.067377061 11636590
0.058817685 0.821428 0.067380786 11505004
0.058733374 0.82104373 0.067384504 11505004
0.058649048 0.8206594 0.067388222 11439211
0.058564737 0.82027507 0.067391939 11373418
0.058480412 0.81989074 0.067395657 11373418
0.058396101 0.81950641 0.067399383 11439211
0.05831179 0.81912214 0.0674031 11373418
0.058227465 0.8187378 0.067406818 11373418
0.058143154 0.81835347 0.067410536 11373418
0.058058843 0.81796914 0.067414254 11439211
0.057974517 0.81758487 0.067417979 11439209
0.057890207 0.81720054 0.067421697 11439209
0.058662191 0.81659365 0.067894422 11439209
0.058578223 0.81621093 0.067898124 11439209
0.05849427 0.8158282 0.067901827 11439211
0.058410302 0.81544548 0.067905538 11373418
0.058326334 0.81506276 0.067909241 11439211
0.058242366 0.81468004 0.067912944 11373418
0.058158398 0.81429732 0.067916647 11439211
0.05807443 0.8139146 0.06792035 11439211
0.057990462 0.81353188 0.067924052 11439211
0.057906494 0.81314915 0.067927755 11439211
0.057822526 0.81276643 0.067931458 11373418
0.057738572 0.81238371 0.067935169 11439211
0.057654604 0.81200099 0.067938872 11505004
0.057570636 0.81161827 0.067942575 11439211
0.057486668 0.81123555 0.067946278 11439211
0.0574027 0.81085283 0.06794998 11505004
0.057318732 0.8104701 0.067953683 11505004
0.057234764 0.81008738 0.067957386 11439211
0.058013409 0.80951077 0.068429828 11373418
0.057929784 0.80912966 0.068433523 11439211
0.057846174 0.80874854 0.068437211 11505004
0.057762563 0.80836737 0.068440899 11439211
0.057678938 0.80798626 0.068444587 11439211
0.057595327 0.80760515 0.068448275 11439211
0.057511702 0.80722404 0.068451963 11439211
0.057428092 0.80684286 0.068455651 11505004
0.057344466 0.80646175 0.068459339 11505004
0.057260856 0.80608064 0.068463027 11505004
0.057177246 0.80569953 0.068466716 11505004
0.057960063 0.80514205 0.068938963 11439211
0.057876796 0.80476254 0.068942636 11439211
0.057793528 0.80438298 0.068946309 11373418
0.05771026 0.80400348 0.068949983 11373418
0.057626992 0.80362391 0.068953656 11439211
0.057543725 0.80324441 0.068957329 11373418
0.057460457 0.80286485 0.068961002 11439211
0.057377189 0.80248535 0.068964675 11307625
0.057293922 0.80210578 0.068968348 11373418
0.058080256 0.80156428 0.069440439 11373416
0.057997331 0.80118632 0.069444098 11373416
0.057914421 0.80080843 0.069447756 11307623
0.057831496 0.80043048 0.069451407 11307623
0.057748586 0.80005252 0.069455065 11373416
0.057665661 0.79967457 0.069458723 11373416
0.057582751 0.79929668 0.069462381 11373416
0.057499826 0.79891872 0.06946604 11373416
0.057416916 0.79854077 0.069469698 11307623
0.058206752 0.79801524 0.06994164 11373416
0.058124185 0.79763889 0.069945283 11373416
0.058041617 0.79726255 0.069948927 11307623
0.05795905 0.79688621 0.069952562 11241830
0.057876483 0.79650986 0.069956206 11373416
0.057793915 0.79613352 0.069959849 11373416
0.057711348 0.79575717 0.069963492 11307623
0.057628781 0.79538083 0.069967136 11307623
0.057546213 0.79500449 0.069970779 11307623
0.057463646 0.79462814 0.069974422 11307623
0.057381079 0.7942518 0.069978058 11307623
0.057298511 0.79387546 0.069981702 11307877
0.058092892 0.7933706 0.07045345 11307877
0.058010682 0.79299587 0.070457079 11242084
0.057928458 0.79262114 0.070460707 11242084
0.057846248 0.79224634 0.070464328 11242084
0.057764024 0.79187161 0.070467956 11373670
0.057681814 0.79149687 0.070471585 11373670
0.057599589 0.79112214 0.070475213 11307877
0.05751738 0.79074734 0.070478842 11242084
0.057435155 0.79037261 0.070482463 11307877
0.057352945 0.78999788 0.070486091 11373670
0.057270721 0.78962314 0.07048972 11373670
0.057188511 0.78924835 0.070493348 11242084
0.057106286 0.78887361 0.070496969 11242084
0.057024077 0.78849888 0.070500597 11242084
0.056941852 0.78812414 0.070504226 11242084
0.056859642 0.78774941 0.070507854 11307877
0.056777418 0.78737462 0.070511475 11242084
0.056695208 0.78699988 0.070515104 11307877
0.056612983 0.78662515 0.070518732 11242084
0.056530774 0.78625041 0.070522361 11242084
0.056448549 0.78587562 0.070525981 11242084
0.056366339 0.78550088 0.07052961 11372900
0.056284115 0.78512615 0.070533238 11438693
0.0570869 0.78465956 0.071004607 11438693
0.057005033 0.78428644 0.07100822 11438693
0.056923166 0.78391325 0.071011834 11438693
0.056841299 0.78354013 0.07101544 11372900
0.056759432 0.78316694 0.071019053 11372646
0.056677565 0.78279382 0.071022667 11570025
0.056595698 0.78242064 0.071026273 11438441
0.056513831 0.78204751 0.071029887 11438441
0.056431964 0.78167433 0.0710335 11504234
0.056350097 0.7813012 0.071037114 11504234
0.05626823 0.78092802 0.07104072 11504232
0.056186363 0.78055489 0.071044333 11570025
0.056104481 0.78018171 0.071047947 11570025
0.056022614 0.77980858 0.071051553 11504232
0.055940747 0.7794354 0.071055166 11505002
0.05585888 0.77906227 0.07105878 11505002
0.055777013 0.77868915 0.071062386 11636590
0.055695146 0.77831596 0.071066 11636590
0.055613279 0.77794284 0.071069613 11439211
0.055531412 0.77756965 0.071073219 11702383
0.055449545 0.77719653 0.071076833 11505002
0.055367678 0.77682334 0.071080446 11965553
0.055285811 0.77645022 0.071084052 12295031
0.056096986 0.7760219 0.071555056 12360824
0.056015477 0.77565032 0.071558654 12755582
0.055933952 0.77527881 0.071562245 12821375
0.055852443 0.77490723 0.071565844 13216133
0.055770919 0.77453566 0.071569443 13281926
0.055689409 0.77416414 0.071573034 13150854
0.055607885 0.77379256 0.071576633 13085061
0.055526376 0.77342099 0.071580224 13019268
0.055444852 0.77304941 0.071583822 13150854
0.055363327 0.7726779 0.071587421 13150854
0.055281818 0.77230632 0.071591012 13216647
0.055200309 0.77193475 0.071594611 13216647
0.055118784 0.77156317 0.071598202 13479819
0.05503726 0.77119166 0.071601801 13545612
0.054955751 0.77082008 0.071605399 13479819
0.055772513 0.77041733 0.072076157 13545612
0.055691361 0.77004737 0.07207974 13677198
0.05561018 0.7696774 0.072083317 13808270
0.055529013 0.76930743 0.0720869 13939856
0.055447847 0.76893747 0.072090477 13808270
0.05536668 0.7685675 0.07209406 13808270
0.055285513 0.76819754 0.072097644 13808524
0.055204347 0.76782757 0.07210122 14005903
0.05512318 0.7674576 0.072104804 14269075
0.055042014 0.76708764 0.07210838 14269075
0.054960847 0.76671767 0.072111964 14269075
0.05487968 0.76634771 0.072115541 14203282
0.054798514 0.76597774 0.072119124 14268562
0.054717347 0.76560777 0.072122701 14268562
0.05463618 0.76523781 0.072126284 14334355
0.054555014 0.76486784 0.072129861 14334355
0.054473847 0.76449788 0.072133444 14334355
0.054392666 0.76412791 0.072137028 14465941
0.054311514 0.76375794 0.072140604 14531734
0.054230332 0.76338798 0.072144188 14597527
0.054149166 0.76301801 0.072147764 14465939
0.054067999 0.76264805 0.072151348 14465939
0.053986832 0.76227808 0.072154924 14531732
0.053905666 0.76190811 0.072158508 14465939
0.053824499 0.76153815 0.072162092 14334353
0.053743333 0.76116818 0.072165668 14334353
0.053662166 0.76079822 0.072169252 14465169
0.053580999 0.76042825 0.072172828 14465169
0.053499833 0.76005828 0.072176412 14465939
0.053418666 0.75968832 0.072179988 14465939
0.053337499 0.75931835 0.072183572 14465939
0.053256333 0.75894839 0.072187148 14465939
0.053175166 0.75857842 0.072190732 14465939
0.053094 0.75820845 0.072194308 14531732
0.053012818 0.75783849 0.072197892 14465939
0.052931666 0.75746852 0.072201476 14465939
0.052850485 0.75709856 0.072205052 14465939
0.052769318 0.75672859 0.072208636 14334353
0.052688152 0.75635862 0.072212212 14596755
0.052606985 0.75598866 0.072215796 14596755
0.052525818 0.75561869 0.072219372 14596755
0.052444652 0.75524873 0.072222956 14662548
0.052363485 0.75487876 0.072226532 14662548
0.052282318 0.75450879 0.072230116 14596755
0.052201152 0.75413883 0.072233692 14662548
0.052119985 0.75376886 0.072237276 14662548
0.052038819 0.7533989 0.072240859 14596755
0.051957652 0.75302893 0.072244436 14662548
0.051876485 0.75265896 0.072248019 14596755
0.051795319 0.75228906 0.072251596 14662548
0.059300691 0.82454789 0.067692034 12690307
0.059216365 0.82416356 0.067695752 12427135
0.059132054 0.82377923 0.067699477 12098168
0.059047729 0.82339495 0.067703195 11966582
0.058963418 0.82301062 0.067706913 11900275
0.058879107 0.82262629 0.067710631 11768689
0.058794782 0.82224196 0.067714348 11768176
0.058710471 0.82185769 0.067718074 11636590
0.05862616 0.82147336 0.067721792 11505004
0.058541834 0.82108903 0.067725509 11505004
0.058457524 0.8207047 0.067729227 11505004
0.058373198 0.82032037 0.067732945 11373418
0.058288887 0.8199361 0.06773667 11373418
0.058204576 0.81955177 0.067740388 11373418
0.058120251 0.81916744 0.067744106 11373418
0.058891296 0.81855237 0.068215497 11373418
0.058807328 0.81816965 0.0682192 11439211
0.05872336 0.81778693 0.068222903 11439211
0.058639392 0.81740421 0.068226606 11505004
0.058555424 0.81702149 0.068230309 11439211
0.058471456 0.81663877 0.068234012 11373418
0.058387488 0.81625605 0.068237722 11439211
0.058303535 0.81587332 0.068241425 11373418
0.058219567 0.8154906 0.068245128 11373418
0.058135599 0.81510788 0.068248831 11439211
0.058051631 0.81472516 0.068252534 11373418
0.057967663 0.81434244 0.068256237 11439211
0.057883695 0.81395972 0.06825994 11439211
0.057799727 0.813577 0.06826365 11439211
0.058576018 0.8129859 0.06873481 11373418
0.058492392 0.81260473 0.068738498 11373416
0.058408782 0.81222361 0.068742186 11439209
0.058325157 0.8118425 0.068745881 11439211
0.058241546 0.81146139 0.068749569 11439211
0.058157936 0.81108022 0.068753257 11439211
0.05807431 0.81069911 0.068756945 11439211
0.0579907 0.81031799 0.068760633 11505004
0.057907075 0.80993688 0.068764322 11373418
0.057823464 0.80955571 0.06876801 11373418
0.057739854 0.8091746 0.068771698 11439211
0.057656229 0.80879349 0.068775386 11505004
0.057572618 0.80841231 0.068779074 11439211
0.057488993 0.8080312 0.068782762 11439211
0.057405382 0.80765009 0.06878645 11439211
0.057321772 0.80726898 0.068790138 11439211
0.057238147 0.80688781 0.068793826 11505004
0.057154536 0.80650669 0.068797514 11505004
0.057937443 0.80594587 0.069268383 11505004
0.057854176 0.80556631 0.069272056 11505004
0.057770908 0.80518681 0.069275729 11439211
0.057687655 0.80480731 0.069279402 11439211
0.057604387 0.80442774 0.069283076 11373418
0.05752112 0.80404818 0.069286749 11373418
0.057437852 0.80366868 0.069290422 11439211
0.057354584 0.80328918 0.069294095 11439211
0.05814065 0.80274266 0.069764815 11439211
0.058057725 0.80236471 0.069768474 11307623
0.057974815 0.80198681 0.069772124 11373416
0.05789189 0.80160886 0.069775783 11373416
0.05780898 0.80123091 0.069779441 11307623
0.05772607 0.80085295 0.069783099 11307623
0.057643145 0.80047506 0.069786757 11307623
0.057560235 0.80009711 0.069790415 11373416
0.05747731 0.79971915 0.069794074 11373416
0.058266893 0.79918861 0.070264645 11373416
0.058184326 0.79881227 0.070268288 11373416
0.058101758 0.79843593 0.070271932 11307623
0.058019191 0.79805958 0.070275575 11373416
0.057936624 0.79768324 0.070279211 11373416
0.057854056 0.7973069 0.070282854 11373416
0.057771489 0.79693055 0.070286497 11307623
0.057688922 0.79655421 0.070290141 11373416
0.057606354 0.79617786 0.070293784 11373416
0.057523787 0.79580152 0.070297427 11307623
0.05744122 0.79542518 0.070301071 11307623
0.057358652 0.79504883 0.070304707 11307623
0.05815278 0.79453903 0.070775092 11307623
0.05807057 0.7941643 0.070778713 11307623
0.057988346 0.79378957 0.070782341 11307877
0.057906136 0.79341483 0.070785969 11307877
0.057823911 0.79304004 0.070789598 11307877
0.057741702 0.7926653 0.070793219 11307877
0.057659477 0.79229057 0.070796847 11307877
0.057577267 0.79191583 0.070800476 11373670
0.057495043 0.79154104 0.070804104 11373670
0.057412833 0.79116631 0.070807725 11373670
0.057330608 0.79079157 0.070811354 11242084
0.057248399 0.79041684 0.070814982 11307877
0.057166174 0.79004204 0.07081861 11373670
0.057083964 0.78966731 0.070822239 11373670
0.05700174 0.78929257 0.07082586 11307877
0.05691953 0.78891784 0.070829488 11307877
0.056837305 0.78854305 0.070833117 11241830
0.056755096 0.78816831 0.070836745 11307623
0.056672871 0.78779358 0.070840366 11307623
0.056590661 0.78741884 0.070843995 11241830
0.056508437 0.78704405 0.070847623 11307877
0.056426227 0.78666931 0.070851251 11307877
0.056344002 0.78629458 0.070854872 11307877
0.056261793 0.78591985 0.070858501 11307877
0.056179568 0.78554505 0.070862129 11307877
0.056097358 0.78517032 0.070865758 11373670
0.056900933 0.78470361 0.071335711 11373670
0.056819066 0.78433043 0.071339324 11307877
0.056737199 0.7839573 0.07134293 11242084
0.056655332 0.78358412 0.071346544 11307877
0.056573451 0.78321099 0.071350157 11505002
0.056491584 0.78283781 0.071353771 11636588
0.056409717 0.78246468 0.071357377 11439209
0.05632785 0.7820915 0.07136099 11505002
0.056245983 0.78171837 0.071364604 11636588
0.056164116 0.78134519 0.07136821 11768174
0.056082249 0.78097206 0.071371824 11768174
0.056000382 0.78059888 0.071375437 12162932
0.055918515 0.78022575 0.071379043 12295031
0.055836648 0.77985257 0.071382657 12163445
0.055754781 0.77947944 0.07138627 12426617
0.055672914 0.77910626 0.071389884 12623996
0.055591047 0.77873313 0.07139349 12427131
0.05550918 0.77835995 0.071397103 12492924
0.055427313 0.77798682 0.071400717 12624510
0.055345446 0.77761364 0.071404323 13085061
0.055263579 0.77724051 0.071407937 13150854
0.055181712 0.77686733 0.07141155 13414026
0.055099845 0.7764942 0.071415156 12887682
0.055911824 0.77606571 0.071884744 13348233
0.0558303 0.77569419 0.071888342 13348233
0.055748791 0.77532262 0.071891934 13479819
0.055667266 0.77495104 0.071895532 13545612
0.055585742 0.77457947 0.071899131 13479819
0.055504233 0.77420795 0.071902722 13479819
0.055422723 0.77383637 0.071906321 13479819
0.055341199 0.7734648 0.071909912 13545612
0.055259675 0.77309322 0.071913511 13545612
0.055178165 0.77272171 0.071917109 13677198
0.055096641 0.77235013 0.0719207 13808784
0.055015132 0.77197856 0.071924299 13874577
0.054933608 0.77160698 0.07192789 13874577
0.054852098 0.77123547 0.071931489 13940370
0.054770574 0.77086389 0.071935087 14137749
0.055588141 0.77046096 0.072404429 14137235
0.055506974 0.770091 0.072408013 14137235
0.055425808 0.76972103 0.072411589 14137235
0.055344641 0.76935107 0.072415173 14268821
0.055263475 0.7689811 0.072418749 14268821
0.055182308 0.76861113 0.072422333 14268821
0.055101141 0.76824117 0.072425917 14203282
0.055019975 0.7678712 0.072429493 14466454
0.054938808 0.76750124 0.072433077 14532247
0.054857641 0.76713127 0.072436653 14466454
0.054776475 0.7667613 0.072440237 14531734
0.054695308 0.76639134 0.072443813 14531734
0.054614127 0.76602137 0.072447397 14531734
0.05453296 0.7656514 0.072450973 14531734
0.054451793 0.76528144 0.072454557 14465941
0.054370627 0.76491147 0.072458133 14465941
0.05428946 0.76454151 0.072461717 14596757
0.054208294 0.76417154 0.072465301 14662550
0.054127127 0.76380157 0.072468877 14531734
0.05404596 0.76343161 0.072472461 14531734
0.053964794 0.76306164 0.072476037 14465939
0.053883627 0.76269168 0.072479621 14597525
0.05380246 0.76232171 0.072483197 14531732
0.053721294 0.76195174 0.072486781 14465939
0.053640127 0.76158178 0.072490357 14662548
0.053558961 0.76121181 0.072493941 14662548
0.053477794 0.76084185 0.072497517 14662548
0.053396627 0.76047188 0.072501101 14596755
0.053315461 0.76010191 0.072504684 14596755
0.053234279 0.75973195 0.072508261 14596755
0.053153113 0.75936198 0.072511844 14465939
0.053071946 0.75899202 0.072515421 14531732
0.052990779 0.75862205 0.072519004 14531732
0.052909613 0.75825208 0.072522581 14465939
0.052828446 0.75788212 0.072526164 14465939
0.052747279 0.75751215 0.072529748 14531732
0.052666113 0.75714219 0.072533324 14596755
0.052584946 0.75677222 0.072536908 14596755
0.05250378 0.75640225 0.072540484 14596755
0.052422613 0.75603229 0.072544068 14596755
0.052341446 0.75566232 0.072547644 14465169
0.05226028 0.75529236 0.072551228 14596755
0.052179113 0.75492239 0.072554804 14662548
0.052097946 0.75455242 0.072558388 14596755
0.05201678 0.75418246 0.072561964 14662548
0.051935613 0.75381249 0.072565548 14662548
0.051854432 0.75344253 0.072569132 14662548
0.051773265 0.75307256 0.072572708 14662548
0.051692098 0.75270259 0.072576292 14596755
0.051610932 0.75233269 0.072579868 14662548
0.059109151 0.82459319 0.06803304 12690307
0.059024841 0.82420886 0.068036765 12427135
0.058940515 0.82382458 0.068040483 12163961
0.058856204 0.82344025 0.068044201 11966582
0.058771893 0.82305592 0.068047918 11900275
0.058687568 0.82267159 0.068051636 11834482
0.058603257 0.82228732 0.068055362 11833969
0.058518946 0.82190299 0.068059079 11636590
0.05843462 0.82151866 0.068062797 11505004
0.05835031 0.82113433 0.068066515 11505004
0.058265984 0.82075 0.068070233 11505004
0.058181673 0.82036573 0.068073958 11439211
0.058097363 0.8199814 0.068077676 11373418
0.058013037 0.81959707 0.068081394 11307625
0.057928726 0.81921273 0.068085112 11373418
0.058700562 0.81859756 0.068555087 11439211
0.058616593 0.81821477 0.06855879 11439211
0.058532625 0.81783211 0.068562493 11439211
0.058448657 0.81744933 0.068566203 11439211
0.058364689 0.81706661 0.068569906 11439211
0.058280721 0.81668389 0.068573609 11373418
0.058196753 0.81630117 0.068577312 11439211
0.058112785 0.81591845 0.068581015 11373418
0.058028832 0.81553572 0.068584718 11439211
0.057944864 0.815153 0.068588421 11439211
0.057860896 0.81477028 0.068592131 11439211
0.057776928 0.81438756 0.068595834 11439211
0.05769296 0.81400484 0.068599537 11439211
0.057608992 0.81362212 0.06860324 11373418
0.058386073 0.81303084 0.069072992 11373418
0.058302462 0.81264967 0.06907668 11373416
0.058218837 0.81226856 0.069080368 11439209
0.058135226 0.81188744 0.069084056 11373416
0.058051601 0.81150633 0.069087744 11373416
0.057967991 0.81112516 0.069091432 11439211
0.05788438 0.81074405 0.06909512 11439211
0.057800755 0.81036294 0.069098808 11439211
0.057717144 0.80998182 0.069102496 11373418
0.057633519 0.80960065 0.069106184 11373418
0.057549909 0.80921954 0.069109872 11439211
0.057466298 0.80883843 0.06911356 11439211
0.057382673 0.80845726 0.069117248 11439211
0.057299063 0.80807614 0.069120944 11439211
0.057215437 0.80769503 0.069124632 11439211
0.057131827 0.80731392 0.06912832 11373931
0.057048202 0.80693281 0.069132008 11373931
0.056964591 0.80655164 0.069135696 11439724
0.057748303 0.80599064 0.069605142 11439724
0.057665035 0.80561107 0.069608815 11505004
0.057581767 0.80523157 0.069612488 11439211
0.0574985 0.80485201 0.069616161 11439211
0.057415232 0.80447251 0.069619834 11439211
0.057331964 0.80409294 0.069623508 11373418
0.057248697 0.80371344 0.069627181 11439211
0.057165444 0.80333388 0.069630854 11439211
0.0579523 0.80278724 0.070100158 11373418
0.057869375 0.80240929 0.070103817 11373416
0.057786465 0.80203134 0.070107475 11373416
0.05770354 0.80165344 0.070111133 11373416
0.05762063 0.80127549 0.070114791 11307623
0.057537705 0.80089754 0.07011845 11307623
0.057454795 0.80051959 0.070122108 11307623
0.057371885 0.80014169 0.070125766 11373416
0.05728896 0.79976374 0.070129424 11373416
0.058079332 0.79923302 0.07059858 11373416
0.057996765 0.79885668 0.070602223 11439209
0.057914197 0.79848033 0.070605859 11373416
0.05783163 0.79810399 0.070609502 11307623
0.057749063 0.79772764 0.070613146 11373418
0.057666495 0.7973513 0.070616789 11373418
0.057583928 0.79697496 0.070620432 11307625
0.057501361 0.79659861 0.070624076 11373418
0.057418793 0.79622227 0.070627712 11373418
0.057336226 0.79584593 0.070631355 11307625
0.057253659 0.79546958 0.070634998 11307623
0.057171091 0.79509324 0.070638642 11307623
0.057966024 0.79458326 0.071107604 11307623
0.057883799 0.79420853 0.071111232 11373416
0.057801589 0.79383373 0.07111486 11307877
0.057719365 0.793459 0.071118489 11373670
0.057637155 0.79308426 0.07112211 11373670
0.05755493 0.79270953 0.071125738 11307877
0.057472721 0.79233474 0.071129367 11307877
0.057390496 0.79196 0.071132995 11373670
0.057308286 0.79158527 0.071136624 11439463
0.057226062 0.79121053 0.071140245 11373670
0.057143852 0.79083574 0.071143873 11307877
0.057061628 0.790461 0.071147501 11307877
0.056979418 0.79008627 0.07115113 11373670
0.056897193 0.78971153 0.071154751 11439463
0.056814983 0.78933674 0.071158379 11570025
0.056732759 0.78896201 0.071162008 11504232
0.056650549 0.78858727 0.071165636 11504232
0.056568325 0.78821254 0.071169257 11504232
0.056486115 0.78783774 0.071172886 11570025
0.05640389 0.78746301 0.071176514 11570025
0.056321681 0.78708827 0.071180142 11372646
0.056239456 0.78671354 0.071183771 11504232
0.056157246 0.78633875 0.071187392 11505002
0.056075022 0.78596401 0.07119102 11505002
0.055992812 0.78558928 0.071194649 11636588
0.055910587 0.78521454 0.07119827 11702381
0.056714967 0.7847476 0.071666814 11636588
0.056633085 0.78437442 0.071670428 11833967
0.056551218 0.78400129 0.071674034 12426617
0.056469351 0.78362811 0.071677648 12360824
0.056387484 0.78325498 0.071681261 12295031
0.056305617 0.7828818 0.071684867 12887168
0.05622375 0.78250867 0.071688481 12821375
0.056141883 0.78213549 0.071692094 13150340
0.056060016 0.78176236 0.0716957 12953475
0.055978149 0.78138918 0.071699314 12558717
0.055896282 0.78101605 0.071702927 12756096
0.055814415 0.78064287 0.071706541 13414026
0.055732548 0.78026974 0.071710147 13283210
0.055650681 0.77989662 0.07171376 12559487
0.055568814 0.77952343 0.071717374 13217417
0.055486947 0.77915025 0.07172098 13085831
0.05540508 0.77877712 0.071724594 13414796
0.055323213 0.778404 0.071728207 13349003
0.055241346 0.77803081 0.071731821 13480589
0.055159479 0.77765769 0.071735427 13085831
0.055077612 0.7772845 0.07173904 13414796
0.054995745 0.77691138 0.071742654 13414796
0.054913878 0.77653819 0.07174626 13611405
0.054832011 0.77616507 0.071749873 13677198
0.054750144 0.77579188 0.071753487 13808784
0.054668278 0.77541876 0.071757093 13940370
0.054586411 0.77504557 0.071760707 14006163
0.054504544 0.77467245 0.07176432 13874577
0.054422677 0.77429926 0.071767926 13940370
0.055237547 0.77388018 0.072236009 14006163
0.055156022 0.77350861 0.0722396 14138003
0.055074513 0.77313709 0.072243199 14269589
0.054992989 0.77276552 0.07224679 14466454
0.054911479 0.77239394 0.072250389 14400661
0.054829955 0.77202237 0.072253987 14532247
0.054748446 0.77165085 0.072257578 14466454
0.054666921 0.77127928 0.072261177 14597527
0.054585397 0.7709077 0.072264776 14531734
0.054503888 0.77053612 0.072268367 14597527
0.054422364 0.77016461 0.072271965 14531734
0.054340854 0.76979303 0.072275557 14531734
0.054754421 0.76754487 0.072761349 14597527
0.054673254 0.7671749 0.072764926 14597527
0.054592088 0.76680493 0.072768509 14597527
0.054510921 0.76643497 0.072772086 14597527
0.054429755 0.766065 0.072775669 14531734
0.054348588 0.76569504 0.072779246 14597527
0.054267421 0.76532507 0.072782829 14662550
0.053281128 0.76496273 0.072322309 14662550
0.053199604 0.76459122 0.0723259 14662550
0.053118095 0.76421964 0.072329499 14662550
0.053036571 0.76384807 0.07233309 14662550
0.052955061 0.76347649 0.072336689 14662550
0.052873537 0.76310498 0.072340287 14662548
0.052792028 0.7627334 0.072343878 14728341
0.052710503 0.76236182 0.072347477 14662548
0.052628994 0.76199031 0.072351068 14596755
0.05254747 0.76161873 0.072354667 14662548
0.052465945 0.76124716 0.072358266 14662548
0.052384436 0.76087558 0.072361857 14596755
0.052302912 0.76050401 0.072365455 14596755
0.052221403 0.76013249 0.072369054 14596755
0.052139878 0.75976092 0.072372645 14596755
0.052058369 0.75938934 0.072376244 14596755
0.051976845 0.75901783 0.072379842 14662548
0.051895335 0.75864625 0.072383434 14596755
0.051813811 0.75827467 0.072387032 14596755
0.051732302 0.7579031 0.072390623 14596755
0.051650777 0.75753158 0.072394222 14662548
0.051569268 0.75716001 0.072397821 14662548
0.051487744 0.75678843 0.072401412 14662548
0.051406235 0.75641692 0.07240501 14596755
0.05132471 0.75604534 0.072408602 14596755
0.051243186 0.75567377 0.0724122 14596755
0.051161677 0.75530219 0.072415799 14596755
0.051080152 0.75493062 0.07241939 14662548
0.050998643 0.7545591 0.072422989 14596755
0.058917627 0.82463855 0.068374053 12690307
0.058833301 0.82425421 0.06837777 12427135
0.05874899 0.82386988 0.068381488 12295033
0.05866468 0.82348555 0.068385206 12163447
0.058580354 0.82310128 0.068388924 11900275
0.058496043 0.82271695 0.068392649 11834482
0.058411732 0.82233262 0.068396367 11768689
0.058327407 0.82194829 0.068400085 11637103
0.058243096 0.82156396 0.068403803 11571310
0.05815877 0.82117969 0.068407521 11439724
0.058074459 0.82079536 0.068411246 11439724
0.057990149 0.82041103 0.068414964 11373931
0.057905823 0.8200267 0.068418682 11308138
0.057821512 0.81964242 0.068422399 11242345
0.057737201 0.81925809 0.068426117 11308138
0.058509827 0.81864268 0.068894684 11373931
0.058425859 0.81825995 0.068898387 11373931
0.058341891 0.81787723 0.06890209 11373931
0.058257923 0.81749451 0.068905793 11373931
0.058173954 0.81711179 0.068909496 11308138
0.058089986 0.81672907 0.068913199 11373931
0.058006018 0.81634635 0.068916902 11373931
0.05792205 0.81596363 0.068920605 11373418
0.057838097 0.8155809 0.068924308 11373418
0.057754129 0.81519818 0.068928018 11439211
0.057670161 0.81481546 0.068931721 11439211
0.057586193 0.81443274 0.068935424 11373418
0.057502225 0.81405002 0.068939127 11373418
0.057418257 0.8136673 0.06894283 11373418
0.058196127 0.81307578 0.069411166 11373418
0.058112517 0.81269461 0.069414854 11373416
0.058028892 0.8123135 0.069418542 11439209
0.057945281 0.81193238 0.06942223 11373416
0.057861671 0.81155127 0.069425918 11373416
0.057778046 0.8111701 0.069429606 11439209
0.057694435 0.81078899 0.069433294 11439209
0.05761081 0.81040788 0.069436982 11439211
0.057527199 0.81002676 0.069440678 11373418
0.057443589 0.80964559 0.069444358 11373418
0.057359964 0.80926448 0.069448054 11439211
0.057276353 0.80888337 0.069451742 11439211
0.057192728 0.80850226 0.06945543 11439211
0.057109118 0.80812109 0.069459118 11439211
0.057025507 0.80773997 0.069462806 11439211
0.056941882 0.80735886 0.069466494 11373931
0.056858271 0.80697775 0.069470182 11373931
0.056774646 0.80659658 0.06947387 11439724
0.057559162 0.8060354 0.069941908 11439724
0.057475895 0.80565584 0.069945581 11505004
0.057392627 0.80527633 0.069949254 11439211
0.057309359 0.80489677 0.069952928 11439211
0.057226092 0.80451727 0.069956601 11439211
0.057142824 0.80413771 0.069960274 11439211
0.057059556 0.8037582 0.069963947 11439211
0.056976289 0.80337864 0.06996762 11439211
0.057763949 0.80283183 0.070435509 11439211
0.057681024 0.80245388 0.070439167 11373416
0.057598114 0.80207592 0.070442826 11373416
0.057515189 0.80169797 0.070446476 11373416
0.057432279 0.80132008 0.070450135 11307623
0.057349354 0.80094212 0.070453793 11307623
0.057266444 0.80056417 0.070457451 11373416
0.057183534 0.80018622 0.070461109 11439209
0.057100609 0.79980832 0.070464768 11373416
0.057891771 0.79927742 0.070932508 11373416
0.057809204 0.79890108 0.070936151 11373416
0.057726651 0.79852474 0.070939794 11373416
0.057644084 0.79814839 0.070943438 11373416
0.057561517 0.79777205 0.070947081 11373416
0.057478949 0.79739571 0.070950717 11307623
0.057396382 0.79701936 0.07095436 11439211
0.057313815 0.79664302 0.070958003 11373418
0.057231247 0.79626667 0.070961647 11439209
0.05714868 0.79589033 0.07096529 11439209
0.057066113 0.79551399 0.070968933 11373416
0.056983545 0.79513764 0.070972577 11373416
0.057779253 0.79462743 0.071440123 11373416
0.057697043 0.79425269 0.071443751 11439209
0.057614818 0.79387796 0.071447372 11439463
0.057532609 0.79350317 0.071451001 11439463
0.057450384 0.79312843 0.071454629 11439463
0.057368174 0.7927537 0.071458258 11505256
0.05728595 0.79237896 0.071461886 11373670
0.05720374 0.79200417 0.071465507 11373670
0.057121515 0.79162943 0.071469136 11307877
0.057039306 0.7912547 0.071472764 11307877
0.056957081 0.79087996 0.071476392 11307877
0.056874871 0.79050517 0.071480021 11702635
0.056792647 0.79013044 0.071483642 11505002
0.056710437 0.7897557 0.07148727 11505002
0.056628212 0.78938097 0.071490899 11702383
0.056546003 0.78900623 0.07149452 11768176
0.056463778 0.78863144 0.071498148 11505002
0.056381568 0.7882567 0.071501777 11965553
0.056299359 0.78788197 0.071505405 12228725
0.056217134 0.78750724 0.071509033 12360311
0.056134909 0.78713244 0.071512654 12623998
0.0560527 0.78675771 0.071516283 12821377
0.05597049 0.78638297 0.071519911 12426619
0.055888265 0.78600824 0.07152354 12689791
0.055806041 0.78563344 0.071527161 13018756
0.055723831 0.78525871 0.071530789 13479307
0.056529 0.78479159 0.071997918 13281928
0.056447119 0.78441846 0.072001524 13347721
0.056365252 0.78404528 0.072005138 13545098
0.056283385 0.78367215 0.072008751 13281926
0.056201518 0.78329897 0.072012357 12953475
0.056119651 0.78292584 0.072015971 13611405
0.056037784 0.78255266 0.072019584 13479819
0.055955917 0.78217953 0.072023198 13479819
0.05587405 0.78180635 0.072026804 13414796
0.055792183 0.78143322 0.072030418 13677968
0.055710316 0.78106004 0.072034031 13480589
0.055628449 0.78068691 0.072037637 13546382
0.055546582 0.78031373 0.072041251 13677198
0.055464715 0.77994061 0.072044864 13808784
0.055382848 0.77956742 0.07204847 13874577
0.055300981 0.7791943 0.072052084 14006163
0.055219114 0.77882111 0.072055697 13874577
0.055137247 0.77844799 0.072059304 14006163
0.05505538 0.7780748 0.072062917 14137749
0.054973513 0.77770168 0.072066531 14071956
0.054891646 0.77732849 0.072070137 14269335
0.054809779 0.77695537 0.07207375 14269335
0.054727912 0.77658218 0.072077364 14006165
0.054646045 0.77620906 0.072080977 14335130
0.054564178 0.77583587 0.072084583 14466200
0.054482311 0.77546275 0.072088197 14400407
0.054400444 0.77508956 0.07209181 14400407
0.054318577 0.77471644 0.072095416 14466200
0.05423671 0.77434325 0.07209903 14663579
0.05505237 0.77392399 0.07256569 14531993
0.05497086 0.77355242 0.072569288 14532247
0.054889336 0.7731809 0.072572887 14598040
0.054807812 0.77280933 0.072576478 14663833
0.054726303 0.77243775 0.072580077 14663833
0.054644778 0.77206618 0.072583675 14663320
0.054563269 0.77169466 0.072587267 14663320
0.054481745 0.77132308 0.072590865 14729113
0.054400235 0.77095151 0.072594456 14663320
0.054318711 0.77057993 0.072598055 14663320
0.054237202 0.77020842 0.072601654 14597527
0.054155678 0.76983684 0.072605245 14728343
0.054570049 0.7675885 0.073089615 14728343
0.054488882 0.76721853 0.073093198 14794136
0.054407716 0.76684856 0.073096782 14794136
0.054326549 0.7664786 0.073100358 14728343
0.054245383 0.76610863 0.073103942 14728343
0.054164216 0.76573867 0.073107518 14728343
0.054083049 0.7653687 0.073111102 14662550
0.053095952 0.76500654 0.07265199 14662550
0.053014442 0.76463503 0.072655588 14662550
0.052932918 0.76426345 0.072659187 14662550
0.052851409 0.76389188 0.072662778 14662550
0.052769884 0.76352036 0.072666377 14662550
0.05268836 0.76314878 0.072669968 14662548
0.052606851 0.76277721 0.072673567 14728341
0.052525327 0.76240563 0.072677165 14662548
0.052443817 0.76203412 0.072680756 14596755
0.052362293 0.76166254 0.072684355 14727828
0.052280784 0.76129097 0.072687954 14727828
0.052199259 0.76091939 0.072691545 14662035
0.05211775 0.76054788 0.072695144 14662035
0.052036226 0.7601763 0.072698742 14662548
0.051954716 0.75980473 0.072702333 14662548
0.051873192 0.75943315 0.072705932 14662548
0.051791668 0.75906163 0.072709523 14596755
0.051710159 0.75869006 0.072713122 14596755
0.051628634 0.75831848 0.07271672 14662548
0.051547125 0.75794697 0.072720312 14596755
0.051465601 0.75757539 0.07272391 14662548
0.051384091 0.75720382 0.072727501 14662548
0.051302567 0.75683224 0.0727311 14662548
0.051221058 0.75646073 0.072734699 14596755
0.051139534 0.75608915 0.07273829 14596755
0.051058024 0.75571758 0.072741888 14596755
0.0509765 0.755346 0.072745487 14662548
0.050894991 0.75497448 0.072749078 14662548
0.050813466 0.75460291 0.072752677 14596755
0.058726087 0.82468385 0.068715058 12756098
0.058641776 0.82429951 0.068718776 12295547
0.058557466 0.82391518 0.068722494 12295033
0.05847314 0.82353091 0.068726212 12163447
0.058388829 0.82314658 0.068729937 11966068
0.058304518 0.82276225 0.068733655 11834482
0.058220193 0.82237792 0.068737373 11702896
0.058135882 0.82199365 0.068741091 11637103
0.058051556 0.82160932 0.068744808 11439724
0.057967246 0.82122499 0.068748534 11439724
0.057882935 0.82084066 0.068752252 11439724
0.057798609 0.82045633 0.068755969 11373931
0.058570981 0.81983596 0.069223158 11308138
0.058487013 0.81945324 0.069226861 11242345
0.058403045 0.81907052 0.069230571 11308138
0.058319092 0.8186878 0.069234274 11373931
0.058235124 0.81830508 0.069237977 11373931
0.058151156 0.81792235 0.06924168 11308138
0.058067188 0.81753963 0.069245383 11308138
0.05798322 0.81715691 0.069249086 11308138
0.057899252 0.81677419 0.069252789 11373931
0.058675125 0.81616974 0.069719836 11308138
0.0585915 0.81578863 0.069723524 11308138
0.05850789 0.81540745 0.069727212 11242345
0.058424279 0.81502634 0.0697309 11373418
0.058340654 0.81464523 0.069734588 11439211
0.058257043 0.81426406 0.069738276 11373418
0.058173418 0.81388295 0.069741964 11307625
0.058089808 0.81350183 0.069745652 11307625
0.058006197 0.81312072 0.06974934 11373418
0.057922572 0.81273955 0.069753036 11373416
0.057838961 0.81235844 0.069756724 11373416
0.057755336 0.81197733 0.069760412 11373416
0.057671726 0.81159621 0.0697641 11373416
0.057588115 0.81121504 0.069767788 11439209
0.05750449 0.81083393 0.069771476 11439209
0.05742088 0.81045282 0.069775164 11373418
0.057337254 0.81007171 0.069778852 11373418
0.057253644 0.80969054 0.06978254 11373418
0.057170033 0.80930942 0.069786228 11373418
0.057086408 0.80892831 0.069789916 11373418
0.057869613 0.80835736 0.070256628 11439211
0.057786345 0.8079778 0.070260301 11373418
0.057703078 0.80759829 0.070263974 11439211
0.05761981 0.80721873 0.070267648 11373931
0.057536542 0.80683923 0.070271321 11439724
0.057453275 0.80645967 0.070274994 11439724
0.057370007 0.80608016 0.070278667 11439724
0.057286739 0.8057006 0.07028234 11439211
0.057203472 0.8053211 0.070286013 11439211
0.057120204 0.80494153 0.070289686 11439211
0.057036951 0.80456203 0.070293359 11439211
0.056953683 0.80418247 0.070297033 11439211
0.057741433 0.80363226 0.070763543 11439211
0.057658508 0.80325431 0.070767194 11439209
0.057575598 0.80287635 0.070770852 11439209
0.057492673 0.80249846 0.070774511 11439209
0.057409763 0.80212051 0.070778169 11439209
0.057326838 0.80174255 0.070781827 11439209
0.057243928 0.8013646 0.070785485 11373416
0.057161003 0.80098671 0.070789143 11373416
0.057078093 0.80060875 0.070792802 11373416
0.056995183 0.8002308 0.07079646 11439209
0.056912258 0.79985285 0.070800118 11439209
0.057704225 0.79932177 0.071266443 11439209
0.057621658 0.79894543 0.071270086 11373416
0.057539091 0.79856908 0.071273729 11373416
0.057456523 0.79819274 0.071277365 11373416
0.057373956 0.7978164 0.071281008 11504232
0.057291389 0.79744005 0.071284652 11504232
0.057208821 0.79706371 0.071288295 11570025
0.057126254 0.79668736 0.071291938 11635818
0.057043687 0.79631102 0.071295582 11505002
0.056961119 0.79593468 0.071299225 11636588
0.056878552 0.79555833 0.071302861 11636588
0.056795985 0.79518199 0.071306504 11505002
0.057592496 0.79467165 0.071772642 11307623
0.057510287 0.79429686 0.071776271 11373416
0.057428062 0.79392213 0.071779892 11900527
0.057345837 0.79354739 0.07178352 11703148
0.057263628 0.79317266 0.071787149 11966066
0.057181418 0.79279786 0.071790777 12097652
0.057099193 0.79242313 0.071794398 12426617
0.057016969 0.79204839 0.071798027 12360824
0.056934759 0.79167366 0.071801655 12558719
0.056852549 0.79129887 0.071805283 12558719
0.056770325 0.79092413 0.071808904 12623998
0.056688115 0.7905494 0.071812533 12689791
0.05660589 0.79017466 0.071816161 12821377
0.056523681 0.78979987 0.07181979 13216135
0.056441456 0.78942513 0.071823418 13216135
0.056359231 0.7890504 0.071827039 13150342
0.056277022 0.78867567 0.071830668 13216649
0.056194812 0.78830087 0.071834296 13085063
0.056112587 0.78792614 0.071837924 13216649
0.056030378 0.7875514 0.071841545 13414028
0.055948153 0.78717667 0.071845174 13348235
0.055865943 0.78680193 0.071848802 13414028
0.055783719 0.78642714 0.071852431 13610893
0.055701509 0.78605241 0.071856052 13676686
0.055619285 0.78567767 0.07185968 13676686
0.055537075 0.78530288 0.071863309 13676686
0.056343019 0.78483558 0.072329015 13808270
0.056261152 0.78446245 0.072332628 13742477
0.056179285 0.78408927 0.072336242 14071442
0.056097418 0.78371614 0.072339848 14005649
0.056015551 0.78334296 0.072343461 13808270
0.055933684 0.78296983 0.072347075 14137235
0.055851817 0.78259665 0.072350688 14203282
0.05576995 0.78222352 0.072354294 14137489
0.055688083 0.78185034 0.072357908 14006417
0.055606216 0.78147721 0.072361521 14335382
0.055524349 0.78110409 0.072365128 14269589
0.055442482 0.7807309 0.072368741 14466968
0.055360615 0.78035772 0.072372355 14269589
0.055278748 0.77998459 0.072375968 14335382
0.055196881 0.77961147 0.072379574 14466454
0.055115014 0.77923828 0.072383188 14532247
0.055033147 0.77886516 0.072386801 14597527
0.05495128 0.77849197 0.072390407 14729113
0.054869413 0.77811885 0.072394021 14532247
0.054787546 0.77774566 0.072397634 14532247
0.054705679 0.77737254 0.07240124 14597786
0.054623812 0.77699935 0.072404854 14597786
0.054541945 0.77662623 0.072408468 14597786
0.054460078 0.77625304 0.072412074 14597786
0.054378211 0.77587992 0.072415687 14597273
0.054296345 0.77550673 0.072419301 14597273
0.054214478 0.77513361 0.072422907 14465687
0.054132611 0.77476043 0.07242652 14597273
0.054050744 0.7743873 0.072430134 14728859
0.054867193 0.7739678 0.072895378 14728859
0.054785684 0.77359629 0.072898977 14663320
0.054704159 0.77322471 0.072902575 14663320
0.05462265 0.77285314 0.072906166 14794906
0.054541126 0.77248156 0.072909765 14729113
0.054459617 0.77211004 0.072913356 14729113
0.054378092 0.77173847 0.072916955 14729113
0.054296583 0.77136689 0.072920553 14729113
0.054215059 0.77099532 0.072924145 14663320
0.054133534 0.7706238 0.072927743 14729113
0.054052025 0.77025223 0.072931334 14663320
0.053970501 0.76988065 0.072934933 14794136
0.054385677 0.76763213 0.073417887 14728341
0.05430451 0.76726216 0.073421471 14794134
0.054223329 0.76689219 0.073425055 14794136
0.054142162 0.76652223 0.073428631 14794136
0.054060996 0.76615226 0.073432215 14794136
0.053979829 0.7657823 0.073435791 14794136
0.053898662 0.76541233 0.073439375 14728343
0.052910775 0.76505041 0.072981678 14728343
0.052829266 0.76467884 0.072985277 14794136
0.052747741 0.76430726 0.072988868 14662550
0.052666232 0.76393569 0.072992466 14662550
0.052584708 0.76356417 0.072996065 14728343
0.052503198 0.76319259 0.072999656 14662548
0.052421674 0.76282102 0.073003255 14728341
0.052340165 0.7624495 0.073006853 14662548
0.052258641 0.76207793 0.073010445 14662548
0.052177131 0.76170635 0.073014043 14727828
0.052095607 0.76133478 0.073017642 14727828
0.052014083 0.7609632 0.073021233 14727828
0.051932573 0.76059169 0.073024832 14662035
0.051851049 0.76022011 0.073028423 14727828
0.05176954 0.75984854 0.073032022 14793621
0.051688015 0.75947702 0.07303562 14662548
0.051606506 0.75910544 0.073039211 14596755
0.051524982 0.75873387 0.07304281 14596755
0.051443473 0.75836229 0.073046401 14596755
0.051361948 0.75799078 0.07305 14596755
0.051280439 0.7576192 0.073053598 14596755
0.051198915 0.75724763 0.07305719 14662548
0.051117405 0.75687605 0.073060788 14662548
0.051035881 0.75650454 0.073064387 14596755
0.050954372 0.75613296 0.073067978 14662548
0.050872847 0.75576138 0.073071577 14662548
0.050791323 0.75538981 0.073075175 14662548
0.050709814 0.75501829 0.073078766 14662548
0.05062829 0.75464672 0.073082365 14662548
0.057681277 0.82498455 0.068593822 12756096
0.057596609 0.82459867 0.068597555 12427131
0.057511941 0.82421273 0.068601295 12295031
0.058281615 0.82357621 0.069067225 12097652
0.05819729 0.82319188 0.069070943 11966066
0.058112979 0.82280755 0.069074661 11834480
0.058028668 0.82242328 0.069078378 11768174
0.057944342 0.82203895 0.069082096 11702381
0.057860032 0.82165462 0.069085822 11571308
0.057775721 0.82127029 0.069089539 11439722
0.057691395 0.82088602 0.069093257 11439722
0.057607085 0.82050169 0.069096975 11373929
0.058380246 0.81988108 0.069562756 11308136
0.058296278 0.81949836 0.069566458 11242343
0.05821231 0.81911564 0.069570161 11308136
0.058128357 0.81873292 0.069573864 11308136
0.058044389 0.8183502 0.069577567 11373931
0.057960421 0.81796747 0.06958127 11308138
0.057876453 0.81758475 0.069584981 11242345
0.057792485 0.81720203 0.069588684 11308138
0.057708517 0.81681931 0.069592386 11373931
0.05848518 0.81621468 0.070058018 11308138
0.05840157 0.81583357 0.070061706 11307625
0.058317944 0.8154524 0.070065394 11307625
0.058234334 0.81507128 0.070069082 11373418
0.058150709 0.81469017 0.07007277 11373418
0.058067098 0.81430906 0.070076458 11373418
0.057983488 0.81392789 0.070080146 11307625
0.057899863 0.81354678 0.070083834 11307625
0.057816252 0.81316566 0.070087522 11307625
0.057732627 0.81278455 0.07009121 11373416
0.057649016 0.81240338 0.070094898 11373416
0.057565406 0.81202227 0.070098586 11373416
0.057481781 0.81164116 0.070102274 11307623
0.05739817 0.81125998 0.070105962 11439211
0.057314545 0.81087887 0.07010965 11439211
0.057230935 0.81049776 0.070113339 11439211
0.057147324 0.81011665 0.070117027 11373418
0.057063699 0.80973548 0.070120715 11373416
0.056980088 0.80935436 0.070124403 11373416
0.056896463 0.80897325 0.070128098 11373416
0.057680458 0.80840212 0.070593394 11439209
0.05759719 0.80802256 0.070597067 11439209
0.057513937 0.80764306 0.070600741 11439209
0.05743067 0.80726349 0.070604414 11505002
0.057347402 0.80688399 0.070608087 11505002
0.057264134 0.80650443 0.07061176 11505002
0.057180867 0.80612493 0.070615433 11505002
0.057097599 0.80574536 0.070619106 11439211
0.057014331 0.80536586 0.070622779 11505004
0.056931064 0.8049863 0.070626453 11636590
0.056847796 0.8046068 0.070630126 11505004
0.056764528 0.80422723 0.070633799 11636590
0.057553083 0.80367684 0.071098886 11505004
0.057470158 0.80329889 0.071102545 11505002
0.057387248 0.80292094 0.071106203 11505002
0.057304323 0.80254298 0.071109861 11505002
0.057221413 0.80216509 0.071113519 11636588
0.057138488 0.80178714 0.071117178 11439209
0.057055578 0.80140918 0.071120828 11373416
0.056972653 0.80103123 0.071124487 11439209
0.056889743 0.80065334 0.071128145 11505002
0.056806818 0.80027539 0.071131803 11636588
0.056723908 0.79989743 0.071135461 11833967
0.056640998 0.79951948 0.07113912 11373416
0.056558073 0.79914159 0.071142778 11636588
0.056475163 0.79876363 0.071146436 11834480
0.057268962 0.79823714 0.0716113 11966066
0.057186395 0.7978608 0.071614943 11834480
0.057103828 0.79748446 0.071618587 11966066
0.05702126 0.79710811 0.07162223 12229238
0.056938693 0.79673177 0.071625873 12295031
0.056856126 0.79635543 0.071629509 12426617
0.056773558 0.79597908 0.071633153 12295031
0.056690991 0.79560274 0.071636796 12690305
0.056608424 0.7952264 0.071640439 13019270
0.056525856 0.79485005 0.071644083 12624510
0.056443289 0.79447371 0.071647726 12953475
0.056360722 0.79409736 0.071651369 12887682
0.057159081 0.79359156 0.07211604 12756096
0.057076871 0.79321682 0.072119668 13150854
0.056994647 0.79284209 0.072123289 13150854
0.056912437 0.79246736 0.072126918 13216649
0.056830212 0.79209256 0.072130546 13216649
0.056748003 0.79171783 0.072134174 13414028
0.056665778 0.79134309 0.072137795 13414028
0.056583568 0.79096836 0.072141424 13479821
0.056501344 0.79059356 0.072145052 13479821
0.056419134 0.79021883 0.072148681 13479821
0.05633691 0.7898441 0.072152302 13940372
0.0562547 0.78946936 0.07215593 13611407
0.056172475 0.78909457 0.072159559 13611407
0.056090266 0.78871983 0.072163187 13940372
0.056008041 0.7883451 0.072166815 13808786
0.055925831 0.78797036 0.072170436 13874579
0.055843607 0.78759557 0.072174065 13940372
0.055761397 0.78722084 0.072177693 13940372
0.055679172 0.7868461 0.072181322 14071958
0.055596963 0.78647137 0.072184943 14137237
0.055514738 0.78609657 0.072188571 14203030
0.055432528 0.78572184 0.0721922 14268821
0.055350304 0.7853471 0.072195828 14466200
0.055268094 0.78497237 0.072199449 14531993
0.055185869 0.78459758 0.072203077 14466200
0.05510366 0.78422284 0.072206706 14663066
0.055021435 0.78384811 0.072210334 14663066
0.054939225 0.78347337 0.072213963 14794652
0.054857001 0.78309858 0.072217584 14794652
0.054774791 0.78272384 0.072221212 14729113
0.054692566 0.78234911 0.072224841 14794906
0.054610357 0.78197438 0.072228469 14794906
0.054528132 0.78159964 0.07223209 14926492
0.054445922 0.78122485 0.072235718 14729626
0.054363698 0.78085011 0.072239347 14729626
0.054281488 0.78047538 0.072242975 14729626
0.054199263 0.78010058 0.072246596 14729626
0.054117054 0.77972585 0.072250225 14926492
0.054034829 0.77935112 0.072253853 14926492
0.053952619 0.77897638 0.072257482 15057308
0.054765314 0.77853596 0.072721511 15057308
0.054683447 0.77816284 0.072725125 14729113
0.05460158 0.77778965 0.072728738 14729113
0.054519713 0.77741653 0.072732344 14728859
0.054437846 0.77704334 0.072735958 14728859
0.054355979 0.77667022 0.072739571 14728859
0.054274112 0.77629703 0.072743177 14728859
0.054192245 0.77592391 0.072746791 14663066
0.054110378 0.77555072 0.072750404 14597273
0.054028511 0.7751776 0.072754011 14531480
0.053946644 0.77480447 0.072757624 14597273
0.053864777 0.77443129 0.072761238 14728859
0.05378291 0.7740581 0.072764844 14728859
0.051239461 0.76660967 0.07237716 14794134
0.051157236 0.76623487 0.072380789 14794134
0.051075011 0.76586014 0.072384417 14859927
0.050992802 0.76548541 0.072388038 14794136
0.050910592 0.76511067 0.072391666 14728343
0.050828367 0.76473594 0.072395295 14794136
0.051654369 0.76435614 0.072858736 14728343
0.051572502 0.76398295 0.072862349 14728341
0.051490635 0.76360983 0.072865963 14728341
0.051408768 0.76323664 0.072869577 14662548
0.051326901 0.76286352 0.072873183 14728341
0.051245034 0.76249033 0.072876796 14727828
0.051163167 0.76211721 0.07288041 14727828
0.0510813 0.76174402 0.072884016 14727826
