# .PCD v0.7 - Point Cloud Data file format
VERSION 0.7
FIELDS x y z rgb
SIZE 4 4 4 4
TYPE F F F U
COUNT 1 1 1 1
WIDTH 1097
HEIGHT 1
VIEWPOINT 0 0 0 1 0 0 0
POINTS 1097
DATA ascii
0.054991633 0.82869667 0.06116464 16645605
0.055198774 0.8284052 0.061165221 16250847
0.0554059 0.82811379 0.06116581 15987675
0.055613041 0.82782233 0.061166391 16314332
0.055820167 0.82753086 0.061166979 15590609
0.056027308 0.82723945 0.061167561 15459025
0.056888804 0.82748526 0.061705798 15261646
0.057094991 0.82719517 0.061706379 14604743
0.057301179 0.82690507 0.061706968 14407364
0.057507366 0.82661492 0.061707549 14209472
0.057713553 0.82632482 0.06170813 14012093
0.057919756 0.82603472 0.061708711 13748921
0.058125943 0.82574457 0.061709292 13551542
0.05833213 0.82545447 0.061709873 13288370
0.058538318 0.82516438 0.061710462 13090991
0.058744505 0.82487422 0.061711043 12827817
0.058950692 0.82458413 0.061711624 12696231
0.05915688 0.82429403 0.061712205 12498852
0.059363082 0.82400388 0.061712787 12169887
0.059569269 0.82371378 0.061713368 12168601
0.059775457 0.82342368 0.061713949 11839636
0.059981644 0.82313353 0.061714537 11510925
0.060187832 0.82284343 0.061715119 11181960
0.060394019 0.82255334 0.0617157 10524800
0.059962884 0.82170194 0.061178677 10130042
0.06017001 0.82141054 0.061179265 10064249
0.060377151 0.82111907 0.061179847 9932663
0.060584292 0.8208276 0.061180428 9867384
0.060791418 0.82053614 0.061181016 10130556
0.060998559 0.82024473 0.061181605 10133129
0.057840824 0.79552811 0.050456569 10718581
0.058066875 0.79521006 0.050457209 10718581
0.058292925 0.79489195 0.05045785 10718581
0.058518976 0.7945739 0.050458491 10652788
0.058745027 0.79425585 0.050459132 10718581
0.058971077 0.7939378 0.050459757 10718581
0.059197143 0.79361975 0.050460398 10652788
0.056962997 0.77197754 0.041345403 9666673
0.057205126 0.77163684 0.041346088 9864052
0.057447255 0.77129614 0.041346774 10455925
0.057689384 0.77095544 0.041347444 9337444
0.056825206 0.7692554 0.040273398 8151887
0.057069227 0.76891208 0.040274099 10059884
0.057313249 0.76856875 0.040274784 9994606
0.05755727 0.76822537 0.040275469 10257778
0.057801306 0.76788199 0.040276155 10323569
0.051017657 0.83106452 0.060396194 16645880
0.05122669 0.83077037 0.060396783 16777195
0.051435709 0.83047628 0.060397372 14934991
0.051644742 0.83018219 0.060397968 12760990
0.051853761 0.82988805 0.060398556 12300439
0.052062795 0.82959396 0.060399145 14143677
0.052271828 0.82929987 0.060399733 16709604
0.052480847 0.82900572 0.06040033 16777199
0.05268988 0.82871163 0.060400918 16711662
0.053562418 0.82894331 0.060937762 16646123
0.053770497 0.82865053 0.060938351 16646123
0.053978577 0.82835776 0.060938939 16580584
0.054847345 0.82859474 0.061475776 16448998
0.055054486 0.82830328 0.061476365 16381920
0.055261627 0.82801187 0.061476946 16052955
0.055468753 0.8277204 0.061477534 16182746
0.055675894 0.82742894 0.061478116 15722195
0.05588302 0.82713753 0.061478704 15459025
0.056745172 0.82738382 0.062015519 15195853
0.056951359 0.82709372 0.0620161 14669769
0.057157561 0.82680362 0.062016681 14143425
0.057363749 0.82651347 0.062017262 14077632
0.057569936 0.82622337 0.062017851 14077632
0.057776123 0.82593328 0.062018432 13748667
0.057982311 0.82564312 0.062019013 13617081
0.058188498 0.82535303 0.062019594 13354163
0.0583947 0.82506293 0.062020175 13090991
0.058600888 0.82477278 0.062020756 12893610
0.058807075 0.82448268 0.062021345 12762024
0.059013262 0.82419258 0.062021926 12433059
0.05921945 0.82390243 0.062022507 12169887
0.059425637 0.82361233 0.062023088 12233881
0.059631839 0.82332224 0.062023669 11904916
0.059838027 0.82303208 0.062024251 11642511
0.060044214 0.82274199 0.062024832 11510925
0.060250401 0.82245189 0.062025413 11182730
0.059818596 0.82160002 0.06148982 10722179
0.060025737 0.82130861 0.061490402 10524798
0.060232878 0.82101715 0.061490983 10195833
0.060440004 0.82072568 0.061491571 9866100
0.060647145 0.82043427 0.06149216 9800307
0.060854271 0.82014281 0.061492741 9538167
0.057683364 0.79541689 0.050796121 10718581
0.057909414 0.79509878 0.050796762 10652788
0.058135465 0.79478073 0.050797403 10718581
0.058361515 0.79446268 0.050798044 10718581
0.058587566 0.79414463 0.050798684 10718581
0.058813617 0.79382658 0.05079931 10718581
0.059039682 0.79350853 0.050799951 10652788
0.05679433 0.77185839 0.04170911 8219740
0.057036459 0.77151769 0.041709796 8482912
0.057278588 0.77117705 0.041710466 10455927
0.057520732 0.77083635 0.041711152 9271653
0.056655243 0.76913536 0.040639952 7690314
0.056899264 0.76879203 0.040640637 8611416
0.057143286 0.76844865 0.040641323 8809567
0.057387307 0.76810527 0.040642023 9993841
0.057631329 0.76776195 0.040642709 10323571
0.050872058 0.83096164 0.060710177 15987173
0.051081091 0.83066756 0.060710765 14142132
0.05129011 0.83037341 0.060711354 13221030
0.051499143 0.83007932 0.060711943 14142645
0.051708162 0.82978523 0.060712539 16050642
0.051917195 0.82949114 0.060713127 16777199
0.052126229 0.82919699 0.060713716 16777198
0.052335247 0.8289029 0.060714304 16711664
0.052544281 0.82860875 0.0607149 16711664
0.053417474 0.82884091 0.061250322 16711660
0.053625554 0.82854813 0.06125091 16646123
0.053833634 0.82825536 0.061251499 16580586
0.054703072 0.82849282 0.06178692 16449000
0.054910198 0.82820141 0.061787501 16381920
0.055117339 0.82790995 0.06178809 15987162
0.05532448 0.82761848 0.061788671 16247769
0.055531606 0.82732701 0.061789259 15853011
0.055738747 0.82703561 0.06178984 15524046
0.056601554 0.82728237 0.062325239 15260874
0.056807742 0.82699227 0.06232582 14800841
0.057013929 0.82670212 0.062326401 14406083
0.057220116 0.82641202 0.062326983 14142911
0.057426319 0.82612193 0.062327564 14142911
0.057632506 0.82583177 0.062328145 13879739
0.057838693 0.82554168 0.062328734 13682360
0.058044881 0.82525158 0.062329315 13354163
0.058251068 0.82496142 0.062329896 13090991
0.058457255 0.82467133 0.062330477 12827817
0.058663443 0.82438123 0.062331058 12696231
0.058869645 0.82409108 0.062331639 12498336
0.059075832 0.82380098 0.062332228 12300957
0.05928202 0.82351089 0.062332809 12233881
0.059488207 0.82322073 0.06233339 11904916
0.059694394 0.82293063 0.062333971 11773584
0.059900582 0.82264054 0.062334552 11641998
0.060106769 0.82235038 0.062335134 11313546
0.059674323 0.8214981 0.061800957 11050374
0.059881449 0.82120669 0.061801538 11050372
0.06008859 0.82091522 0.061802126 10918786
0.060295731 0.82062376 0.061802708 10260858
0.060502857 0.82033235 0.061803296 10129272
0.060709998 0.82004088 0.061803877 9931639
0.057525903 0.79530567 0.051135674 10718581
0.057751954 0.79498756 0.051136315 10718581
0.057978004 0.79466951 0.051136956 10718581
0.058204055 0.79435146 0.051137596 10718581
0.05843012 0.79403341 0.051138237 10784374
0.058656171 0.79371536 0.051138878 10718581
0.058882222 0.79339731 0.051139504 10652788
0.056625679 0.77173924 0.042072818 8285020
0.056867808 0.77139854 0.042073488 7824469
0.057109937 0.77105784 0.042074174 10586489
0.057352066 0.7707172 0.042074859 9665387
0.056485251 0.76901531 0.041006505 7493705
0.056729272 0.76867193 0.041007191 9138530
0.056973293 0.76832855 0.041007876 8151637
0.057217315 0.76798522 0.041008562 10191220
0.057461351 0.7676419 0.041009262 9402215
0.050726458 0.83085883 0.061024159 13945012
0.050935492 0.83056468 0.061024748 14339511
0.051144511 0.83027059 0.061025336 16313301
0.051353544 0.8299765 0.061025925 16776685
0.051562563 0.82968235 0.061026514 16776942
0.051771596 0.82938826 0.06102711 16711666
0.052648291 0.8296169 0.061561123 16711666
0.052856371 0.82932413 0.061561704 16711666
0.053064451 0.82903135 0.061562292 16711666
0.053937376 0.82926524 0.062096305 16711662
0.054144517 0.82897377 0.062096886 16580332
0.054351643 0.82868236 0.062097475 16514793
0.054558784 0.8283909 0.062098056 16449000
0.054765925 0.82809949 0.062098645 16446945
0.054973051 0.82780802 0.062099226 16117980
0.05583936 0.82805127 0.062633209 16247767
0.056045547 0.82776117 0.06263379 15853009
0.056251734 0.82747102 0.062634379 15524046
0.056457922 0.82718092 0.06263496 15063495
0.056664124 0.82689083 0.062635541 14801095
0.056870311 0.82660067 0.062636122 14472130
0.057076499 0.82631058 0.062636703 14274751
0.057282686 0.82602048 0.062637284 14011579
0.057488874 0.82573032 0.062637866 13814200
0.057695061 0.82544023 0.062638447 13682614
0.057901263 0.82515013 0.062639035 13419442
0.058107451 0.82485998 0.062639616 13222063
0.058313638 0.82456988 0.062640198 12893096
0.058519825 0.82427979 0.062640779 12827303
0.058726013 0.82398963 0.06264136 12432543
0.0589322 0.82369953 0.062641941 12169371
0.059138402 0.82340944 0.06264253 12168601
0.05934459 0.82311928 0.062643111 11971222
0.059550777 0.82282919 0.062643692 11773584
0.059756964 0.82253909 0.062644273 11641998
0.059963152 0.82224894 0.062644854 11378826
0.060169339 0.82195884 0.062645435 11115654
0.060375527 0.82166874 0.062646016 11115652
0.060581729 0.82137859 0.062646605 10918273
0.060151443 0.82052183 0.062113851 10524030
0.060358584 0.82023042 0.062114432 10589823
0.06056571 0.81993896 0.062115021 10260604
0.060772851 0.81964755 0.062115602 9865846
0.060979977 0.81935608 0.062116191 9602674
0.061187118 0.81906462 0.062116772 9668467
0.057963297 0.79581964 0.05200845 10784374
0.058188409 0.7955029 0.052009091 10784374
0.058413506 0.79518616 0.052009732 10718581
0.058638617 0.79486942 0.052010357 10784374
0.058272645 0.79392219 0.05147779 10784374
0.05849871 0.79360414 0.051478431 10784374
0.058724761 0.79328603 0.051479071 10652788
0.056457013 0.77162015 0.042436525 8546910
0.056699142 0.77127945 0.042437196 7954773
0.056941271 0.77093875 0.042437881 9666159
0.0571834 0.77059805 0.042438567 9863538
0.056315288 0.76889521 0.041373044 9074022
0.056559309 0.76855183 0.04137373 8810850
0.057356581 0.76889229 0.041907519 7428427
0.057599649 0.76855028 0.041908205 9994354
0.057842731 0.76820827 0.04190889 8941664
0.058085814 0.76786625 0.041909575 7165253
0.057779416 0.76683509 0.041377187 7691849
0.058023438 0.76649177 0.041377872 9928811
0.050580859 0.83075595 0.061338134 15259841
0.050789893 0.83046186 0.06133873 16776169
0.050998911 0.83016771 0.061339319 16776940
0.051207945 0.82987362 0.061339907 16711668
0.051416963 0.82957953 0.061340496 16777205
0.051625997 0.82928538 0.061341092 16711671
0.052503347 0.8295145 0.061873682 16711671
0.052711427 0.82922173 0.06187427 16711669
0.052919507 0.82892895 0.061874852 16646132
0.053793103 0.82916331 0.062407441 16646130
0.054000229 0.82887191 0.06240803 16514544
0.05420737 0.82858044 0.062408611 16448746
0.054414496 0.82828897 0.062409192 16185574
0.054621637 0.82799757 0.062409781 16446945
0.054828778 0.8277061 0.06241037 16117980
0.055695742 0.82794982 0.06294293 16115668
0.05590193 0.82765973 0.062943511 15918289
0.056108117 0.82736957 0.062944092 15655117
0.056314304 0.82707947 0.062944673 15128773
0.056520492 0.82678938 0.062945254 14931907
0.056726679 0.82649922 0.062945843 14537149
0.056932881 0.82620913 0.062946424 14339772
0.057139069 0.82591903 0.062947005 14142393
0.057345256 0.82562888 0.062947586 13814200
0.057551444 0.82533878 0.062948167 13551028
0.057757631 0.82504869 0.062948748 13419188
0.057963818 0.82475853 0.06294933 13090223
0.058170006 0.82446843 0.062949911 12893098
0.058376208 0.82417834 0.062950499 12761512
0.058582395 0.82388818 0.062951081 12564131
0.058788583 0.82359809 0.062951662 12300959
0.05899477 0.82330799 0.062952243 12168603
0.059200957 0.82301784 0.062952824 11971224
0.059407145 0.82272774 0.062953405 11773330
0.059613347 0.82243764 0.062953994 11641744
0.059819534 0.82214749 0.062954575 11509640
0.060025722 0.82185739 0.062955156 11246468
0.060231909 0.8215673 0.062955737 11246468
0.060438097 0.82127714 0.062956318 11049089
0.060007155 0.82041991 0.062424988 10786687
0.060214296 0.8201285 0.062425576 10786687
0.060421437 0.81983703 0.062426157 10655103
0.060628563 0.81954563 0.062426746 10589310
0.060835704 0.81925416 0.062427327 10457722
0.06104283 0.81896269 0.062427916 9997171
0.057806507 0.79570889 0.052346587 10784374
0.058031604 0.79539216 0.052347228 10784374
0.058256716 0.79507542 0.052347869 10784374
0.058481812 0.79475868 0.052348495 10784374
0.058115199 0.79381096 0.051817343 10784374
0.05834125 0.79349291 0.051817983 10784374
0.0585673 0.7931748 0.051818624 10718581
0.057187259 0.76877266 0.042272657 7758674
0.057430342 0.76843065 0.042273343 9469292
0.05767341 0.76808864 0.042274028 8941918
0.057916492 0.76774663 0.042274714 8086609
0.057609439 0.76671505 0.041743726 8744537
0.05785346 0.76637173 0.041744411 8086607
0.051109925 0.83116877 0.06218271 16776680
0.051318005 0.83087599 0.062183298 16711666
0.051526085 0.83058321 0.062183887 16777203
0.051734164 0.83029044 0.062184475 16711671
0.051942244 0.82999766 0.062185064 16711671
0.052150324 0.82970488 0.062185653 16711671
0.053027406 0.82993573 0.062716827 16711671
0.053234547 0.82964432 0.062717408 16711671
0.053441674 0.82935286 0.062717997 16646134
0.053648815 0.82906139 0.062718585 16580337
0.053855956 0.82876998 0.062719166 16382958
0.054063082 0.82847852 0.062719747 16382437
0.054933548 0.82871872 0.063250899 16382437
0.055139735 0.82842863 0.06325148 16512738
0.055345923 0.82813847 0.063252062 16052187
0.05555211 0.82784837 0.063252643 16115668
0.055758297 0.82755828 0.063253231 15918289
0.0559645 0.82726812 0.063253812 15523531
0.05682832 0.82751763 0.063784942 15260359
0.057033554 0.82722884 0.063785523 14866114
0.057238802 0.82694006 0.063786104 14471356
0.057444051 0.82665128 0.063786678 14273979
0.0576493 0.82636249 0.063787259 14142393
0.057854533 0.82607371 0.06378784 13945016
0.058059782 0.82578492 0.063788421 13813430
0.05826503 0.82549614 0.063788995 13550004
0.058470264 0.82520735 0.063789576 13221039
0.058675513 0.82491857 0.063790157 12892844
0.058880761 0.82462978 0.063790739 12761258
0.059085995 0.824341 0.06379132 12564133
0.059291244 0.82405221 0.063791893 12300961
0.059496492 0.82376343 0.063792475 12037787
0.059701726 0.82347465 0.063793056 11840408
0.059263527 0.82262629 0.063263126 11773330
0.059469715 0.8223362 0.063263707 11641744
0.059675902 0.82204604 0.063264288 11509642
0.059882089 0.82175595 0.063264877 11246470
0.060088292 0.82146585 0.063265458 11114882
0.060294479 0.82117569 0.063266039 11049089
0.059862882 0.82031804 0.062736131 10917503
0.060070008 0.82002658 0.062736712 10983296
0.060277149 0.81973511 0.062737301 10851710
0.06048429 0.8194437 0.062737882 10851710
0.060691416 0.81915224 0.062738471 10785917
0.060898557 0.81886077 0.062739052 10917503
0.059054658 0.80973566 0.058504306 8878951
0.059269369 0.80943358 0.058504909 8944744
0.059484065 0.80913144 0.05850552 9404012
0.059698775 0.80882937 0.058506124 9798770
0.057649702 0.79559809 0.052684724 10784374
0.057874814 0.79528135 0.052685365 10784374
0.058099911 0.79496461 0.052685991 10784374
0.058325022 0.79464793 0.052686632 10784374
0.057957739 0.79369974 0.052156895 10784374
0.058183789 0.79338169 0.052157536 10718581
0.05840984 0.79306358 0.052158177 10784374
0.057017937 0.76865304 0.04263778 9666923
0.05726102 0.76831102 0.042638466 9601130
0.057504088 0.76796901 0.042639151 9994604
0.05774717 0.767627 0.042639837 8086607
0.057439461 0.76659501 0.042110279 8810330
0.057683483 0.76625162 0.042110965 7626056
0.050964981 0.83106637 0.062495276 16777201
0.051173061 0.83077359 0.062495857 16711671
0.051381141 0.83048081 0.062496446 16711671
0.051589221 0.83018804 0.062497035 16711673
0.051797301 0.82989526 0.062497623 16711673
0.05200538 0.82960248 0.062498212 16711673
0.052883133 0.82983381 0.063027963 16711673
0.053090259 0.8295424 0.063028552 16711671
0.0532974 0.82925093 0.063029133 16711671
0.053504527 0.82895947 0.063029721 16580339
0.053711668 0.82866806 0.063030303 16382960
0.053918809 0.82837659 0.063030891 16382437
0.054789916 0.82861727 0.06356062 16382437
0.054996118 0.82832712 0.063561201 16512738
0.055202305 0.82803702 0.063561782 16052187
0.055408493 0.82774693 0.063562363 16049875
0.05561468 0.82745677 0.063562945 15852496
0.055820867 0.82716668 0.063563526 15457738
0.056685358 0.82741666 0.06409324 15260359
0.056890592 0.82712787 0.064093821 14931394
0.057095841 0.82683909 0.064094394 14536636
0.057301089 0.8265503 0.064094976 14273981
0.057506323 0.82626152 0.064095557 14076602
0.057711571 0.82597274 0.064096138 13945016
0.05791682 0.82568395 0.064096719 13879223
0.058122054 0.82539517 0.064097293 13550004
0.058327302 0.82510638 0.064097874 13352625
0.058532551 0.8248176 0.064098455 12892844
0.0587378 0.82452881 0.064099036 12761258
0.058943033 0.82424003 0.064099617 12629926
0.059148282 0.82395124 0.064100191 12300961
0.059353516 0.82366246 0.064100772 12168603
0.059558764 0.82337368 0.064101353 11971224
0.05911991 0.82252485 0.063572846 11773330
0.059326097 0.82223469 0.063573427 11575951
0.059532285 0.82194459 0.063574009 11509642
0.059738472 0.8216545 0.06357459 11246470
0.059944659 0.82136434 0.063575171 11049089
0.060150847 0.82107425 0.06357576 10983296
0.059718594 0.82021612 0.063047267 10851710
0.059925735 0.81992465 0.063047856 10917503
0.060132876 0.81963319 0.063048437 10917503
0.060340002 0.81934178 0.063049018 10851710
0.060547143 0.81905031 0.063049607 10851710
0.060754269 0.81875885 0.063050196 10851710
0.05890511 0.80963004 0.058826812 10000264
0.059119806 0.8093279 0.058827415 8026474
0.059334517 0.80902582 0.058828019 8616551
0.059549212 0.80872369 0.05882863 9011309
0.057492897 0.79548734 0.053022861 10850167
0.057718009 0.79517061 0.053023487 10784374
0.057943121 0.79485387 0.053024128 10784374
0.058168218 0.79453713 0.053024769 10784374
0.058393329 0.79422039 0.053025395 10784374
0.058618441 0.79390371 0.053026035 10784374
0.058843538 0.79358697 0.053026676 10784374
0.057235464 0.77092177 0.044058532 10323569
0.057476655 0.77058244 0.044059217 10389364
0.057717845 0.77024305 0.044059888 10257778
0.05795902 0.76990372 0.044060573 9468260
0.057091698 0.76819146 0.043003589 7494470
0.057334766 0.76784945 0.043004274 9928298
0.057577863 0.76750743 0.04300496 9138782
0.057269499 0.7664749 0.042476818 8612951
0.057513505 0.76613158 0.042477518 7428677
0.050820038 0.83096397 0.062807836 16777207
0.051028118 0.83067119 0.062808424 16711673
0.051236197 0.83037841 0.062809005 16711673
0.051444277 0.83008564 0.062809594 16711673
0.051652357 0.82979286 0.062810183 16711673
0.051860452 0.82950008 0.062810771 16711673
0.052738845 0.82973194 0.063339107 16711673
0.052945986 0.82944047 0.063339688 16711673
0.053153113 0.82914901 0.063340276 16711673
0.053360254 0.82885754 0.063340858 16580339
0.05356738 0.82856613 0.063341446 16382960
0.053774521 0.82827467 0.063342027 16382437
0.054646298 0.82851577 0.063870341 16382437
0.054852486 0.82822567 0.063870922 16643811
0.055058673 0.82793558 0.063871503 16117467
0.055264875 0.82764542 0.063872084 16049875
0.055471063 0.82735533 0.063872665 15786703
0.05567725 0.82706523 0.063873246 15391945
0.056542382 0.82731569 0.064401537 15128773
0.05674763 0.82702684 0.064402118 14931396
0.056952879 0.82673806 0.064402692 14536638
0.057158127 0.82644928 0.064403273 14273981
0.057363361 0.82616049 0.064403854 14076602
0.05756861 0.82587171 0.064404435 13945016
0.057773858 0.82558292 0.064405017 13813430
0.057979092 0.82529414 0.06440559 13550258
0.058184341 0.82500535 0.064406171 13352879
0.058389589 0.82471657 0.064406753 12893098
0.058594823 0.82442778 0.064407334 12827305
0.058800071 0.824139 0.064407915 12629926
0.05900532 0.82385021 0.064408489 12300961
0.059210554 0.82356143 0.06440907 12168601
0.059415802 0.82327265 0.064409651 11971222
0.058976278 0.8224234 0.06388256 11773330
0.059182465 0.82213324 0.063883148 11575951
0.059388667 0.82184315 0.063883729 11509642
0.059594855 0.82155305 0.06388431 11246470
0.059801042 0.8212629 0.063884892 11049091
0.060007229 0.8209728 0.063885473 10983298
0.059574321 0.8201142 0.063358404 10851712
0.059781447 0.81982273 0.063358992 10917505
0.059988588 0.81953132 0.063359573 10851710
0.060195714 0.81923985 0.063360162 10785917
0.060402855 0.81894839 0.063360743 10785917
0.060609996 0.81865692 0.063361332 10785917
0.058755562 0.80952436 0.059149317 11647656
0.058970258 0.80922228 0.059149921 11516070
0.059184968 0.80892015 0.059150524 9870473
0.059399664 0.80861807 0.059151135 8423027
0.058011428 0.79442638 0.053362891 10784120
0.058236524 0.79410964 0.053363532 10784120
0.058461636 0.7937929 0.053364173 10784120
0.058686748 0.79347616 0.053364798 10784374
0.057067469 0.77080309 0.044420823 10323569
0.057308659 0.77046376 0.044421494 10389362
0.057549849 0.77012444 0.044422179 10323569
0.057791024 0.76978505 0.044422865 9534053
0.056922391 0.76807183 0.043368712 7362884
0.057165459 0.76772982 0.043369398 8612438
0.057408541 0.76738781 0.043370083 8809817
0.057099506 0.76635486 0.042843372 9468262
0.057343528 0.76601148 0.042844057 10191985
0.050675094 0.83086163 0.063120395 16711671
0.050883174 0.83056885 0.063120984 16711673
0.051091254 0.83027607 0.063121565 16711673
0.051973149 0.8305043 0.063648492 16711673
0.05218029 0.83021289 0.063649073 16711673
0.052387431 0.82992142 0.063649662 16711673
0.052594557 0.82963002 0.063650243 16711673
0.052801698 0.82933855 0.063650832 16711673
0.053008839 0.82904708 0.063651413 16711673
0.053884104 0.82928467 0.06417831 16580339
0.054090291 0.82899457 0.064178891 16448753
0.054296479 0.82870448 0.064179473 16251367
0.054502681 0.82841432 0.064180054 16119781
0.054708868 0.82812423 0.064180635 16512225
0.054915056 0.82783413 0.064181216 16183260
0.055783689 0.82808101 0.064708099 16049875
0.055988938 0.82779223 0.064708672 15655117
0.056194186 0.82750344 0.064709254 15391945
0.05639942 0.82721466 0.064709835 15128773
0.056604668 0.82692587 0.064710416 14996419
0.056809917 0.82663709 0.06471099 14733247
0.057015151 0.8263483 0.064711571 14273981
0.057220399 0.82605952 0.064712152 14076602
0.057425648 0.82577074 0.064712733 13748407
0.057630882 0.82548195 0.064713314 13551028
0.05783613 0.82519317 0.064713888 13419442
0.058041379 0.82490438 0.064714469 13287856
0.058246613 0.8246156 0.06471505 12958891
0.058451861 0.82432681 0.064715631 12958891
0.05865711 0.82403803 0.064716212 12629926
0.058862343 0.82374924 0.064716786 12366754
0.059067592 0.82346046 0.064717367 12168603
0.059272841 0.82317168 0.064717948 12037017
0.059478089 0.82288289 0.06471853 11773330
0.059683323 0.82259411 0.064719111 11707537
0.059888572 0.82230532 0.064719684 11509642
0.059451222 0.82145154 0.064194031 11246470
0.05965741 0.82116145 0.064194612 11049091
0.059863612 0.82087135 0.064195193 10983298
0.060069799 0.8205812 0.064195774 10851712
0.060275987 0.8202911 0.064196356 10785919
0.060482174 0.82000101 0.064196937 10851712
0.060051441 0.81913793 0.063671298 10588540
0.060258582 0.81884646 0.063671887 10785917
0.060465708 0.818555 0.063672468 10785917
0.058605999 0.80941874 0.059471816 11252126
0.05882071 0.8091166 0.059472427 11712677
0.059035406 0.80881453 0.05947303 11451560
0.059250116 0.80851245 0.059473641 11451560
0.058847755 0.80760944 0.05894807 10462610
0.05906339 0.80730605 0.058948681 8423027
0.05927904 0.8070026 0.058949292 8156512
0.057854623 0.79431564 0.053701028 10784120
0.05807972 0.7939989 0.053701669 10784120
0.058304831 0.79368216 0.053702295 10784120
0.058529943 0.79336542 0.053702936 10784120
0.056899473 0.77068442 0.0447831 10323823
0.057140663 0.77034509 0.044783786 10323823
0.057381839 0.7700057 0.044784456 10323823
0.057623029 0.76966637 0.044785142 9862505
0.056753069 0.7679522 0.04373385 7559750
0.056996137 0.76761019 0.043734536 9072989
0.05723922 0.76726818 0.043735221 8875610
0.057482287 0.76692617 0.043735906 9205088
0.05772537 0.76658416 0.043736592 10126190
0.051828876 0.83040243 0.063959628 16711673
0.052036002 0.83011097 0.063960217 16711673
0.052243143 0.8298195 0.063960798 16711673
0.052450284 0.82952809 0.063961387 16711673
0.052657411 0.82923663 0.063961968 16711673
0.052864552 0.82894516 0.063962556 16711673
0.053740487 0.82918322 0.064488024 16580337
0.053946674 0.82889313 0.064488612 16514544
0.054152861 0.82860303 0.064489193 16382437
0.054359049 0.82831287 0.064489774 16250851
0.054565236 0.82802278 0.064490356 16446432
0.054771438 0.82773268 0.064490937 16183260
0.055640727 0.82798004 0.065016396 16049875
0.055845976 0.82769126 0.06501697 15655117
0.05605121 0.82740247 0.065017551 15522761
0.056256458 0.82711369 0.065018132 15391175
0.056461707 0.8268249 0.065018713 14996419
0.056666955 0.82653612 0.065019295 14601661
0.056872189 0.82624733 0.065019868 14273981
0.057077438 0.82595855 0.065020449 14010809
0.057282686 0.82566977 0.065021031 13682614
0.05748792 0.82538098 0.065021612 13485235
0.057693169 0.8250922 0.065022185 13287856
0.057898417 0.82480341 0.065022767 13287856
0.058103651 0.82451463 0.065023348 12958891
0.058308899 0.82422584 0.065023929 12958891
0.058514148 0.82393706 0.06502451 12564133
0.058719382 0.82364827 0.065025084 12432547
0.05892463 0.82335949 0.065025665 12431773
0.059129879 0.8230707 0.065026246 12037015
0.059335113 0.82278192 0.065026827 11839377
0.059540361 0.82249314 0.065027408 11707791
0.05974561 0.82220435 0.065027982 11575435
0.059307605 0.8213501 0.064503744 11312263
0.059513792 0.82106 0.064504325 11049091
0.05971998 0.82076991 0.064504914 10983298
0.059926167 0.82047975 0.064505495 10851712
0.060132369 0.82018965 0.064506076 10785919
0.060338557 0.81989956 0.064506657 10720126
0.059907153 0.81903601 0.063982442 10588540
0.060114294 0.81874454 0.063983023 10785917
0.060321435 0.81845313 0.063983612 10785917
0.058481887 0.80780673 0.059271388 11252126
0.058697537 0.80750334 0.059271999 11583146
0.058913186 0.8071999 0.059272602 11780525
0.059128836 0.80689651 0.059273213 10530971
0.05634068 0.76817465 0.044098288 10059884
0.056583747 0.76783264 0.044098973 8941403
0.056826815 0.76749063 0.044099659 8941403
0.057069898 0.76714861 0.044100344 8415059
0.05731298 0.7668066 0.04410103 7954508
0.057556048 0.76646459 0.044101715 10257263
0.051684588 0.83030051 0.064270765 16711673
0.051891729 0.83000904 0.064271353 16711673
0.052098855 0.82971758 0.064271934 16711673
0.052305996 0.82942617 0.064272523 16711673
0.052513137 0.8291347 0.064273104 16711673
0.052720264 0.82884324 0.064273693 16645880
0.053596854 0.82908177 0.064797744 16580591
0.053803042 0.82879168 0.064798325 16449005
0.054009244 0.82850158 0.064798906 16250336
0.054215431 0.82821143 0.064799495 16316129
0.054421619 0.82792133 0.064800076 16577504
0.054627806 0.82763124 0.064800657 16248539
0.055497766 0.82787907 0.065324694 15918291
0.055703014 0.82759023 0.065325275 15655119
0.055908248 0.8273015 0.065325849 15522761
0.056113496 0.82701266 0.06532643 15456968
0.056318745 0.82672393 0.065327011 14996421
0.056523979 0.82643509 0.065327592 14667456
0.056729227 0.82614636 0.065328166 14142395
0.056934476 0.82585752 0.065328747 14076602
0.05713971 0.8255688 0.065329328 13682614
0.057344958 0.82527995 0.065329909 13485235
0.057550207 0.82499123 0.06533049 13353649
0.05775544 0.82470238 0.065331064 13222063
0.057960689 0.82441366 0.065331645 12958891
0.058165938 0.82412481 0.065332226 12958891
0.058371171 0.82383609 0.065332808 12564133
0.05857642 0.82354724 0.065333381 12366754
0.058781669 0.82325852 0.065333962 12234396
0.058986917 0.82296968 0.065334544 12037017
0.059192151 0.82268095 0.065335125 11839377
0.059397399 0.82239211 0.065335706 11641998
0.059602633 0.82210338 0.06533628 11640715
0.059163973 0.82124865 0.064813465 11377543
0.059370175 0.82095855 0.064814046 11114371
0.059576362 0.82066846 0.064814627 10982785
0.05978255 0.8203783 0.064815208 10916992
0.059988737 0.82008821 0.064815797 10851199
0.060194924 0.81979811 0.064816378 10785406
0.05976288 0.81893408 0.064293578 10653820
0.059970006 0.81864262 0.064294167 10851197
0.060177147 0.81835121 0.064294748 10851197
0.058331683 0.80770063 0.059595317 10063995
0.058547333 0.80739725 0.05959592 9870727
0.058762982 0.8070938 0.059596531 10791829
0.058978617 0.80679035 0.059597142 11254692
0.056171358 0.76805508 0.044463411 10323056
0.056414425 0.76771307 0.044464096 10388849
0.056657508 0.767371 0.044464782 9730919
0.056900576 0.76702899 0.044465467 8941403
0.057143658 0.76668698 0.044466153 8415059
0.057386741 0.76634496 0.044466838 10257263
0.051540315 0.83019859 0.064581908 16711673
0.051747441 0.82990712 0.064582489 16711673
0.051954582 0.82961571 0.064583078 16711673
0.052834675 0.82985067 0.065105714 16711673
0.053040862 0.82956058 0.065106302 16711671
0.053247049 0.82927048 0.065106884 16646134
0.053453237 0.82898033 0.065107465 16580591
0.053659424 0.82869023 0.065108046 16449005
0.053865612 0.82840014 0.065108627 16250336
0.054739073 0.82864439 0.065631248 16250336
0.054944307 0.82835561 0.065631829 16577504
0.055149555 0.82806683 0.06563241 16248539
0.055354804 0.82777804 0.065632991 16114900
0.055560037 0.82748926 0.065633565 15720142
0.055765286 0.82720047 0.065634146 15588043
0.055970535 0.82691169 0.065634727 15522250
0.056175783 0.8266229 0.065635309 15061699
0.056381017 0.82633412 0.06563589 14732734
0.057245031 0.82659173 0.066158488 14207675
0.057449326 0.82630432 0.06615907 14141882
0.057653621 0.82601684 0.066159643 13748407
0.057857916 0.82572937 0.066160217 13485235
0.058062226 0.82544196 0.066160798 13353649
0.058266521 0.82515448 0.066161372 13222063
0.058470815 0.82486701 0.066161953 12958891
0.05867511 0.8245796 0.066162527 12958891
0.05887942 0.82429212 0.066163108 12564133
0.059083715 0.82400465 0.066163681 12300961
0.058638707 0.82315749 0.06564226 12103580
0.05884394 0.8228687 0.065642841 12103580
0.059049189 0.82257992 0.065643422 11905170
0.059254438 0.82229114 0.065644003 11641998
0.059459671 0.82200235 0.065644577 11640715
0.05966492 0.82171357 0.065645158 11443336
0.059870169 0.82142478 0.065645739 11114371
0.060075402 0.821136 0.065646321 10982785
0.059638932 0.82027686 0.065124929 10916992
0.05984512 0.81998676 0.06512551 10851199
0.060051307 0.81969666 0.065126091 10785406
0.059618592 0.81883216 0.064604715 10653820
0.059825733 0.81854069 0.064605303 10785404
0.060032859 0.81824929 0.064605884 10851197
0.06024 0.81795782 0.064606473 10851197
0.060447142 0.81766641 0.064607054 10851197
0.059615806 0.80999631 0.061483763 10325620
0.059828624 0.80969691 0.061484367 9667436
0.060041428 0.80939746 0.061484963 9667436
0.060254231 0.80909801 0.061485566 9405549
0.058612764 0.8069877 0.05992046 9734514
0.058828413 0.80668426 0.059921063 10000516
0.056002036 0.76793545 0.044828534 10323569
0.056245118 0.76759344 0.04482922 10323569
0.056488186 0.76725137 0.044829905 10323571
0.056731269 0.76690936 0.04483059 10257778
0.056974337 0.76656735 0.044831276 9993839
0.057217419 0.76622534 0.044831961 10322804
0.052691042 0.82974923 0.065415435 16711673
0.05289723 0.82945913 0.065416016 16711671
0.053103417 0.82916898 0.065416597 16646134
0.053309619 0.82887888 0.065417185 16580591
0.053515807 0.82858878 0.065417767 16449005
0.053721994 0.82829863 0.065418348 16382435
0.054596111 0.82854342 0.065939546 16119263
0.054801345 0.82825464 0.065940127 16446432
0.055006593 0.82796586 0.065940708 16117467
0.055211842 0.82767707 0.065941289 16180180
0.055417076 0.82738829 0.065941863 15522250
0.055622324 0.8270995 0.065942444 15653322
0.055827573 0.82681072 0.065943025 15455943
0.056032807 0.82652193 0.065943606 15258564
0.056238055 0.82623315 0.065944187 14995392
0.057102725 0.82649124 0.066465363 14601661
0.05730702 0.82620376 0.066465944 14272696
0.057511315 0.82591629 0.066466518 13879223
0.05771561 0.82562888 0.066467099 13681844
0.057919919 0.8253414 0.066467673 13419442
0.058124214 0.82505393 0.066468254 13222063
0.058328509 0.82476652 0.066468827 12958891
0.058532804 0.82447904 0.066469401 12893098
0.058737114 0.82419157 0.066469982 12629926
0.058941409 0.82390416 0.066470556 12300961
0.05849573 0.82305652 0.065950558 12103580
0.058700979 0.82276773 0.065951139 12037787
0.058906227 0.82247895 0.06595172 11904916
0.059111461 0.82219017 0.065952301 11707537
0.05931671 0.82190138 0.065952875 11640715
0.059521958 0.8216126 0.065953456 11443336
0.059727207 0.82132381 0.065954037 11180164
0.059932441 0.82103503 0.065954618 11048578
0.0594953 0.82017541 0.06543465 11048064
0.059701487 0.81988531 0.065435231 10982271
0.05990769 0.81959522 0.065435812 10785406
0.059474304 0.81873024 0.064915858 10653820
0.059681445 0.81843877 0.064916439 10785404
0.059888586 0.81814736 0.064917028 10851197
0.060095713 0.81785589 0.064917609 10785658
0.060302854 0.81756449 0.064918198 10785658
0.059467569 0.80989158 0.06180343 10851964
0.059680387 0.80959213 0.061804026 10851964
0.059893191 0.80929273 0.06180463 10588792
0.060105994 0.80899334 0.061805233 10325366
0.056561947 0.76678979 0.045195729 10389364
0.05680503 0.76644778 0.045196414 10323571
0.057048097 0.76610577 0.045197099 10389364
0.052547425 0.82964778 0.065725155 16711673
0.052753612 0.82935762 0.065725736 16711673
0.0529598 0.82906753 0.065726317 16645880
0.053165987 0.82877743 0.065726899 16580337
0.053372175 0.82848728 0.06572748 16448751
0.053578362 0.82819718 0.065728068 16317414
0.054453135 0.82844245 0.066247843 16120035
0.054658383 0.82815367 0.066248424 16249053
0.054863632 0.82786489 0.066249005 16117467
0.055068865 0.8275761 0.066249587 16311252
0.055274114 0.82728732 0.06625016 15850701
0.055479363 0.82699853 0.066250741 15653322
0.055684596 0.82670975 0.066251323 15455943
0.055889845 0.82642096 0.066251904 15258564
0.056095093 0.82613218 0.066252485 14995392
0.056960419 0.82639074 0.066772245 14601661
0.057164714 0.82610327 0.066772819 14272696
0.057369009 0.8258158 0.0667734 13945016
0.057573318 0.82552832 0.066773973 13813430
0.057777613 0.82524091 0.066774547 13616051
0.057981908 0.82495344 0.066775128 13352879
0.058186203 0.82466596 0.066775702 12958891
0.058390498 0.82437855 0.066776283 12893098
0.058594808 0.82409108 0.066776857 12564133
0.058799103 0.8238036 0.066777438 12366754
0.058352768 0.82295549 0.066258855 12300189
0.058558017 0.82266676 0.066259436 12168603
0.058763266 0.82237792 0.066260017 11904916
0.058968499 0.8220892 0.066260599 11773330
0.059173748 0.82180035 0.066261172 11640715
0.059378996 0.82151163 0.066261753 11509129
0.05958423 0.82122278 0.066262335 11311750
0.059789479 0.82093406 0.066262916 11048578
0.059351683 0.82007396 0.06574437 10916992
0.05955787 0.81978387 0.065744951 10851199
0.059764057 0.81949371 0.065745533 10785404
0.059330031 0.81862831 0.065226994 10785404
0.059537157 0.81833684 0.065227583 10785404
0.059744298 0.81804544 0.065228164 10851197
0.059951439 0.81775397 0.065228753 10785658
0.060158566 0.81746256 0.065229334 10785658
0.059319332 0.80978692 0.06212309 10917757
0.059532151 0.80948746 0.062123694 10983037
0.059744954 0.80918801 0.06212429 10917244
0.059957772 0.80888861 0.062124893 10916990
0.056392625 0.76667023 0.045560852 10455157
0.056635708 0.76632816 0.045561537 10389364
0.05687879 0.76598614 0.045562223 10389364
0.052403793 0.82954633 0.066034876 16711673
0.052609995 0.82925618 0.066035457 16711673
0.052816182 0.82896608 0.066036038 16711673
0.053694442 0.82920778 0.066554405 16580339
0.053899691 0.82891899 0.066554986 16382960
0.054104939 0.82863021 0.066555567 16448230
0.054310173 0.82834142 0.066556141 16185058
0.054515421 0.82805264 0.066556722 16249053
0.05472067 0.82776386 0.066557303 16051674
0.055592328 0.82801491 0.067075662 16114900
0.055796623 0.82772744 0.067076236 15720142
0.056000918 0.82744002 0.06707681 15588043
0.056205213 0.82715255 0.067077391 15324871
0.056409523 0.82686508 0.067077965 15127492
0.056613818 0.82657766 0.067078546 14864320
0.056818113 0.82629019 0.067079119 14405054
0.057022408 0.82600272 0.067079701 14076089
0.057226703 0.8257153 0.067080274 13879223
0.057431012 0.82542783 0.067080848 13681844
0.057635307 0.82514036 0.067081429 13550258
0.057839602 0.82485294 0.067082003 13352879
0.058043897 0.82456547 0.067082584 13089707
0.058248192 0.824278 0.067083158 13023914
0.058452502 0.82399058 0.067083739 12629926
0.058656797 0.82370311 0.067084312 12366754
0.058861092 0.82341564 0.067084886 12169373
0.059065387 0.82312822 0.067085467 11971994
0.059269682 0.82284075 0.067086041 12036502
0.058825538 0.82198817 0.066568896 11773330
0.059030786 0.82169938 0.06656947 11772301
0.05923602 0.8214106 0.066570051 11509129
0.059441268 0.82112181 0.066570632 11377543
0.059646517 0.82083303 0.066571213 11114371
0.05920805 0.81997252 0.066054083 10982785
0.059414253 0.81968236 0.066054672 10851199
0.05962044 0.81939226 0.066055253 10851199
0.059826627 0.81910217 0.066055834 10785406
0.060032815 0.81881201 0.066056415 10785404
0.060239002 0.81852192 0.066056997 10851197
0.059807152 0.81765211 0.065539889 10785658
0.060014293 0.81736064 0.065540478 10785658
0.059153289 0.81266218 0.063474484 10916990
0.0593642 0.81236541 0.06347508 10917503
0.059575126 0.81206864 0.063475676 10983296
0.059786037 0.81177187 0.063476272 10851710
0.059371218 0.8108781 0.062959217 10917503
0.059583083 0.81058002 0.062959813 10983296
0.059794948 0.81028187 0.062960409 10983296
0.059383914 0.80938274 0.062443353 11048830
0.059596717 0.80908334 0.062443957 10983037
0.059809536 0.80878389 0.06244456 11048830
0.056223318 0.7665506 0.045925975 10586743
0.056466386 0.76620853 0.04592666 10455157
0.056709468 0.76586652 0.045927346 10455157
0.052260175 0.82944489 0.066344589 16711673
0.052466363 0.82915473 0.06634517 16711673
0.05267255 0.82886463 0.066345751 16711673
0.05355148 0.82910681 0.066862702 16580339
0.053756729 0.82881802 0.066863284 16382960
0.053961962 0.82852924 0.066863865 16382183
0.054167211 0.82824045 0.066864438 16250597
0.05437246 0.82795167 0.06686502 16380641
0.054577693 0.82766289 0.066865601 16051676
0.055450022 0.82791436 0.067382537 15918804
0.055654317 0.82762694 0.067383111 15589839
0.055858612 0.82733947 0.067383692 15588556
0.056062907 0.827052 0.067384265 15456970
0.056267217 0.82676458 0.067384847 15062212
0.056471512 0.82647711 0.06738542 14733247
0.056675807 0.82618964 0.067385994 14405054
0.056880102 0.82590222 0.067386575 14076089
0.057084396 0.82561475 0.067387149 13879223
0.057288706 0.82532728 0.06738773 13681844
0.057493001 0.82503986 0.067388304 13550258
0.057697296 0.82475239 0.067388885 13221293
0.057901591 0.82446492 0.067389458 13089707
0.058105886 0.8241775 0.067390032 12958121
0.058310196 0.82389003 0.067390613 12629926
0.058514491 0.82360256 0.067391187 12366754
0.058718786 0.82331514 0.067391768 12169373
0.058923081 0.82302767 0.067392342 12037787
0.059127375 0.8227402 0.067392923 11904916
0.058682576 0.8218872 0.066877194 11773330
0.058887824 0.82159841 0.066877767 11707021
0.059093058 0.82130963 0.066878349 11443849
0.059298307 0.82102084 0.06687893 11377543
0.059503555 0.82073206 0.066879511 11180164
0.059064433 0.81987107 0.066363804 10982785
0.05927062 0.81958091 0.066364385 10851199
0.059476808 0.81929082 0.066364966 10851199
0.05968301 0.81900072 0.066365547 10785406
0.059889197 0.81871057 0.066366136 10785404
0.060095385 0.81842047 0.066366717 10851197
0.059662864 0.81755018 0.065851033 10851197
0.059870005 0.81725872 0.065851614 10851197
0.059006363 0.81255841 0.063791305 10916990
0.059217289 0.81226164 0.063791901 10917503
0.0594282 0.81196487 0.063792497 10983296
0.059639126 0.8116681 0.063793093 10851710
0.059223637 0.81077385 0.063277453 10917503
0.059435502 0.81047571 0.063278057 10983296
0.059647366 0.81017762 0.063278653 10983296
0.059235677 0.80927801 0.06276302 11048576
0.059448496 0.80897862 0.062763616 11048576
0.059661299 0.80867916 0.06276422 11114369
0.052116558 0.82934344 0.06665431 16711673
0.052322745 0.82905328 0.066654891 16711673
0.052528933 0.82876319 0.066655472 16711673
0.053408518 0.82900584 0.067171 16580339
0.053613752 0.82871705 0.067171581 16382960
0.053819001 0.82842827 0.067172162 16316390
0.054024249 0.82813948 0.067172736 16250597
0.054229483 0.8278507 0.067173317 16381154
0.054434732 0.82756191 0.067173898 16052189
0.055307716 0.82781386 0.067689411 15195851
0.055512011 0.82752639 0.067689992 15261644
0.055716306 0.82723898 0.067690566 15457740
0.055920601 0.8269515 0.06769114 15128775
0.056124911 0.82666403 0.067691721 14996419
0.056329206 0.82637662 0.067692295 14667454
0.056533501 0.82608914 0.067692876 14273981
0.056737795 0.82580167 0.06769345 14010809
0.05694209 0.8255142 0.067694031 13879223
0.0571464 0.82522678 0.067694604 13616051
0.057350695 0.82493931 0.067695178 13484465
0.05755499 0.82465184 0.067695759 13352879
0.057759285 0.82436442 0.067696333 13089707
0.05796358 0.82407695 0.067696914 13023914
0.05816789 0.82378948 0.067697488 12629926
0.058372185 0.82350206 0.067698069 12432547
0.05857648 0.82321459 0.067698643 12169373
0.058780774 0.82292712 0.067699216 12037787
0.058985069 0.8226397 0.067699797 11971222
0.058539614 0.82178622 0.067185491 11708050
0.058744863 0.82149744 0.067186065 11706767
0.058950096 0.82120866 0.067186646 11443595
0.059155345 0.82091987 0.067187227 11377289
0.059360579 0.82063109 0.067187808 11311496
0.058920816 0.81976962 0.066673525 11048578
0.059127003 0.81947947 0.066674106 10851199
0.05933319 0.81918937 0.066674687 10916992
0.059539378 0.81889927 0.066675268 10785406
0.059745565 0.81860912 0.066675849 10785404
0.059951752 0.81831902 0.066676438 10851197
0.059518591 0.81744826 0.066162169 10851197
0.059725717 0.81715679 0.06616275 10851197
0.058859453 0.81245464 0.064108133 10916990
0.059070364 0.81215787 0.064108729 10982783
0.05928129 0.8118611 0.064109325 11048576
0.059492201 0.81156433 0.064109914 10851710
0.059076056 0.8106696 0.063595697 10983296
0.059287921 0.81037152 0.063596301 11048576
0.059499785 0.81007338 0.063596897 11048576
0.05908744 0.80917335 0.06308268 11048576
0.059300259 0.80887389 0.063083284 11048576
0.059513062 0.80857444 0.063083887 11114369
0.052239329 0.83034873 0.067476399 16711673
0.052444577 0.83006001 0.06747698 16711673
0.052649826 0.82977116 0.067477562 16711673
0.05285506 0.82948244 0.067478135 16711673
0.053060308 0.82919359 0.067478716 16711673
0.053265557 0.82890481 0.067479298 16580339
0.054143921 0.82915062 0.067993402 16448753
0.054348215 0.82886314 0.067993984 16185576
0.05455251 0.82857573 0.067994557 16119783
0.054756805 0.82828826 0.067995138 16315361
0.054961115 0.82800078 0.067995712 15920603
0.05516541 0.82771337 0.067996293 15656402
0.056037158 0.82796842 0.068510368 15393230
0.056240499 0.82768232 0.068510942 15457740
0.056443855 0.82739615 0.068511516 15128775
0.056647211 0.82711005 0.068512097 14799810
0.056850567 0.82682395 0.068512671 14536638
0.057053909 0.82653785 0.068513244 14339261
0.057257265 0.82625169 0.068513818 14076089
0.057460621 0.82596558 0.068514392 13879223
0.057663962 0.82567942 0.068514965 13550258
0.057867318 0.82539332 0.068515539 13484463
0.058070675 0.82510722 0.068516113 13352877
0.058274031 0.82482105 0.068516687 12958889
0.058477372 0.82453495 0.06851726 12893096
0.058680728 0.82424885 0.068517834 12564131
0.058884084 0.82396269 0.068518408 12432545
0.058434173 0.8231141 0.068005517 12300959
0.058638468 0.82282662 0.068006098 12037787
0.058842778 0.82253915 0.068006672 11971222
0.059047073 0.82225174 0.068007253 11708050
0.059251368 0.82196426 0.068007827 11706767
0.059455663 0.82167679 0.0680084 11443595
0.059012383 0.82081884 0.067495525 11377802
0.059217617 0.82053006 0.067496106 11246216
0.059422866 0.82024127 0.067496687 11114371
0.059628114 0.81995249 0.067497261 10916992
0.059833348 0.8196637 0.067497842 10982785
0.05939576 0.81879783 0.066984989 10851199
0.059601948 0.81850767 0.06698557 10851199
0.059808135 0.81821758 0.066986151 10851199
0.059374303 0.81734633 0.066473305 10916992
0.059581444 0.81705487 0.066473894 10851199
0.059566617 0.81559408 0.065962225 10851199
0.059774697 0.8153013 0.065962814 10785406
0.059982777 0.81500852 0.065963402 10851197
0.060190856 0.81471574 0.065963984 10851197
0.059134051 0.8132394 0.064937763 10916990
0.059344023 0.81294394 0.064938352 10982783
0.059553996 0.81264853 0.064938948 10982783
0.059134364 0.81175733 0.064426146 10982783
0.05934529 0.81146055 0.064426735 10982783
0.058928475 0.81056535 0.063913941 10982783
0.059140354 0.81026721 0.063914537 10982783
0.059352219 0.80996913 0.063915141 10982783
0.059564084 0.80967104 0.063915737 10982783
0.059775949 0.80937296 0.063916333 10982783
0.059987813 0.80907488 0.063916937 11048576
0.052096367 0.83024776 0.067784697 16711673
0.052301615 0.82995898 0.067785278 16711673
0.052506849 0.82967019 0.067785859 16711673
0.052712098 0.82938141 0.067786433 16711673
0.052917346 0.82909262 0.067787014 16711673
0.05312258 0.82880384 0.067787595 16580341
0.054001614 0.82905006 0.068300284 16448755
0.054205909 0.82876265 0.068300858 16251367
0.054410204 0.82847518 0.068301439 16119781
0.054614499 0.8281877 0.068302013 16183260
0.054818809 0.82790029 0.068302587 15920088
0.055023104 0.82761282 0.068303168 15525330
0.055895507 0.82786834 0.068815827 15262158
0.056098863 0.82758224 0.068816401 15392460
0.056302205 0.82729614 0.068816975 15063495
0.056505561 0.82701004 0.068817548 14799810
0.056708917 0.82672387 0.068818122 14470845
0.056912258 0.82643777 0.068818696 14207675
0.057115614 0.82615161 0.06881927 14076089
0.057318971 0.82586551 0.068819851 13879223
0.057522327 0.8255794 0.068820424 13616051
0.057725668 0.82529324 0.068820998 13484463
0.057929024 0.82500714 0.068821572 13352877
0.05813238 0.82472104 0.068822145 13155498
0.058335736 0.82443488 0.068822719 13089705
0.058539078 0.82414877 0.068823293 12629924
0.058742434 0.82386267 0.068823867 12432545
0.058291867 0.82301354 0.068312399 12366752
0.058496162 0.82272613 0.068312973 12037787
0.058700472 0.82243866 0.068313554 12037015
0.058904767 0.82215118 0.068314128 11708050
0.059109062 0.82186377 0.068314701 11641744
0.059313357 0.8215763 0.068315282 11312779
0.058869407 0.82071787 0.067803822 11377802
0.059074655 0.82042909 0.067804404 11312009
0.059279904 0.8201403 0.067804985 11114371
0.059485152 0.81985152 0.067805558 10916992
0.059690386 0.81956273 0.06780614 10982785
0.059252128 0.81869638 0.067294709 10851199
0.05945833 0.81840622 0.067295291 10851199
0.059664518 0.81811613 0.067295872 10916992
0.05923003 0.81724441 0.066784449 10916992
0.059437156 0.81695294 0.06678503 10851199
0.059421673 0.81549168 0.066274785 10785406
0.059629753 0.8151989 0.066275373 10851199
0.059837833 0.81490612 0.066275962 10851197
0.060045913 0.81461334 0.066276543 10851197
0.058987796 0.8131361 0.065253161 10851197
0.059197769 0.81284064 0.065253757 10916990
0.059407741 0.81254518 0.065254346 10916990
0.058987454 0.81165355 0.064742967 10982783
0.059198365 0.81135678 0.064743564 10982783
0.058780909 0.8104611 0.064232185 10982783
0.058992773 0.81016302 0.064232782 10982783
0.059204638 0.80986488 0.064233385 10982783
0.059416503 0.8095668 0.064233981 11048576
0.059628367 0.80926871 0.064234577 11048576
0.059840232 0.80897057 0.064235173 10982783
0.051953405 0.83014679 0.068092994 16711673
0.052158639 0.82985801 0.068093576 16711673
0.052363887 0.82956922 0.068094157 16711673
0.052569136 0.82928044 0.06809473 16711673
0.052774385 0.82899165 0.068095312 16711673
0.052979618 0.82870287 0.068095893 16580341
0.053859308 0.82894957 0.068607159 16448755
0.054063603 0.8286621 0.068607733 16382183
0.054267898 0.82837462 0.068608314 16184804
0.054472193 0.82808721 0.068608887 16183258
0.054676503 0.82779974 0.068609469 15788500
0.054880798 0.82751226 0.068610042 15459021
0.055753857 0.82776833 0.069121286 15261642
0.055957213 0.82748222 0.06912186 15391947
0.056160569 0.82719606 0.069122434 15062982
0.05636391 0.82690996 0.069123007 14865603
0.056567267 0.8266238 0.069123581 14536638
0.056770623 0.8263377 0.069124155 14207675
0.056973979 0.82605159 0.069124728 14010296
0.05717732 0.82576543 0.069125302 13878710
0.057380676 0.82547933 0.069125876 13615538
0.057584032 0.82519323 0.06912645 13484465
0.057787374 0.82490706 0.069127023 13352879
0.05799073 0.82462096 0.069127597 13155498
0.058194086 0.82433486 0.069128171 13023912
0.058397442 0.8240487 0.069128752 12629924
0.058600783 0.8237626 0.069129325 12498338
0.058149561 0.82291305 0.068619274 12300959
0.058353856 0.82262558 0.068619847 12037787
0.058558166 0.8223381 0.068620428 12102295
0.058762461 0.82205069 0.068621002 11839123
