# .PCD v0.7 - Point Cloud Data file format
VERSION 0.7
FIELDS x y z rgb
SIZE 4 4 4 4
TYPE F F F U
COUNT 1 1 1 1
WIDTH 1120
HEIGHT 1
VIEWPOINT 0 0 0 1 0 0 0
POINTS 1120
DATA ascii
0.057814732 0.81241763 0.033093885 9595724
0.058380693 0.81165797 0.033655643 9529931
0.058200777 0.8112663 0.033657342 9595724
0.05802086 0.81087458 0.033659041 9595724
0.057840958 0.81048292 0.03366074 9595722
0.057661042 0.81009126 0.033662438 9595722
0.058231056 0.80934048 0.034224123 9529929
0.058051825 0.8089503 0.034225807 9529929
0.057872593 0.80856007 0.034227505 9595722
0.057693362 0.8081699 0.034229204 9595722
0.057514116 0.80777973 0.034230888 9595722
0.057334885 0.8073895 0.034232587 9661515
0.057909682 0.80664915 0.034794211 9658689
0.057731122 0.80626047 0.03479591 9461310
0.057552576 0.80587173 0.034797594 9854784
0.05737403 0.80548304 0.034799278 9854784
0.05719547 0.8050943 0.034800977 9788478
0.057016924 0.80470562 0.03480266 9920064
0.057596505 0.80397558 0.03536427 10116673
0.057418644 0.80358839 0.035365954 9853501
0.057240769 0.80320114 0.035367638 9853501
0.057823047 0.80247712 0.035929203 9787708
0.057645857 0.80209136 0.035930872 9525565
0.057468683 0.8017056 0.035932541 10315081
0.057291493 0.8013199 0.035934225 9662032
0.057114303 0.80093414 0.035935894 9662032
0.056937113 0.80054837 0.035937577 9465423
0.057524189 0.79983473 0.036499098 9399630
0.057347685 0.79945046 0.036500767 9268557
0.057171181 0.79906619 0.036502436 9136971
0.057760954 0.79835844 0.037063941 8939592
0.057585135 0.79797572 0.03706561 8873799
0.057409316 0.79759294 0.037067264 8676420
0.057233483 0.79721016 0.037068933 8610627
0.057057664 0.79682738 0.037070602 8742727
0.05688183 0.79644459 0.037072256 8742727
0.057476416 0.79574722 0.037633717 8413762
0.057301268 0.79536593 0.037635371 8347969
0.05712612 0.79498464 0.037637025 8413248
0.057723403 0.79429322 0.038198441 8479041
0.05754894 0.79391342 0.038200095 8610625
0.057374477 0.79353362 0.038201749 8610625
0.057200015 0.79315382 0.038203388 8808004
0.057025552 0.79277402 0.038205042 8873797
0.056851089 0.79239422 0.038206697 8939592
0.057453141 0.79171318 0.038768068 9071178
0.057279363 0.79133487 0.038769707 9136971
0.057105571 0.7909565 0.038771346 9268557
0.056931794 0.79057819 0.038773 9268557
0.056758016 0.79019988 0.038774639 9268557
0.056584224 0.78982157 0.038776278 9333837
0.057191089 0.78915089 0.039337635 9399630
0.057017982 0.78877407 0.039339274 9333837
0.056844875 0.78839719 0.039340913 9399630
0.057454422 0.78773254 0.03990221 9333837
0.057282001 0.78735715 0.039903849 9465423
0.057109594 0.78698182 0.039905474 9465423
0.056937173 0.78660643 0.039907098 9399630
0.056764752 0.7862311 0.039908737 9333837
0.05659233 0.78585571 0.039910361 9333837
0.057206675 0.78520143 0.040471643 9136971
0.05703494 0.78482753 0.040473267 9268557
0.056863204 0.78445363 0.040474892 8084029
0.057480246 0.78380525 0.041036129 8149822
0.057309195 0.7834329 0.041037753 7820344
0.057138145 0.78306049 0.041039363 7622965
0.05696708 0.78268808 0.041040987 9005131
0.056796029 0.78231573 0.041042596 8939338
0.056624979 0.78194332 0.04104422 6768169
0.057246819 0.78130531 0.041605413 8873545
0.057076439 0.78093439 0.041607022 9531214
0.056906059 0.78056347 0.041608647 9399628
0.056735694 0.78019261 0.041610256 9136456
0.056565315 0.77982169 0.041611865 8544319
0.057191223 0.77919257 0.042173013 8084281
0.057021528 0.7788232 0.042174622 7755316
0.056851834 0.77845377 0.042176217 7493178
0.05668214 0.77808434 0.042177826 7230006
0.056512445 0.77771491 0.042179435 5452575
0.056342751 0.77734548 0.04218103 7097400
0.056973442 0.77672678 0.042742148 7754812
0.056804433 0.77635884 0.042743742 8083777
0.056635424 0.7759909 0.042745337 7426613
0.056466416 0.77562296 0.042746946 7492406
0.056297392 0.77525502 0.042748541 8084029
0.056128383 0.77488708 0.042750135 6176032
0.056763843 0.77427876 0.043311208 9136971
0.056595519 0.77391225 0.043312803 9334350
0.056427181 0.7735458 0.043314397 9334346
0.056258857 0.77317935 0.043315977 9268553
0.056090534 0.7728129 0.043317571 8875081
0.055922195 0.77244645 0.043319166 8809288
0.056562424 0.7718485 0.04388018 8676682
0.056394786 0.77148354 0.043881774 5452825
0.056227133 0.77111858 0.043883353 8214850
0.056870088 0.77052653 0.044444352 8214850
0.05670312 0.77016306 0.044445932 8084031
0.056536153 0.76979959 0.044447511 6439206
0.056369185 0.76943606 0.044449091 6900269
0.056202218 0.76907259 0.04445067 9005645
0.05603525 0.76870912 0.04445225 9138253
0.056682959 0.7681275 0.045013204 9204046
0.056516677 0.76776546 0.045014769 9400655
0.056350395 0.76740348 0.045016348 9400655
0.056184113 0.76704144 0.045017913 9465934
0.056017816 0.76667947 0.045019493 9531727
0.055851534 0.76631749 0.045021057 9465934
0.056504026 0.76574624 0.045581967 9465934
0.056338429 0.76538569 0.045583531 9531727
0.056172818 0.7650252 0.045585096 9465934
0.056007221 0.76466465 0.045586661 9531214
0.05584161 0.76430416 0.045588225 9597007
0.055676013 0.76394361 0.04558979 9531214
0.056333274 0.76338279 0.046150655 9531214
0.056168362 0.76302373 0.046152219 9597007
0.056003436 0.76266468 0.046153784 9531214
0.05583851 0.76230568 0.046155334 9465421
0.055673584 0.76194662 0.046156898 9465421
0.055508673 0.76158756 0.046158448 9597007
0.056170702 0.76103711 0.046719283 9597007
0.056006461 0.76067954 0.046720833 9597007
0.055842221 0.76032197 0.046722382 9531214
0.05567798 0.75996447 0.046723932 9531214
0.05551374 0.7596069 0.046725482 9465421
0.055349499 0.75924933 0.046727031 9597007
0.056016311 0.75870925 0.047287807 9531214
0.055852741 0.75835317 0.047289357 9531214
0.055689186 0.7579971 0.047290906 9531214
0.055525631 0.75764102 0.047292441 9531214
0.055362076 0.757285 0.047293991 9597007
0.05519852 0.75692892 0.047295541 9531216
0.055870086 0.75639921 0.047856271 9531216
0.055707216 0.75604463 0.047857806 9400143
0.055544332 0.75569004 0.047859356 9531729
0.056218639 0.75516629 0.048420042 9465936
0.05605644 0.75481319 0.048421577 9400143
0.055894241 0.75446004 0.048423111 9465936
0.055732042 0.75410694 0.048424646 9465936
0.055569857 0.75375384 0.048426181 9465936
0.055407658 0.75340074 0.048427716 9465936
0.056086734 0.75288737 0.048988372 9400143
0.05592522 0.75253576 0.048989892 9334350
0.055763707 0.75218415 0.048991427 9400143
0.055602193 0.75183249 0.048992947 9400143
0.055440664 0.75148088 0.048994482 9400143
0.055279151 0.75112927 0.048996001 9400143
0.055962995 0.75062627 0.049556613 9334350
0.055802166 0.75027615 0.049558133 9334350
0.055641338 0.74992603 0.049559653 9334350
0.05548051 0.74957585 0.049561173 9400143
0.055319667 0.74922574 0.049562693 9399630
0.055158839 0.74887562 0.049564213 9399630
0.055847451 0.74838299 0.050124779 9399628
0.055687293 0.74803436 0.050126299 9399628
0.055527151 0.74768567 0.050127804 9333835
0.055366993 0.74733704 0.050129324 9399628
0.055206835 0.74698842 0.050130844 9333835
0.055046692 0.74663973 0.050132349 9333835
0.054886535 0.7462911 0.050133869 9202251
0.054726392 0.74594241 0.050135374 9202251
0.055421144 0.74546319 0.050695896 9136458
0.055261672 0.745116 0.050697401 9136458
0.055102199 0.74476886 0.050698906 9004872
0.054942727 0.74442166 0.050700411 8939079
0.054783255 0.74407452 0.050701916 8939079
0.054623783 0.74372733 0.050703436 8741700
0.05446431 0.74338019 0.050704941 8610114
0.053445175 0.74315321 0.050147489 8610114
0.053285018 0.74280453 0.050149009 8544321
0.053124875 0.7424559 0.050150514 8544321
0.052964717 0.74210727 0.050152034 8544834
0.052804574 0.74175858 0.050153553 8479041
0.052644417 0.74140996 0.050155059 8149822
0.057979628 0.81329572 0.033465266 9595724
0.057799026 0.81290257 0.03346698 9595724
0.057618424 0.81250942 0.033468693 9595724
0.05818513 0.8117494 0.034029022 9595724
0.058005214 0.81135774 0.034030721 9595724
0.057825297 0.81096607 0.034032419 9595724
0.05764538 0.81057435 0.034034118 9661515
0.057465464 0.81018269 0.034035817 9595722
0.058036238 0.80943161 0.034596086 9529929
0.057856992 0.80904138 0.034597784 9529929
0.057677761 0.80865121 0.034599468 9595722
0.05749853 0.80826104 0.034601167 9661515
0.057319298 0.80787081 0.034602866 9595722
0.057140067 0.80748063 0.034604549 9661515
0.057715595 0.80673993 0.035164773 9525817
0.057537049 0.80635118 0.035166457 9591610
0.057358488 0.8059625 0.035168141 9853497
0.057179943 0.80557376 0.03516984 9853497
0.057001382 0.80518508 0.035171524 9721913
0.056822836 0.80479634 0.035173208 9919292
0.057403162 0.804066 0.035733417 10116671
0.057225287 0.80367881 0.035735101 9656120
0.057047427 0.80329156 0.035736769 9918009
0.05763045 0.80256718 0.036296919 9983802
0.05745326 0.80218142 0.036298603 9525306
0.05727607 0.80179566 0.036300272 10380615
0.05709888 0.80140996 0.036301941 9793103
0.056921691 0.8010242 0.036303625 9727310
0.056744501 0.80063844 0.036305293 9202251
0.057332337 0.79992443 0.036865413 9136458
0.057155818 0.79954016 0.036867082 8939079
0.056979313 0.79915595 0.036868751 8741700
0.057569847 0.79844785 0.037428841 8544321
0.057394013 0.79806507 0.03743051 8544321
0.057218194 0.79768229 0.037432164 8544321
0.05704236 0.7972995 0.037433833 8478528
0.056866542 0.79691672 0.037435487 8676420
0.056690708 0.79653394 0.037437156 8939592
0.057286039 0.79583627 0.037997201 8413762
0.057110891 0.79545498 0.037998855 8676934
0.056935742 0.79507369 0.038000509 8939590
0.057533771 0.79438192 0.03856051 9005383
0.057359308 0.79400212 0.038562164 9071174
0.057184845 0.79362231 0.038563818 9136967
0.057010382 0.79324251 0.038565457 9136967
0.05683592 0.79286271 0.038567111 9071174
0.056661457 0.79248291 0.038568765 9268555
0.057264239 0.79180151 0.039128721 9268555
0.057090461 0.7914232 0.03913036 9268555
0.056916684 0.79104483 0.039131999 9334348
0.056742892 0.79066652 0.039133653 9268555
0.056569114 0.79028821 0.039135292 9268555
0.056395337 0.7899099 0.039136931 9399630
0.057002917 0.78923887 0.039696872 9465423
0.056829825 0.78886205 0.039698511 9399630
0.056656718 0.78848523 0.03970015 9465423
0.05726701 0.78782016 0.040260047 9333837
0.057094589 0.78744483 0.040261671 9465423
0.056922168 0.78706944 0.040263295 9465423
0.056749746 0.78669411 0.040264934 9465423
0.05657734 0.78631872 0.040266559 9201997
0.056404918 0.78594339 0.040268183 8017723
0.057020009 0.78528869 0.040828049 8874059
0.056848273 0.78491485 0.040829673 8874059
0.056676537 0.78454095 0.040831298 7360047
0.057294309 0.78389221 0.041391134 7820598
0.057123259 0.78351986 0.041392744 7754551
0.056952208 0.78314745 0.041394368 7491379
0.056781143 0.78277504 0.041395977 8807752
0.056610093 0.78240263 0.041397601 8610373
0.056439042 0.78203028 0.041399211 6702376
0.057061613 0.78139192 0.041959003 8676166
0.056891248 0.781021 0.041960612 9531216
0.056720868 0.78065014 0.041962221 9465423
0.056550503 0.78027922 0.041963831 9333835
0.056380123 0.7799083 0.04196544 9136456
0.057006761 0.77927887 0.042525187 8874311
0.056837067 0.77890944 0.042526782 8413760
0.056667387 0.77854002 0.042528391 7559230
0.056497693 0.77817059 0.04253 7098679
0.056327999 0.77780116 0.042531595 4861208
0.056158304 0.77743173 0.042533204 6966584
0.056789726 0.77681267 0.043092906 7623740
0.056620717 0.77644473 0.043094501 8084291
0.056451708 0.77607679 0.043096095 7491892
0.056282699 0.77570885 0.04309769 7426099
0.05611369 0.77534091 0.043099284 8150076
0.055944681 0.77497298 0.043100893 6702630
0.056580871 0.77436429 0.043660551 9004872
0.056412548 0.77399784 0.043662146 9399630
0.056244209 0.77363139 0.043663725 9334346
0.056075886 0.77326494 0.04366532 9334346
0.055907562 0.7728985 0.043666914 9137481
0.055739224 0.77253199 0.043668509 9005895
0.056380197 0.77193373 0.044228107 8742475
0.056212544 0.77156878 0.044229701 5387032
0.056044891 0.77120376 0.044231281 7754553
0.056688592 0.77061141 0.044790864 8083518
0.056521624 0.77024794 0.044792444 7886904
0.056354657 0.76988447 0.044794023 7623732
0.056187689 0.76952094 0.044795603 8282176
0.056020722 0.76915747 0.044797182 8940106
0.055853754 0.768794 0.044798762 9334862
0.056502208 0.76821202 0.0453583 9334862
0.056335926 0.76785004 0.045359865 9400655
0.056169644 0.767488 0.045361444 9400655
0.056003362 0.76712602 0.045363009 9465934
0.055837065 0.76676399 0.045364588 9465934
0.055670783 0.76640201 0.045366153 9531727
0.05632402 0.7658304 0.045925647 9465934
0.056158423 0.76546991 0.045927212 9531727
0.055992812 0.76510936 0.045928776 9531727
0.055827215 0.76474881 0.045930341 9531727
0.055661604 0.76438832 0.045931906 9531727
0.055496007 0.76402777 0.04593347 9597007
0.056154013 0.7634666 0.046492919 9531214
0.055989087 0.76310754 0.046494484 9662800
0.055824161 0.76274854 0.046496049 9531214
0.055659249 0.76238948 0.046497598 9465421
0.055494323 0.76203042 0.046499163 9465421
0.055329397 0.76167142 0.046500713 9597007
0.055992171 0.76112062 0.047060132 9597007
0.055827931 0.76076305 0.047061682 9597007
0.05566369 0.76040548 0.047063231 9531214
0.055499449 0.76004791 0.047064781 9531214
0.055335209 0.7596904 0.047066346 9531214
0.055170968 0.75933284 0.047067896 9597009
0.055838525 0.7587924 0.04762724 9531216
0.055674955 0.75843632 0.04762879 9531214
0.0555114 0.75808024 0.04763034 9531214
0.055347845 0.75772417 0.04763189 9465421
0.05518429 0.75736809 0.047633424 9597007
0.05502072 0.75701207 0.047634974 9531729
0.055693045 0.75648201 0.048194289 9465936
0.055530161 0.75612742 0.048195839 9400143
0.055367291 0.75577283 0.048197374 9531729
0.056042328 0.75524873 0.048756659 9400143
0.055880129 0.75489563 0.048758194 9400143
0.055717945 0.75454253 0.048759729 9465936
0.055555746 0.75418937 0.048761263 9465936
0.055393547 0.75383627 0.048762798 9465936
0.055231348 0.75348318 0.048764318 9465936
0.055911168 0.7529695 0.049323559 9400141
0.055749655 0.75261784 0.049325094 9334348
0.055588141 0.75226623 0.049326614 9400143
0.055426627 0.75191462 0.049328148 9400143
0.055265114 0.75156301 0.049329668 9400143
0.0551036 0.7512114 0.049331203 9334350
0.055788174 0.75070804 0.049890399 9334350
0.055627346 0.75035793 0.049891919 9334350
0.055466503 0.75000775 0.049893439 9334350
0.055305675 0.74965763 0.049894959 9400143
0.055144846 0.74930751 0.049896479 9334350
0.054984003 0.74895734 0.049897999 9400143
0.055673361 0.74846441 0.05045715 9334350
0.055513218 0.74811578 0.05045867 9268557
0.05535306 0.74776709 0.050460175 9268555
0.055192918 0.74741846 0.050461695 9334348
0.05503276 0.74706978 0.0504632 9268557
0.054872602 0.74672115 0.05046472 9268557
0.054712459 0.74637246 0.050466239 9136971
0.054552302 0.74602383 0.050467744 9136971
0.055247799 0.74554425 0.051026851 9071178
0.055088326 0.74519706 0.051028356 9071178
0.054928854 0.74484992 0.051029861 9005385
0.054769382 0.74450272 0.051031366 8873799
0.05460991 0.74415559 0.051032871 8808006
0.054450437 0.74380839 0.051034376 8676420
0.05429098 0.74346125 0.051035896 8610627
0.053271085 0.74323463 0.050479859 8544834
0.053110942 0.74288595 0.050481364 8544834
0.052950785 0.74253732 0.050482884 8544834
0.052790642 0.74218863 0.050484404 8544834
0.052630484 0.74184 0.050485909 8544834
0.052470326 0.74149138 0.050487429 8215615
0.059069052 0.81419092 0.034392208 9727308
0.058889136 0.81379926 0.034393907 9661515
0.058709219 0.81340754 0.034395605 9595722
0.058529317 0.81301588 0.034397304 9595724
0.058349401 0.81262422 0.034399003 9595724
0.058169484 0.81223255 0.034400702 9661517
0.057989568 0.81184089 0.0344024 9595724
0.057809651 0.81144917 0.034404099 9661517
0.057629734 0.81105751 0.034405798 9595724
0.058199868 0.81030309 0.034964666 9661517
0.058020636 0.80991292 0.034966365 9595724
0.057841405 0.80952269 0.034968048 9529929
0.057662174 0.80913252 0.034969747 9529929
0.057482943 0.80874228 0.034971446 9595722
0.058057159 0.80799681 0.035530269 9661515
0.057878613 0.80760807 0.035531953 9595722
0.057700068 0.80721939 0.035533637 9661515
0.057521507 0.80683064 0.035535336 9261362
0.057342961 0.80644196 0.035537019 9458741
0.057164401 0.80605328 0.035538703 9787191
0.05774343 0.80531812 0.036097512 9852984
0.057565555 0.80493087 0.036099195 9852984
0.057387695 0.80454367 0.036100879 9984570
0.057969421 0.80381447 0.036659628 10312767
0.057792231 0.80342871 0.036661297 9654837
0.057615042 0.80304301 0.036662981 9785651
0.05819951 0.80231971 0.037221715 10114616
0.058023006 0.80193543 0.037223384 9525306
0.057846501 0.80155122 0.037225053 10380615
0.057669997 0.80116695 0.037226722 9727310
0.057493478 0.80078268 0.037228391 9661517
0.057316974 0.80039841 0.03723006 9135688
0.057906196 0.79968554 0.037788749 8872516
0.057730377 0.79930276 0.037790418 8675907
0.057554543 0.79891998 0.037792087 8675907
0.057378724 0.79853725 0.037793741 8544321
0.057202891 0.79815447 0.03779541 8741700
0.057027072 0.79777169 0.037797064 8741700
0.057621092 0.79706919 0.038355723 8741700
0.057445943 0.7966879 0.038357377 8676420
0.057270795 0.79630661 0.038359031 9005385
0.057867512 0.79561007 0.038917631 8873797
0.057693049 0.79523021 0.038919285 9005383
0.057518587 0.79485041 0.038920939 9136969
0.057344124 0.79447061 0.038922578 9268555
0.057169661 0.79409081 0.038924232 9268553
0.056995198 0.79371101 0.038925886 9268553
0.057596684 0.79302484 0.039484441 9334346
0.057422906 0.79264653 0.039486095 9268553
0.057249129 0.79226816 0.039487734 9268555
0.057075337 0.79188985 0.039489374 9334348
0.056901559 0.79151154 0.039491013 9334348
0.056727782 0.79113322 0.039492667 9400141
0.057334065 0.79045743 0.040051207 9268555
0.057160959 0.79008055 0.040052846 9136969
0.056987867 0.78970373 0.040054485 9268557
0.057596847 0.78903389 0.040612981 9400143
0.057424426 0.7886585 0.040614605 9334350
0.057252005 0.78828317 0.040616244 9400143
0.057863742 0.78761923 0.041174725 9334350
0.057692006 0.78724539 0.041176349 9334350
0.05752027 0.78687149 0.041177973 9400143
0.057348534 0.78649759 0.041179597 9400143
0.057176799 0.78612375 0.041181222 9136204
0.057005063 0.78574985 0.041182846 6307105
0.057621539 0.78509635 0.041741282 8808266
0.057450488 0.78472394 0.041742891 8742473
0.057279438 0.78435159 0.041744515 7163181
0.057108372 0.78397918 0.041746125 7689525
0.056937322 0.78360677 0.041747749 7623478
0.056766272 0.78323442 0.041749358 7557685
0.057387546 0.78259122 0.042307749 8412996
0.057217166 0.78222036 0.042309359 8149824
0.057046801 0.78184944 0.042310968 7163441
0.056876421 0.78147852 0.042312592 8808266
0.056706056 0.7811076 0.042314202 9531216
0.056535676 0.78073668 0.042315811 9465423
0.057161689 0.78010398 0.042874143 9465421
0.056991994 0.77973455 0.042875752 9465421
0.056822315 0.77936512 0.042877361 9071176
0.05665262 0.77899569 0.042878956 8676418
0.056482926 0.77862626 0.042880565 7821889
0.056313232 0.77825683 0.042882174 7624510
0.056944042 0.77763444 0.043440461 4663829
0.056775033 0.7772665 0.043442056 7492928
0.05660601 0.77689856 0.04344365 7821119
0.057239547 0.77628213 0.044001937 8347463
0.057071224 0.77591568 0.044003531 8742473
0.056902885 0.77554923 0.044005111 7952957
0.056734562 0.77518278 0.044006705 8479555
0.056566224 0.77481633 0.0440083 8874313
0.057203844 0.77420878 0.044566527 9071178
0.057036206 0.77384382 0.044568121 9334350
0.056868553 0.77347881 0.044569701 9334348
0.0567009 0.77311385 0.04457128 9334348
0.056533262 0.77274889 0.044572875 9268553
0.056365609 0.77238393 0.044574454 9136967
0.057007998 0.77178675 0.045132652 8808520
0.056841031 0.77142328 0.045134231 8479555
0.056674063 0.77105981 0.045135796 8544580
0.056507096 0.77069628 0.045137376 8544580
0.056340128 0.77033281 0.045138955 8939590
0.056173176 0.76996934 0.045140535 9071176
0.056820318 0.76938254 0.045698673 9071176
0.056654036 0.76902056 0.045700252 9268555
0.056487739 0.76865852 0.045701817 9334862
0.056321457 0.76829654 0.045703396 9334862
0.056155175 0.76793456 0.045704961 9400655
0.055988893 0.76757252 0.04570654 9400655
0.056640819 0.76699615 0.046264634 9334862
0.056475222 0.76663566 0.046266198 9334862
0.056309611 0.76627511 0.046267763 9400655
0.056964278 0.76570463 0.046825841 9334862
0.056799352 0.76534563 0.046827406 9465934
0.056634426 0.76498657 0.046828955 9465934
0.0564695 0.76462758 0.04683052 9531727
0.056304589 0.76426852 0.046832085 9531727
0.056139663 0.76390946 0.046833634 9531214
0.056799084 0.76334941 0.047391668 9597007
0.056634858 0.76299185 0.047393218 9662800
0.056470603 0.76263428 0.047394782 9597007
0.056306362 0.76227677 0.047396332 9531214
0.056142136 0.7619192 0.047397882 9531214
0.055977881 0.76156163 0.047399431 9597007
0.055813655 0.76120406 0.047400981 9597007
0.055649415 0.76084656 0.047402531 9597007
0.055485159 0.76048899 0.047404096 9597007
0.056151405 0.75994372 0.047962055 9531727
0.05598785 0.75958771 0.047963589 9465934
0.055824295 0.75923163 0.047965139 9531729
0.056493267 0.75869232 0.048523083 9465936
0.056330383 0.75833774 0.048524618 9465934
0.056167513 0.75798315 0.048526168 9531727
0.056839198 0.75744981 0.049084067 9465934
0.056677014 0.75709665 0.049085602 9465934
0.056514814 0.75674355 0.049087137 9531729
0.056352615 0.75639045 0.049088672 9465936
0.056190416 0.75603735 0.049090207 9400143
0.056028217 0.75568426 0.049091741 9531729
0.056704685 0.75516129 0.049649596 9465936
0.056543171 0.75480968 0.049651131 9400143
0.056381658 0.75445807 0.049652651 9465936
0.056220144 0.7541064 0.049654186 9531729
0.05605863 0.75375479 0.049655706 9465934
0.055897117 0.75340319 0.049657241 9465934
0.055735603 0.75305158 0.04965876 9400141
0.055574089 0.75269997 0.049660295 9334348
0.055412576 0.75234836 0.049661815 9400143
0.056095853 0.75184023 0.050219625 9400143
0.055935025 0.75149006 0.050221145 9400143
0.055774182 0.75113994 0.050222665 9334350
0.055613354 0.75078982 0.050224185 9400143
0.055452526 0.75043964 0.050225705 9334350
0.055291682 0.75008953 0.050227225 9334350
0.055979744 0.74959177 0.050784975 9334350
0.055819586 0.74924314 0.050786495 9400143
0.055659428 0.74889445 0.050788 9400143
0.055499285 0.74854583 0.05078952 9334350
0.055339128 0.74819714 0.05079104 9334350
0.05517897 0.74784851 0.050792545 9334350
0.0558718 0.74736112 0.051350266 9136971
0.055712327 0.74701399 0.051351771 9136971
0.055552855 0.74666679 0.051353276 9268557
0.055393398 0.74631965 0.051354781 9334096
0.055233926 0.74597245 0.051356286 9268303
0.055074453 0.74562532 0.051357806 9136717
0.054914981 0.74527812 0.051359311 9136717
0.054755509 0.74493098 0.051360816 9136717
0.054596037 0.74458379 0.051362321 9005131
0.054436564 0.74423665 0.051363826 8807752
0.054277092 0.74388945 0.051365331 8676166
0.054117635 0.74354231 0.051366851 8610627
0.053958163 0.74319512 0.051368356 8610627
0.05379869 0.74284792 0.051369861 8544834
0.053639218 0.74250078 0.051371366 8544834
0.053479746 0.74215358 0.051372871 8479041
0.053320289 0.74180645 0.051374376 8479041
0.053160816 0.74145925 0.051375896 8215615
0.058873489 0.81428236 0.034765586 9661515
0.058693573 0.8138907 0.034767285 9661515
0.058513656 0.81349903 0.034768984 9595722
0.05833374 0.81310737 0.034770682 9595722
0.058153823 0.81271565 0.034772381 9595722
0.057973906 0.81232399 0.034774095 9661515
0.057794005 0.81193233 0.034775794 9595722
0.057614088 0.8115406 0.034777492 9595722
0.057434171 0.81114894 0.034779191 9661515
0.05800505 0.81039417 0.035336629 9661515
0.057825819 0.810004 0.035338327 9595722
0.057646573 0.80961382 0.035340026 9595722
0.057467341 0.80922359 0.03534171 9529929
0.05728811 0.80883342 0.035343409 9595722
0.057863086 0.80808759 0.035900816 9595722
0.057684526 0.80769885 0.0359025 9661515
0.05750598 0.80731016 0.035904199 9661515
0.05732742 0.80692142 0.035905883 9260849
0.057148874 0.80653274 0.035907567 9458228
0.056970328 0.806144 0.035909265 9918007
0.057550088 0.80540854 0.036466658 10049593
0.057372212 0.80502129 0.036468327 9984570
0.057194352 0.80463409 0.036470011 9984570
0.057776809 0.80390453 0.037027359 10246204
0.057599619 0.80351877 0.037029028 9654067
0.057422429 0.80313307 0.037030697 9785394
0.058007658 0.80240941 0.03758803 10180152
0.057831138 0.8020252 0.037589699 9656120
0.057654634 0.80164093 0.037591368 10511429
0.05747813 0.80125666 0.037593037 9858124
0.057301626 0.80087239 0.037594706 9726538
0.057125121 0.80048811 0.037596375 9135686
0.057715073 0.79977494 0.038153648 9004100
0.057539254 0.79939216 0.038155317 8873286
0.057363421 0.79900938 0.038156971 9004872
0.057187602 0.7986266 0.03815864 9136458
0.057011768 0.79824382 0.038160294 9136458
0.056835949 0.79786104 0.038161963 9202249
0.057430699 0.79715818 0.038719207 9070663
0.057255566 0.79677689 0.038720861 9333835
0.057080418 0.7963956 0.038722515 9202249
0.05767788 0.7956987 0.039279699 9202249
0.057503417 0.7953189 0.039281353 9202249
0.057328954 0.7949391 0.039283007 9333833
0.057154492 0.7945593 0.039284647 9399626
0.056980029 0.7941795 0.039286301 9465419
0.056805566 0.7937997 0.039287955 9465419
0.057407781 0.79311317 0.039845109 9465421
0.057234004 0.79273486 0.039846748 9399628
0.057060227 0.79235649 0.039848387 9399628
0.056886435 0.79197818 0.039850026 9333835
0.056712657 0.79159987 0.039851665 9334348
0.05653888 0.79122156 0.03985332 9334348
0.057145908 0.7905454 0.040410459 8018490
0.056972802 0.79016852 0.040412083 8347455
0.05679971 0.7897917 0.040413722 9070924
0.057409436 0.78912151 0.040970802 9268303
0.057237014 0.78874618 0.040972427 9399889
0.057064593 0.78837079 0.040974066 9399889
0.057677075 0.78770655 0.041531131 8873799
0.057505339 0.78733265 0.041532755 9334350
0.057333604 0.78695881 0.041534379 9400143
0.057161868 0.78658491 0.041536003 9400143
0.056990117 0.78621101 0.041537628 9136204
0.056818381 0.78583717 0.041539252 6307105
0.057435602 0.78518331 0.042096272 8281922
0.057264552 0.7848109 0.042097896 8413508
0.057093501 0.78443849 0.042099506 7755832
0.056922436 0.78406614 0.042101115 7624246
0.056751385 0.78369373 0.042102739 7558199
0.056580335 0.78332132 0.042104363 7426613
0.057202354 0.78267783 0.042661339 8018752
0.057031974 0.78230691 0.042662948 8347717
0.056861609 0.78193605 0.042664558 8676682
0.056691229 0.78156513 0.042666167 8939854
0.056520849 0.78119421 0.042667776 9531475
0.056350484 0.78082329 0.042669386 9465682
0.056977242 0.78019023 0.043226317 9465421
0.056807548 0.7798208 0.043227911 9465421
0.056637853 0.77945137 0.04322952 9202249
0.056468159 0.77908194 0.04323113 9070663
0.056298465 0.77871251 0.043232724 8347463
0.05612877 0.77834308 0.043234333 7492154
0.056760326 0.77772039 0.04379122 5057815
0.056591317 0.77735245 0.043792814 7492156
0.056422308 0.77698451 0.043794408 8281670
0.057056576 0.77636772 0.04435128 8742221
0.056888252 0.77600127 0.044352859 8874313
0.056719914 0.77563477 0.044354454 8874313
0.056551591 0.77526832 0.044356048 9136971
0.056383252 0.77490187 0.044357643 9268557
0.057021618 0.77429402 0.044914454 9268555
0.056853965 0.773929 0.044916034 9334348
0.056686327 0.77356404 0.044917628 9465421
0.056518674 0.77319908 0.044919208 9465421
0.056351021 0.77283412 0.044920787 9399628
0.056183383 0.77246916 0.044922382 9465421
0.056826517 0.77187163 0.045479164 9268555
0.056659549 0.77150816 0.045480743 9136969
0.056492582 0.77114463 0.045482308 9071176
0.056325614 0.77078116 0.045483887 9136969
0.056158647 0.77041769 0.045485467 9136969
0.055991679 0.77005422 0.045487046 9268555
0.056639567 0.76946712 0.046043769 9334348
0.056473285 0.76910508 0.046045348 9400141
0.056306988 0.7687431 0.046046913 9465934
0.056140706 0.76838106 0.046048492 9531727
0.055974424 0.76801908 0.046050057 9531727
0.055808142 0.76765704 0.046051636 9531727
0.056460813 0.76708031 0.046608314 9465934
0.056295216 0.76671982 0.046609879 9465934
0.056129605 0.76635927 0.046611443 9531727
0.056785002 0.7657885 0.047168106 9531727
0.056620076 0.76542944 0.04716967 9531727
0.056455165 0.76507044 0.047171235 9531727
0.056290239 0.76471138 0.047172785 9531727
0.056125313 0.76435232 0.047174349 9531727
0.055960387 0.76399332 0.047175899 9531214
0.056620568 0.76343292 0.047732517 9597007
0.056456327 0.76307535 0.047734082 9662800
0.056292087 0.76271778 0.047735631 9597007
0.056127846 0.76236022 0.047737181 9531214
0.055963606 0.76200271 0.047738731 9531214
0.055799365 0.76164514 0.047740281 9597007
0.055635124 0.76128757 0.04774183 9597007
0.055470884 0.76093 0.047743395 9597007
0.055306643 0.76057243 0.047744945 9662800
0.055973619 0.76002687 0.048301488 9597007
0.055810064 0.75967079 0.048303038 9597007
0.055646509 0.75931478 0.048304588 9597007
0.056316212 0.75877512 0.048861116 9597007
0.056153342 0.75842053 0.048862651 9531214
0.055990458 0.75806594 0.048864186 9597007
0.056662902 0.75753224 0.049420685 9531214
0.056500703 0.75717914 0.049422219 9465421
0.056338504 0.75682604 0.049423754 9597522
0.056176305 0.75647295 0.049425289 9465936
0.056014106 0.75611979 0.049426809 9465936
0.055851921 0.75576669 0.049428344 9531729
0.05652912 0.75524342 0.049984798 9465936
0.056367606 0.75489175 0.049986318 9465936
0.056206092 0.75454015 0.049987853 9465936
0.056044579 0.75418854 0.049989372 9531729
0.055883065 0.75383693 0.049990907 9465934
0.055721551 0.75348532 0.049992427 9465934
0.055560037 0.75313365 0.049993962 9400141
0.055398524 0.75278205 0.049995482 9400141
0.05523701 0.75243044 0.049997017 9465934
0.055921033 0.75192195 0.050553411 9400141
0.05576019 0.75157183 0.050554931 9400143
0.055599362 0.75122166 0.050556451 9400143
0.055438533 0.75087154 0.050557971 9400143
0.05527769 0.75052142 0.050559491 9400143
0.055116862 0.7501713 0.050561011 9334350
0.055805653 0.74967319 0.051117346 9334350
0.055645496 0.7493245 0.051118866 9334350
0.055485353 0.74897587 0.051120371 9400143
0.055325195 0.74862725 0.051121891 9334350
0.055165052 0.74827856 0.051123396 9334350
0.055004895 0.74792993 0.051124915 9334350
0.055698454 0.74744219 0.051681221 9268557
0.055538982 0.74709505 0.051682726 9268557
0.05537951 0.74674785 0.051684231 9334350
0.055220053 0.74640071 0.051685736 9399889
0.05506058 0.74605352 0.051687241 9334096
0.054901108 0.74570638 0.051688761 9268303
0.054741636 0.74535918 0.051690266 9136717
0.054582164 0.74501204 0.051691771 9136717
0.054422706 0.74466485 0.051693276 9005131
0.054263234 0.74431771 0.051694781 8873545
0.054103762 0.74397051 0.051696286 8676166
0.05394429 0.74362338 0.051697791 8610373
0.053784817 0.74327618 0.051699311 8610373
0.053625345 0.74292898 0.051700816 8544580
0.053465873 0.74258184 0.051702321 8544580
0.053306401 0.74223465 0.051703826 8478787
0.053146943 0.74188751 0.051705331 8412994
0.052987471 0.74154031 0.051706851 8215615
0.058677927 0.81437385 0.035138965 9661515
0.05849801 0.81398213 0.035140663 9595722
0.058318093 0.81359047 0.035142362 9595722
0.058138177 0.8131988 0.035144061 9595722
0.05795826 0.81280714 0.035145774 9595722
0.057778344 0.81241542 0.035147473 9530442
0.057598427 0.81202376 0.035149172 9530442
0.05741851 0.8116321 0.035150871 9530442
0.057238609 0.81124043 0.035152569 9530442
0.057810217 0.8104853 0.035708606 9595722
0.057630986 0.81009513 0.035710305 9595722
0.057451755 0.8097049 0.035711989 9595722
0.057272524 0.80931473 0.035713688 9595722
0.057093292 0.80892456 0.035715386 9595722
0.057668999 0.80817831 0.036271378 9595722
0.057490438 0.80778962 0.036273062 9661515
0.057311893 0.80740088 0.036274746 9661515
0.057133347 0.8070122 0.03627643 9195056
0.056954786 0.80662346 0.036278129 9458228
0.05677624 0.80623478 0.036279812 9983800
0.057356745 0.80549896 0.03683579 10312765
0.05717887 0.80511171 0.036837474 10247742
0.05700101 0.80472445 0.036839157 10181949
0.057584211 0.8039946 0.037395075 10114616
0.057407022 0.80360889 0.037396759 9588272
0.057229832 0.80322313 0.037398428 9915951
0.05781579 0.80249918 0.037954345 10179123
0.057639286 0.8021149 0.037956014 9656118
0.057462782 0.80173063 0.037957683 10511427
0.057286263 0.80134636 0.037959352 9858378
0.057109758 0.80096209 0.037961021 9726792
0.056933254 0.80057788 0.03796269 9333063
0.057523951 0.79986429 0.038518548 9267270
0.057348132 0.79948151 0.038520217 9202249
0.057172298 0.79909873 0.038521871 9333835
0.05699648 0.79871595 0.03852354 9333835
0.056820646 0.79833317 0.038525194 9465421
0.056644827 0.79795039 0.038526863 9465421
0.057240322 0.79724723 0.039082676 9399628
0.057065174 0.79686594 0.039084345 9399626
0.056890041 0.79648465 0.039085999 9333833
0.057488233 0.79578739 0.039641768 9333833
0.05731377 0.79540759 0.039643422 9333833
0.057139307 0.79502779 0.039645076 9399626
0.056964844 0.79464799 0.039646715 9465419
0.056790382 0.79426819 0.039648369 9465419
0.056615919 0.79388833 0.039650023 9531212
0.057218879 0.79320151 0.040205762 9531214
0.057045102 0.7928232 0.040207401 9399628
0.056871325 0.79244483 0.04020904 9136456
0.056697547 0.79206651 0.040210679 8215354
0.056523755 0.7916882 0.040212333 9268555
0.056349978 0.79130989 0.040213972 8479039
0.056957752 0.79063338 0.040769696 7689271
0.056784645 0.79025656 0.040771335 7886650
0.056611553 0.78987968 0.04077296 8939854
0.057222009 0.78920919 0.041328624 8808268
0.057049587 0.7888338 0.041330263 8676166
0.056877181 0.78845847 0.041331887 7294513
0.057490394 0.78779382 0.041887552 7886904
0.057318658 0.78741997 0.041889161 9268557
0.057146922 0.78704607 0.041890785 9400143
0.056975186 0.78667223 0.041892409 9400143
0.05680345 0.78629833 0.041894034 9070411
0.056631714 0.78592443 0.041895658 7162414
0.057249665 0.78527027 0.042451262 7755318
0.057078615 0.78489786 0.042452887 8413248
0.056907564 0.78452545 0.042454496 7821625
0.056736499 0.7841531 0.04245612 7624246
0.056565449 0.78378069 0.04245773 7558201
0.056394398 0.78340828 0.042459354 7360822
0.057017148 0.78276443 0.043014914 7952959
0.056846783 0.78239357 0.043016523 8676682
0.056676403 0.78202266 0.043018132 8939852
0.056506038 0.78165174 0.043019757 9137231
0.056335658 0.78128082 0.043021366 9531475
0.056165278 0.7809099 0.043022975 9465682
0.056792781 0.78027648 0.043578476 9465423
0.056623101 0.77990705 0.043580085 9399630
0.056453407 0.77953762 0.043581694 9202251
0.056283712 0.77916819 0.043583289 9202251
0.056114018 0.77879876 0.043584898 8939338
0.055944324 0.77842933 0.043586507 8412994
0.05657661 0.77780628 0.044141963 5517850
0.056407601 0.77743834 0.044143572 8017984
0.056238592 0.7770704 0.044145167 8874059
0.056873605 0.77645326 0.044700608 9005645
0.056705266 0.77608681 0.044702202 9137483
0.056536943 0.77572036 0.044703797 9137483
0.056368619 0.77535391 0.044705391 9334348
0.056200281 0.77498746 0.04470697 9334348
0.056839392 0.77437919 0.045262381 9400141
0.056671739 0.77401423 0.045263961 9400141
0.056504086 0.77364928 0.045265555 9531214
0.056336448 0.77328432 0.045267135 9531214
0.056168795 0.7729193 0.045268714 9465421
0.056001142 0.77255434 0.045270309 9531214
0.056645021 0.7719565 0.045825675 9399628
0.056478053 0.77159303 0.04582724 9399628
0.056311086 0.77122951 0.045828819 9400141
0.056144118 0.77086604 0.045830399 9334348
0.055977151 0.77050257 0.045831978 9334348
0.055810183 0.77013904 0.045833558 9400141
0.056458816 0.76955163 0.046388865 9465934
0.056292534 0.7691896 0.046390444 9465934
0.056126252 0.76882762 0.046392009 9465934
0.055959955 0.76846558 0.046393588 9531727
0.055793673 0.7681036 0.046395153 9531727
0.055627391 0.76774156 0.046396732 9531727
0.056280807 0.76716453 0.046951994 9531727
0.056115195 0.76680398 0.046953559 9465934
0.055949599 0.76644349 0.046955124 9531727
0.056605741 0.7658723 0.047510386 9465934
0.056440815 0.7655133 0.047511935 9531727
0.056275889 0.76515424 0.0475135 9531727
0.056110963 0.76479518 0.04751505 9597520
0.055946052 0.76443619 0.047516614 9531727
0.055781126 0.76407713 0.047518179 9597007
0.056442037 0.76351637 0.048073381 9597007
0.056277797 0.7631588 0.048074931 9662800
0.056113556 0.76280129 0.048076481 9662800
0.055949315 0.76244372 0.04807803 9597007
0.055785075 0.76208615 0.04807958 9531214
0.055620834 0.76172858 0.048081145 9597007
0.055456594 0.76137108 0.048082694 9597007
0.055292353 0.76101351 0.048084244 9597007
0.055128112 0.76065594 0.048085794 9597007
0.055795833 0.76011002 0.048640922 9597007
0.055632278 0.75975394 0.048642471 9597007
0.055468723 0.75939786 0.048644021 9597007
0.056139171 0.75885791 0.049199134 9531214
0.055976287 0.75850332 0.049200669 9531214
0.055813417 0.75814873 0.049202219 9597007
0.056486592 0.75761467 0.049757287 9597007
0.056324393 0.75726157 0.049758822 9465421
0.056162193 0.75690848 0.049760357 9662800
0.056000009 0.75655538 0.049761891 9597007
0.05583781 0.75620228 0.049763426 9531214
0.055675611 0.75584918 0.049764961 9597007
0.056353554 0.7553255 0.050319999 9597009
0.05619204 0.75497389 0.050321519 9531216
0.056030527 0.75462228 0.050323054 9531214
0.055869013 0.75427061 0.050324574 9531214
0.055707499 0.75391901 0.050326109 9531214
0.055545986 0.7535674 0.050327629 9531214
0.055384472 0.75321579 0.050329149 9400141
0.055222958 0.75286412 0.050330684 9400141
0.055061445 0.75251251 0.050332204 9465936
0.055746198 0.75200373 0.050887182 9400143
0.055585369 0.75165355 0.050888702 9465934
0.055424541 0.75130343 0.050890222 9400141
0.055263698 0.75095332 0.050891742 9400141
0.05510287 0.75060314 0.050893262 9400141
0.054942042 0.75025302 0.050894782 9334348
0.055631578 0.74975461 0.051449716 9400141
0.05547142 0.74940592 0.051451221 9334348
0.055311263 0.74905729 0.051452741 9400141
0.05515112 0.74870861 0.051454261 9334348
0.054990962 0.74835998 0.051455766 9334348
0.054830804 0.74801135 0.051457286 9399628
0.055525124 0.74752325 0.052012175 9399628
0.055365652 0.74717611 0.05201368 9333837
0.05520618 0.74682891 0.052015185 9465423
0.055046707 0.74648178 0.05201669 9399630
0.054887235 0.74613458 0.052018195 9333837
0.054727763 0.74578744 0.0520197 9136971
0.054568291 0.74544024 0.05202122 9136971
0.054408818 0.74509311 0.052022725 9136971
0.054249361 0.74474591 0.05202423 9005385
0.054089889 0.74439877 0.052025735 8873799
0.053930417 0.74405158 0.05202724 8808006
0.053770944 0.74370444 0.052028745 8676166
0.053611472 0.74335724 0.052030265 8610373
0.053452 0.74301004 0.05203177 8544580
0.053292543 0.74266291 0.052033275 8544580
0.05313307 0.74231571 0.05203478 8478787
0.052973598 0.74196857 0.052036285 8478787
0.052814126 0.74162138 0.05203779 8347201
0.058819771 0.81720138 0.034949109 9727308
0.058639169 0.81680822 0.034950808 9661515
0.058458567 0.81641507 0.034952521 9661515
0.059022099 0.81564033 0.035507247 9661515
0.058842182 0.81524867 0.035508946 9793101
0.058662266 0.81485695 0.035510644 9727308
0.058482349 0.81446528 0.035512358 9661515
0.058302447 0.81407362 0.035514057 9595722
0.058122531 0.81368196 0.035515755 9595722
0.058690801 0.81291759 0.036070406 9595722
0.05851157 0.81252736 0.036072105 9595722
0.058332324 0.81213719 0.036073804 9530442
0.058153093 0.81174701 0.036075488 9596235
0.057973862 0.81135678 0.036077186 9530442
0.057794631 0.81096661 0.036078885 9530442
0.05836767 0.81021261 0.036633492 9530442
0.058189124 0.80982393 0.036635175 9530442
0.058010563 0.80943525 0.036636859 9595722
0.057832018 0.80904651 0.036638558 9595722
0.057653457 0.80865777 0.036640242 9661515
0.057474911 0.80826908 0.036641926 9661515
0.058052748 0.80752552 0.037196532 9792331
0.057874888 0.80713826 0.037198216 9792331
0.057697013 0.80675101 0.037199885 9325872
0.058277547 0.80601341 0.037754431 9654837
0.058100358 0.80562764 0.0377561 10246204
0.057923168 0.80524188 0.037757784 10443583
0.058506459 0.80451018 0.038312316 10181949
0.058329955 0.80412591 0.038313985 10181949
0.05815345 0.80374169 0.038315654 9982773
0.057976946 0.80335742 0.038317323 9653808
0.057800442 0.80297315 0.038318992 9850156
0.058387786 0.80225033 0.038873479 10047535
0.058211967 0.80186754 0.038875133 9656118
0.058036134 0.80148476 0.038876802 10511427
0.057860315 0.80110198 0.038878456 9858378
0.057684481 0.80071926 0.038880125 9792585
0.057508662 0.80033648 0.038881779 9464649
0.05810082 0.79962403 0.039436236 9464649
0.057925671 0.79924273 0.03943789 9334346
0.057750523 0.79886144 0.039439544 9334346
0.057575375 0.79848015 0.039441198 9334346
0.057400227 0.79809886 0.039442852 9400139
0.057225093 0.79771757 0.039444506 9400139
0.057821989 0.79701549 0.039998889 9334346
0.057647526 0.79663569 0.040000543 9400139
0.057473063 0.79625589 0.040002197 9334346
0.057298601 0.79587609 0.040003836 9399626
0.057124138 0.79549628 0.04000549 9399626
0.056949675 0.79511648 0.040007144 9465673
0.057551339 0.79442483 0.040561482 9531466
0.057377547 0.79404646 0.040563121 9465419
0.05720377 0.79366815 0.040564761 9531212
0.057029992 0.79328984 0.040566415 9202251
0.0568562 0.79291153 0.040568054 8544321
0.056682423 0.79253316 0.040569693 9136456
0.057288885 0.79185188 0.041124016 7557424
0.057115793 0.79147506 0.041125655 8545348
0.056942686 0.79109824 0.041127294 7492660
0.057551846 0.79042292 0.041681573 7491892
0.057379425 0.79004753 0.041683197 7491892
0.057207018 0.78967214 0.041684821 8018752
0.057818934 0.78900278 0.042239085 7558201
0.057647198 0.78862888 0.042240709 7295027
0.057475463 0.78825498 0.042242333 7163441
0.057303727 0.78788114 0.042243958 8478787
0.057131976 0.78750724 0.042245582 9268303
0.05696024 0.7871334 0.042247206 9400143
0.05757691 0.78647435 0.04280141 9400143
0.057405844 0.786102 0.042803034 9136971
0.057234794 0.78572959 0.042804644 9071178
0.057063729 0.78535718 0.042806268 8610627
0.056892678 0.78498483 0.042807877 8544834
0.056721628 0.78461242 0.042809501 7492146
0.057343081 0.7839638 0.043363675 7492146
0.057172716 0.78359288 0.043365285 7427131
0.057002336 0.78322196 0.043366894 7032373
0.056831956 0.78285104 0.043368503 7427385
0.056661591 0.78248012 0.043370113 8611659
0.056491211 0.78210926 0.043371722 8743243
0.057117417 0.78147101 0.043925837 8743243
0.056947723 0.78110158 0.043927446 9136971
0.056778029 0.78073215 0.04392904 9465936
0.056608334 0.78036273 0.04393065 9465423
0.05643864 0.7799933 0.043932259 9465423
0.056268945 0.77962387 0.043933854 9465423
0.056899935 0.77899599 0.044487938 9399630
0.056730926 0.77862811 0.044489533 9136717
0.056561902 0.77826011 0.044491127 9334096
0.057195619 0.7776382 0.045045182 6570279
0.057027295 0.77727175 0.045046777 8675655
0.056858957 0.7769053 0.045048356 9071178
0.056690633 0.77653885 0.04504995 9268557
0.056522295 0.7761724 0.045051545 9334348
0.056353971 0.77580595 0.045053139 9334348
0.056992456 0.77519441 0.045607135 9400141
0.056824803 0.77482939 0.045608729 9400141
0.05665715 0.77446443 0.045610309 9465934
0.056489512 0.77409947 0.045611888 9465934
0.056321859 0.77373451 0.045613468 9531214
0.056964427 0.77313185 0.046167448 9531214
0.05679746 0.77276838 0.046169028 9465421
0.056630492 0.77240485 0.046170607 9597007
0.057275772 0.77180815 0.046724543 9465421
0.05710949 0.77144617 0.046726108 9465421
0.056943208 0.77108413 0.046727687 9597007
0.056776926 0.77072215 0.046729252 9465421
0.056610629 0.77036017 0.046730831 9465419
0.056444347 0.76999813 0.046732396 9531212
0.05709441 0.7694118 0.047286287 9597007
0.056928813 0.76905131 0.047287852 9597007
0.056763202 0.76869076 0.047289416 9597007
0.056597605 0.76833028 0.047290981 9597007
0.056432009 0.76796973 0.047292545 9597007
0.056266397 0.76760924 0.04729411 9662800
0.056921229 0.76703328 0.047847971 9531727
0.056756318 0.76667422 0.047849536 9465934
0.056591392 0.76631522 0.047851086 9531727
0.056426466 0.76595616 0.04785265 9531727
0.056261539 0.76559711 0.0478542 9531727
0.056096628 0.76523811 0.047855765 9597520
0.056756228 0.76467252 0.048409581 9597520
0.056591988 0.76431495 0.048411131 9531727
0.056427747 0.76395744 0.048412681 9597007
0.056263506 0.76359987 0.04841423 9597007
0.056099266 0.7632423 0.04841578 9597007
0.055935025 0.76288474 0.04841733 9662800
0.056599408 0.76232958 0.048971087 9662800
0.056435838 0.7619735 0.048972636 9597007
0.056272283 0.76161742 0.048974186 9531214
0.056108728 0.7612614 0.048975736 9597007
0.055945173 0.76090533 0.048977271 9597007
0.055781603 0.76054925 0.04897882 9597007
0.056450754 0.76000446 0.049532533 9597007
0.056287885 0.75964987 0.049534082 9597007
0.056125 0.75929528 0.049535617 9597007
0.056796879 0.7587564 0.0500893 9597007
0.056634679 0.7584033 0.050090834 9531214
0.05647248 0.7580502 0.050092369 9597007
0.057147086 0.75751734 0.050646037 9597007
0.056985572 0.75716567 0.050647557 9531214
0.056824058 0.75681406 0.050649077 9597007
0.05666253 0.75646245 0.050650612 9597007
0.056501016 0.75611085 0.050652131 9597007
0.056339502 0.75575924 0.050653666 9597007
0.056177989 0.75540757 0.050655186 9597009
0.056016475 0.75505596 0.050656721 9531216
0.055854961 0.75470436 0.050658241 9597007
0.056536376 0.75418627 0.051211849 9597007
0.056375548 0.75383615 0.051213369 9531214
0.056214705 0.75348604 0.051214889 9531214
0.056053877 0.75313586 0.051216409 9531214
0.055893049 0.75278574 0.051217929 9465421
0.055732206 0.75243562 0.051219448 9465936
0.056418389 0.75192791 0.051772997 9400143
0.056258246 0.75157928 0.051774517 9400141
0.056098089 0.7512306 0.051776022 9400141
0.055937946 0.75088197 0.051777542 9400141
0.055777788 0.75053328 0.051779062 9334348
0.05561763 0.75018466 0.051780567 9269069
0.056308597 0.74968737 0.052334085 9269069
0.056149125 0.74934018 0.05233559 9269069
0.055989653 0.74899298 0.052337095 9269069
0.055830181 0.74864584 0.0523386 9400141
0.055670708 0.74829865 0.052340105 9334348
0.055511236 0.74795151 0.05234161 9399628
0.055351779 0.74760431 0.05234313 9399628
0.055192307 0.74725717 0.052344635 9399628
0.055032834 0.74690998 0.05234614 9465421
0.054873362 0.74656284 0.052347645 9465421
0.05471389 0.74621564 0.05234915 9333835
0.055413023 0.74573612 0.052902594 9202251
0.055254236 0.74539047 0.052904084 9333837
0.055095449 0.74504477 0.052905589 9136971
0.054936662 0.74469912 0.052907094 9005385
0.054777876 0.74435341 0.052908599 8939592
0.054619089 0.74400771 0.052910089 8808006
0.054460287 0.74366206 0.052911595 8676420
0.0543015 0.74331635 0.0529131 8610627
0.054142714 0.74297065 0.05291459 8544834
0.053983927 0.742625 0.052916095 8544834
0.05382514 0.74227929 0.0529176 8479041
0.053666353 0.74193358 0.052919105 8544834
0.053507566 0.74158794 0.052920595 8347455
0.058623463 0.81729317 0.035323903 9727308
0.058442861 0.81690001 0.035325602 9661515
0.058262259 0.81650686 0.035327315 9661515
0.058826536 0.81573176 0.035880625 9727308
0.058646619 0.8153401 0.035882339 9793101
0.058466703 0.81494844 0.035884038 9727308
0.058286786 0.81455672 0.035885736 9661515
0.058106869 0.81416506 0.035887435 9661515
0.057926953 0.81377339 0.035889134 9595722
0.058495969 0.81300867 0.036442384 9595722
0.058316737 0.81261849 0.036444068 9661515
0.058137506 0.81222832 0.036445767 9530442
0.057958275 0.81183809 0.036447465 9596235
0.057779044 0.81144792 0.036449149 9530442
0.057599798 0.81105769 0.036450848 9464649
0.058173582 0.81030339 0.037004054 9530442
0.057995036 0.80991471 0.037005737 9530442
0.057816476 0.80952597 0.037007421 9595722
0.05763793 0.80913728 0.037009105 9661515
0.057459384 0.80874854 0.037010804 9661515
0.057280824 0.80835986 0.037012488 9661515
0.057859406 0.80761588 0.037565663 9858124
0.057681546 0.80722868 0.037567347 9923917
0.05750367 0.80684143 0.037569031 9391667
0.05808495 0.80610347 0.038122162 9786425
0.05790776 0.80571771 0.038123831 10246204
0.05773057 0.80533195 0.0381255 10180411
0.058314607 0.80459988 0.038678616 10115386
0.058138102 0.80421567 0.038680285 10246972
0.057961583 0.8038314 0.038681954 9917491
0.057785079 0.80344713 0.038683623 9588526
0.057608575 0.80306286 0.038685292 9719855
0.058196664 0.80233973 0.039238378 10114613
0.058020845 0.80195695 0.039240032 9526331
0.057845011 0.80157417 0.039241701 10184261
0.057669193 0.80119139 0.039243355 9661769
0.057493359 0.80080861 0.039245024 9727562
0.05731754 0.80042583 0.039246678 9596235
0.057910427 0.79971302 0.03979972 9530442
0.057735294 0.79933178 0.039801374 9465419
0.057560146 0.79895043 0.039803028 9399626
0.057384998 0.79856914 0.039804682 9334346
0.057209849 0.79818785 0.039806336 9400139
0.057034701 0.79780656 0.03980799 9268553
0.057632342 0.79710418 0.040360972 8676416
0.057457879 0.79672438 0.040362611 9334346
0.057283416 0.79634458 0.040364265 9268553
0.057108954 0.79596478 0.040365919 8939588
0.056934491 0.79558498 0.040367559 8939588
0.056760028 0.79520512 0.040369213 9400139
0.057362437 0.79451317 0.040922135 9531725
0.05718866 0.7941348 0.040923774 9465419
0.057014868 0.79375648 0.040925428 9531212
0.05684109 0.79337817 0.040927067 9135434
