# .PCD v0.7 - Point Cloud Data file format
VERSION 0.7
FIELDS x y z rgb
SIZE 4 4 4 4
TYPE F F F U
COUNT 1 1 1 1
WIDTH 1078
HEIGHT 1
VIEWPOINT 0 0 0 1 0 0 0
POINTS 1078
DATA ascii
-0.030594751 0.74886048 0.052565113 7100230
-0.030730844 0.74917334 0.052560031 7231816
-0.030866936 0.74948621 0.052554965 7297863
-0.031003028 0.74979913 0.052549899 7363656
-0.031139106 0.750112 0.052544832 7561035
-0.031275198 0.75042486 0.052539766 7561035
-0.03141129 0.75073773 0.052534699 7758414
-0.031547382 0.75105059 0.052529618 7890000
-0.031683475 0.75136352 0.052524552 8153172
-0.031819567 0.75167638 0.052519485 8284758
-0.031955659 0.75198925 0.052514419 8482651
-0.032091737 0.75230211 0.052509353 8745823
-0.032227829 0.75261497 0.052504271 9008743
-0.032363921 0.7529279 0.052499205 9074536
-0.032500014 0.75324076 0.052494138 9206122
-0.032636106 0.75355363 0.052489072 9469294
-0.032772198 0.75386649 0.052484006 9797745
-0.032908291 0.75417936 0.052478939 9995124
-0.033044368 0.75449222 0.052473858 10126710
-0.033180475 0.75480509 0.052468792 10192503
-0.032655686 0.75557053 0.051825047 10324089
-0.032792419 0.75588489 0.05181995 10324089
-0.032929167 0.7561993 0.051814854 10455675
-0.033065915 0.75651366 0.051809758 10455675
-0.033202648 0.75682801 0.051804662 10521468
-0.033339381 0.75714242 0.051799566 10587261
-0.032819182 0.7579183 0.051155657 10653054
-0.03295657 0.75823414 0.051150531 10653054
-0.033093959 0.75855005 0.051145419 10653054
-0.033231363 0.75886589 0.051140293 10653054
-0.033368751 0.7591818 0.051135182 10718847
-0.03350614 0.75949764 0.051130056 10784640
-0.033643529 0.75981355 0.051124945 10784640
-0.033780932 0.76012939 0.051119834 10784640
-0.033266559 0.76091874 0.050475687 10784640
-0.033404604 0.76123613 0.050470531 10784640
-0.033542648 0.76155347 0.05046539 10784640
-0.033680692 0.76187086 0.050460249 10916226
-0.033818737 0.7621882 0.050455108 10916226
-0.033956781 0.76250559 0.050449967 10982019
-0.033446983 0.76330543 0.049805656 10982021
-0.033585683 0.76362431 0.049800485 11047814
-0.031698957 0.77111804 0.045890972 10653316
-0.031841561 0.77144587 0.045885667 10258819
-0.031984165 0.7717737 0.045880347 7692892
-0.032126769 0.77210158 0.045875043 9864313
-0.032269374 0.77242941 0.045869723 10324864
-0.032411978 0.77275723 0.045864418 7823705
-0.032554567 0.77308512 0.045859098 7823705
-0.032697171 0.77341294 0.045853794 10258046
-0.032839775 0.77374077 0.045848474 10521218
-0.032350168 0.77458704 0.045203418 10456968
-0.032493427 0.77491641 0.045198083 10720140
-0.032636672 0.77524573 0.045192748 10785163
-0.032779932 0.77557504 0.045187414 8942959
-0.032923177 0.77590442 0.045182079 7692633
-0.033066437 0.77623373 0.045176744 8942700
-0.032581374 0.77709049 0.044531509 9601143
-0.032725275 0.77742136 0.044526145 9995901
-0.032869175 0.77775216 0.04452078 7891041
-0.033013076 0.77808303 0.044515431 8877936
-0.033156991 0.77841389 0.044510067 10390405
-0.032675847 0.77927959 0.043864682 7627099
-0.032820404 0.77961189 0.043859303 9008493
-0.03296496 0.77994424 0.043853924 10916490
-0.032486409 0.78081596 0.04320845 10982281
-0.032631621 0.78114974 0.043203041 10982281
-0.032776833 0.78148359 0.043197632 10916488
-0.032922029 0.78181744 0.043192223 10916488
-0.033067241 0.78215128 0.043186814 10916488
-0.033212453 0.78248513 0.043181404 10982281
-0.032738477 0.78336728 0.042535752 10851210
-0.03288433 0.78370261 0.042530328 10851210
-0.032412291 0.78458929 0.041884601 10851210
-0.032558799 0.78492612 0.041879147 10785417
-0.032705307 0.78526294 0.041873693 10785415
-0.032235891 0.78615564 0.041227877 10785415
-0.03238304 0.78649396 0.041222394 10785415
-0.032530203 0.78683227 0.04121691 10588036
-0.032063365 0.78773093 0.040571004 10521730
-0.032211185 0.78807074 0.040565491 10587523
-0.032358989 0.78841054 0.040559992 10455939
-0.031894773 0.78931522 0.039913982 9271665
-0.032043248 0.78965652 0.039908454 9206385
-0.032191694 0.78999782 0.039902925 9337971
-0.032340169 0.79033917 0.039897382 9666936
-0.032488629 0.79068053 0.039891854 9864315
-0.032028317 0.79159415 0.03924571 9864313
-0.032177418 0.79193693 0.039240152 10390657
-0.032326534 0.79227972 0.039234594 10456452
-0.03247565 0.79262257 0.039229035 10390659
-0.032624766 0.79296541 0.039223492 9930878
-0.032773882 0.7933082 0.039217934 9930878
-0.032318145 0.79423231 0.038571611 9470325
-0.032467902 0.79457664 0.038566038 9404532
-0.032014102 0.79550517 0.037919641 10061179
-0.032164514 0.79585099 0.037914038 10521730
-0.032314926 0.79619682 0.037908435 10259325
-0.031863734 0.79713142 0.037261933 10325118
-0.032014802 0.79747868 0.037256315 10456704
-0.03216587 0.79782605 0.037250683 10719876
-0.031717271 0.79876661 0.036604092 10916742
-0.031868994 0.79911542 0.036598444 10916742
-0.032020703 0.79946417 0.036592796 10982535
-0.031574726 0.80041075 0.035946101 10982535
-0.03172709 0.80076104 0.035940424 11114121
-0.031879455 0.80111134 0.035934746 11048328
-0.032031834 0.80146164 0.035929084 10916742
-0.032184213 0.80181193 0.035923406 10982535
-0.031742111 0.80276752 0.035276562 11048328
-0.031895131 0.8031193 0.03527087 10982535
-0.032048151 0.80347109 0.035265177 11113607
-0.031608686 0.80443263 0.034618229 11113607
-0.031762362 0.80478591 0.034612507 11113607
-0.031916022 0.80513918 0.034606785 11047814
-0.032069698 0.80549252 0.034601063 11179400
-0.032223374 0.8058458 0.03459534 11113607
-0.031787798 0.80681634 0.033948258 11113607
-0.031942114 0.80717111 0.033942506 11113607
-0.032096446 0.80752587 0.033936769 11113607
-0.031663492 0.80850238 0.033289596 11113607
-0.031818479 0.80885863 0.03328383 11113607
-0.031973436 0.80921495 0.033278048 11047814
-0.030329049 0.82120955 0.028032899 11441802
-0.030489236 0.82157785 0.028026938 11573388
-0.030649424 0.82194614 0.028020978 11310986
-0.030809596 0.82231438 0.028015003 11310986
-0.030969784 0.82268262 0.028009042 11442572
-0.031129971 0.82305092 0.028003067 11442572
-0.031290144 0.82341921 0.027997106 11442572
-0.029894412 0.74768162 0.052880317 6837826
-0.030030504 0.74799448 0.052875251 6837826
-0.030166596 0.74830735 0.052870184 6837826
-0.030302688 0.74862021 0.052865118 6903619
-0.030438781 0.74893308 0.052860036 7100998
-0.030574873 0.749246 0.05285497 7100998
-0.030710965 0.74955887 0.052849904 7100998
-0.030847043 0.74987173 0.052844837 7166791
-0.030983135 0.7501846 0.052839771 7364170
-0.031119227 0.75049746 0.05283469 7561549
-0.03125532 0.75081038 0.052829623 7693135
-0.031391412 0.75112325 0.052824557 7758928
-0.031527504 0.75143611 0.05281949 8022100
-0.031663597 0.75174898 0.052814424 8153686
-0.031799674 0.75206184 0.052809358 8482397
-0.031935766 0.75237471 0.052804276 8679776
-0.032071859 0.75268763 0.05279921 8942950
-0.032207951 0.7530005 0.052794144 9140329
-0.032344043 0.75331336 0.052789077 9206122
-0.032480136 0.75362623 0.052784011 9469294
-0.032616228 0.75393909 0.052778929 9797745
-0.03275232 0.75425196 0.052773863 9995124
-0.032888412 0.75456488 0.052768797 10126710
-0.03302449 0.75487775 0.05276373 10192503
-0.032498956 0.75564349 0.052121386 10324089
-0.032635704 0.75595784 0.05211629 10324089
-0.032772452 0.75627226 0.052111208 10455675
-0.032909185 0.75658661 0.052106112 10455675
-0.033045933 0.75690103 0.052101016 10587261
-0.033182666 0.75721538 0.05209592 10587261
-0.032661706 0.75799161 0.051453412 10653054
-0.03279911 0.75830746 0.051448286 10653054
-0.032936499 0.75862336 0.051443174 10718847
-0.033073902 0.75893921 0.051438048 10653054
-0.033211291 0.75925511 0.051432937 10718847
-0.03334868 0.75957096 0.051427811 10784640
-0.033486068 0.75988686 0.0514227 10718847
-0.033623457 0.76020271 0.051417589 10718847
-0.033108354 0.76099241 0.050774843 10784640
-0.033246398 0.7613098 0.050769702 10784640
-0.033384442 0.76162714 0.050764561 10916226
-0.033522487 0.76194453 0.05075942 10916226
-0.033660531 0.76226187 0.050754279 10916226
-0.033798575 0.76257926 0.050749138 10982019
-0.033288032 0.76337945 0.050106242 10982019
-0.033426732 0.76369834 0.050101072 11047812
-0.031963333 0.77217764 0.046184093 10325634
-0.032105938 0.77250552 0.046178773 10259841
-0.032248542 0.77283335 0.046173468 9205872
-0.032391131 0.77316117 0.046168149 8811114
-0.032533735 0.77348906 0.046162844 9140079
-0.032676339 0.77381688 0.046157524 9140079
-0.032185987 0.77466345 0.045513868 10127233
-0.032329246 0.77499282 0.045508534 10850956
-0.032472491 0.7753222 0.045503199 10916749
-0.032615751 0.77565151 0.045497864 10916749
-0.032759011 0.77598083 0.04549253 9666423
-0.032902256 0.77631021 0.045487195 8284770
-0.032416448 0.77716732 0.044843376 9271663
-0.032560349 0.77749813 0.044838011 9271663
-0.032704249 0.77782893 0.044832662 8219490
-0.03284815 0.7781598 0.044827297 7561560
-0.032992065 0.77849066 0.044821933 9469044
-0.032510176 0.77935672 0.044177964 9140079
-0.032654732 0.77968907 0.044172585 10390659
-0.032799274 0.78002137 0.044167191 10785417
-0.032319993 0.78089345 0.043523148 10851210
-0.032465205 0.78122723 0.043517739 10851210
-0.032610416 0.78156108 0.043512329 10785417
-0.032755613 0.78189492 0.04350692 10785417
-0.032900825 0.78222877 0.043501511 10390659
-0.033046037 0.78256261 0.043496102 10719624
-0.032571301 0.78344512 0.042851865 10522245
-0.032717168 0.78378046 0.042846426 10719624
-0.032244369 0.78466749 0.042202115 10654601
-0.032390878 0.78500432 0.042196661 10654601
-0.032537386 0.78534114 0.042191207 10720394
-0.032067224 0.78623414 0.041546807 10720394
-0.032214373 0.78657246 0.041541323 10851210
-0.032361537 0.78691077 0.041535839 10785417
-0.031893969 0.78780979 0.040891334 10785417
-0.032041773 0.7881496 0.040885836 10785417
-0.032189578 0.78848946 0.040880322 10588038
-0.031724632 0.78939444 0.040235728 10259073
-0.031873077 0.78973573 0.0402302 10127487
-0.032021552 0.79007709 0.040224671 9930108
-0.032170013 0.79041839 0.040219143 9536120
-0.032318473 0.79075968 0.040213615 9536120
-0.031857401 0.79167366 0.039568871 9469557
-0.032006517 0.79201651 0.039563313 10061694
-0.032155633 0.79235935 0.039557755 10390659
-0.032304749 0.79270214 0.039552212 9798522
-0.032453865 0.79304492 0.039546654 9996671
-0.032602966 0.79338777 0.039541095 10128257
-0.032146484 0.79431224 0.038896188 10194050
-0.032296255 0.79465652 0.0388906 10194050
-0.031841695 0.79558545 0.038245618 10127485
-0.031992108 0.79593128 0.038240016 10390657
-0.032142535 0.79627705 0.038234413 9996153
-0.031690598 0.797212 0.037589341 9798774
-0.031841666 0.79755932 0.037583709 9864567
-0.031992733 0.79790664 0.037578076 10061946
-0.031543389 0.79884756 0.036932901 10193019
-0.031695098 0.79919636 0.036927253 10127226
-0.031846821 0.79954517 0.036921591 10850695
-0.031400099 0.80049205 0.036276311 10916488
-0.031552464 0.80084234 0.036270648 11048074
-0.031704843 0.80119264 0.036264971 11048074
-0.031857207 0.80154294 0.036259294 10982281
-0.032009572 0.80189323 0.036253616 10982281
-0.031566739 0.80284917 0.035608202 11048328
-0.031719759 0.80320096 0.035602495 11114121
-0.031872779 0.80355275 0.035596803 10982535
-0.031432569 0.80451465 0.03495127 10982535
-0.03158623 0.80486792 0.034945548 11113607
-0.031739905 0.8052212 0.034939826 11113607
-0.031893581 0.80557454 0.034934103 11245193
-0.032047242 0.80592781 0.034928367 11113607
-0.031610936 0.80689865 0.034282714 11113607
-0.031765252 0.80725348 0.034276962 11113607
-0.031919569 0.80760825 0.03427121 11113607
-0.031485885 0.80858505 0.033625454 11113607
-0.031640857 0.80894136 0.033619687 11047814
-0.03179583 0.80929768 0.03361392 11047814
-0.030145466 0.82129502 0.028380051 11441802
-0.030305654 0.82166332 0.028374091 11573388
-0.030465826 0.82203162 0.028368115 11310986
-0.030626014 0.82239985 0.028362155 11310986
-0.030786186 0.82276809 0.028356194 11310986
-0.030946374 0.82313639 0.028350219 11442572
-0.031106561 0.82350469 0.028344259 11442572
-0.029738441 0.74775422 0.053175256 6837572
-0.029874533 0.74806708 0.053170189 6771779
-0.030010626 0.74837995 0.053165123 6837572
-0.030822739 0.74827105 0.053795397 6903365
-0.030958176 0.74858242 0.053790361 6969158
-0.031093627 0.7488938 0.053785309 7166537
-0.031229064 0.74920517 0.053780273 7166791
-0.031364501 0.74951655 0.053775221 7166791
-0.031499937 0.74982792 0.053770185 7364170
-0.031635374 0.7501393 0.053765133 7561549
-0.03177081 0.75045067 0.053760082 7693135
-0.031906247 0.7507621 0.053755045 7758928
-0.032041699 0.75107348 0.053749993 8022100
-0.032177135 0.75138485 0.053744957 8153686
-0.032312572 0.75169623 0.053739905 8350811
-0.032448009 0.7520076 0.053734869 8613983
-0.032583445 0.75231898 0.053729817 8942950
-0.032718897 0.75263035 0.053724781 9140329
-0.032854334 0.75294173 0.053719729 9271915
-0.03298977 0.7532531 0.053714693 9403501
-0.033125207 0.75356448 0.053709641 9600880
-0.033260643 0.75387585 0.05370459 9732466
-0.032732427 0.75463748 0.053063735 10060917
-0.032868519 0.75495034 0.053058669 10192503
-0.033004612 0.75526321 0.053053603 10324089
-0.033140704 0.75557613 0.053048521 10324089
-0.033276796 0.755889 0.053043455 10455675
-0.033412889 0.75620186 0.053038388 10455675
-0.033548981 0.75651473 0.053033322 10521468
-0.033685058 0.75682759 0.053028256 10587261
-0.033162698 0.75760269 0.052387178 10653054
-0.033299446 0.75791711 0.052382082 10718847
-0.033436179 0.75823146 0.052376986 10718847
-0.033572912 0.75854582 0.052371889 10718847
-0.03370966 0.75886023 0.052366808 10784640
-0.033846408 0.75917459 0.052361712 10784640
-0.033328608 0.75996017 0.05172047 10718847
-0.033465996 0.76027602 0.051715344 10718847
-0.033603385 0.76059186 0.051710233 10784640
-0.033740789 0.76090777 0.051705107 10784640
-0.033878177 0.76122361 0.051699996 10916226
-0.033364266 0.7620182 0.05105859 10718847
-0.033502311 0.76233554 0.05105345 10916226
-0.033640355 0.76265293 0.051048309 10982019
-0.033778399 0.76297027 0.051043168 11047812
-0.033916444 0.76328766 0.051038027 11047812
-0.034054488 0.763605 0.051032886 10982021
-0.033545166 0.76441008 0.050391316 10982021
-0.033683851 0.7647289 0.050386161 11047814
-0.031799898 0.77225375 0.046493128 10588036
-0.031942502 0.77258158 0.046487823 10588036
-0.032085106 0.77290946 0.046482503 9534835
-0.03222771 0.77323729 0.046477199 9600628
-0.032370299 0.77356511 0.046471894 9732214
-0.032512903 0.773893 0.046466574 9995386
-0.032655507 0.77422082 0.046461254 10456452
-0.032798111 0.77454865 0.04645595 10851210
-0.032940716 0.77487653 0.046450645 10917003
-0.03245157 0.77572799 0.04580833 10785417
-0.032594815 0.7760573 0.045802996 10785417
-0.032738075 0.77638662 0.045797661 10390659
-0.03288132 0.77671599 0.045792326 9140592
-0.033024579 0.77704531 0.045786977 9206385
-0.033167839 0.77737468 0.045781642 8943213
-0.032683223 0.77823663 0.045139164 7101009
-0.032827139 0.77856743 0.045133799 8811114
-0.032971039 0.7788983 0.04512845 9074286
-0.03311494 0.7792291 0.045123085 10521991
-0.03325884 0.77955997 0.045117721 10521991
-0.032778174 0.78043085 0.044475093 10522245
-0.032922715 0.78076321 0.044469714 10785417
-0.033067271 0.7810955 0.04446432 10785417
-0.032589197 0.78197241 0.043821603 10719624
-0.032734394 0.78230625 0.043816209 8416869
-0.032879606 0.7826401 0.0438108 10785417
-0.033024818 0.78297389 0.043805391 8746604
-0.033170015 0.78330779 0.043799981 10325636
-0.033315226 0.78364158 0.043794572 10523528
-0.032841712 0.78452897 0.043151662 10523528
-0.032987565 0.78486431 0.043146238 10655114
-0.032515988 0.78575617 0.042503268 10655114
-0.032662496 0.786093 0.042497814 10720394
-0.032809004 0.78642982 0.042492345 10720394
-0.03234005 0.78732765 0.041849285 10720394
-0.032487199 0.78766596 0.041843802 10917003
-0.032634363 0.78800428 0.041838318 10851210
-0.032168001 0.78890812 0.041195154 10785417
-0.032315806 0.78924799 0.041189656 10588038
-0.031851396 0.7901563 0.040546417 10522245
-0.031999856 0.7904976 0.040540889 10325636
-0.032148331 0.79083896 0.040535361 10128257
-0.032296792 0.79118025 0.040529832 9404534
-0.032445252 0.79152155 0.040524304 9996671
-0.032593712 0.79186291 0.040518761 10390659
-0.032133847 0.79278171 0.039875358 9535350
-0.032282963 0.79312456 0.039869815 9732216
-0.032432079 0.79346734 0.039864257 9929595
-0.031974852 0.79439211 0.03922075 10126972
-0.032124609 0.79473644 0.039215177 10521730
-0.03227438 0.79508078 0.039209604 10521730
-0.032424152 0.79542506 0.039204016 10521730
-0.032573909 0.79576939 0.039198443 9996923
-0.032120556 0.79670316 0.038554788 9799544
-0.032270983 0.79704899 0.038549185 9799544
-0.032421395 0.79739475 0.038543582 9733751
-0.031970665 0.79833454 0.037899837 9666675
-0.032121733 0.79868186 0.037894219 9074538
-0.032272801 0.79902917 0.037888587 10455937
-0.031824663 0.79997492 0.037244752 10653316
-0.031976372 0.80032372 0.037239105 10588036
-0.031530201 0.80127394 0.036595181 10719622
-0.031682581 0.8016243 0.036589503 10916488
-0.031834945 0.80197453 0.036583841 10982281
-0.031987309 0.80232489 0.036578149 10982281
-0.032139689 0.80267513 0.036572486 11048074
-0.032292053 0.80302548 0.036566809 11048328
-0.031850427 0.80398619 0.035922721 10982535
-0.032003447 0.80433798 0.035917014 11113607
-0.032156467 0.80468976 0.035911322 11113607
-0.031717449 0.80565649 0.035267144 11179400
-0.031871125 0.80600977 0.035261407 11113607
-0.032024801 0.80636311 0.035255685 11113607
-0.032178462 0.80671638 0.035249963 11113607
-0.032332152 0.80706966 0.035244241 11113607
-0.031897038 0.80804539 0.034599915 11047814
-0.032051355 0.80840015 0.034594163 11113607
-0.032205671 0.80875498 0.034588426 11113607
-0.03177318 0.80973661 0.033943996 11244423
-0.031928152 0.81009293 0.033938229 11376009
-0.032083139 0.81044924 0.033932447 11376009
-0.030536979 0.82072669 0.029366314 11310986
-0.030696511 0.82109344 0.029360384 11442572
-0.030856043 0.82146025 0.029354438 11310986
-0.031015575 0.82182699 0.029348493 11310986
-0.031175107 0.82219374 0.029342547 11310986
-0.031334639 0.82256055 0.029336601 11442572
-0.03149417 0.8229273 0.029330671 11442572
-0.031083167 0.8239584 0.028685451 11442572
-0.031243354 0.82432663 0.028679475 11508365
-0.031403527 0.82469493 0.028673515 11508365
-0.030667514 0.74834335 0.05408892 6903365
-0.030802965 0.74865472 0.054083884 6969158
-0.030938387 0.7489661 0.054078832 7100744
-0.031073838 0.74927747 0.054073796 7166537
-0.031209275 0.74958885 0.054068744 7232330
-0.031344712 0.74990022 0.054063708 7364170
-0.031480148 0.7502116 0.054058656 7561549
-0.031615585 0.75052297 0.054053605 7693135
-0.031751037 0.75083435 0.054048568 7758928
-0.031886473 0.75114572 0.054043517 7890514
-0.03202191 0.7514571 0.05403848 8153686
-0.032157347 0.75176847 0.054033428 8350811
-0.032292783 0.75207984 0.054028392 8613983
-0.032428235 0.75239122 0.05402334 8942950
-0.032563671 0.75270259 0.054018304 9140329
-0.032699108 0.75301397 0.054013252 9271915
-0.032834545 0.75332534 0.054008216 9403501
-0.032969981 0.75363678 0.054003164 9600880
-0.033105418 0.75394815 0.053998113 9732466
-0.032576457 0.75471008 0.053358674 9995124
-0.032712549 0.755023 0.053353608 10126710
-0.032848641 0.75533587 0.053348541 10258296
-0.032984734 0.75564873 0.05334346 10324089
-0.033120826 0.7559616 0.053338394 10324089
-0.033256918 0.75627446 0.053333327 10455675
-0.033392996 0.75658739 0.053328261 10521468
-0.033529088 0.75690025 0.053323179 10587261
-0.033005983 0.75767565 0.052683517 10653054
-0.033142716 0.75799006 0.052678436 10718847
-0.033279464 0.75830442 0.05267334 10718847
-0.033416197 0.75861877 0.052668244 10718847
-0.033552945 0.75893319 0.052663147 10784640
-0.033689678 0.75924754 0.052658051 10784640
-0.033171147 0.76003349 0.052018225 10718847
-0.033308536 0.76034933 0.052013099 10718847
-0.033445925 0.76066518 0.052007988 10784640
-0.033583313 0.76098108 0.052002862 10784640
-0.033720717 0.76129693 0.051997751 10916226
-0.033206061 0.76209188 0.051357761 10784640
-0.033344105 0.76240921 0.05135262 10916228
-0.033482149 0.76272655 0.051347479 11047814
-0.033620194 0.76304394 0.051342338 11047814
-0.033758238 0.76336133 0.051337197 10982021
-0.033896282 0.76367867 0.051332057 10916228
-0.033386201 0.76448405 0.050691903 10982021
-0.033524901 0.76480293 0.050686732 11047814
-0.03192167 0.77298552 0.046791553 10456191
-0.032064274 0.7733134 0.046786249 9469296
-0.032206878 0.77364123 0.046780929 9403503
-0.032349467 0.77396905 0.046775624 10390398
-0.032492071 0.77429694 0.046770304 10785415
-0.032634676 0.77462476 0.046765 10917001
-0.03277728 0.77495259 0.046759695 10917001
-0.032287389 0.7758044 0.046118781 10851208
-0.032430649 0.77613378 0.046113446 10719622
-0.032573894 0.77646309 0.046108112 10588036
-0.032717139 0.77679241 0.046102777 9799038
-0.032860398 0.77712178 0.046097443 9272694
-0.033003658 0.7774511 0.046092108 9009522
-0.032518297 0.7783134 0.04545103 9206901
-0.032662213 0.7786442 0.045445681 10456968
-0.032806113 0.77897507 0.045440316 9075315
-0.032950014 0.77930593 0.045434952 8942446
-0.033093914 0.77963674 0.045429587 7889758
-0.032612488 0.78050798 0.044788375 8350563
-0.032757044 0.78084034 0.044782996 10192767
-0.0329016 0.78117269 0.044777602 10916490
-0.032422781 0.78204989 0.044136301 11113869
-0.032567978 0.78238374 0.044130892 7495767
-0.03271319 0.78271759 0.044125482 10522245
-0.032858402 0.78305137 0.044120073 8022881
-0.033003598 0.78338528 0.044114664 10194050
-0.03314881 0.78371906 0.044109255 9734012
-0.032674551 0.78460681 0.04346776 7562843
-0.032820404 0.78494215 0.043462336 8286314
-0.032348067 0.78583431 0.042820781 10391690
-0.032494575 0.7861712 0.042815328 10720140
-0.032641083 0.78650796 0.042809859 10720140
-0.032171384 0.78740621 0.042168215 10720140
-0.032318547 0.78774452 0.042162731 10982542
-0.032465696 0.78808284 0.042157248 10916749
-0.03199859 0.78898704 0.041515499 10916749
-0.032146394 0.78932685 0.041509986 10785417
-0.03168124 0.79023552 0.040868163 10719624
-0.031829715 0.79057682 0.040862635 10785417
-0.031978175 0.79091817 0.040857106 10522245
-0.032126635 0.79125947 0.040851578 10391429
-0.032275096 0.79160082 0.04084605 10391429
-0.032423556 0.79194212 0.040840521 10522245
-0.031962961 0.79286128 0.04019852 9403764
-0.032112062 0.79320407 0.040192962 9600630
-0.032261178 0.79354692 0.040187418 9600630
-0.031803206 0.79447204 0.039545327 9731700
-0.031952977 0.79481637 0.039539754 9797493
-0.032102734 0.79516065 0.039534166 9863800
-0.032252491 0.79550499 0.039528593 10390144
-0.032402262 0.79584932 0.039523005 10324864
-0.031948164 0.79678345 0.03888078 10259071
-0.032098591 0.79712927 0.038875178 10194302
-0.032249004 0.79747504 0.038869575 10128509
-0.031797528 0.79841518 0.03822723 10259323
-0.031948596 0.79876244 0.038221613 9206635
-0.032099664 0.79910976 0.03821598 10390398
-0.031650782 0.80005586 0.037573546 10521984
-0.03180249 0.80040467 0.037567899 9864567
-0.031355575 0.80135524 0.036925405 9930360
-0.031507939 0.8017056 0.036919728 10324605
-0.031660318 0.80205584 0.036914051 10521984
-0.031812683 0.80240619 0.036908373 10784902
-0.031965047 0.80275649 0.036902696 10916488
-0.032117426 0.80310678 0.036897019 11048074
-0.031675041 0.80406785 0.036254346 10982281
-0.031828076 0.80441964 0.036248654 10916742
-0.031981081 0.80477142 0.036242947 10916742
-0.031541348 0.80573851 0.03560017 11179400
-0.031695008 0.80609179 0.035594448 11113607
-0.031848669 0.80644512 0.035588726 11179400
-0.03200236 0.8067984 0.035583004 11113607
-0.03215602 0.80715168 0.035577282 11179400
-0.031720161 0.80812776 0.034934372 11179400
-0.031874478 0.80848253 0.03492862 11113607
-0.032028794 0.80883729 0.034922868 11179400
-0.031595573 0.80981934 0.034279868 11244423
-0.031750545 0.81017566 0.034274086 11310216
-0.031905517 0.81053191 0.03426832 11376009
-0.030354142 0.82081181 0.029712051 11310986
-0.030513674 0.82117862 0.02970612 11442572
-0.030673206 0.82154536 0.029700175 11310986
-0.030832738 0.82191217 0.029694229 11310986
-0.03099227 0.82227892 0.029688284 11311500
-0.031151801 0.82264566 0.029682338 11311500
-0.031311333 0.82301247 0.029676408 11179914
-0.030899584 0.82404387 0.029032588 11311500
-0.031059757 0.82441211 0.029026628 11442572
-0.031219944 0.8247804 0.029020667 11442572
-0.030512288 0.74841559 0.054382443 6903365
-0.030647725 0.74872696 0.054377407 6969158
-0.030783176 0.74903834 0.054372355 7100744
-0.030918613 0.74934971 0.054367319 7166537
-0.03105405 0.74966109 0.054362267 7232330
-0.031189486 0.74997246 0.054357231 7363916
-0.031324923 0.75028384 0.054352179 7561295
-0.03146036 0.75059521 0.054347128 7627342
-0.031595796 0.75090659 0.054342091 7758928
-0.031731248 0.75121796 0.05433704 7890260
-0.031866685 0.7515294 0.054332003 8153432
-0.032002121 0.75184077 0.054326952 8285531
-0.032137558 0.75215214 0.054321915 8548703
-0.032272995 0.75246352 0.054316863 8877670
-0.032408446 0.75277489 0.054311827 9009256
-0.032543883 0.75308627 0.054306775 9206635
-0.032679319 0.75339764 0.054301739 9338221
-0.032814756 0.75370902 0.054296687 9535600
-0.032950193 0.75402039 0.054291636 9667186
-0.032420486 0.75478274 0.053653613 9864052
-0.032556579 0.7550956 0.053648531 9995638
-0.032692671 0.75540847 0.053643465 10258296
-0.032828763 0.75572133 0.053638399 10324089
-0.032964855 0.75603426 0.053633332 10324089
-0.033100933 0.75634712 0.053628266 10455675
-0.033237025 0.75665998 0.053623199 10521468
-0.033373117 0.75697285 0.053618118 10587261
-0.032849252 0.75774866 0.052979872 10587261
-0.032986 0.75806302 0.052974775 10718847
-0.033122748 0.75837737 0.052969679 10718847
-0.033259481 0.75869179 0.052964583 10718847
-0.033396229 0.75900614 0.052959502 10784640
-0.033532977 0.7593205 0.052954406 10784640
-0.033013672 0.7601068 0.05231598 10784640
-0.033151075 0.76042265 0.052310854 10784640
-0.033288464 0.76073849 0.052305743 10784640
-0.033425853 0.7610544 0.052300632 10916226
-0.033563256 0.76137024 0.052295506 10916226
-0.033047855 0.76216549 0.051656932 10916226
-0.033185899 0.76248288 0.051651791 10982021
-0.033323944 0.76280022 0.05164665 11047814
-0.033461988 0.76311761 0.051641509 11047814
-0.033600032 0.76343501 0.051636368 10982021
-0.033738077 0.76375234 0.051631227 10916228
-0.03322725 0.76455808 0.050992489 10982021
-0.033365935 0.76487696 0.050987318 10982021
-0.031758234 0.77306163 0.047100604 10719876
-0.031900838 0.77338946 0.047095299 10588290
-0.032043442 0.77371734 0.047089979 9798774
-0.032186031 0.77404517 0.047084674 10588290
-0.032328635 0.77437299 0.047079355 10916742
-0.03247124 0.77470088 0.04707405 11048328
-0.032613844 0.77502871 0.04706873 10983048
-0.032123208 0.77588081 0.046429247 10851208
-0.032266468 0.77621019 0.046423912 10719622
-0.032409713 0.7765395 0.046418577 10588036
-0.032552958 0.77686888 0.046413243 9799038
-0.032696217 0.7771982 0.046407893 9272694
-0.032839477 0.77752757 0.046402559 9009522
-0.032353371 0.77839017 0.045762911 9206901
-0.032497287 0.77872103 0.045757547 9206901
-0.032641172 0.77905184 0.045752183 8483178
-0.032785088 0.77938271 0.045746833 8416869
-0.032928988 0.77971351 0.045741469 8745834
-0.032446817 0.78058511 0.045101658 9601395
-0.032591373 0.78091747 0.045096278 10259325
-0.032735929 0.78124982 0.045090884 10916742
-0.032256365 0.78212738 0.044450998 11114121
-0.032401562 0.78246123 0.044445589 7824217
-0.032546774 0.78279507 0.04444018 9666421
-0.03269197 0.78312886 0.044434771 7825500
-0.032837182 0.78346276 0.044429362 9996669
-0.032982379 0.78379655 0.044423953 8286564
-0.032507375 0.78468466 0.043783873 7562841
-0.032653242 0.78501993 0.043778434 9273209
-0.03218016 0.78591251 0.043138295 10391690
-0.032326669 0.78624934 0.043132842 10720140
-0.032473177 0.78658617 0.043127373 10785933
-0.032002717 0.78748471 0.04248713 10785933
-0.032149881 0.78782302 0.042481661 10851726
-0.032297045 0.7881614 0.042476177 10982796
-0.031829178 0.7890659 0.04183583 10982796
-0.031976998 0.7894057 0.041830331 10851210
-0.031511098 0.79031473 0.041189909 10785417
-0.031659558 0.79065609 0.041184381 10851210
-0.031808019 0.79099739 0.041178852 10719624
-0.031956494 0.79133868 0.041173324 10588808
-0.032104939 0.79167998 0.041167796 10654601
-0.032253414 0.79202133 0.041162267 10719624
-0.03179206 0.79294086 0.040521681 10324866
-0.031941175 0.7932837 0.040516123 10259073
-0.032090276 0.79362649 0.040510565 10061694
-0.031631559 0.79455197 0.039869905 9731702
-0.031781331 0.79489625 0.039864317 9994874
-0.031931102 0.79524058 0.039858744 9732216
-0.032080859 0.79558492 0.039853156 9929595
-0.032230616 0.79592919 0.039847583 9798520
-0.031775773 0.79686368 0.039206758 10127485
-0.0319262 0.7972095 0.039201155 10128255
-0.032076612 0.79755533 0.039195552 10325634
-0.031624392 0.79849577 0.038554624 10325888
-0.03177546 0.79884309 0.038549006 10194302
-0.031926528 0.7991904 0.038543373 10325886
-0.0314769 0.8001368 0.037902355 10521984
-0.031628609 0.80048561 0.037896708 9864567
-0.031180948 0.80143654 0.037255615 9667188
-0.031333312 0.8017869 0.037249938 9732214
-0.031485692 0.8021372 0.03724426 9732214
-0.031638056 0.80248749 0.037238583 9403249
-0.03179042 0.80283779 0.037232906 10653316
-0.031942785 0.80318809 0.037227243 11047560
-0.031499684 0.80414951 0.036585972 11047560
-0.031652689 0.8045013 0.036580279 11047814
-0.031805709 0.80485308 0.036574572 11047814
-0.031365216 0.80582052 0.035933211 11179400
-0.031518877 0.8061738 0.035927489 11179400
-0.031672567 0.80652714 0.035921767 11048328
-0.031826228 0.80688035 0.035916045 11048328
-0.031979904 0.80723369 0.035910308 11114121
-0.031543285 0.80821007 0.035268813 11114121
-0.031697616 0.8085649 0.035263062 11245193
-0.031851932 0.80891967 0.03525731 11245193
-0.031417966 0.80990207 0.034615725 11244423
-0.031572938 0.81025833 0.034609944 11310216
-0.03172791 0.81061459 0.034604177 11310216
-0.030171305 0.82089698 0.030057788 11442572
-0.030330837 0.82126373 0.030051857 11442572
-0.030490369 0.82163048 0.030045912 11310986
-0.0306499 0.82199728 0.030039966 11310986
-0.030809432 0.82236403 0.030034021 11179914
-0.030968964 0.82273078 0.030028075 11311500
-0.031128496 0.82309759 0.030022144 11311500
-0.030716002 0.82412934 0.02937974 11311500
-0.030876175 0.82449758 0.02937378 11442572
-0.031036362 0.82486588 0.029367805 11310986
-0.030357063 0.74848783 0.054675981 6838087
-0.030492514 0.74879926 0.05467093 6903878
-0.030627936 0.74911064 0.054665893 7035464
-0.031439692 0.74899465 0.055292025 7035464
-0.031574488 0.74930453 0.055287004 7167050
-0.031709269 0.74961442 0.055281982 7298636
-0.031844065 0.7499243 0.05527696 7364429
-0.031978846 0.75023419 0.055271938 7561808
-0.032113642 0.75054407 0.055266917 7627601
-0.032248423 0.75085396 0.055261895 7824980
-0.032383218 0.75116384 0.055256873 8088152
-0.032517999 0.75147372 0.055251852 8285531
-0.032652795 0.75178361 0.05524683 8548703
-0.032117784 0.75253582 0.054610386 8877668
-0.032253221 0.75284719 0.05460535 9009254
-0.032388657 0.75315857 0.054600298 9140840
-0.032524094 0.75346994 0.054595262 9404012
-0.032659531 0.75378132 0.05459021 9535598
-0.032794967 0.75409269 0.054585174 9667184
-0.032930404 0.75440407 0.054580122 9864050
-0.033065856 0.75471544 0.054575086 9995636
-0.033201292 0.75502682 0.054570034 10127224
-0.033336729 0.75533819 0.054564983 10127224
-0.033472165 0.75564957 0.054559946 10193017
-0.032944977 0.75641972 0.05392319 10324603
-0.033081055 0.75673258 0.053918123 10390396
-0.033217147 0.75704551 0.053913057 10456189
-0.033353239 0.75735837 0.05390799 10456189
-0.033489332 0.75767124 0.053902924 10521982
-0.033625424 0.7579841 0.053897858 10587775
-0.033102766 0.75876474 0.053260937 10587775
-0.033239514 0.7590791 0.053255841 10653568
-0.033376247 0.75939345 0.053250745 10653568
-0.033512995 0.75970787 0.053245664 10785154
-0.033649728 0.76002222 0.053240567 10587775
-0.033131003 0.76081181 0.052603498 10653568
-0.033268392 0.76112771 0.052598387 10653568
-0.033405781 0.76144356 0.052593261 10916226
-0.033543169 0.76175946 0.05258815 10982019
-0.033680573 0.7620753 0.052583039 11047814
-0.033817962 0.76239121 0.052577913 10982021
-0.033303767 0.76319128 0.05194068 11047814
-0.033441812 0.76350862 0.051935539 10916228
-0.033579856 0.76382601 0.051930398 10916228
-0.033717901 0.76414335 0.051925257 10982021
-0.033855945 0.76446074 0.051920116 10982021
-0.033993989 0.76477814 0.05191496 11113607
-0.03348437 0.7655887 0.051277563 10982535
-0.03362307 0.76590753 0.051272392 10982535
-0.031594798 0.77313775 0.047409654 10917001
-0.031737402 0.77346557 0.047404349 10851208
-0.031880006 0.7737934 0.047399029 10851462
-0.03202261 0.77412128 0.047393724 10851462
-0.0321652 0.77444911 0.047388405 10917255
-0.032307804 0.77477694 0.0473831 10983048
-0.032450408 0.77510482 0.04737778 10983048
-0.032593012 0.77543265 0.047372475 10917255
-0.032735616 0.77576053 0.047367156 10851208
-0.03287822 0.77608836 0.047361851 9601141
-0.032388777 0.77694529 0.046723694 9205870
-0.032532036 0.77727467 0.046718359 7626838
-0.032675296 0.77760398 0.046713024 8746350
-0.032188445 0.77846694 0.046074778 8483178
-0.032332346 0.77879781 0.046069413 8483178
-0.032476246 0.77912867 0.046064049 8812143
-0.032620162 0.77945948 0.046058699 9930878
-0.032764062 0.77979034 0.046053335 10128257
-0.032281145 0.7806623 0.04541494 9601395
-0.032425702 0.78099459 0.04540956 10259325
-0.032570258 0.78132695 0.045404166 10916742
-0.032714814 0.78165931 0.045398787 11114121
-0.03285937 0.7819916 0.045393407 7824217
-0.033003926 0.78232396 0.045388013 9666421
-0.032525554 0.78320634 0.044749469 7826013
-0.032670766 0.78354025 0.044744045 9141873
-0.032815963 0.78387403 0.04473865 6839636
-0.032961175 0.78420788 0.044733241 8287082
-0.033106387 0.78454173 0.044727832 8088935
-0.032631934 0.78543311 0.044089109 10523276
-0.032777786 0.78576845 0.044083685 10391688
-0.032923639 0.78610379 0.044078246 10786446
-0.032451779 0.78700119 0.043439433 10720653
-0.032598287 0.78733802 0.043433979 10786446
-0.032744795 0.78767484 0.043428525 10851980
-0.032275558 0.78857821 0.042789623 10851980
-0.032422706 0.78891653 0.04278414 10917003
-0.03256987 0.78925484 0.042778656 10851210
-0.032103211 0.79016423 0.042139649 10851210
-0.03225103 0.7905041 0.042134151 10851210
-0.031786337 0.79141796 0.04149507 10654601
-0.031934798 0.79175925 0.041489542 10720394
-0.032083258 0.79210055 0.041484013 10654601
-0.032231718 0.7924419 0.041478485 10654601
-0.032380193 0.7927832 0.041472957 10785417
-0.032528639 0.79312456 0.041467428 10719624
-0.032068491 0.79404885 0.040828183 10653318
-0.032217622 0.79439169 0.040822625 10653318
-0.032366723 0.79473448 0.040817067 10061181
-0.031909212 0.79566479 0.040177733 9863802
-0.032058984 0.79600912 0.04017216 9666934
-0.032208741 0.79635346 0.040166572 9930106
-0.032358497 0.79669774 0.040160999 9798520
-0.032508269 0.79704207 0.040155411 9798520
-0.032054633 0.79798138 0.039515927 9995899
-0.032205045 0.79832721 0.039510325 10390657
-0.032355458 0.79867303 0.039504737 10391681
-0.031904459 0.7996183 0.038865149 10391681
-0.032055527 0.79996562 0.038859516 10259325
-0.032206595 0.80031294 0.038853884 9996153
-0.031758159 0.80126417 0.038214207 9995901
-0.031909883 0.80161297 0.038208559 9535350
-0.031463429 0.80256879 0.037568808 9337969
-0.031615794 0.80291909 0.03756313 9798520
-0.031768173 0.80326939 0.037557453 10126712
-0.031920537 0.80361968 0.037551776 10455677
-0.032072902 0.80396998 0.037546098 10455677
-0.032225281 0.80432034 0.037540421 10982021
-0.031783357 0.80528653 0.036900505 11179400
-0.031936377 0.80563837 0.036894798 11179400
-0.032089397 0.80599016 0.036889106 11048328
-0.031650111 0.80696237 0.036249071 11048328
-0.031803787 0.80731571 0.036243349 11114121
-0.031957448 0.80766898 0.036237627 11114121
-0.032111123 0.80802226 0.036231905 11114121
-0.032264799 0.8083756 0.036226183 11114121
-0.031829387 0.80935681 0.035586014 11179400
-0.031983718 0.80971158 0.035580263 11113607
-0.032138035 0.8100664 0.035574526 11179400
-0.03170526 0.81105363 0.034934267 11179400
-0.031860232 0.81140989 0.034928501 11179400
-0.032015204 0.81176615 0.034922719 11179400
-0.029988468 0.8209821 0.03040354 11442572
-0.030148 0.82134885 0.030397594 11442572
-0.030307531 0.82171559 0.030391648 11310986
-0.030467063 0.8220824 0.030385703 11310986
-0.030626595 0.82244915 0.030379772 11442572
-0.030786127 0.8228159 0.030373827 11442572
-0.030945659 0.8231827 0.030367881 11508365
-0.031105191 0.82354951 0.030361935 11508365
-0.031264722 0.8239162 0.03035599 11508365
-0.031424254 0.824283 0.030350059 11442572
-0.030201837 0.74856013 0.054969504 6903878
-0.030337274 0.74887151 0.054964453 6903878
-0.030472726 0.74918288 0.054959416 7035464
-0.031285211 0.74906659 0.055584133 7035464
-0.031420007 0.74937648 0.055579126 7167050
-0.031554788 0.74968636 0.055574104 7298636
-0.031689584 0.74999624 0.055569082 7364429
-0.031824365 0.75030613 0.055564061 7627088
-0.031959161 0.75061601 0.055559039 7758674
-0.032093942 0.7509259 0.055554017 7890260
-0.032228738 0.75123578 0.055548996 8153432
-0.032363519 0.75154567 0.055543974 8285531
-0.0324983 0.75185555 0.055538952 8548703
-0.031962544 0.75260806 0.054903924 8877670
-0.032097995 0.75291944 0.054898873 9009256
-0.032233432 0.75323081 0.054893821 9140842
-0.032368869 0.75354218 0.054888785 9404014
-0.032504305 0.75385356 0.054883748 9535600
-0.032639742 0.75416493 0.054878697 9667186
-0.032775179 0.75447631 0.054873645 9864565
-0.032910615 0.75478768 0.054868609 9930358
-0.033046067 0.75509906 0.054863557 10127224
-0.033181503 0.75541043 0.054858521 10127224
-0.03331694 0.75572187 0.054853469 10193017
-0.032788992 0.75649238 0.054218143 10324603
-0.032925084 0.75680524 0.054213062 10390396
-0.033061177 0.75711811 0.054207996 10456189
-0.033197269 0.75743097 0.054202929 10456189
-0.033333361 0.75774384 0.054197863 10521982
-0.033469453 0.75805676 0.054192796 10587775
-0.03294605 0.7588377 0.053557292 10587775
-0.033082783 0.75915205 0.053552195 10653570
-0.033219531 0.75946647 0.053547099 10653570
-0.033356279 0.75978082 0.053542003 10653570
-0.033493012 0.76009518 0.053536907 10587777
-0.032973528 0.76088512 0.052901268 10653570
-0.033110932 0.76120102 0.052896142 10785156
-0.03324832 0.76151693 0.052891031 10785156
-0.033385709 0.76183277 0.052885905 10850949
-0.033523113 0.76214862 0.052880794 10916742
-0.033660501 0.76246452 0.052875668 10785156
-0.033145562 0.76326495 0.05223985 10850949
-0.033283606 0.76358229 0.052234709 10785156
-0.033421651 0.76389968 0.052229568 10785156
-0.033559695 0.76421702 0.052224427 10916742
-0.033697739 0.76453441 0.052219287 10916742
-0.033835784 0.76485175 0.052214146 10982535
-0.033325404 0.76566267 0.051578149 10982535
-0.033464104 0.76598155 0.051572978 10982535
-0.031859159 0.77419734 0.047702774 10851208
-0.032001764 0.77452523 0.047697455 10917255
-0.032144368 0.77485305 0.04769215 10983048
-0.032286972 0.77518094 0.04768683 10983048
-0.032429576 0.77550876 0.047681525 10917255
-0.03257218 0.77583659 0.047676206 10851462
-0.032714784 0.77616441 0.047670901 10719876
-0.032224596 0.77702177 0.047034159 10653316
-0.032367855 0.77735108 0.047028825 7232080
-0.032511115 0.77768046 0.04702349 8878190
-0.032023519 0.77854377 0.046386644 8549225
-0.03216742 0.77887464 0.046381295 8483432
-0.03231132 0.77920544 0.04637593 8088674
-0.032455236 0.77953631 0.046370566 9536120
-0.032599136 0.77986711 0.046365201 10259843
-0.032115474 0.78073943 0.045728222 10522495
-0.032260031 0.78107178 0.045722842 10719874
-0.032404572 0.78140408 0.045717448 10916738
-0.032549143 0.78173643 0.045712069 10916738
-0.032693684 0.78206873 0.045706689 9271663
-0.032838255 0.78240108 0.045701295 8679526
-0.032359138 0.78328383 0.045064151 8023392
-0.03250435 0.78361773 0.045058742 8089185
-0.032649547 0.78395152 0.045053333 6444108
-0.032794759 0.78428537 0.045047939 8286312
-0.032939956 0.78461921 0.045042515 7431775
-0.032464758 0.78551096 0.044405222 9076600
-0.032610625 0.78584629 0.044399783 9141623
-0.032756478 0.78618163 0.044394344 10062725
-0.032283872 0.78707933 0.043756947 10061440
-0.032430381 0.78741622 0.043751493 9798268
-0.032576889 0.78775299 0.043746039 11179148
-0.032106891 0.78865671 0.043108553 11179148
-0.03225404 0.78899509 0.043103069 10982283
-0.032401204 0.7893334 0.043097585 10587525
-0.031933814 0.79024315 0.042459995 10457222
-0.032081619 0.79058295 0.042454481 10786187
-0.031616181 0.79149711 0.041816831 10720394
-0.031764641 0.79183847 0.041811287 10720394
-0.031913102 0.79217982 0.041805759 10720394
-0.032061577 0.79252112 0.041800231 10720394
-0.032210037 0.79286242 0.041794702 10851210
-0.032358497 0.79320371 0.041789174 10851210
-0.031897604 0.79412842 0.041151345 10916490
-0.032046705 0.79447126 0.041145787 10916490
-0.032195836 0.79481411 0.041140229 10784904
-0.031737566 0.79574472 0.04050231 10784904
-0.031887338 0.79608905 0.040496737 10456450
-0.032037094 0.79643333 0.040491149 9995899
-0.032186866 0.79677767 0.040485576 9929847
-0.032336622 0.797122 0.040479988 9535089
-0.031882256 0.79806161 0.03984192 9469296
-0.032032669 0.79840744 0.039836317 9271917
-0.032183081 0.79875326 0.039830714 9469555
-0.031731322 0.79969895 0.039192542 10324864
-0.03188239 0.80004621 0.03918691 10259841
-0.032033443 0.80039352 0.039181292 10194048
-0.031584278 0.80134517 0.038543016 10259073
-0.031736001 0.80169398 0.038537368 10061694
-0.031288803 0.80265009 0.037899017 9864313
-0.031441167 0.80300039 0.037893355 9930106
-0.031593531 0.80335069 0.037887678 9666675
-0.031745911 0.80370098 0.037882 9469296
-0.031898275 0.80405128 0.037876323 9731954
-0.032050639 0.80440164 0.037870646 10653056
-0.031607985 0.80536819 0.037232131 10982021
-0.031761006 0.80571997 0.037226439 10653056
-0.031914026 0.80607182 0.037220731 10850949
-0.031473979 0.80704439 0.036582112 10916742
-0.031627655 0.80739772 0.03657639 11114121
-0.031781316 0.807751 0.036570668 11114121
-0.031935006 0.80810428 0.036564946 11114121
-0.032088667 0.80845761 0.036559224 11048328
-0.031652525 0.80943918 0.035920471 11048328
-0.031806841 0.80979395 0.035914719 10982535
-0.031961173 0.81014872 0.035908967 11113607
-0.031527653 0.81113631 0.035270125 11179400
-0.031682625 0.81149256 0.035264358 11179400
-0.031837597 0.81184888 0.035258591 11179400
-0.02980563 0.82106721 0.030749276 11442572
-0.029965162 0.82143402 0.030743331 11442572
-0.030124694 0.82180071 0.0307374 11310986
-0.030284226 0.82216752 0.030731454 11442572
-0.030443758 0.82253432 0.030725509 11442572
-0.03060329 0.82290107 0.030719563 11508365
-0.030762821 0.82326782 0.030713618 11574158
-0.030922353 0.82363462 0.030707687 11508365
-0.031081885 0.82400137 0.030701742 11508365
-0.031241417 0.82436812 0.030695796 11442572
-0.030046612 0.74863243 0.055263028 6903878
-0.030182049 0.74894381 0.055257976 6903878
-0.030317485 0.74925518 0.055252939 7035464
-0.031130731 0.74913853 0.055876255 7100744
-0.031265527 0.74944842 0.055871233 7232330
-0.031400308 0.7497583 0.055866212 7363916
-0.031535104 0.75006819 0.05586119 7429709
-0.031669885 0.75037807 0.055856168 7692881
-0.031804681 0.75068796 0.055851147 7758674
-0.031939462 0.75099778 0.055846125 8021848
-0.032074258 0.75130773 0.055841103 8153434
-0.032209039 0.75161755 0.055836082 8285533
-0.032343835 0.75192744 0.055831075 8548705
-0.031807318 0.7526803 0.055197448 8877670
-0.031942755 0.75299174 0.055192396 8943463
-0.032078207 0.75330311 0.055187359 9140842
-0.032213643 0.75361449 0.055182308 9338221
-0.03234908 0.75392586 0.055177271 9535600
-0.032484517 0.75423723 0.05517222 9667186
-0.032619953 0.75454861 0.055167168 9864052
-0.032755405 0.75485998 0.055162132 9995638
-0.032890841 0.75517136 0.05515708 10127224
-0.033026278 0.75548273 0.055152044 10127224
-0.033161715 0.75579411 0.055146992 10193017
-0.032633021 0.75656497 0.054513067 10324603
-0.032769114 0.75687784 0.054508001 10324603
-0.032905206 0.7571907 0.054502934 10456189
-0.033041298 0.75750363 0.054497868 10521982
-0.033177391 0.75781649 0.054492801 10521982
-0.033313483 0.75812936 0.054487735 10587775
-0.03278932 0.75891066 0.053853631 10587775
-0.032926068 0.75922501 0.053848535 10653570
-0.033062816 0.75953943 0.053843454 10653570
-0.033199549 0.75985378 0.053838357 10653570
-0.033336297 0.76016814 0.053833261 10653570
-0.032816067 0.76095849 0.053199023 10785156
-0.032953456 0.76127434 0.053193897 10916742
-0.03309086 0.76159024 0.053188786 10916742
-0.033228248 0.76190609 0.053183675 10916742
-0.033365637 0.76222193 0.053178549 10916742
-0.033503026 0.76253784 0.053173438 10850949
-0.032987356 0.76333857 0.052539021 10850949
-0.033125401 0.76365596 0.05253388 10850949
-0.03326343 0.76397336 0.052528739 10785156
-0.033401489 0.76429069 0.052523598 10916742
-0.033539519 0.76460809 0.052518457 10916742
-0.033677563 0.76492542 0.052513301 10982535
-0.033166453 0.7657367 0.051878735 10982535
-0.033305153 0.76605558 0.051873565 10982535
-0.031695738 0.77427346 0.04801181 10917001
-0.031838328 0.77460128 0.048006505 10982794
-0.031980932 0.77492917 0.0480012 11048587
-0.032123536 0.77525699 0.04799588 10982794
-0.03226614 0.77558482 0.047990575 10982794
-0.032408744 0.7759127 0.047985256 10917001
-0.032551348 0.77624053 0.047979951 10851208
-0.032060415 0.77709818 0.047344625 10851462
-0.032203674 0.77742755 0.047339275 9469809
-0.032346934 0.77775687 0.047333941 10654599
-0.031858593 0.77862054 0.046698526 10457220
-0.032002494 0.77895141 0.046693161 10456452
-0.032146394 0.77928221 0.046687797 8482662
-0.03229031 0.77961308 0.046682447 7890010
-0.03243421 0.77994394 0.046677083 9140077
-0.031949788 0.78081656 0.046041504 10127226
-0.032094359 0.78114891 0.046036124 10785156
-0.032238901 0.78148121 0.04603073 10982533
-0.032383472 0.78181356 0.046025351 10916740
-0.032528013 0.78214592 0.046019971 9864313
-0.032672584 0.78247821 0.046014577 9337969
-0.032192707 0.78336132 0.045378849 8549223
-0.032337919 0.78369522 0.04537344 8286051
-0.032483131 0.78402901 0.045368031 7168601
-0.032628328 0.78436285 0.045362622 8287082
-0.032773539 0.7846967 0.045357212 7958121
-0.032297596 0.7855888 0.04472132 9273981
-0.032443449 0.78592408 0.044715881 8418670
-0.032589316 0.78625941 0.044710457 7958119
-0.032115951 0.78715754 0.044074476 8021857
-0.032262459 0.78749436 0.044069007 8416615
-0.032408968 0.78783119 0.044063553 10915206
-0.031938225 0.78873527 0.043427467 11244171
-0.032085389 0.78907359 0.043421984 11113355
-0.032232553 0.7894119 0.043416515 9797495
-0.031764403 0.79032201 0.042780325 8812143
-0.031912208 0.79066181 0.042774826 10785933
-0.03144604 0.79157639 0.042138577 10720655
-0.031594485 0.79191768 0.042133048 10720655
-0.03174296 0.79225898 0.04212752 10523274
-0.03189142 0.79260033 0.042121977 10654860
-0.032039881 0.79294169 0.042116448 10851210
-0.032188341 0.79328299 0.04211092 10851210
-0.031726703 0.79420799 0.041474506 10916490
-0.031875819 0.79455084 0.041468948 10916490
-0.032024935 0.79489362 0.04146339 10982283
-0.03156592 0.79582465 0.040826872 10916490
-0.031715691 0.79616898 0.040821299 10784902
-0.031865448 0.79651332 0.040815726 10653316
-0.032015219 0.7968576 0.040810138 10521984
-0.032164991 0.79720187 0.040804565 10061433
-0.03170985 0.7981419 0.040167898 10061433
-0.031860277 0.79848772 0.040162295 9864054
-0.032010689 0.79883349 0.040156692 9535602
-0.031558186 0.79977953 0.039519936 9996153
-0.031709254 0.80012685 0.039514303 10587009
-0.031860322 0.80047417 0.039508671 10060665
-0.031410396 0.80142611 0.038871825 10061179
-0.03156212 0.80177492 0.038866162 10192765
-0.031114161 0.80273139 0.038229242 10128509
-0.03126654 0.80308169 0.038223565 9931130
-0.031418905 0.80343199 0.038217887 9931130
-0.031571269 0.80378234 0.03821221 9667958
-0.031723648 0.80413258 0.038206533 9600880
-0.031876013 0.80448294 0.038200855 10324603
-0.031432614 0.80544984 0.037563756 10455677
-0.031585634 0.80580163 0.037558064 9995126
-0.031738654 0.80615348 0.037552357 10127226
-0.031297863 0.8071264 0.036915153 10390398
-0.031451538 0.80747968 0.036909431 10522243
-0.031605199 0.80783296 0.036903709 10851208
-0.031758875 0.80818629 0.036897987 10982794
-0.03191255 0.80853957 0.036892265 10982794
-0.031475648 0.8095215 0.036254913 10983048
-0.03162998 0.80987632 0.036249176 10983048
-0.031784296 0.81023109 0.036243424 10982535
-0.031350046 0.81121898 0.035605982 11048328
-0.031505018 0.81157529 0.035600215 11048328
-0.031659991 0.81193155 0.035594448 11048328
