# .PCD v0.7 - Point Cloud Data file format
VERSION 0.7
FIELDS x y z rgb
SIZE 4 4 4 4
TYPE F F F U
COUNT 1 1 1 1
WIDTH 1080
HEIGHT 1
VIEWPOINT 0 0 0 1 0 0 0
POINTS 1080
DATA ascii
0.054664604 0.82925379 0.028818116 12168099
0.055044368 0.82921213 0.028816298 12036513
0.055568337 0.82836431 0.028169051 11839134
0.055949725 0.82832247 0.028167233 11707035
-0.023188068 0.83286053 0.025665477 13419452
-0.022798566 0.83281779 0.025663614 13419452
-0.022409065 0.83277512 0.025661752 13419452
-0.021837482 0.83350348 0.026302308 13353659
-0.021449605 0.83346093 0.026300445 13353659
-0.021061728 0.83341837 0.026298583 13353659
-0.020673851 0.83337581 0.02629672 13353659
-0.02028597 0.83333325 0.026294857 13287866
-0.019898092 0.8332907 0.026292995 13222073
-0.019510215 0.83324814 0.026291147 13222073
-0.019122338 0.83320564 0.026289284 13287866
-0.018734457 0.83316308 0.026287422 13222073
-0.01834658 0.83312052 0.026285559 13287866
-0.017958703 0.83307797 0.026283696 13222073
-0.017570825 0.83303541 0.026281834 13222073
-0.017182944 0.83299285 0.026279971 13287866
-0.016795067 0.83295029 0.026278123 13222073
-0.01640719 0.83290774 0.026276261 13222073
-0.016019313 0.83286524 0.026274398 13222073
-0.015631432 0.83282268 0.026272535 13222073
-0.015243554 0.83278012 0.026270673 13222073
-0.014702806 0.83351189 0.026911378 13222073
-0.01431655 0.83346951 0.02690953 13222073
-0.013930297 0.83342713 0.026907668 13156280
-0.01354404 0.83338475 0.02690582 13156280
-0.013157783 0.83334237 0.026903972 13222073
-0.01277153 0.83329999 0.026902124 13222073
-0.012385277 0.83325762 0.026900262 13222073
-0.01199902 0.83321524 0.026898414 13222073
-0.011612764 0.83317292 0.026896551 13222073
-0.011226511 0.83313048 0.026894704 13156280
-0.010840254 0.83308816 0.026892856 13222073
-0.010453997 0.83304578 0.026891008 13222073
-0.010067744 0.8330034 0.026889145 13156280
-0.0096814875 0.83296102 0.026887298 13222073
-0.0092952345 0.83291864 0.026885435 13222073
-0.0089089777 0.83287627 0.026883587 13156280
-0.0085227229 0.83283389 0.026881739 13156280
-0.008136468 0.83279151 0.026879892 13156280
-0.0077502131 0.83274913 0.026878029 13156280
-0.0073639583 0.83270675 0.026876181 13156280
-0.0069777016 0.83266437 0.026874319 13156280
-0.0065914467 0.83262205 0.026872471 13222073
-0.0062051918 0.83257961 0.026870623 13222073
-0.005818937 0.83253729 0.026868775 13156280
-0.0054326821 0.83249491 0.026866913 13091000
-0.0050464254 0.83245254 0.026865065 13091000
-0.0045494977 0.83318913 0.027505979 13091000
-0.0041648671 0.83314693 0.027504131 13091000
-0.0037802346 0.83310473 0.027502283 13091000
-0.0033956021 0.83306253 0.027500436 13156793
-0.0030109696 0.83302033 0.027498588 13091000
-0.0026263371 0.83297813 0.02749674 13091000
-0.0022417046 0.83293593 0.027494907 13091000
-0.0018570721 0.83289373 0.02749306 13091000
-0.0014724396 0.83285153 0.027491212 13091000
-0.0010878071 0.83280933 0.027489364 13156793
-0.00070317462 0.83276713 0.027487531 13156793
-0.00031854399 0.83272493 0.027485684 13156793
6.6088513e-05 0.83268273 0.027483836 13091000
0.00045072101 0.83264053 0.027481988 13025207
0.00083535351 0.83259833 0.02748014 13025207
0.001219986 0.83255613 0.027478293 13091000
0.0016046185 0.83251399 0.027476445 13091000
0.001989251 0.83247179 0.027474612 13156793
0.0023738835 0.83242959 0.027472764 13156793
0.002758516 0.83238739 0.027470917 13091000
0.0031431485 0.83234519 0.027469069 13091000
0.0035277791 0.83230299 0.027467221 13156793
0.0039124116 0.83226079 0.027465388 13091000
0.0042970441 0.83221859 0.02746354 13091000
0.0046816766 0.83217639 0.027461693 13091000
0.0050663091 0.83213419 0.027459845 13091000
0.005519418 0.83287561 0.028100967 13091000
0.0059024282 0.83283359 0.028099135 13091000
0.0062854365 0.83279157 0.028097302 13091000
0.0066684466 0.83274955 0.028095469 13025207
0.0070514558 0.83270752 0.028093621 13091000
0.007434465 0.8326655 0.028091788 13091000
0.0078174742 0.83262348 0.028089955 13091000
0.0082004834 0.83258146 0.028088108 13091000
0.0085834917 0.83253944 0.028086275 13091000
0.0089126313 0.83171225 0.027441397 13025207
0.0092972638 0.83167005 0.02743955 13025207
0.0096818963 0.83162785 0.027437702 13025207
0.010066528 0.83158565 0.027435854 13090487
0.01045116 0.83154345 0.027434006 13156280
0.010835793 0.83150125 0.027432173 13090487
0.011220425 0.83145905 0.027430326 13090487
0.011605058 0.83141685 0.027428478 13090487
0.012030577 0.83216131 0.028069735 13156280
0.012413587 0.83211929 0.028067902 13090487
0.012796596 0.83207726 0.028066069 13156280
0.013179606 0.83203524 0.028064221 13156280
0.013562614 0.83199322 0.028062388 13090487
0.013945624 0.8319512 0.028060555 13090487
0.014328634 0.83190918 0.028058723 13090487
0.014711643 0.83186716 0.028056875 13090487
0.015094653 0.83182514 0.028055042 13156280
0.015477661 0.83178312 0.028053209 13090489
0.015860671 0.83174109 0.028051361 13090489
0.016243681 0.83169907 0.028049529 13156282
0.016648104 0.83244586 0.028690889 13156282
0.01702949 0.83240402 0.028689057 13090487
0.017410876 0.83236217 0.028687224 13156280
0.017792262 0.83232033 0.028685406 13090487
0.01817365 0.83227849 0.028683573 13156280
0.018555036 0.83223665 0.02868174 13156280
0.018936424 0.83219481 0.028679922 13156280
0.019317808 0.83215296 0.028678089 13156280
0.019699194 0.83211112 0.028676257 13090487
0.020080581 0.83206928 0.028674424 13090487
0.020461967 0.83202744 0.028672591 13090487
0.020843353 0.83198559 0.028670773 13090487
0.021224739 0.83194375 0.02866894 13090487
0.021606125 0.83190191 0.028667107 13156280
0.021987515 0.83186007 0.028665274 13156280
0.0223689 0.83181822 0.028663442 13090487
0.022750286 0.83177638 0.028661624 13090487
0.023131672 0.83173454 0.028659791 13156280
0.023513058 0.8316927 0.028657958 13090487
0.023894446 0.83165085 0.028656125 13090487
0.024275832 0.83160901 0.028654292 13090487
0.02465722 0.83156717 0.028652474 13156280
0.025038606 0.83152533 0.028650641 13090487
0.025404079 0.83227634 0.029292196 13156280
0.025783842 0.83223468 0.029290378 13156280
0.026163606 0.83219302 0.029288545 13156280
0.02654337 0.83215135 0.029286727 13156280
0.026923133 0.83210969 0.029284909 13156280
0.027302895 0.83206803 0.029283091 13156280
0.027682662 0.83202636 0.029281273 13156280
0.028062424 0.83198476 0.029279441 13090487
0.028442187 0.83194304 0.029277623 13090487
0.028821951 0.83190143 0.029275805 13156280
0.029201714 0.83185971 0.029273972 13090487
0.029581478 0.8318181 0.029272154 13090487
0.02996124 0.83177638 0.029270336 13221559
0.030341005 0.83173478 0.029268518 13221559
0.030720768 0.83169305 0.0292667 13221559
0.031100532 0.83165145 0.029264867 13287352
0.031480297 0.83160973 0.029263049 13221559
0.031860061 0.83156812 0.029261231 13221559
0.032239825 0.83152646 0.029259399 13221559
0.032619588 0.83148479 0.029257581 13221559
0.032999344 0.83144313 0.029255763 13221559
0.033379108 0.83140147 0.029253945 13221559
0.033758871 0.8313598 0.029252127 13287350
0.034138635 0.83131814 0.029250294 13287350
0.034518398 0.83127648 0.029248476 13221557
0.034898162 0.83123481 0.029246658 13221557
0.035277933 0.83119315 0.029244825 13221557
0.035657689 0.83115149 0.029243007 13221557
0.03603746 0.83110982 0.029241189 13089973
0.036417224 0.83106816 0.029239371 13089973
0.03679698 0.83102649 0.029237539 13089973
0.037176743 0.83098483 0.029235721 13221559
0.037556514 0.83094317 0.029233903 13221559
0.037936278 0.8309015 0.02923207 13221559
0.038316034 0.83085984 0.029230252 13089973
0.038623087 0.83161724 0.02987209 13221559
0.039001226 0.83157575 0.029870272 13089973
0.039379366 0.83153427 0.029868469 13089973
0.039757505 0.83149278 0.029866651 13089973
0.040135644 0.8314513 0.029864833 13089973
0.040513787 0.83140981 0.029863015 13089973
0.04089193 0.83136833 0.029861212 13089973
0.041270074 0.83132684 0.029859394 13024180
0.041648209 0.83128536 0.029857576 13024180
0.042026352 0.83124387 0.029855773 13024180
0.042404491 0.83120239 0.029853955 13089973
0.042782631 0.8311609 0.029852137 13089973
0.043160774 0.83111942 0.029850319 13089973
0.043538913 0.83107793 0.029848501 13089973
0.043917052 0.83103651 0.029846698 13089973
0.044295192 0.83099502 0.02984488 13089973
0.044673335 0.83095354 0.029843077 13024180
0.045051474 0.83091205 0.029841259 13089973
0.045429617 0.83087057 0.029839441 13221559
0.045807756 0.83082908 0.029837623 13089973
0.0461859 0.8307876 0.029835805 13089973
0.046564035 0.83074611 0.029834002 13024180
0.046942178 0.83070463 0.029832184 13089973
0.047320321 0.83066314 0.029830366 13089973
0.047698461 0.83062166 0.029828563 13089973
0.048076604 0.83058017 0.029826745 13089973
0.048454743 0.83053869 0.029824927 13089973
0.048832882 0.83049721 0.02982311 13089973
0.049211022 0.83045572 0.029821292 13089973
0.049589161 0.83041424 0.029819489 13089973
0.049967304 0.83037275 0.029817671 13024180
0.050345443 0.83033127 0.029815868 12958387
0.050723586 0.83028978 0.02981405 12958387
0.051101722 0.8302483 0.029812232 12958387
0.051479865 0.83020681 0.029810414 12892594
0.051858004 0.83016533 0.029808596 12892594
0.052236147 0.83012384 0.029806793 12761008
0.05261429 0.83008236 0.029804975 12563629
0.053126812 0.82923502 0.029159203 12563629
0.053506583 0.82919335 0.029157385 12366250
0.053886339 0.82915169 0.029155567 12300457
0.054266103 0.82911003 0.029153749 12103076
0.054645866 0.82906836 0.029151931 12037283
0.05502563 0.8290267 0.029150099 12036513
0.055405393 0.82898504 0.029148281 11970720
0.055785157 0.82894337 0.029146463 11707035
-0.023207283 0.83267039 0.026007846 13419452
-0.022817781 0.83262765 0.026005968 13419452
-0.02242828 0.83258492 0.026004106 13353659
-0.021856619 0.83331412 0.026643246 13353659
-0.021468742 0.83327156 0.026641384 13353659
-0.021080865 0.83322906 0.026639521 13353659
-0.020692987 0.83318651 0.026637658 13353659
-0.02030511 0.83314395 0.026635796 13287866
-0.019917233 0.83310139 0.026633933 13222073
-0.019529352 0.83305883 0.026632085 13222073
-0.019141475 0.83301628 0.026630223 13287866
-0.018753594 0.83297372 0.02662836 13287866
-0.018365717 0.83293116 0.026626498 13287866
-0.017977839 0.8328886 0.026624635 13222073
-0.017589962 0.83284605 0.026622772 13222073
-0.017202085 0.83280349 0.02662091 13287866
-0.016814208 0.83276093 0.026619062 13287866
-0.01642633 0.83271837 0.026617199 13222073
-0.016038453 0.83267581 0.026615337 13222073
-0.015650569 0.83263332 0.026613474 13222073
-0.015262691 0.83259076 0.026611611 13222073
-0.014721865 0.8333233 0.027250901 13222073
-0.014335608 0.83328092 0.027249053 13222073
-0.013949355 0.8332386 0.02724719 13222073
-0.013563098 0.83319616 0.027245343 13156280
-0.013176842 0.83315384 0.02724348 13222073
-0.012790589 0.83311141 0.027241632 13222073
-0.012404332 0.83306909 0.027239785 13222073
-0.012018075 0.83302671 0.027237937 13156280
-0.011631822 0.83298433 0.027236074 13156280
-0.011245569 0.83294195 0.027234226 13156280
-0.010859312 0.83289957 0.027232364 13222073
-0.010473056 0.83285719 0.027230516 13222073
-0.010086803 0.83281481 0.027228668 13222073
-0.009700546 0.83277243 0.027226806 13222073
-0.0093142912 0.83273005 0.027224958 13222073
-0.0089280363 0.83268774 0.02722311 13156280
-0.0085417796 0.8326453 0.027221248 13156280
-0.0081555266 0.83260298 0.0272194 13156280
-0.0077692699 0.83256054 0.027217552 13156280
-0.007383015 0.83251822 0.027215689 13156280
-0.0069967601 0.83247584 0.027213842 13156280
-0.0066105053 0.83243346 0.027211979 13156280
-0.0062242504 0.83239108 0.027210131 13156280
-0.0058379937 0.8323487 0.027208284 13156280
-0.0054517388 0.83230633 0.027206436 13156280
-0.005065484 0.83226395 0.027204573 13156280
-0.0045684762 0.83300132 0.027844056 13156280
-0.0041838437 0.83295918 0.027842209 13156280
-0.0037992112 0.83291698 0.027840361 13222073
-0.0034145787 0.83287477 0.027838513 13222073
-0.0030299462 0.83283257 0.02783668 13156280
-0.0026453156 0.83279037 0.027834833 13156280
-0.0022606831 0.83274817 0.027832985 13156280
-0.0018760506 0.83270597 0.027831137 13156280
-0.0014914181 0.83266377 0.027829304 13222073
-0.0011067856 0.83262157 0.027827457 13156280
-0.00072215311 0.83257937 0.027825609 13222073
-0.00033752061 0.83253717 0.027823761 13222073
4.7111884e-05 0.83249497 0.027821913 13156280
0.00043174438 0.83245277 0.027820066 13090487
0.00081637688 0.83241057 0.027818218 13091000
0.0012010075 0.83236837 0.027816385 13091000
0.00158564 0.83232617 0.027814537 13091000
0.0019702725 0.83228397 0.02781269 13156793
0.002354905 0.83224177 0.027810842 13156793
0.0027395375 0.83219957 0.027809009 13156793
0.00312417 0.83215737 0.027807161 13091000
0.0035088006 0.83211523 0.027805313 13156793
0.0038934331 0.83207303 0.027803466 13091000
0.0042780656 0.83203083 0.027801618 13091000
0.0046626981 0.83198863 0.02779977 13091000
0.0050473306 0.83194643 0.027797922 13091000
0.0055005196 0.83268863 0.028437629 13091000
0.0058835298 0.83264661 0.028435796 13091000
0.006266539 0.83260459 0.028433964 13091000
0.0066495491 0.83256257 0.028432116 13025207
0.0070325583 0.83252054 0.028430283 13091000
0.0074155675 0.83247852 0.02842845 13091000
0.0077985767 0.8324365 0.028426602 13091000
0.0081815859 0.83239448 0.02842477 13091000
0.0085645942 0.83235246 0.028422937 13091000
0.0088936538 0.83152449 0.027779475 13091000
0.0092782862 0.83148229 0.027777627 13091000
0.0096629187 0.83144009 0.027775794 13025207
0.01004755 0.83139789 0.027773947 13090487
0.010432183 0.83135569 0.027772099 13156280
0.010816815 0.83131349 0.027770251 13090487
0.011201448 0.83127129 0.027768418 13156280
0.01158608 0.83122909 0.02776657 13090487
0.01201168 0.83197433 0.028406397 13156280
0.012394689 0.83193231 0.028404564 13090487
0.012777698 0.83189029 0.028402731 13156280
0.013160707 0.83184826 0.028400883 13156280
0.013543717 0.83180624 0.02839905 13090487
0.013926727 0.83176422 0.028397217 13090487
0.014309736 0.8317222 0.02839537 13090487
0.014692746 0.83168018 0.028393537 13090487
0.015075756 0.83163816 0.028391704 13090487
0.015458765 0.83159614 0.028389856 13090487
0.015841775 0.83155411 0.028388023 13090487
0.016224785 0.83151209 0.028386191 13156280
0.016629288 0.83225965 0.029026121 13156280
0.017010674 0.83221781 0.029024288 13156280
0.01739206 0.83217597 0.02902247 13156280
0.017773446 0.83213413 0.029020637 13090487
0.018154833 0.83209229 0.029018804 13090487
0.018536219 0.83205044 0.029016972 13156280
0.018917607 0.8320086 0.029015139 13156280
0.019298991 0.83196676 0.029013321 13156280
0.019680377 0.83192492 0.029011488 13090487
0.020061765 0.83188307 0.029009655 13090487
0.020443151 0.83184123 0.029007822 13090487
0.020824537 0.83179939 0.029005989 13090487
0.021205923 0.83175755 0.029004171 13090487
0.021587308 0.8317157 0.029002339 13156280
0.021968698 0.83167386 0.029000506 13090487
0.022350084 0.83163202 0.028998688 13090487
0.02273147 0.83159018 0.028996855 13090487
0.023112856 0.83154833 0.028995022 13090487
0.023494242 0.83150649 0.028993189 13090487
0.02387563 0.83146465 0.028991356 13090487
0.024257015 0.83142281 0.028989539 13090487
0.024638403 0.83138102 0.028987706 13156280
0.025019789 0.83133918 0.028985873 13090487
0.025385341 0.83209097 0.029625997 13156280
0.025765104 0.83204931 0.029624179 13222073
0.026144868 0.83200765 0.029622361 13090487
0.026524631 0.83196598 0.029620543 13156280
0.026904395 0.83192432 0.02961871 13156280
0.027284157 0.83188266 0.029616892 13090487
0.027663924 0.83184099 0.029615074 13156280
0.028043685 0.83179933 0.029613242 13090487
0.028423449 0.83175766 0.029611424 13090487
0.028803213 0.831716 0.029609606 13156280
0.029182976 0.83167434 0.029607788 13156280
0.02956274 0.83163267 0.02960597 13090487
0.029942501 0.83159101 0.029604137 13287352
0.03032227 0.83154935 0.029602319 13221559
0.03070203 0.83150768 0.029600501 13221559
0.031081794 0.83146602 0.029598668 13287352
0.031461559 0.83142436 0.02959685 13221559
0.031841323 0.83138269 0.029595032 13221559
0.032221086 0.83134103 0.029593214 13221559
0.03260085 0.83129936 0.029591396 13221559
0.032980613 0.8312577 0.029589564 13221559
0.033360377 0.83121604 0.029587746 13221559
0.03374014 0.83117437 0.029585928 13287350
0.034119904 0.83113277 0.029584095 13287350
0.034499668 0.83109105 0.029582277 13287350
0.034879431 0.83104944 0.029580459 13221557
0.035259195 0.83100772 0.029578641 13221557
0.035638958 0.83096611 0.029576808 13221557
0.036018722 0.83092439 0.02957499 13089973
0.036398485 0.83088279 0.029573172 13089973
0.036778249 0.83084106 0.029571339 13221559
0.037158012 0.83079946 0.029569522 13221559
0.037537776 0.83075774 0.029567704 13221559
0.037917539 0.83071613 0.029565886 13287352
0.038297303 0.83067447 0.029564068 13221559
0.038604427 0.83143264 0.030204475 13221559
0.038982566 0.83139116 0.030202657 13089973
0.039360706 0.83134967 0.030200854 13221559
0.039738845 0.83130819 0.030199036 13089975
0.040116984 0.83126676 0.030197218 13089975
0.040495127 0.83122528 0.0301954 13089975
0.04087327 0.83118379 0.030193582 13089975
0.041251414 0.83114231 0.030191779 13089975
0.041629549 0.83110082 0.030189961 13024182
0.042007692 0.83105934 0.030188143 13024180
0.042385831 0.83101785 0.03018634 13089973
0.042763971 0.83097637 0.030184522 13089973
0.043142114 0.83093488 0.030182704 13089973
0.043520253 0.8308934 0.030180886 13221559
0.043898392 0.83085191 0.030179068 13089973
0.044276532 0.83081043 0.030177265 13089973
0.044654675 0.83076894 0.030175447 13089973
0.045032814 0.83072746 0.030173644 13089973
0.045410957 0.83068597 0.030171826 13089973
0.045789097 0.83064449 0.030170009 13089973
0.04616724 0.830603 0.030168191 13089973
0.046545375 0.83056152 0.030166373 13089975
0.046923518 0.83052003 0.03016457 13089975
0.047301661 0.83047855 0.030162752 13089975
0.047679801 0.83043706 0.030160934 13089975
0.048057944 0.83039558 0.030159131 13221561
0.048436083 0.83035409 0.030157313 13089975
0.048814222 0.83031261 0.030155495 13221561
0.049192362 0.83027112 0.030153677 13089975
0.049570501 0.83022964 0.030151874 13024182
0.049948644 0.83018816 0.030150056 13024182
0.050326783 0.83014667 0.030148238 12958387
0.050704926 0.83010519 0.030146435 12958387
0.051083062 0.8300637 0.030144617 12958387
0.051461205 0.83002222 0.030142799 12958387
0.051839344 0.82998073 0.030140981 12892594
0.052217487 0.82993925 0.030139163 12761008
0.05259563 0.82989776 0.03013736 12563629
0.053108081 0.82904965 0.029493019 12563629
0.053487845 0.82900798 0.029491201 12432041
0.053867608 0.82896632 0.029489368 12366248
0.054247372 0.82892466 0.02948755 12299685
0.054627135 0.82888299 0.029485732 12168099
0.055006899 0.82884133 0.029483899 12036513
0.055386662 0.82879966 0.029482082 11970720
0.055766426 0.828758 0.029480264 11707548
-0.023226505 0.83248025 0.026350215 13419452
-0.022837004 0.83243752 0.026348338 13353659
-0.022447502 0.83239478 0.026346475 13353659
-0.02187576 0.83312476 0.026984185 13353659
-0.021487882 0.8330822 0.026982322 13353659
-0.021100005 0.83303964 0.02698046 13353659
-0.020712128 0.83299708 0.026978597 13287866
-0.020324243 0.83295459 0.026976734 13287866
-0.019936366 0.83291203 0.026974872 13222073
-0.019548489 0.83286947 0.026973024 13222073
-0.019160612 0.83282691 0.026971161 13222073
-0.018772734 0.83278435 0.026969299 13287866
-0.018384857 0.8327418 0.026967436 13287866
-0.01799698 0.83269924 0.026965573 13222073
-0.017609103 0.83265668 0.026963711 13222073
-0.017221222 0.83261418 0.026961848 13222073
-0.016833344 0.83257163 0.02696 13222073
-0.016445467 0.83252907 0.026958138 13222073
-0.01605759 0.83248651 0.026956275 13222073
-0.015669709 0.83244395 0.026954412 13222073
-0.015281832 0.83240139 0.02695255 13222073
-0.01474092 0.83313477 0.027590409 13222073
-0.014354667 0.83309239 0.027588561 13222073
-0.013968414 0.83305001 0.027586699 13222073
-0.013582157 0.83300763 0.027584851 13222073
-0.0131959 0.83296525 0.027582988 13222073
-0.012809647 0.83292288 0.02758114 13222073
-0.012423391 0.8328805 0.027579293 13222073
-0.012037134 0.83283812 0.027577445 13156280
-0.011650881 0.83279574 0.027575582 13156280
-0.011264628 0.83275336 0.027573735 13156280
-0.010878371 0.83271098 0.027571872 13156280
-0.010492114 0.83266866 0.027570024 13222073
-0.010105861 0.83262622 0.027568176 13222073
-0.0097196046 0.8325839 0.027566314 13222073
-0.0093333498 0.83254153 0.027564466 13222073
-0.008947093 0.83249915 0.027562618 13222073
-0.0085608382 0.83245677 0.027560756 13156280
-0.0081745833 0.83241439 0.027558908 13156280
-0.0077883285 0.83237201 0.02755706 13156280
-0.0074020736 0.83232963 0.027555197 13156280
-0.0070158187 0.83228725 0.02755335 13156280
-0.006629562 0.83224487 0.027551487 13156280
-0.0062433071 0.83220255 0.027549639 13156282
-0.0058570523 0.83216012 0.027547792 13156282
-0.0054707974 0.8321178 0.027545944 13156282
-0.0050845426 0.83207536 0.027544081 13222075
-0.0045874547 0.83281356 0.028182134 13156282
-0.0042028222 0.83277136 0.028180286 13156282
-0.0038181897 0.83272916 0.028178453 13222075
-0.0034335572 0.83268696 0.028176606 13156282
-0.0030489247 0.83264476 0.028174758 13156282
-0.0026642922 0.83260262 0.02817291 13156282
-0.0022796597 0.83256042 0.028171077 13090489
-0.0018950272 0.83251822 0.02816923 13156282
-0.0015103947 0.83247602 0.028167382 13156282
-0.0011257641 0.83243382 0.028165534 13156282
-0.0007411316 0.83239162 0.028163686 13156280
-0.00035649911 0.83234942 0.028161839 13156280
2.8133392e-05 0.83230722 0.028159991 13156280
0.00041276589 0.83226502 0.028158158 13156280
0.00079739839 0.83222282 0.02815631 13091000
0.0011820309 0.83218062 0.028154463 13091000
0.0015666634 0.83213842 0.028152615 13091000
0.001951294 0.83209622 0.028150782 13156793
0.0023359265 0.83205402 0.028148934 13091000
0.002720559 0.83201182 0.028147087 13156793
0.0031051915 0.83196962 0.028145239 13091000
0.003489824 0.83192742 0.028143391 13156793
0.0038744565 0.83188522 0.028141543 13156793
0.004259089 0.83184302 0.028139696 13091000
0.0046437215 0.83180082 0.028137863 13091000
0.005028354 0.83175868 0.028136015 13091000
0.0054816213 0.83250165 0.028774291 13091000
0.0058646332 0.83245963 0.028772458 13091000
0.0062476415 0.83241761 0.028770611 13091000
0.0066306507 0.83237559 0.028768778 13025207
0.0070136599 0.83233356 0.028766945 13091000
0.0073966691 0.83229154 0.028765097 13091000
0.0077796783 0.83224952 0.028763264 13091000
0.0081626885 0.8322075 0.028761432 13091000
0.0085456967 0.83216548 0.028759599 13091000
0.0088746762 0.83133668 0.028117552 13091000
0.0092593087 0.83129454 0.02811572 13091000
0.0096439412 0.83125234 0.028113872 13025207
0.010028573 0.83121014 0.028112024 13156280
0.010413205 0.83116794 0.028110176 13156280
0.010797838 0.83112574 0.028108343 13156280
0.01118247 0.83108354 0.028106496 13156280
0.011567103 0.83104134 0.028104648 13090487
0.011992782 0.83178735 0.028743058 13156280
0.012375792 0.83174533 0.028741226 13090487
0.012758801 0.83170331 0.028739378 13156280
0.01314181 0.83166128 0.028737545 13156280
0.013524819 0.83161926 0.028735712 13090487
0.013907829 0.83157724 0.028733864 13090487
0.014290838 0.83153522 0.028732032 13090487
0.014673848 0.8314932 0.028730199 13090487
0.015056858 0.83145118 0.028728351 13090487
0.015439866 0.83140916 0.028726518 13090487
0.015822876 0.83136714 0.028724685 13090487
0.016205886 0.83132511 0.028722852 13156280
0.01661047 0.83207345 0.029361352 13156280
0.016991856 0.83203161 0.029359534 13156280
0.017373241 0.83198977 0.029357702 13156280
0.017754627 0.83194792 0.029355869 13090487
0.018136015 0.83190608 0.029354036 13090487
0.018517401 0.83186424 0.029352203 13156280
0.018898789 0.8318224 0.029350385 13156280
0.019280173 0.83178055 0.029348552 13156280
0.019661559 0.83173871 0.029346719 13090487
0.020042947 0.83169687 0.029344887 13090487
0.020424332 0.83165503 0.029343054 13090487
0.020805718 0.83161318 0.029341236 13090487
0.021187104 0.83157134 0.029339403 13090487
0.02156849 0.83152956 0.02933757 13156280
0.02194988 0.83148772 0.029335752 13090487
0.022331266 0.83144587 0.029333919 13090487
0.022712652 0.83140403 0.029332086 13090487
0.023094038 0.83136219 0.029330254 13090487
0.023475423 0.83132035 0.029328421 13090487
0.023856811 0.8312785 0.029326603 13156280
0.024238197 0.83123666 0.02932477 13090487
0.024619585 0.83119482 0.029322937 13156280
0.025000971 0.83115298 0.029321104 13156280
0.025366602 0.8319056 0.029959813 13156280
0.025746366 0.83186388 0.02995798 13156280
0.02612613 0.83182228 0.029956162 13090487
0.026505893 0.83178055 0.029954344 13090487
0.026885657 0.83173895 0.029952511 13090487
0.02726542 0.83169723 0.029950693 13156280
0.027645187 0.83165562 0.029948875 13156280
0.028024947 0.8316139 0.029947057 13090487
0.028404711 0.83157229 0.029945239 13090487
0.028784474 0.83153057 0.029943407 13156280
0.029164238 0.83148897 0.029941589 13156280
0.029544001 0.8314473 0.029939771 13156280
0.029923765 0.83140564 0.029937938 13287352
0.030303532 0.83136398 0.02993612 13287352
0.030683292 0.83132231 0.029934302 13221559
0.031063056 0.83128065 0.029932484 13287352
0.031442821 0.83123899 0.029930666 13221559
0.031822585 0.83119732 0.029928833 13221559
0.032202348 0.83115566 0.029927015 13221559
0.032582112 0.83111399 0.029925197 13221559
0.032961875 0.83107233 0.029923365 13287352
0.033341639 0.83103067 0.029921547 13221559
0.033721402 0.830989 0.029919729 13287350
0.034101166 0.83094734 0.029917911 13287350
0.034480929 0.83090568 0.029916093 13287350
0.034860693 0.83086401 0.02991426 13221557
0.035240456 0.83082235 0.029912442 13287350
0.03562022 0.83078068 0.029910609 13221557
0.035999984 0.83073902 0.029908791 13089973
0.036379747 0.83069736 0.029906973 13089973
0.036759511 0.83065569 0.029905155 13287352
0.037139274 0.83061403 0.029903337 13221559
0.037519038 0.83057237 0.029901505 13221559
0.037898801 0.8305307 0.029899687 13287352
0.038278565 0.83048904 0.029897869 13221559
0.038585771 0.83124804 0.030536845 13221559
0.03896391 0.83120656 0.030535027 13221561
0.03934205 0.83116508 0.030533224 13221561
0.039720189 0.83112359 0.030531406 13089975
0.040098328 0.83108211 0.030529603 13089975
0.040476471 0.83104062 0.030527785 13089975
0.040854614 0.83099914 0.030525967 13089975
0.041232757 0.83095765 0.03052415 13089975
0.041610893 0.83091617 0.030522332 13024182
0.041989036 0.83087468 0.030520529 13024182
0.042367175 0.8308332 0.030518711 13089975
0.042745315 0.83079171 0.030516893 13089975
0.043123458 0.83075023 0.03051509 13221561
0.043501597 0.83070874 0.030513272 13221561
0.043879736 0.83066726 0.030511454 13221561
0.044257876 0.83062577 0.030509636 13221561
0.044636019 0.83058429 0.030507833 13089975
0.045014158 0.8305428 0.030506015 13089975
0.045392301 0.83050132 0.030504197 13089975
0.04577044 0.83045983 0.030502394 13089975
0.046148583 0.83041835 0.030500576 13089975
0.046526719 0.83037686 0.030498758 13089975
0.046904862 0.83033538 0.03049694 13089975
0.047283005 0.83029389 0.030495122 13089975
0.047661144 0.83025241 0.030493319 13089975
0.048039287 0.83021092 0.030491501 13221561
0.048417427 0.83016944 0.030489683 13089975
0.048795566 0.83012795 0.03048788 13221561
0.049173705 0.83008647 0.030486062 13024182
0.049551845 0.83004498 0.030484244 13024182
0.049929988 0.8300035 0.030482426 13024182
0.050308127 0.82996202 0.030480623 13024182
0.05068627 0.82992053 0.030478805 12958389
0.051064406 0.82987911 0.030476987 12958387
0.051442549 0.82983762 0.030475184 12958387
0.051820688 0.82979614 0.030473366 12892594
0.052198831 0.82975465 0.030471548 12826801
0.052576974 0.82971317 0.03046973 12629422
0.053089343 0.82886422 0.02982682 12629422
0.053469107 0.82882255 0.029825002 12563627
0.05384887 0.82878089 0.029823169 12432041
0.054228634 0.82873929 0.029821351 12168869
0.054608397 0.82869756 0.029819533 12037283
0.054988161 0.82865596 0.029817715 11905697
0.055367924 0.82861423 0.029815897 11905697
0.055747688 0.82857263 0.029814065 11839134
-0.023058532 0.83306307 0.027330697 13419452
-0.022670655 0.83302051 0.027328834 13419452
-0.022282777 0.83297795 0.027326986 13353659
-0.021894896 0.83293545 0.027325124 13353659
-0.021507019 0.83289289 0.027323261 13287866
-0.021119142 0.83285034 0.027321398 13287866
-0.020553811 0.83358181 0.027957708 13287866
-0.02016755 0.83353943 0.02795586 13287866
-0.019781297 0.83349705 0.027953997 13222073
-0.01939504 0.83345467 0.02795215 13222073
-0.019008784 0.83341229 0.027950302 13222073
-0.018622531 0.83336991 0.027948454 13287866
-0.018236278 0.83332753 0.027946591 13287866
-0.017850025 0.83328521 0.027944744 13222073
-0.017463764 0.83324277 0.027942881 13222073
-0.017077511 0.83320045 0.027941033 13222073
-0.016691254 0.83315808 0.027939186 13222073
-0.016305001 0.8331157 0.027937338 13222073
-0.015918745 0.83307332 0.027935475 13222073
-0.015532492 0.83303094 0.027933627 13222073
-0.015146235 0.83298856 0.027931765 13222073
-0.014606873 0.83372289 0.028568193 13222073
-0.01422224 0.83368069 0.028566346 13222073
-0.013837608 0.83363849 0.028564498 13222073
-0.013452975 0.83359629 0.028562665 13222073
-0.013068343 0.83355409 0.028560817 13222073
-0.01268371 0.83351195 0.028558969 13222073
-0.012299078 0.83346975 0.028557122 13222073
-0.011914445 0.83342755 0.028555289 13156280
-0.011529813 0.83338535 0.028553441 13222073
-0.01114518 0.83334315 0.028551593 13222073
-0.010760548 0.83330095 0.028549746 13222073
-0.010375915 0.83325875 0.028547898 13222073
-0.0099912863 0.83321655 0.02854605 13222073
-0.0096066501 0.83317435 0.028544202 13222073
-0.0092220195 0.83313215 0.02854237 13222073
-0.008837387 0.83308995 0.028540522 13222073
-0.0084527545 0.83304775 0.028538674 13156280
-0.008068122 0.83300555 0.028536826 13156280
-0.0076834913 0.83296335 0.028534994 13156280
-0.0072988588 0.83292115 0.028533146 13222073
-0.0069142263 0.83287895 0.028531298 13156280
-0.0065295938 0.83283675 0.02852945 13156280
-0.0061449613 0.83279455 0.028527603 13156282
-0.0057603288 0.83275235 0.028525755 13156282
-0.0053756963 0.83271015 0.028523907 13222075
-0.0049910638 0.83266801 0.028522074 13222075
-0.0046064314 0.83262581 0.028520226 13156282
-0.0042217989 0.83258361 0.028518379 13156282
-0.0038371664 0.83254141 0.028516531 13222075
-0.0034525339 0.83249921 0.028514683 13156282
-0.0030679032 0.83245701 0.02851285 13156282
-0.0026832707 0.83241481 0.028511003 13156282
-0.0021974631 0.83315504 0.029147699 13156282
-0.0018144529 0.83311301 0.029145852 13156282
-0.0014314447 0.83307099 0.029144019 13156282
-0.0010484345 0.83302897 0.029142186 13156282
-0.00066542439 0.83298695 0.029140338 13156282
-0.00028241612 0.83294493 0.029138505 13156282
0.00010059401 0.83290291 0.029136673 13156280
0.00048360229 0.83286089 0.02913484 13156280
0.00086661242 0.83281887 0.029132992 13156280
0.0012496226 0.83277684 0.029131159 13222073
0.0016326308 0.83273482 0.029129326 13156793
0.002015641 0.8326928 0.029127494 13156793
0.0023986492 0.83265078 0.029125646 13156793
0.0027816594 0.83260882 0.029123813 13156793
0.0031646695 0.83256674 0.02912198 13091000
0.0035476778 0.83252478 0.029120132 13091000
0.003930686 0.8324827 0.029118299 13156793
0.0043136962 0.83244073 0.029116467 13091000
0.0046967063 0.83239871 0.029114619 13156793
0.0050797164 0.83235669 0.029112786 13091000
0.0054627247 0.83231467 0.029110953 13156793
0.0058457348 0.83227265 0.029109105 13091000
0.0062287431 0.83223063 0.029107273 13091000
0.0066117533 0.83218861 0.02910544 13091000
0.0069947625 0.83214658 0.029103592 13091000
0.0073777717 0.83210456 0.029101759 13091000
0.0077607809 0.83206254 0.029099926 13025207
0.0081437901 0.83202052 0.029098094 13091000
0.0085267983 0.8319785 0.029096261 13091000
0.008963922 0.83272409 0.029733166 13091000
0.0093453089 0.83268225 0.029731348 13091000
0.0097266957 0.83264041 0.029729515 13025207
0.010108082 0.83259857 0.029727682 13156280
0.010489468 0.83255672 0.029725865 13156280
0.010870855 0.83251488 0.029724032 13156280
0.01125224 0.83247304 0.029722199 13156280
0.011633627 0.8324312 0.029720366 13090487
0.012015014 0.83238935 0.029718533 13156280
0.0123964 0.83234751 0.029716715 13090487
0.012777787 0.83230567 0.029714882 13156280
0.013159173 0.83226383 0.02971305 13156280
0.01354056 0.83222198 0.029711217 13090487
0.013921946 0.83218014 0.029709384 13090487
0.014303332 0.8321383 0.029707566 13090487
0.014684718 0.83209646 0.029705733 13090487
0.015066106 0.83205462 0.0297039 13090487
0.01544749 0.83201277 0.029702082 13090487
0.01582888 0.83197093 0.029700249 13090487
0.016210265 0.83192909 0.029698417 13156280
0.016591651 0.83188725 0.029696584 13156280
0.016973037 0.8318454 0.029694751 13156280
0.017354423 0.83180356 0.029692933 13156280
0.017752597 0.83255339 0.030330047 13090487
0.018132359 0.83251178 0.030328229 13090487
0.01851212 0.83247006 0.030326396 13156280
0.018891888 0.83242846 0.030324578 13156280
0.019271649 0.83238673 0.03032276 13156280
0.019651415 0.83234513 0.030320928 13090487
0.020031177 0.8323034 0.03031911 13090487
0.02041094 0.8322618 0.030317292 13090487
0.020790704 0.83222014 0.030315474 13090487
0.021170465 0.83217847 0.030313656 13090487
0.021550231 0.83213681 0.030311823 13156280
0.021929994 0.83209515 0.030310005 13090487
0.02230976 0.83205348 0.030308187 13090487
0.022689521 0.83201182 0.030306354 13090487
0.023069285 0.83197016 0.030304536 13090487
0.023449048 0.83192849 0.030302718 13156280
0.023828812 0.83188683 0.0303009 13156280
0.024208575 0.83184516 0.030299082 13156280
0.024588339 0.8318035 0.03029725 13156280
0.024968104 0.83176184 0.030295432 13156280
0.025347866 0.83172017 0.030293614 13156280
0.02572763 0.83167851 0.030291781 13156280
0.026107393 0.83163685 0.030289963 13090487
0.026487157 0.83159518 0.030288145 13090487
0.02686692 0.83155352 0.030286327 13156280
0.027246682 0.83151186 0.030284509 13156280
0.027626449 0.83147019 0.030282676 13156280
0.028006211 0.83142853 0.030280858 13156280
0.028385974 0.83138686 0.03027904 13156280
0.028765738 0.8313452 0.030277207 13156280
0.029145502 0.83130354 0.03027539 13156280
0.029491737 0.83205909 0.030912772 13090487
0.029869877 0.8320176 0.030910954 13222073
0.03024802 0.83197612 0.030909136 13090487
0.030626163 0.83193463 0.030907318 13090487
0.031004298 0.83189315 0.0309055 13090487
0.031382442 0.83185166 0.030903697 13090487
0.031760581 0.83181018 0.030901879 13090487
0.03213872 0.83176869 0.030900061 13090487
0.032516863 0.83172721 0.030898258 13090487
0.032895003 0.83168572 0.03089644 13090487
0.033273142 0.83164424 0.030894622 13090487
0.033651285 0.83160275 0.030892804 13156280
0.034029424 0.83156127 0.030890986 13090487
0.034407567 0.83151978 0.030889183 13287352
0.034785703 0.8314783 0.030887365 13221559
0.03516385 0.83143681 0.030885562 13287352
0.035541989 0.83139533 0.030883744 13287352
0.035920128 0.83135384 0.030881926 13221559
0.036298271 0.83131236 0.030880108 13221559
0.036676411 0.83127087 0.030878291 13353145
0.03705455 0.83122939 0.030876487 13221559
0.037432689 0.8311879 0.03087467 13221559
0.037810832 0.83114642 0.030872852 13221559
0.038188972 0.83110493 0.030871049 13221561
0.038567115 0.83106345 0.030869231 13221561
0.038945254 0.83102196 0.030867413 13221561
0.039323393 0.83098048 0.030865595 13221561
0.039701533 0.83093899 0.030863792 13089975
0.040079672 0.83089751 0.030861974 13089975
0.040457815 0.83085603 0.030860156 13089975
0.040835958 0.83081454 0.030858353 13089975
0.041214101 0.83077306 0.030856535 13089975
0.041506782 0.8315345 0.031494156 13089975
0.041883297 0.83149314 0.031492338 13089975
0.042259812 0.83145189 0.031490535 13089975
0.042636327 0.83141053 0.031488732 13089975
0.04301285 0.83136928 0.031486928 13221561
0.043389365 0.83132792 0.031485125 13221561
0.043765888 0.83128667 0.031483307 13089975
0.044142403 0.8312453 0.031481504 13221561
0.044518918 0.83120406 0.031479701 13089975
0.044895433 0.83116269 0.031477898 13089975
0.045271955 0.83112144 0.031476095 13089975
0.045648471 0.83108008 0.031474277 13089975
0.046024993 0.83103883 0.031472474 13089975
0.046401508 0.83099747 0.031470671 13024182
0.046778023 0.83095622 0.031468868 13089975
0.047154546 0.83091486 0.031467065 13089975
0.047531061 0.83087361 0.031465247 13089975
0.047907583 0.83083224 0.031463444 13221561
0.048284099 0.830791 0.031461641 13089975
0.048660614 0.83074963 0.031459838 13221561
0.049037129 0.83070838 0.031458035 13024182
0.049413651 0.83066702 0.031456217 13024182
0.049790166 0.83062577 0.031454414 13024182
0.050166681 0.83058441 0.031452611 13024180
0.050543204 0.83054316 0.031450808 12958387
0.050919719 0.83050179 0.031449005 12958387
0.051296234 0.83046055 0.031447187 12958387
0.051672749 0.83041918 0.031445384 12892594
0.052049272 0.83037794 0.031443581 12892594
0.052425794 0.83033657 0.031441763 12629422
0.052936457 0.82948709 0.030800298 12629422
0.053314596 0.8294456 0.03079848 12563627
0.053692736 0.82940412 0.030796662 12366248
0.054070875 0.82936263 0.030794859 12168869
0.054449014 0.82932115 0.030793041 12103076
0.054827161 0.82927966 0.030791238 11971490
0.0552053 0.82923818 0.03078942 11905697
0.05558344 0.82919669 0.030787602 11839134
0.055961579 0.82915521 0.030785784 11641755
0.056488477 0.82830387 0.03014423 11378070
0.05686824 0.82826221 0.030142412 10917519
-0.023077669 0.8328737 0.02767165 13419452
-0.022689791 0.83283114 0.027669787 13419452
-0.022301914 0.83278859 0.027667925 13353659
-0.021914033 0.83274603 0.027666062 13287866
-0.021526156 0.83270347 0.027664199 13287866
-0.021138279 0.83266097 0.027662337 13287866
-0.020572869 0.83339322 0.028297231 13287866
-0.020186609 0.83335084 0.028295368 13287866
-0.019800356 0.83330846 0.02829352 13287866
-0.019414099 0.83326614 0.028291672 13222073
-0.019027842 0.8332237 0.02828981 13222073
-0.018641589 0.83318138 0.028287962 13287866
-0.018255336 0.833139 0.028286114 13287866
-0.017869083 0.83309662 0.028284252 13222073
-0.017482823 0.83305424 0.028282404 13222073
-0.01709657 0.83301187 0.028280541 13222073
-0.016710313 0.83296949 0.028278694 13222073
-0.016324056 0.83292711 0.028276846 13222073
-0.015937803 0.83288473 0.028274998 13222073
-0.01555155 0.83284235 0.028273135 13156280
-0.015165294 0.83280003 0.028271288 13222073
-0.014625849 0.83353513 0.028906286 13222073
-0.014241217 0.83349293 0.028904438 13222073
-0.013856584 0.83345073 0.02890259 13222073
-0.013471952 0.83340853 0.028900757 13222073
-0.013087319 0.83336633 0.02889891 13222073
-0.012702687 0.83332413 0.028897062 13222073
-0.012318058 0.83328193 0.028895214 13222073
-0.011933422 0.83323973 0.028893366 13156280
-0.011548789 0.83319753 0.028891519 13222073
-0.011164157 0.83315533 0.028889671 13222073
-0.010779528 0.83311319 0.028887838 13222073
-0.010394892 0.83307099 0.02888599 13222073
-0.010010263 0.83302879 0.028884143 13156280
-0.0096256305 0.83298659 0.028882295 13222073
-0.009240998 0.83294439 0.028880462 13222073
-0.0088563655 0.83290219 0.028878614 13222073
-0.008471733 0.83285999 0.028876767 13222073
-0.0080871005 0.83281779 0.028874919 13156280
-0.007702468 0.83277559 0.028873071 13156280
-0.0073178355 0.83273339 0.028871223 13222073
-0.006933203 0.83269119 0.028869376 13156280
-0.0065485705 0.83264899 0.028867543 13156280
-0.006163938 0.83260679 0.028865695 13156280
-0.0057793073 0.83256459 0.028863847 13156280
-0.0053946748 0.83252239 0.028862 13222073
-0.0050100423 0.83248019 0.028860167 13222073
-0.0046254098 0.83243799 0.028858319 13156280
-0.0042407773 0.83239579 0.028856471 13222073
-0.0038561448 0.83235359 0.028854623 13222073
-0.0034715123 0.83231145 0.028852776 13222073
-0.0030868798 0.83226925 0.028850928 13222073
-0.0027022492 0.83222705 0.02884908 13156280
-0.0022163596 0.83296806 0.029484347 13222073
-0.0018333513 0.83292603 0.029482514 13222073
-0.0014503412 0.83288401 0.029480681 13222073
-0.0010673329 0.83284199 0.029478833 13156280
-0.00068432279 0.83279997 0.029477 13156280
-0.00030131452 0.83275795 0.029475167 13156280
8.1695616e-05 0.83271593 0.029473335 13156280
0.00046470575 0.83267391 0.029471502 13156280
0.00084771402 0.83263189 0.029469654 13156280
0.0012307242 0.83258986 0.029467821 13222073
0.0016137343 0.83254784 0.029465988 13156793
0.0019967426 0.83250582 0.029464141 13156793
0.0023797527 0.8324638 0.029462308 13156793
0.002762761 0.83242178 0.029460475 13091000
0.0031457711 0.83237982 0.029458627 13091000
0.0035287794 0.83233774 0.029456794 13156793
0.0039117895 0.83229578 0.029454961 13156793
0.0042947996 0.83225369 0.029453114 13156793
0.0046778079 0.83221173 0.029451281 13156793
0.005060818 0.83216971 0.029449448 13156793
0.0054438263 0.83212769 0.0294476 13091000
0.0058268365 0.83208567 0.029445767 13091000
0.0062098457 0.83204365 0.029443935 13091000
0.0065928549 0.83200163 0.029442102 13091000
0.006975865 0.83195961 0.029440254 13091000
0.0073588733 0.83191758 0.029438421 13091000
0.0077418834 0.83187556 0.029436588 13091000
0.0081248926 0.83183354 0.029434755 13091000
0.0085079009 0.83179152 0.029432908 13091000
0.0089451037 0.83253789 0.030068412 13091000
0.0093264906 0.83249605 0.03006658 13091000
0.0097078774 0.8324542 0.030064747 13091000
0.010089263 0.83241236 0.030062929 13091000
0.010470649 0.83237052 0.030061096 13091000
0.010852037 0.83232868 0.030059263 13091000
0.011233422 0.83228683 0.030057445 13091000
0.011614809 0.83224499 0.030055612 13091000
0.011996196 0.83220315 0.030053779 13091000
0.012377582 0.83216131 0.030051947 13091000
0.012758968 0.83211946 0.030050114 13091000
0.013140354 0.83207762 0.030048296 13091000
0.013521742 0.83203578 0.030046463 13091000
0.013903128 0.83199394 0.03004463 13156280
0.014284514 0.8319521 0.030042797 13090487
0.014665902 0.83191025 0.030040964 13090487
0.015047288 0.83186841 0.030039147 13090487
0.015428673 0.83182657 0.030037314 13090487
0.015810061 0.83178478 0.030035481 13156280
0.016191447 0.83174294 0.030033648 13156280
0.016572835 0.8317011 0.030031815 13156280
0.016954221 0.83165926 0.030029997 13156280
0.017335607 0.83161741 0.030028164 13156280
0.017733859 0.83236802 0.030663848 13090487
0.018113621 0.83232635 0.03066203 13156280
0.018493382 0.83228469 0.030660212 13156280
0.01887315 0.83224303 0.030658379 13156280
0.019252911 0.83220136 0.030656561 13090487
0.019632677 0.8321597 0.030654743 13090487
0.020012438 0.83211803 0.030652925 13090487
0.020392202 0.83207637 0.030651107 13090487
0.020771965 0.83203471 0.030649275 13090487
0.021151727 0.83199304 0.030647457 13090487
0.021531492 0.83195138 0.030645639 13090487
0.021911256 0.83190972 0.030643806 13090487
0.022291021 0.83186805 0.030641988 13090487
0.022670783 0.83182645 0.03064017 13156280
0.023050547 0.83178473 0.030638352 13090487
0.02343031 0.83174312 0.030636534 13156280
0.023810074 0.8317014 0.030634701 13156280
0.024189837 0.83165979 0.030632883 13156280
0.024569601 0.83161807 0.030631065 13156280
0.024949366 0.83157647 0.030629233 13156280
0.025329128 0.83153474 0.030627415 13156280
0.025708891 0.83149314 0.030625597 13090487
0.026088655 0.83145142 0.030623779 13090487
0.026468419 0.83140981 0.030621961 13090487
0.026848182 0.83136815 0.030620128 13156280
0.027227944 0.83132648 0.03061831 13156280
0.027607711 0.83128482 0.030616492 13156280
0.027987473 0.83124316 0.030614659 13156280
0.028367236 0.83120149 0.030612841 13156280
0.028747 0.83115983 0.030611023 13156280
0.029126763 0.83111817 0.030609205 13156280
0.029473081 0.83187449 0.031245142 13156280
0.029851221 0.831833 0.031243339 13222073
0.030229364 0.83179152 0.031241521 13156280
0.030607503 0.83175004 0.031239703 13090487
0.030985642 0.83170855 0.031237885 13156280
0.031363782 0.83166707 0.031236067 13090487
0.031741925 0.83162558 0.031234264 13090487
0.032120064 0.8315841 0.031232446 13090487
0.032498203 0.83154261 0.031230628 13090487
0.032876343 0.83150113 0.031228825 13090487
0.033254482 0.83145964 0.031227008 13090487
0.033632625 0.83141816 0.03122519 13090487
0.034010764 0.83137667 0.031223372 13090487
0.034388907 0.83133519 0.031221569 13156280
0.034767043 0.8312937 0.031219751 13090487
0.03514519 0.83125222 0.031217933 13156280
0.035523329 0.83121073 0.03121613 13090487
0.035901468 0.83116925 0.031214312 13090487
0.036279611 0.83112776 0.031212494 13090487
0.036657751 0.83108628 0.031210676 13156280
0.03703589 0.83104479 0.031208858 13090487
0.037414029 0.83100331 0.031207055 13090487
0.037792172 0.83096182 0.031205237 13090487
0.038170312 0.83092034 0.031203419 13090489
0.038548455 0.83087885 0.031201616 13090489
0.038926594 0.83083737 0.031199798 13156282
0.039304733 0.83079588 0.03119798 13090489
0.039682873 0.8307544 0.031196162 12958903
0.040061012 0.83071291 0.031194359 12958903
0.040439155 0.83067143 0.031192541 12958903
0.040817298 0.83062994 0.031190723 12958903
0.041195441 0.83058846 0.03118892 12958903
0.041488204 0.83135068 0.03182511 12958903
0.041864723 0.83130938 0.031823292 12958903
0.042241238 0.83126807 0.031821489 12958903
0.042617753 0.83122677 0.031819686 12958903
0.042994272 0.83118546 0.031817883 13090489
0.043370791 0.83114415 0.03181608 12958903
0.04374731 0.83110285 0.031814262 12958903
0.044123825 0.83106154 0.031812459 13090489
0.044500344 0.83102024 0.031810656 13090489
0.044876859 0.83097893 0.031808853 12958903
0.045253377 0.83093762 0.03180705 13090489
0.045629896 0.83089632 0.031805232 12958903
0.046006415 0.83085501 0.031803429 12958903
0.04638293 0.83081371 0.031801626 12958903
0.046759449 0.8307724 0.031799823 12958903
0.047135968 0.83073109 0.03179802 13089975
0.047512483 0.83068979 0.031796202 13089975
0.047889005 0.83064848 0.031794399 13089975
0.04826552 0.83060718 0.031792596 13089975
0.048642039 0.83056587 0.031790793 13221561
0.049018554 0.83052456 0.03178899 13024182
0.049395073 0.83048326 0.031787172 13024182
0.049771588 0.83044195 0.031785369 13024182
0.050148107 0.83040065 0.031783566 13024182
0.050524626 0.83035934 0.031781763 12958389
0.050901141 0.83031803 0.03177996 12958387
0.05127766 0.83027673 0.031778142 12958387
0.051654175 0.83023542 0.031776339 12826801
0.052030697 0.83019412 0.031774536 12826801
0.052407216 0.83015281 0.031772718 12629422
0.052917797 0.82930243 0.031132683 12629422
0.053295933 0.82926095 0.031130865 12629420
0.053674072 0.82921946 0.031129047 12497834
0.054052219 0.82917798 0.031127229 12300455
0.054430358 0.82913649 0.031125426 12168869
0.054808497 0.82909501 0.031123608 12103076
0.055186637 0.82905352 0.031121805 11971490
0.055564776 0.82901204 0.031119987 11839134
0.055942915 0.82897055 0.031118169 11641755
0.056469738 0.8281185 0.030478045 11378070
0.056849502 0.82807684 0.030476213 10983312
-0.023096805 0.8326844 0.028012574 13419452
-0.022708928 0.83264184 0.028010711 13419452
-0.022321051 0.83259928 0.028008863 13353659
-0.021933174 0.83255672 0.028007001 13353659
-0.021545297 0.83251417 0.028005138 13287866
-0.021157419 0.83247161 0.028003275 13287866
-0.020591928 0.83320469 0.028636739 13287866
-0.020205667 0.83316231 0.028634891 13287866
-0.019819414 0.83311993 0.028633028 13287866
-0.019433158 0.83307755 0.028631181 13222073
-0.019046901 0.83303517 0.028629318 13222073
-0.018660648 0.83299279 0.02862747 13287866
-0.018274395 0.83295041 0.028625622 13287866
-0.017888142 0.83290803 0.028623775 13222073
-0.017501881 0.83286566 0.028621912 13222073
-0.017115628 0.83282328 0.028620064 13287866
-0.016729372 0.83278096 0.028618202 13222073
-0.016343115 0.83273852 0.028616354 13222073
-0.015956862 0.8326962 0.028614506 13222073
-0.015570609 0.83265382 0.028612658 13156280
-0.015184352 0.83261144 0.028610796 13222073
-0.01464483 0.83334732 0.029244378 13287866
-0.014260193 0.83330512 0.02924253 13222073
-0.013875565 0.83326292 0.029240683 13222073
-0.013490932 0.83322078 0.029238835 13222073
-0.0131063 0.83317858 0.029236987 13222073
-0.012721667 0.83313638 0.029235139 13222073
-0.012337035 0.83309418 0.029233292 13222073
-0.011952402 0.83305198 0.029231459 13222073
-0.01156777 0.83300978 0.029229611 13222073
-0.011183137 0.83296758 0.029227763 13222073
-0.010798505 0.83292538 0.029225916 13222073
-0.010413872 0.83288318 0.029224083 13287866
-0.01002924 0.83284098 0.029222235 13222073
-0.0096446071 0.83279878 0.029220387 13222073
-0.0092599746 0.83275664 0.02921854 13222073
-0.0088753421 0.83271444 0.029216692 13222073
-0.0084907096 0.83267224 0.029214844 13156280
-0.0081060771 0.83263004 0.029212996 13156280
-0.0077214465 0.83258784 0.029211164 13156280
