# .PCD v0.7 - Point Cloud Data file format
VERSION 0.7
FIELDS x y z rgb
SIZE 4 4 4 4
TYPE F F F U
COUNT 1 1 1 1
WIDTH 1097
HEIGHT 1
VIEWPOINT 0 0 0 1 0 0 0
POINTS 1097
DATA ascii
0.056994751 0.82553279 0.055951603 13154215
0.05725804 0.82529086 0.05595164 12891043
0.057521328 0.82504892 0.055951677 12693662
0.057784617 0.82480705 0.055951715 12496283
0.058047906 0.82456511 0.055951744 12299158
0.058311194 0.82432318 0.055951782 12035986
0.05857449 0.82408124 0.055951819 11838607
0.058837779 0.82383931 0.055951856 11575435
0.059101067 0.82359743 0.055951893 11443336
0.058897361 0.82265526 0.055391066 11180164
0.059161857 0.82241225 0.055391103 11113857
0.059426345 0.82216918 0.055391133 10916478
0.059690833 0.82192618 0.05539117 10784122
0.059955329 0.82168317 0.055391207 10652536
0.05975882 0.82073438 0.054830387 10324341
0.060024515 0.82049024 0.054830424 10126962
0.060290202 0.8202461 0.054830462 9995376
0.048744962 0.83061266 0.05514311 16382433
0.049010657 0.83036852 0.055143148 16513508
0.049276352 0.83012438 0.055143185 16513508
0.050049283 0.83054465 0.055702657 16513508
0.050313771 0.83030164 0.055702694 16447715
0.050578266 0.83005857 0.055702731 16512738
0.050842762 0.82981557 0.055702761 16446945
0.05110725 0.82957256 0.055702798 16512225
0.051371746 0.82932955 0.055702835 16183260
0.052136242 0.82975751 0.056262314 16379355
0.052399531 0.82951564 0.056262352 16313562
0.05266282 0.8292737 0.056262389 16443865
0.052926116 0.82903177 0.056262426 16180693
0.053189404 0.82878983 0.056262463 16311250
0.053452693 0.82854795 0.056262493 16113871
0.054208793 0.82898366 0.056821965 16112842
0.054470882 0.82874286 0.056822002 15915463
0.054732963 0.82850206 0.056822039 15520451
0.05499506 0.82826126 0.056822076 15323072
0.055257142 0.82802039 0.056822106 14928829
0.055519231 0.82777959 0.056822143 14665657
0.05578132 0.82753879 0.056822181 14403255
0.056043409 0.82729799 0.056822218 14271669
0.056305498 0.82705712 0.056822255 13943218
0.05656758 0.82681632 0.056822285 13811632
0.056829676 0.82657552 0.056822322 13548973
0.057091758 0.82633471 0.05682236 13351594
0.056875467 0.82540298 0.056262963 13154215
0.057138756 0.8251611 0.056263 12891043
0.057402045 0.82491916 0.05626303 12693662
0.057665341 0.82467723 0.056263067 12496283
0.057928629 0.82443535 0.056263104 12299158
0.058191918 0.82419342 0.056263141 12035986
0.058455214 0.82395148 0.056263179 11838607
0.058718503 0.82370955 0.056263208 11707021
0.058981791 0.82346761 0.056263246 11443336
0.058777533 0.82252491 0.055703841 11180164
0.059042029 0.82228184 0.055703878 11113857
0.059306517 0.82203883 0.055703916 10916478
0.059571013 0.82179582 0.055703953 10718329
0.059835501 0.82155281 0.05570399 10652536
0.059638448 0.82060337 0.055144593 10455157
0.059904143 0.82035929 0.05514463 10257778
0.060169838 0.82011515 0.055144668 9994606
0.04862459 0.83048171 0.055457309 16448226
0.048890293 0.83023757 0.055457346 16448226
0.04915598 0.82999343 0.055457383 16448226
0.050437219 0.83107924 0.056573458 16513508
0.050700516 0.83083737 0.056573495 16513508
0.050963804 0.83059543 0.056573533 16446945
0.051227093 0.8303535 0.05657357 16446945
0.051490381 0.83011162 0.056573607 16512227
0.05175367 0.82986969 0.056573637 16380641
0.052016966 0.82962775 0.056573674 16379357
0.052280255 0.82938588 0.056573711 16313564
0.052543543 0.82914394 0.056573749 16378072
0.053303793 0.82957691 0.057131797 16180693
0.053565882 0.82933611 0.057131834 16245459
0.053827971 0.8290953 0.057131872 16113873
0.054090053 0.8288545 0.057131901 16046795
0.054352142 0.82861364 0.057131939 15849416
0.054614231 0.82837284 0.057131976 15389380
0.055366069 0.82881361 0.057690032 15126208
0.055626951 0.82857388 0.057690069 14863806
0.055887833 0.82833421 0.057690099 14469048
0.056148723 0.82809448 0.057690136 14272183
0.056409612 0.82785475 0.057690173 14140597
0.056670494 0.82761502 0.057690211 13746352
0.056931376 0.82737535 0.057690248 13680559
0.056710936 0.82644635 0.057132259 13418157
0.056973025 0.82620555 0.057132296 13220778
0.057235114 0.82596469 0.057132334 12957606
0.057497203 0.82572389 0.057132371 12760227
0.057759285 0.82548308 0.057132401 12497053
0.058021374 0.82524228 0.057132438 12365467
0.058283463 0.82500148 0.057132475 12299158
0.058545552 0.82476068 0.057132512 12035986
0.05833593 0.82382172 0.056574538 11838607
0.058599219 0.82357979 0.056574568 11575435
0.058862507 0.82333791 0.056574605 11377802
0.059125803 0.82309598 0.056574643 11114630
0.059389092 0.82285404 0.05657468 11113603
0.059652381 0.82261211 0.056574717 10916224
0.059915669 0.82237017 0.056574747 10784122
0.060178965 0.8221283 0.056574784 10652536
0.060442254 0.82188636 0.056574821 10455155
0.059783772 0.82022834 0.055458829 10257776
0.060049467 0.8199842 0.055458866 9994604
0.050317943 0.83094949 0.056884818 16448228
0.050581232 0.83070755 0.056884855 16448228
0.05084452 0.83046567 0.056884892 16316129
0.051107809 0.83022374 0.05688493 16316129
0.051371105 0.8299818 0.056884967 16446434
0.051634394 0.82973993 0.056884997 16249055
0.051897682 0.82949799 0.056885034 16445150
0.052160971 0.82925606 0.056885071 16379357
0.052424267 0.82901418 0.056885108 16311766
0.053185061 0.82944775 0.057441734 16180180
0.053447142 0.82920694 0.057441771 16376275
0.053709231 0.82896614 0.057441808 16113103
0.05397132 0.82872534 0.057441838 15915722
0.054233409 0.82848448 0.057441875 15586757
0.054495499 0.82824367 0.057441913 15126978
0.055247873 0.82868505 0.057998545 14929599
0.055508763 0.82844532 0.057998583 14535870
0.055769652 0.82820559 0.05799862 14206905
0.056030527 0.82796586 0.057998657 14010296
0.056291416 0.82772619 0.057998687 13747124
0.056552306 0.82748646 0.057998724 13353649
0.056813188 0.82724679 0.057998762 13222063
0.056592204 0.82631719 0.057442196 13024684
0.056854293 0.82607639 0.057442233 12958891
0.057116374 0.82583553 0.05744227 12760742
0.057378463 0.82559472 0.057442307 12629156
0.057640553 0.82535392 0.057442337 12431775
0.057902642 0.82511312 0.057442375 12168603
0.058164731 0.82487226 0.057442412 12102297
0.05842682 0.82463145 0.057442449 11839125
0.058216646 0.82369196 0.056885898 11707537
0.058479942 0.82345003 0.056885928 11444365
0.058743231 0.82320809 0.056885965 11312009
0.05900652 0.82296622 0.056886002 11048837
0.059269808 0.82272428 0.05688604 11113603
0.059533104 0.82248235 0.056886077 10916224
0.059796393 0.82224041 0.056886107 10653306
0.060059682 0.82199848 0.056886144 10521720
0.06032297 0.8217566 0.056886181 10324339
0.050198659 0.83081973 0.057196178 16579814
0.050461955 0.83057779 0.057196215 16579814
0.050725244 0.83033592 0.057196252 16381922
0.050988533 0.83009398 0.057196289 16250336
0.051251821 0.82985204 0.057196319 16446434
0.051515117 0.82961011 0.057196356 16380641
0.051778406 0.82936823 0.057196394 16445150
0.052041695 0.8291263 0.057196431 16247771
0.052304983 0.82888436 0.057196468 16180693
0.053066328 0.82931858 0.05775167 16114900
0.05332841 0.82907778 0.057751708 15851215
0.053590499 0.82883692 0.057751745 15719629
0.053852588 0.82859612 0.057751775 14997189
0.05411467 0.82835531 0.057751812 14931396
0.054376766 0.82811451 0.057751849 14273981
0.055129685 0.82855642 0.058307067 14142395
0.055390574 0.82831669 0.058307096 13813946
0.055651456 0.82807702 0.058307134 13748153
0.055912346 0.82783729 0.058307171 13551288
0.056173228 0.82759762 0.058307208 12893358
0.05643411 0.82735789 0.058307238 12893358
0.056694999 0.82711816 0.058307275 12630186
0.056473464 0.82618797 0.057752132 12630440
0.056735553 0.82594717 0.05775217 12433061
0.056997642 0.82570636 0.057752207 12497568
0.057259731 0.82546556 0.057752244 12431775
0.05752182 0.82522476 0.057752274 12168603
0.057783902 0.82498395 0.057752311 11971224
0.058045998 0.82474309 0.057752348 11839638
0.05830808 0.82450229 0.057752386 11773845
0.05809737 0.82356215 0.057197258 11379087
0.058360659 0.82332027 0.057197288 11181708
0.058623955 0.82307833 0.057197325 10983814
0.058887243 0.8228364 0.057197362 10852228
0.059150532 0.82259452 0.057197399 10851458
0.059413821 0.82235259 0.057197437 10588286
0.059677109 0.82211065 0.057197466 10456441
0.059940398 0.82186878 0.057197504 10324855
0.060203694 0.82162684 0.057197541 10127474
0.04928951 0.83141571 0.057507426 16711398
0.049552798 0.83117378 0.057507463 16579814
0.049816094 0.8309319 0.0575075 16579814
0.050079383 0.83068997 0.057507537 16448228
0.050342679 0.83044803 0.057507575 16448228
0.050605968 0.83020616 0.057507612 16316129
0.051375061 0.8306343 0.058061391 16250336
0.051637143 0.83039343 0.058061428 16380639
0.051899239 0.83015263 0.058061466 16380639
0.052161321 0.82991183 0.058061503 16379355
0.05242341 0.82967103 0.05806154 16247769
0.052685499 0.82943022 0.05806157 16247256
0.053446181 0.82986611 0.058615364 15918291
0.053707063 0.82962638 0.058615401 15130060
0.053967953 0.82938671 0.058615439 14801095
0.054228835 0.82914698 0.058615468 13814462
0.054489724 0.82890725 0.058615506 13419704
0.054750606 0.82866752 0.058615543 13156791
0.055011496 0.82842785 0.05861558 12762033
0.055272385 0.82818812 0.05861561 12367275
0.055533268 0.82794845 0.058615647 11972517
0.05579415 0.82770872 0.058615685 11381150
0.056055039 0.82746899 0.058615722 11381150
0.056315921 0.82722926 0.058615759 11381150
0.056576811 0.82698959 0.058615789 11117978
0.056837693 0.82674986 0.058615826 10855060
0.057098582 0.82651019 0.058615863 10789267
0.057359464 0.82627046 0.058615893 10459271
0.057620354 0.82603073 0.05861593 10261892
0.057881236 0.825791 0.058615968 10392962
0.058142126 0.82555133 0.058616005 10787720
0.058403008 0.8253116 0.058616042 10590343
0.058663897 0.82507193 0.058616072 10656136
0.058451436 0.82413232 0.05806236 10194815
0.058713526 0.82389152 0.058062389 10589573
0.058975615 0.82365066 0.058062427 10523780
0.059237704 0.82340986 0.058062464 10523780
0.059499785 0.82316905 0.058062501 10391679
0.059761874 0.82292825 0.058062539 10325886
0.059557833 0.82198089 0.057508826 10390907
0.059821121 0.82173896 0.057508864 10259321
0.060084417 0.82149708 0.057508901 10127476
0.060347706 0.82125515 0.057508931 9930097
0.060610995 0.82101321 0.057508968 9797995
0.060874283 0.82077128 0.057509005 9797995
0.049170233 0.83128595 0.057818785 16579812
0.049433522 0.83104402 0.057818823 16645607
0.049696811 0.83080208 0.05781886 16579814
0.049960107 0.83056021 0.057818897 16448228
0.050223395 0.83031827 0.057818934 16448228
0.050486684 0.83007634 0.057818972 16512738
0.051256329 0.83050513 0.058371335 16183773
0.05151841 0.83026427 0.058371365 16380125
0.0517805 0.83002347 0.058371402 16511711
0.052042589 0.82978266 0.05837144 15984084
0.052304678 0.82954186 0.058371477 15523533
0.052566767 0.829301 0.058371514 14340544
0.053327993 0.82973754 0.058923878 14011579
0.053588875 0.82949781 0.058923915 12960434
0.053849757 0.82925808 0.058923952 12499883
0.054110646 0.82901835 0.05892399 12434351
0.054371536 0.82877868 0.058924019 12565937
0.054632418 0.82853895 0.058924057 12172210
0.0548933 0.82829928 0.058924094 12238003
0.055154189 0.82805955 0.058924131 12041140
0.055415079 0.82781982 0.058924168 11646382
0.055675961 0.82758009 0.058924198 10923942
0.055936851 0.82734042 0.058924235 11055528
0.056197733 0.82710069 0.058924273 11187114
0.056458622 0.82686102 0.05892431 10989735
0.056719504 0.82662129 0.05892434 10594977
0.056980386 0.82638156 0.058924377 10266012
0.057241276 0.82614183 0.058924414 10462360
0.057502165 0.82590216 0.058924451 9936016
0.057763048 0.82566243 0.058924481 9803658
0.05802393 0.82542276 0.058924519 9474693
0.058284819 0.82518303 0.058924556 9013885
0.058545709 0.8249433 0.058924593 8750713
0.058332697 0.8240031 0.058372296 8881016
0.058594793 0.8237623 0.058372334 9275774
0.058856875 0.82352149 0.058372363 9341049
0.059118964 0.82328069 0.058372401 9406842
0.059381053 0.82303989 0.058372438 9537655
0.059643142 0.82279909 0.058372475 9603448
0.059438556 0.82185113 0.057820186 9800057
0.059701845 0.8216092 0.057820223 9865850
0.059965134 0.82136726 0.057820261 9931126
0.060228422 0.82112539 0.05782029 9733747
0.060491711 0.82088345 0.057820328 9601643
0.060755 0.82064152 0.057820365 9535850
0.04905095 0.83115619 0.058130145 16579812
0.049314246 0.83091426 0.058130182 16645092
0.049577534 0.83067232 0.05813022 16513506
0.049840823 0.83043039 0.058130257 16447713
0.050104111 0.83018851 0.058130294 16447713
0.0503674 0.82994658 0.058130324 16578018
0.051137589 0.83037591 0.058681265 16249053
0.051399678 0.83013511 0.058681302 15984599
0.051661767 0.8298943 0.058681339 15195083
0.051923856 0.8296535 0.058681376 13945786
0.052185938 0.8294127 0.058681414 13419442
0.052448027 0.82917184 0.058681443 13159096
0.053209797 0.82960892 0.059232399 12961717
0.053470686 0.82936919 0.059232429 12831678
0.053731576 0.82912952 0.059232466 13423815
0.053992458 0.82888979 0.059232503 13950674
0.05425334 0.82865012 0.05923254 13819088
0.054514229 0.82841039 0.05923257 13950420
0.054775111 0.82817066 0.059232607 13950420
0.055036001 0.82793093 0.059232645 13753811
0.055296883 0.82769126 0.059232682 13227467
0.055557773 0.82745153 0.059232712 12635330
0.055818662 0.82721186 0.059232749 12372158
0.056079544 0.82697213 0.059232786 11976630
0.056340426 0.8267324 0.059232824 11516079
0.056601316 0.82649267 0.059232861 11516079
0.056862198 0.826253 0.059232891 11581872
0.057123087 0.82601327 0.059232928 11582126
0.057383969 0.8257736 0.059232965 11845298
0.057644859 0.82553387 0.059232995 11976884
0.057905741 0.82529414 0.059233032 11976884
0.058166631 0.82505447 0.059233069 11055782
0.058427513 0.82481474 0.059233107 10134680
0.058213964 0.82387394 0.058682233 9147272
0.058476053 0.82363313 0.05868227 9147272
0.058738142 0.82339233 0.0586823 8949889
0.059000231 0.82315147 0.058682337 8489338
0.05926232 0.82291067 0.058682375 8553845
0.059524402 0.82266986 0.058682412 8422259
0.059319273 0.82172132 0.058131546 8945778
0.059582561 0.82147944 0.058131583 8945778
0.05984585 0.8212375 0.058131613 9339504
0.060109138 0.82099557 0.05813165 9405297
0.060372435 0.82075369 0.058131687 9404782
0.060635723 0.82051176 0.058131725 9404782
0.048931673 0.83102643 0.058441505 16448226
0.049194962 0.8307845 0.058441542 16381920
0.04945825 0.83054256 0.058441579 16381920
0.049721539 0.83030063 0.058441617 16380637
0.049984835 0.83005869 0.058441654 16512223
0.050248124 0.82981682 0.058441684 15787990
0.051018856 0.83024675 0.058991209 14340544
0.051280946 0.83000594 0.058991238 13288118
0.051543027 0.82976508 0.058991276 12827567
0.052308947 0.83019948 0.059540808 13094332
0.052569836 0.82995975 0.059540838 13949641
0.052830726 0.82972002 0.059540875 14609883
0.053091608 0.82948035 0.059540913 15202020
0.05335249 0.82924062 0.05954095 14346200
0.05361338 0.82900095 0.059540987 13227719
0.054370873 0.82944298 0.060090497 12568504
0.054630555 0.82920438 0.060090534 12436918
0.054890238 0.82896578 0.060090572 12501941
0.05514992 0.82872719 0.060090609 12304562
0.05540961 0.82848859 0.060090646 12304564
0.055669293 0.82824999 0.060090676 12041392
0.055928975 0.82801139 0.060090713 11712427
0.056188658 0.82777274 0.06009075 11383462
0.05644834 0.8275342 0.06009078 11382435
0.056708023 0.82729554 0.060090818 11382435
0.056967705 0.82705694 0.060090855 11447458
0.057227388 0.82681835 0.060090892 11513251
0.057487071 0.82657975 0.060090929 11513249
0.057265781 0.82564497 0.059541479 11447456
0.05752667 0.82540524 0.059541516 11316894
0.057787552 0.82516557 0.059541553 11053722
0.058048442 0.82492584 0.059541583 10922139
0.058309324 0.82468617 0.05954162 10527381
0.058570206 0.82444644 0.059541658 9804428
0.058831096 0.82420671 0.059541695 9738635
0.059091985 0.82396704 0.059541732 9805965
0.058881491 0.82302231 0.058992274 10134930
0.059143588 0.8227815 0.058992311 9674895
0.05940567 0.8225407 0.058992349 9477516
0.059667759 0.8222999 0.058992386 8422259
0.059929848 0.82205904 0.058992416 8027501
0.060191937 0.82181823 0.058992453 8551272
0.060454026 0.82157743 0.05899249 8617065
0.060716107 0.82133663 0.058992527 9010537
0.060978197 0.82109582 0.058992565 9142123
0.048812389 0.83089662 0.058752865 16316640
0.049075685 0.83065474 0.058752902 16446430
0.049338974 0.83041281 0.058752939 16183258
0.049602263 0.83017087 0.058752969 15918291
0.049865559 0.82992899 0.058753006 14799810
0.050128847 0.82968706 0.058753043 13683128
0.050900117 0.83011758 0.059301145 14538437
0.051162206 0.82987678 0.059301183 14739925
0.051424295 0.82963592 0.059301212 15924199
0.052190766 0.83007085 0.059849322 16121840
0.052451648 0.82983118 0.059849352 14741723
0.05271253 0.82959145 0.059849389 12963516
0.052973419 0.82935178 0.059849426 11713449
0.053234309 0.82911205 0.059849463 11645859
0.053495191 0.82887232 0.059849501 11909031
0.054253221 0.82931501 0.060397595 12631984
0.054512911 0.82907641 0.060397632 12631984
0.054772593 0.82883781 0.060397662 13355194
0.055032276 0.82859921 0.060397699 13618366
0.055291966 0.82836056 0.060397737 13618366
0.055551648 0.82812202 0.060397774 13947331
0.055811331 0.82788336 0.060397804 13158074
0.056071013 0.82764477 0.060397841 12894902
0.056330696 0.82740617 0.060397878 13026488
0.056590378 0.82716757 0.060397916 12829109
0.056850061 0.82692897 0.060397945 12960436
0.057109743 0.82669038 0.060397983 12302506
0.057369426 0.82645178 0.06039802 12039334
0.057147592 0.8255164 0.059849992 11644576
0.057408482 0.82527667 0.05985003 11512220
0.057669364 0.825037 0.059850067 10854290
0.057930246 0.82479727 0.059850104 10328198
0.058191136 0.82455754 0.059850134 9999233
0.058452018 0.82431787 0.059850171 9999231
0.058712907 0.82407814 0.059850208 10065024
0.058973789 0.82383847 0.059850246 9868928
0.058762759 0.82289314 0.059302211 9803135
0.059024848 0.82265234 0.059302248 10068622
0.059286937 0.82241154 0.059302285 10200208
0.059549019 0.82217073 0.059302323 10069653
0.059811115 0.82192987 0.059302352 9543309
0.060073197 0.82168907 0.05930239 8094062
0.060335286 0.82144827 0.059302427 7567718
0.060597375 0.82120746 0.059302464 8221793
0.060859464 0.8209666 0.059302494 8550758
0.048693113 0.83076686 0.059064224 16117465
0.048956409 0.83052492 0.059064262 15721423
0.049219698 0.83028305 0.059064299 15458251
0.049482986 0.83004111 0.059064329 15130056
0.049746275 0.82979918 0.059064366 16051158
0.050009564 0.8295573 0.059064403 16776939
0.050781384 0.82998836 0.059611082 16777197
0.051043473 0.82974756 0.059611112 16711663
0.051305562 0.82950675 0.059611149 16251624
0.05207257 0.82994229 0.060157835 13882819
0.052333459 0.82970262 0.060157873 11777443
0.052594341 0.82946289 0.060157903 12236711
0.052855231 0.82922316 0.06015794 12236711
0.053116113 0.82898343 0.060157977 13091250
0.053377002 0.82874376 0.060158014 14736075
0.054135576 0.82918704 0.060704686 15196113
0.054395266 0.82894838 0.060704723 15525078
0.054654948 0.82870984 0.06070476 15590871
0.054914631 0.82847118 0.060704798 15261906
0.055174313 0.82823259 0.060704827 15064527
0.055433996 0.82799399 0.060704865 14932941
0.055693679 0.82775539 0.060704902 14604491
0.055953369 0.82751679 0.060704932 14472905
0.056213051 0.8272782 0.060704969 14275526
0.056472734 0.8270396 0.060705006 14012354
0.056732416 0.82680094 0.060705043 13683389
0.056992099 0.82656235 0.060705081 13617596
0.057251781 0.82632375 0.06070511 13420987
0.057029396 0.82538784 0.060158506 13092022
0.057290286 0.82514811 0.060158543 12762287
0.057551175 0.82490838 0.060158581 13091252
0.057812057 0.82466871 0.060158618 12301221
0.05807294 0.82442898 0.060158655 12038049
0.058333829 0.82418931 0.060158685 11577750
0.058594719 0.82394958 0.060158722 10919820
0.058855601 0.82370985 0.060158759 10393728
0.058644027 0.82276398 0.059612148 9801591
0.058906116 0.82252312 0.059612185 9737342
0.059168205 0.82228231 0.059612222 10329479
0.059430286 0.82204151 0.059612259 9937038
0.059692375 0.82180071 0.059612289 10068624
0.059954464 0.82155991 0.059612326 9543563
0.060216554 0.8213191 0.059612364 9543563
0.060478643 0.8210783 0.059612401 8225132
0.060740724 0.82083744 0.059612438 7764581
0.047783963 0.83136284 0.059375472 16512738
0.048047252 0.83112091 0.05937551 16183773
0.048310548 0.83087897 0.059375547 15590611
0.048573837 0.8306371 0.059375584 15459025
0.048837125 0.83039516 0.059375621 16183008
0.049100414 0.83015323 0.059375651 16775402
0.049876384 0.83058167 0.059920907 16777196
0.050138474 0.83034086 0.059920944 16777196
0.050400563 0.8301 0.059920982 16776938
0.050662652 0.8298592 0.059921019 16381152
0.05143261 0.83029312 0.060466282 14143163
0.051693492 0.83005345 0.060466312 12564131
0.051954381 0.82981372 0.060466349 12102812
0.052215263 0.82957399 0.060466386 11971226
0.052476153 0.82933426 0.060466424 13353909
0.053238884 0.82977486 0.061011672 14998734
0.053498566 0.8295362 0.061011709 15919322
0.053758249 0.82929766 0.061011747 16379873
0.054017931 0.829059 0.061011784 15984599
0.054277614 0.82882041 0.061011814 15918806
0.054537296 0.82858181 0.061011851 15984086
0.054796979 0.82834321 0.061011888 15786707
0.055056669 0.82810462 0.061011925 15458255
0.055316351 0.82786602 0.061011955 15260876
0.055576034 0.82762742 0.061011992 15063243
0.055835724 0.82738876 0.06101203 14931657
0.056095406 0.82715017 0.061012067 14603462
0.056355089 0.82691157 0.061012097 14340290
0.056614771 0.82667297 0.061012134 13814973
0.056874454 0.82643437 0.061012171 13617594
0.057134137 0.82619578 0.061012208 13551801
0.057393819 0.82595718 0.061012238 13354422
0.057653502 0.82571852 0.061012276 13222323
0.057913184 0.82547998 0.061012313 12893358
0.058172867 0.82524133 0.061012343 12695981
0.058432549 0.82500273 0.06101238 12498602
0.058692239 0.82476413 0.061012417 12367266
0.058476523 0.82382095 0.060467236 11906715
0.058737412 0.82358128 0.060467273 12103062
0.058998294 0.82334155 0.06046731 11510925
0.059259184 0.82310188 0.060467348 10195581
0.059520066 0.82286215 0.060467377 9998202
0.059780955 0.82262242 0.060467415 9539965
0.060041837 0.82238269 0.060467452 9539965
0.060302719 0.82214302 0.060467489 9409152
0.060097814 0.82118988 0.0599223 9606531
0.06035991 0.82094908 0.059922338 9344899
0.060621992 0.82070827 0.059922367 9608071
0.060884081 0.82046747 0.059922405 8619379
0.06114617 0.82022667 0.059922442 8027242
0.061408259 0.81998587 0.059922479 8747367
0.047664687 0.83123308 0.059686832 15787988
0.047927976 0.83099115 0.059686869 15261644
0.048191264 0.83074927 0.059686907 16052707
0.048454553 0.83050734 0.059686944 16776430
0.048717842 0.8302654 0.059686974 16776943
0.04898113 0.83002347 0.059687011 16777200
0.049757652 0.83045244 0.060230844 16777197
0.050019741 0.83021164 0.060230881 16315361
0.050281823 0.82997084 0.060230918 14076087
0.050543919 0.82973003 0.060230955 13023399
0.051314421 0.83016455 0.060774796 13220778
0.051575303 0.82992482 0.060774833 13549743
0.051836193 0.82968509 0.060774863 14143165
0.052097075 0.82944542 0.0607749 15064267
0.052357957 0.82920569 0.060774937 16446434
0.053121239 0.82964683 0.06131877 16512227
0.053380921 0.82940823 0.061318807 16380127
0.053640604 0.82916963 0.061318837 16314334
0.053900287 0.82893103 0.061318874 16576221
0.054159969 0.82869244 0.061318912 16049877
0.054419652 0.82845384 0.061318949 16180693
0.054679334 0.82821524 0.061318979 15917521
0.054939024 0.82797658 0.061319016 15589326
0.055198707 0.82773799 0.061319053 15326154
0.055458389 0.82749939 0.06131909 15195083
0.055718072 0.82726079 0.06131912 14931911
0.055977754 0.82702219 0.061319157 14603716
0.056237444 0.8267836 0.061319195 14340544
0.056497127 0.826545 0.061319232 13880507
0.056756809 0.82630634 0.061319262 13748921
0.057016492 0.82606781 0.061319299 13617335
0.057276174 0.82582915 0.061319336 13354163
0.057535857 0.82559055 0.061319374 13156530
0.057795539 0.82535195 0.061319403 12959151
0.058055222 0.82511336 0.061319441 12761772
0.058314905 0.82487476 0.061319478 12498600
0.058574595 0.82463616 0.061319515 12433061
0.058358334 0.82369238 0.060775757 12038303
0.058619216 0.82345271 0.060775787 12037015
0.058880106 0.82321298 0.060775824 11839636
0.059140995 0.82297325 0.060775861 11576205
0.059401877 0.82273352 0.060775891 10391931
0.059662759 0.82249385 0.060775928 9603958
0.059923649 0.82225412 0.060775965 9406579
0.060184531 0.82201445 0.060776003 8947313
0.059979081 0.82106072 0.060232237 8552555
0.06024117 0.82081991 0.060232274 9343613
0.060503259 0.82057911 0.060232311 9606785
0.060765348 0.82033825 0.060232341 9279106
0.061027437 0.82009745 0.060232379 8884348
0.061289519 0.81985664 0.060232416 7828580
0.047545403 0.83110332 0.059998192 16381152
0.047808692 0.83086139 0.059998229 16776938
0.04807198 0.83061945 0.059998266 16777200
0.048335277 0.83037758 0.059998304 16777200
0.048598565 0.83013564 0.059998333 16776940
0.048861854 0.82989371 0.059998371 16117982
0.049638912 0.83032328 0.06054078 14667454
0.049901009 0.83008248 0.060540818 13548973
0.05016309 0.82984167 0.060540855 13286571
0.050425179 0.82960087 0.060540892 14141880
0.051196232 0.83003592 0.061083309 15393232
0.051457115 0.82979625 0.061083347 16643299
0.051717997 0.82955652 0.061083384 16776940
0.051978886 0.82931685 0.061083414 16776683
0.052239768 0.82907712 0.061083451 16644326
0.053003594 0.82951885 0.061625861 16446947
0.053263277 0.82928026 0.061625898 16380639
0.053522959 0.82904166 0.061625935 16380639
0.053782642 0.82880306 0.061625972 16444635
0.054042324 0.82856441 0.061626002 16115670
0.054302007 0.82832581 0.061626039 16180180
0.054561689 0.82808721 0.061626077 15982801
0.054821379 0.82784861 0.061626107 15588556
0.055081062 0.82761002 0.061626144 15456970
0.055340745 0.82737142 0.061626181 15260361
0.055600427 0.82713282 0.061626218 14997189
0.05586011 0.82689416 0.061626256 14800325
0.056119792 0.82665563 0.061626285 14471360
0.056379482 0.82641697 0.061626323 14143165
0.056639157 0.82617837 0.06162636 13814200
0.056898847 0.82593977 0.06162639 13419956
0.05715853 0.82570118 0.061626427 13354163
0.057418212 0.82546258 0.061626464 13156784
0.057677895 0.82522398 0.061626501 12959405
0.057937577 0.82498538 0.061626531 12762026
0.05819726 0.82474673 0.061626568 12630440
0.058456942 0.82450813 0.061626606 12433061
0.058240145 0.82356381 0.06108427 12038303
0.058501028 0.82332408 0.0610843 12102808
0.058761917 0.82308435 0.061084338 11839636
0.059022799 0.82284468 0.061084375 11444619
0.059283689 0.82260495 0.061084412 11181447
0.059544571 0.82236528 0.061084449 10655103
0.05980546 0.82212555 0.061084479 10326138
0.060066342 0.82188582 0.061084516 9274481
0.059860349 0.82093155 0.060542174 8879723
0.060122438 0.82069075 0.060542211 8486764
0.060384527 0.82044995 0.060542248 8486764
0.060646608 0.82020909 0.060542285 8883578
0.060908698 0.81996828 0.060542315 9541508
0.061170787 0.81972748 0.060542352 9279108
0.047426127 0.83097351 0.060309552 16777196
0.047689416 0.83073163 0.060309589 16777196
0.047952704 0.8304897 0.060309626 16776681
0.048215993 0.83024776 0.060309656 16381152
0.048479289 0.83000588 0.060309693 14864572
0.048742577 0.82976395 0.06030973 13746091
0.04952018 0.83019412 0.060850725 13680044
0.050295383 0.83062649 0.061391719 14732732
0.050556265 0.83038676 0.061391756 16183008
0.050817154 0.83014709 0.061391793 16776173
0.051587529 0.83058387 0.06193278 16776942
0.051847212 0.83034527 0.061932817 16776428
0.052106895 0.83010668 0.061932847 16711400
0.052366577 0.82986808 0.061932884 16645607
0.052626267 0.82962948 0.061932921 16513508
0.05288595 0.82939088 0.061932959 16381922
0.05364792 0.82983541 0.062473953 16380637
0.053906403 0.82959789 0.062473983 16183258
0.054164886 0.82936037 0.06247402 16378840
0.054423362 0.8291229 0.062474057 16115668
0.054681845 0.82888538 0.062474094 16049105
0.054940328 0.82864791 0.062474124 15785933
0.055198811 0.82841039 0.062474161 15588556
0.055457294 0.82817292 0.062474199 15391177
0.05571577 0.8279354 0.062474236 15128775
0.055974253 0.82769787 0.062474266 14931396
0.056232736 0.82746041 0.062474303 14602946
0.056491211 0.82722288 0.06247434 14471360
0.056749694 0.82698536 0.06247437 14143165
0.057008177 0.82674789 0.062474407 13814200
0.05726666 0.82651037 0.062474445 13682614
0.057525143 0.8262729 0.062474482 13353649
0.057783619 0.82603538 0.062474512 13287856
0.058042102 0.82579792 0.062474549 13090477
0.057819933 0.82485735 0.061933629 12893098
0.058079615 0.82461876 0.061933659 12761512
0.058339298 0.82438016 0.061933696 12498340
0.05859898 0.82414156 0.061933734 12103582
0.05885867 0.82390296 0.061933771 12102808
0.058643728 0.82295579 0.061392859 11708050
0.058904611 0.82271612 0.061392888 11444619
0.059165493 0.82247639 0.061392926 11247240
0.059426382 0.82223666 0.061392963 10918275
0.059687272 0.82199693 0.061393 10918275
0.059948154 0.82175726 0.06139303 10589058
0.060209036 0.82151753 0.061393067 9536370
0.060469925 0.82127786 0.061393104 9011309
0.060730815 0.82103813 0.061393142 8616551
0.060527876 0.82007992 0.060852222 7830117
0.060789965 0.81983912 0.060852252 9277563
0.061052054 0.81959832 0.060852289 9279621
0.050177187 0.83049792 0.061700232 16776684
0.050438076 0.83025819 0.06170027 16777200
0.050698966 0.83001852 0.061700307 16777200
0.051469885 0.8304559 0.06223987 16711662
0.051729567 0.8302173 0.062239908 16646125
0.05198925 0.8299787 0.062239945 16580586
0.052248932 0.82974005 0.062239982 16449000
0.052508615 0.82950145 0.062240012 16316642
0.052768305 0.82926285 0.062240049 16185056
0.05353082 0.82970798 0.062779628 16249051
0.053789303 0.82947052 0.062779658 16117465
0.054047786 0.82923299 0.062779695 16378840
0.054306269 0.82899547 0.062779732 16115668
0.054564744 0.828758 0.062779769 15983312
0.054823227 0.82852048 0.062779799 15720140
0.05508171 0.82828295 0.062779836 15654349
0.055340186 0.82804549 0.062779874 15456970
0.055598669 0.82780802 0.062779903 15260361
0.055857152 0.8275705 0.062779941 14931396
0.056115635 0.82733297 0.062779978 14537153
0.056374118 0.82709551 0.062780008 14471360
0.056632593 0.82685798 0.062780045 14142395
0.056891076 0.82662046 0.062780082 14010809
0.057149559 0.82638299 0.062780119 13682614
0.057408042 0.82614547 0.062780149 13419442
0.057666525 0.82590801 0.062780187 13287856
0.057925001 0.82567048 0.062780224 13090477
0.057702288 0.82472938 0.06224072 12893098
0.057961971 0.82449079 0.062240757 12761512
0.058221653 0.82425213 0.062240794 12498340
0.058481336 0.82401359 0.062240824 12103582
0.058741018 0.82377493 0.062240861 12102808
0.058525532 0.82282722 0.061701372 11708050
0.058786422 0.82258749 0.061701402 11444619
0.059047312 0.82234776 0.061701439 11247240
0.059308194 0.82210809 0.061701477 10984068
0.059569076 0.82186836 0.061701514 10852482
0.059829965 0.82162869 0.061701551 10589056
0.060090855 0.82138896 0.061701581 10128505
0.060351737 0.82114923 0.061701618 9865846
0.060612619 0.8209095 0.061701655 9010537
0.060409144 0.81995076 0.061162159 8156766
0.060671225 0.81970996 0.061162189 7959387
0.060933322 0.81946909 0.061162226 9015164
0.050058998 0.83036935 0.062008753 16777200
0.050319888 0.83012962 0.062008783 16711666
0.05058077 0.82988989 0.06200882 16711666
0.05135224 0.83032787 0.062546968 16711664
0.051611923 0.83008927 0.062547006 16646127
0.051871605 0.82985067 0.062547036 16514539
0.052131288 0.82961208 0.062547073 16251367
0.05239097 0.82937348 0.06254711 16382437
0.052650653 0.82913488 0.062547147 16185058
0.053413719 0.82958061 0.063085295 16249051
0.053672202 0.82934308 0.063085333 16051672
0.053930685 0.82910562 0.06308537 16313047
0.05418916 0.82886809 0.0630854 16049875
0.054447643 0.82863057 0.063085437 15785935
0.054706126 0.8283931 0.063085474 15720142
0.054964609 0.82815558 0.063085511 15654349
0.055223092 0.82791805 0.063085541 15522763
0.055481568 0.82768059 0.063085578 15260361
0.055740051 0.82744312 0.063085616 14931396
0.055998534 0.8272056 0.063085645 14537153
0.05625701 0.82696807 0.063085683 14405567
0.056515492 0.82673061 0.06308572 14142395
0.056773975 0.82649308 0.063085757 14010809
0.057032458 0.82625556 0.063085787 13682614
0.057290941 0.8260181 0.063085824 13485235
0.057549417 0.82578057 0.063085862 13287856
0.0578079 0.82554311 0.063085899 13090477
0.057584643 0.82460141 0.062547818 12893098
0.057844326 0.82436275 0.062547848 12629926
0.058104008 0.82412416 0.062547885 12432547
0.058363691 0.82388556 0.062547922 12103582
0.058623374 0.82364696 0.062547959 12168088
0.058407344 0.82269859 0.062009886 11839123
0.058668233 0.82245892 0.062009923 11444619
0.058929116 0.82221919 0.06200996 11247240
0.059190005 0.82197952 0.06200999 10984068
0.059450887 0.82173979 0.062010027 10852482
0.059711769 0.82150006 0.062010065 10719872
0.059972659 0.82126033 0.062010102 10325114
0.060233548 0.82102066 0.062010132 10194298
0.06049443 0.82078093 0.062010169 10260091
0.060290411 0.8198216 0.061472096 9339241
0.060552493 0.81958079 0.061472133 8286553
0.060814582 0.81933993 0.061472163 7762269
0.05045554 0.83091569 0.062853955 16711666
0.050715223 0.83067709 0.062853992 16777203
0.050974905 0.83043849 0.062854022 16711666
0.051745728 0.8308782 0.063390754 16711666
0.052004218 0.83064067 0.063390791 16711666
0.052262694 0.83040321 0.063390829 16514539
0.052521177 0.83016568 0.063390858 16251367
0.05277966 0.82992816 0.063390896 16447717
0.053038135 0.82969069 0.063390933 16250338
0.053296618 0.82945317 0.06339097 16380125
0.053555101 0.82921571 0.063391 16116953
0.053813577 0.82897818 0.063391037 16114900
0.054572366 0.82942891 0.063927755 15917521
0.05482965 0.82919252 0.063927785 15785937
0.055086926 0.82895613 0.063927822 15720144
0.055344209 0.82871974 0.063927859 15654349
0.055601485 0.82848334 0.063927889 15522763
0.055858761 0.82824695 0.063927926 15260361
0.056116045 0.82801056 0.063927963 14931396
0.056373321 0.82777417 0.063928001 14602946
0.056630604 0.82753778 0.06392803 14405567
0.05688788 0.82730138 0.063928068 14076602
0.057145163 0.82706493 0.063928105 14010809
0.057402439 0.82682854 0.063928135 13551028
0.057173841 0.82589066 0.063391492 13485235
0.057432324 0.8256532 0.063391529 13287856
0.057690799 0.82541567 0.063391566 12958891
0.057949282 0.82517821 0.063391596 12827305
0.058207765 0.82494068 0.063391633 12629926
0.058466241 0.82470322 0.063391671 12432547
0.058246046 0.82375759 0.062855013 12037789
0.058505729 0.82351899 0.06285505 12037017
0.058765411 0.82328033 0.062855087 11708052
0.059025094 0.8230418 0.062855117 11444365
0.059284776 0.82280314 0.062855154 11246986
0.059071809 0.8218509 0.062318504 10983814
0.059332699 0.82161123 0.062318541 10852228
0.059593581 0.8213715 0.062318578 10457470
0.05985447 0.82113177 0.062318616 10260091
0.060115352 0.8208921 0.062318653 10194298
0.060376242 0.82065237 0.062318683 10128505
0.060637124 0.82041264 0.06231872 9865585
0.060898013 0.82017297 0.062318757 9865585
0.061158903 0.81993324 0.062318787 8286553
0.050337896 0.83078772 0.063161045 16777205
0.050597578 0.83054912 0.063161083 16777205
0.050857261 0.83031052 0.06316112 16711668
0.051628634 0.83075082 0.063696429 16711668
0.05188711 0.8305133 0.063696466 16711668
0.052145593 0.83027577 0.063696504 16580334
0.052404076 0.83003831 0.063696533 16317162
0.052662551 0.82980078 0.063696571 16382437
0.052921034 0.82956326 0.063696608 16119265
0.053179517 0.8293258 0.063696638 16314334
0.053438 0.82908827 0.063696675 16116955
0.053696483 0.82885081 0.063696712 16114900
0.054455817 0.82930207 0.064231999 16049107
0.054713093 0.82906568 0.064232036 15785935
0.054970369 0.82882929 0.064232074 15720142
0.055227652 0.8285929 0.064232111 15588556
0.055484928 0.8283565 0.064232141 15456970
0.055742204 0.82812011 0.064232178 15259591
0.055999488 0.82788372 0.064232215 15062212
0.056256764 0.82764733 0.064232245 14602692
0.056514047 0.82741094 0.064232282 14339520
0.056771323 0.82717454 0.06423232 14076348
0.057028607 0.82693815 0.064232349 13878969
0.057285883 0.82670176 0.064232387 13550774
0.05705674 0.82576329 0.063697167 13419188
0.057315215 0.82552576 0.063697204 13221809
0.057573698 0.8252883 0.063697241 12958637
0.057832181 0.82505077 0.063697271 12827305
0.058090664 0.82481331 0.063697308 12629926
0.058349147 0.82457578 0.063697346 12432547
0.058128402 0.82362962 0.063162111 12103582
0.058388084 0.82339096 0.063162141 11971994
0.058647767 0.82315236 0.063162178 11577236
0.058907449 0.82291377 0.063162215 11641744
0.059167132 0.82267517 0.063162252 11312779
0.05895362 0.82172233 0.062627025 10918021
0.05921451 0.8214826 0.062627062 10786435
0.059475392 0.82124293 0.062627092 10457470
0.059736282 0.8210032 0.062627129 10325884
0.059997164 0.82076347 0.062627167 10194552
0.060258046 0.8205238 0.062627196 10128759
0.060518935 0.82028407 0.062627234 9931380
0.060779825 0.8200444 0.062627271 9865587
0.061040714 0.81980467 0.062627308 9667436
0.050220251 0.83065975 0.063468143 16777207
0.050479934 0.83042109 0.063468173 16777205
0.050739616 0.83018255 0.06346821 16777205
0.051511526 0.83062339 0.064002097 16711668
0.051770009 0.83038592 0.064002134 16645875
0.052028492 0.8301484 0.064002171 16580080
0.052286975 0.82991087 0.064002208 16448494
0.052545458 0.82967341 0.064002238 16381670
0.052803934 0.82943588 0.064002275 16052705
0.053062417 0.82919836 0.064002313 16379357
0.0533209 0.8289609 0.06400235 16313564
0.053579375 0.82872337 0.06400238 16180691
0.05433926 0.82917529 0.064536251 16114898
0.054596536 0.8289389 0.064536288 15982799
0.054853812 0.82870251 0.064536326 15785420
0.055111095 0.82846612 0.064536355 15588043
0.055368371 0.82822973 0.064536393 15522250
0.055625647 0.82799327 0.06453643 15259593
0.055882931 0.82775688 0.064536467 15062214
0.056140207 0.82752049 0.064536497 14602692
0.05639749 0.8272841 0.064536534 14273727
0.056654766 0.82704771 0.064536572 14076348
0.05691205 0.82681131 0.064536601 13878969
0.057169326 0.82657492 0.064536639 13550774
0.056939639 0.82563591 0.064002842 13419188
0.057198122 0.82539839 0.064002872 13221809
0.057456598 0.82516086 0.064002909 13024430
0.057715081 0.8249234 0.064002946 12893098
0.057973564 0.82468587 0.064002976 12761512
0.058232039 0.82444841 0.064003013 12498340
0.058010757 0.82350159 0.063469201 12169375
0.05827044 0.82326299 0.063469239 12103582
0.058530122 0.82302439 0.063469276 11708824
0.058789805 0.82278579 0.063469306 11641744
0.059049487 0.8225472 0.063469343 11312779
0.058835432 0.82159376 0.062935539 10918021
0.059096321 0.82135403 0.062935576 10786435
0.059357204 0.8211143 0.062935606 10588286
0.059618086 0.82087463 0.062935643 10456700
0.059878975 0.8206349 0.06293568 10259575
0.060139857 0.82039523 0.062935717 10127989
0.060400747 0.8201555 0.062935755 10062196
0.060661629 0.81991577 0.062935784 9996403
0.060922518 0.81967604 0.062935822 9733999
0.050102606 0.83053172 0.063775234 16711671
0.050362289 0.83029312 0.063775271 16711671
0.050621971 0.83005452 0.063775308 16711671
0.051394433 0.83049595 0.064307772 16580339
0.051652908 0.83025849 0.064307809 16580339
0.051911391 0.83002102 0.064307846 16580082
0.052679025 0.83046687 0.064840294 16448496
0.052936301 0.83023047 0.064840332 16381670
0.053193584 0.82999408 0.064840361 16184291
0.053450868 0.82975769 0.064840399 16248541
0.053708144 0.8295213 0.064840436 16182748
0.05396542 0.82928491 0.064840466 16115670
0.054222703 0.82904851 0.064840503 16049877
0.054479979 0.82881206 0.06484054 16048592
0.054737255 0.82857567 0.06484057 15785420
0.054994538 0.82833928 0.064840607 15588043
0.055251822 0.82810289 0.064840645 15522250
0.055509098 0.82786649 0.064840674 15259593
0.055766374 0.8276301 0.064840712 15062214
0.056023657 0.82739371 0.064840749 14602179
0.056280933 0.82715732 0.064840786 14339007
0.056538209 0.82692093 0.064840816 14076348
0.056795493 0.82668453 0.064840853 13944762
0.057052769 0.82644814 0.06484089 13550774
0.057310045 0.82621175 0.064840928 13353395
0.057567328 0.82597536 0.064840958 13221809
0.057824612 0.82573891 0.064840995 13024430
0.058081888 0.82550251 0.064841032 12827051
0.058339164 0.82526612 0.064841062 12629672
0.058596447 0.82502973 0.064841099 12498086
0.058373421 0.82408351 0.064308725 12300707
0.058631904 0.82384598 0.064308755 12103582
0.058890387 0.82360852 0.064308792 11840410
0.05914887 0.82337099 0.06430883 11641744
0.059407353 0.82313347 0.064308867 11312779
0.059665829 0.822896 0.064308897 10918021
0.059451208 0.82194197 0.063776508 10786435
0.059710898 0.82170337 0.063776545 10457724
0.05997058 0.82146478 0.063776582 10326138
0.060230263 0.82122612 0.063776612 10259575
0.060489945 0.82098758 0.06377665 10127989
0.060282558 0.82002687 0.063244268 10062196
0.06054344 0.8197872 0.063244298 9930610
0.06080433 0.81954747 0.063244335 9930610
0.052562468 0.83034003 0.065144546 16382960
0.052819744 0.83010364 0.065144576 16316392
0.053077027 0.82986724 0.065144613 16184806
0.053334311 0.82963085 0.065144651 16248541
0.053591587 0.82939446 0.06514468 16182748
0.053848863 0.82915807 0.065144718 16115670
0.054106146 0.82892168 0.065144755 16049877
0.054363422 0.82868528 0.065144792 16048594
0.054620698 0.82844889 0.065144822 15785422
0.054877982 0.8282125 0.065144859 15588043
0.055135265 0.82797611 0.065144897 15456457
0.055392541 0.82773972 0.065144926 15193800
0.055649817 0.82750332 0.065144964 14996421
0.0559071 0.82726693 0.065145001 14536386
0.056164376 0.82703054 0.065145031 14404800
0.056421652 0.82679415 0.065145068 14076350
0.056678936 0.8265577 0.065145105 13944764
0.056936212 0.8263213 0.065145135 13681590
0.057193488 0.82608491 0.065145172 13550004
0.057450771 0.82584852 0.065145209 13352625
0.057708055 0.82561213 0.065145247 13155246
0.057965331 0.82537574 0.065145276 12957867
0.058222607 0.82513934 0.065145314 12760488
0.05847989 0.82490295 0.065145351 12629156
0.058256321 0.82395607 0.064614393 12431777
0.058514804 0.82371855 0.06461443 12168605
0.058773287 0.82348108 0.064614467 12037019
0.05903177 0.82324362 0.064614497 11773330
0.059290245 0.82300609 0.064614534 11378572
0.059548728 0.82276857 0.064614572 10983814
0.059333563 0.82181394 0.064083599 10786435
0.059593245 0.8215754 0.064083636 10457724
0.059852935 0.82133675 0.064083673 10326138
0.06011261 0.82109815 0.06408371 10259575
0.0603723 0.82085955 0.06408374 10127989
0.051674075 0.83092242 0.065448686 16646132
0.051931351 0.83068603 0.065448724 16514546
0.052188635 0.83044964 0.065448761 16448753
0.052445911 0.83021325 0.065448791 16382960
0.052703194 0.82997686 0.065448828 16382185
0.05296047 0.82974046 0.065448865 16316392
0.053724401 0.83019191 0.065978475 16445148
0.053980477 0.82995665 0.065978512 16313562
0.054236554 0.82972133 0.065978549 16246486
0.05449263 0.82948607 0.065978579 16246486
0.054748707 0.82925075 0.065978616 15983314
0.055004783 0.82901549 0.065978654 15654349
0.055260859 0.82878017 0.065978684 15522763
0.055516936 0.82854491 0.065978721 15259591
0.055773012 0.8283096 0.065978758 14997191
0.056029089 0.82807434 0.065978788 14865605
0.056285165 0.82783902 0.065978825 14405313
0.056541242 0.8276037 0.065978862 14339520
0.056797318 0.82736844 0.0659789 13879741
0.057053395 0.82713318 0.065978929 13813948
0.057309479 0.82689786 0.065978967 13550776
0.057076931 0.82595813 0.065449424 13419190
0.057334214 0.82572174 0.065449461 13221809
0.057591498 0.82548535 0.065449491 13024430
0.057848774 0.82524896 0.065449528 12827051
0.05810605 0.82501256 0.065449566 12629672
0.058363333 0.82477617 0.065449595 12498340
0.058620609 0.82453978 0.065449633 12366754
0.058877885 0.82430339 0.06544967 12234398
0.059135169 0.82406694 0.0654497 12037019
0.058914661 0.82311618 0.064920172 11839123
0.059173152 0.82287872 0.064920209 11444365
0.059431627 0.82264119 0.064920239 10983814
0.05969011 0.82240367 0.064920276 10852228
0.059948593 0.8221662 0.064920314 10588540
0.059735291 0.82120878 0.064390764 10456954
0.059994966 0.82097018 0.064390801 10259575
0.060254656 0.82073158 0.064390838 10127989
0.051557519 0.83079565 0.065752938 16646132
0.051814795 0.83055925 0.065752976 16514546
0.052072078 0.8303228 0.065753005 16448751
0.052329354 0.83008641 0.065753043 16382958
0.052586637 0.82985002 0.06575308 16382185
0.052843913 0.82961363 0.065753117 16447978
0.053608388 0.83006573 0.066281304 16314332
0.053864464 0.82983041 0.066281341 16182746
0.054120541 0.82959515 0.066281378 16115670
0.054376617 0.82935983 0.066281408 15984084
0.054632694 0.82912457 0.066281445 15917521
0.05488877 0.82888925 0.066281483 15588556
0.055144846 0.82865393 0.066281512 15456972
0.055400923 0.82841867 0.06628155 15259593
0.055656999 0.82818341 0.066281587 15128777
0.055913076 0.82794809 0.066281617 14799812
0.056169152 0.82771277 0.066281654 14471360
0.056425229 0.82747751 0.066281691 14339774
0.056681305 0.82724226 0.066281721 14076348
0.056937382 0.82700694 0.066281758 13944762
0.057193458 0.82677162 0.066281796 13550776
0.056960382 0.82583129 0.065753676 13419190
0.057217658 0.8255949 0.065753706 13221809
0.057474941 0.82535851 0.065753743 13024430
0.057732217 0.82512212 0.06575378 12827051
0.057989493 0.82488573 0.065753818 12761258
0.058246776 0.82464933 0.065753847 12564133
0.058504052 0.82441294 0.065753885 12300961
0.058761336 0.82417655 0.065753922 12103582
0.059018612 0.82394016 0.065753952 11906203
0.058797568 0.82298875 0.06522584 11839123
0.059056044 0.82275128 0.065225877 11444365
0.059314527 0.82251382 0.065225914 11115400
0.05957301 0.82227629 0.065225951 10852228
0.059831485 0.82203877 0.065225981 10720126
0.059617639 0.8210808 0.064697862 10456954
0.059877321 0.82084215 0.064697891 10259575
0.060137004 0.82060355 0.064697929 10127989
0.051440962 0.83066881 0.06605719 16646132
0.051698238 0.83043242 0.06605722 16514546
0.051955521 0.83019602 0.066057257 16448751
0.052212797 0.82995963 0.066057295 16382958
0.052470081 0.82972324 0.066057332 16382185
0.052727357 0.82948685 0.066057362 16316392
0.053492375 0.82993948 0.066584133 16380125
0.053748451 0.82970423 0.06658417 16182746
0.054004528 0.82946891 0.066584207 16247256
0.054260604 0.82923365 0.066584237 15918291
0.054516681 0.82899833 0.066584274 15786705
0.054772757 0.82876301 0.066584311 15523533
0.055028841 0.82852775 0.066584341 15391949
0.055284917 0.82829249 0.066584378 15260363
0.055540994 0.82805717 0.066584416 15128777
0.05579707 0.82782185 0.066584446 14865605
0.056053147 0.82758659 0.066584483 14602433
0.056309223 0.82735133 0.06658452 14405054
0.0565653 0.82711601 0.06658455 14076348
0.056821376 0.82688069 0.066584587 13944762
0.057077453 0.82664543 0.066584624 13550776
0.056843825 0.82570451 0.06605792 13353397
0.057101101 0.82546812 0.066057958 13287602
0.057358384 0.82523173 0.066057995 13024430
0.05761566 0.82499528 0.066058032 12827305
0.057872936 0.82475889 0.066058062 12827305
0.05813022 0.8245225 0.066058099 12564133
0.058387496 0.8242861 0.066058137 12300961
0.058644779 0.82404971 0.066058166 12103582
0.058902055 0.82381332 0.066058204 11840410
0.05868046 0.82286137 0.065531515 11839125
0.058938943 0.82262385 0.065531552 11444367
0.059197426 0.82238638 0.065531582 11312009
0.059455909 0.82214892 0.065531619 10983044
0.059714392 0.82191139 0.065531656 10785919
0.059499994 0.82095277 0.065004952 10456954
0.059759676 0.82071418 0.06500499 10259575
0.060019359 0.82047558 0.065005019 10127989
0.051839903 0.83122504 0.066886753 16646132
0.052095979 0.83098972 0.06688679 16580339
0.052352056 0.83075446 0.066886827 16514798
0.052608132 0.83051914 0.066886857 16251626
0.052864209 0.83028388 0.066886894 16316390
0.053120285 0.83004856 0.066886932 16316390
0.053376362 0.8298133 0.066886961 16511713
0.053632438 0.82957798 0.066886999 16248541
0.053888515 0.82934272 0.066887036 16181976
0.054144591 0.8291074 0.066887066 15918804
0.054400668 0.82887208 0.066887103 15655121
0.054656744 0.82863683 0.06688714 15523535
0.054912828 0.82840157 0.06688717 15457742
0.055168904 0.82816625 0.066887207 15260363
0.055424981 0.82793093 0.066887245 15260363
0.055681057 0.82769567 0.066887274 14931398
0.055937134 0.82746041 0.066887312 14602433
0.05619321 0.82722509 0.066887349 14405054
0.056449287 0.82698977 0.066887379 14142395
0.056705363 0.82675451 0.066887416 14010809
0.05696144 0.82651919 0.066887453 13550776
0.057217516 0.82628393 0.066887483 13419190
0.057473592 0.82604861 0.06688752 13287604
0.057729669 0.82581335 0.066887558 13024432
0.057985745 0.82557803 0.066887587 12827051
0.058241822 0.82534277 0.066887625 12827051
0.058497898 0.82510746 0.066887662 12564133
