# .PCD v0.7 - Point Cloud Data file format
VERSION 0.7
FIELDS x y z rgb
SIZE 4 4 4 4
TYPE F F F U
COUNT 1 1 1 1
WIDTH 1069
HEIGHT 1
VIEWPOINT 0 0 0 1 0 0 0
POINTS 1069
DATA ascii
-0.013591118 0.83262247 0.070614725 13947592
-0.013238914 0.83250195 0.070614904 13947592
-0.012511417 0.83318412 0.071088925 13881799
-0.012160763 0.83306414 0.071089111 14013385
-0.011810102 0.83294415 0.07108929 14013385
-0.01145944 0.83282423 0.071089476 14013385
-0.011108778 0.83270419 0.071089655 14079178
-0.010758117 0.83258426 0.071089841 14013385
-0.010041438 0.83327007 0.071563862 14013385
-0.0096923187 0.83315063 0.071564049 14078667
-0.0093432069 0.83303118 0.071564227 14276046
-0.0089940876 0.83291173 0.071564406 14144460
-0.0086449757 0.83279228 0.071564592 14078667
-0.0082958564 0.83267283 0.071564771 14078665
-0.0075899884 0.83336246 0.072038785 14078665
-0.0072424188 0.83324349 0.072038963 14013385
-0.0068948492 0.83312458 0.072039142 13947592
-0.0065472797 0.83300567 0.072039329 13947592
-0.0061997026 0.83288676 0.072039507 13947592
-0.005852133 0.83276784 0.072039686 13882569
-0.0055045635 0.83264887 0.072039872 13882569
-0.0051569939 0.83253002 0.072040051 13882569
-0.0048094243 0.83241105 0.07204023 14079948
-0.0041190013 0.83310592 0.072514243 13882569
-0.003772974 0.83298755 0.072514422 13882569
-0.0034269467 0.83286911 0.072514601 13816776
-0.0030809194 0.83275074 0.07251478 13816776
-0.0027348995 0.8326323 0.072514959 13816776
-0.0023888722 0.83251393 0.072515145 13750983
-0.0020428449 0.83239555 0.072515324 13816776
-0.0016968176 0.83227718 0.072515503 13816776
-0.0013507903 0.8321588 0.072515681 13750983
-0.0010047629 0.83204037 0.07251586 13750983
-0.00065873563 0.83192199 0.072516046 13881799
-0.00031271577 0.83180362 0.072516225 13881799
0.00035762787 0.83250535 0.072990216 13947590
0.00070210546 0.83238745 0.072990395 13947590
0.0010465905 0.83226961 0.072990574 13947590
0.0013910681 0.83215171 0.072990753 13947590
0.0017355531 0.83203387 0.072990932 14013383
0.0020800382 0.83191597 0.07299111 13947590
0.0024245158 0.83179814 0.072991297 13816774
0.0027690008 0.8316803 0.072991475 13816774
0.0031134784 0.8315624 0.072991654 13948360
0.0034579635 0.83144456 0.072991833 13948360
0.0038024411 0.83132672 0.072992012 14079946
0.0044542328 0.83203471 0.073465995 14079946
0.0047971755 0.83191741 0.073466174 14014412
0.0051401109 0.8318001 0.073466353 14145998
0.0054830462 0.83168274 0.073466532 14212309
0.0058259815 0.83156538 0.073466711 14212309
0.0061689168 0.83144808 0.07346689 14080725
0.0065118596 0.83133072 0.073467061 14541276
0.0068547949 0.83121341 0.07346724 14937066
0.0071977302 0.83109605 0.073467419 14871273
0.0075406656 0.83097875 0.073467597 14740457
0.0078836009 0.83086139 0.073467776 15003629
0.0082265437 0.83074403 0.073467955 15661559
0.008569479 0.83062673 0.073468134 15727352
0.0089124143 0.83050942 0.073468313 15925244
0.0092553496 0.83039206 0.073468491 15267314
0.0098824352 0.83110857 0.07394246 15004144
0.010223828 0.83099174 0.073942639 14806765
0.010565221 0.83087498 0.073942818 14346214
0.010906611 0.83075815 0.073942997 14280421
0.011248004 0.83064139 0.073943175 13885146
0.011589397 0.83052456 0.073943354 13424595
0.01193079 0.83040774 0.073943533 13424078
0.012272179 0.83029091 0.073943704 13095113
0.012613572 0.83017415 0.073943883 12895929
0.012954965 0.83005732 0.073944062 12435378
0.013296358 0.82994056 0.073944241 13092281
0.013637748 0.82982373 0.07394442 12697523
0.01424475 0.83054709 0.074418388 12368558
0.014584597 0.83043087 0.07441856 12039593
0.014924444 0.83031458 0.074418738 11841703
0.015264295 0.83019829 0.074418917 11644324
0.015604138 0.830082 0.074419096 11578531
0.016201876 0.83080858 0.07489305 11512738
0.016540177 0.83069283 0.074893221 11381152
0.016878478 0.83057708 0.0748934 11315359
0.017216783 0.83046132 0.074893579 11315357
0.017555084 0.83034557 0.07489375 11249564
0.017893389 0.83022982 0.074893929 11380380
0.01823169 0.83011407 0.074894108 11314587
0.018569991 0.82999831 0.074894279 11183001
0.018908296 0.82988256 0.074894458 11314587
0.019246597 0.82976681 0.074894637 11248794
0.030461386 0.82779187 0.075847767 10854290
0.030796595 0.82767719 0.075847946 10920083
0.031131808 0.82756251 0.075848117 10920083
0.031467021 0.82744783 0.075848296 10920083
0.031613864 0.8264665 0.075374722 10985874
0.031950623 0.82635128 0.075374901 10920081
0.032287382 0.82623607 0.07537508 10920081
0.032624137 0.82612085 0.075375251 10985874
0.032960895 0.82600564 0.07537543 11051667
0.033297651 0.82589042 0.075375602 10985874
0.033634409 0.82577515 0.07537578 10789267
0.033971168 0.82565999 0.075375952 10789267
0.034307927 0.82554471 0.075376131 10789267
0.034644686 0.8254295 0.075376302 10789267
0.034981444 0.82531428 0.075376481 10723474
0.0353182 0.82519907 0.07537666 10723474
0.035654958 0.82508385 0.075376831 10723987
0.035991713 0.82496864 0.07537701 10658194
0.036328472 0.82485342 0.075377181 10658194
0.036665231 0.8247382 0.07537736 10723987
0.03700199 0.82462299 0.075377531 10789780
0.037338749 0.82450777 0.07537771 10723987
0.037675507 0.82439256 0.075377882 10658194
0.038012266 0.82427728 0.07537806 10723987
0.038349018 0.82416213 0.075378232 10723987
0.038685776 0.82404685 0.075378411 10658194
0.039022535 0.82393169 0.075378582 10658194
-0.024421394 0.83333784 0.069516368 14013383
-0.024064556 0.83321577 0.069516554 13947590
-0.023707718 0.8330937 0.069516741 14079176
-0.022935167 0.83376127 0.069989376 14013383
-0.022579864 0.83363974 0.069989562 14210762
-0.022224575 0.83351815 0.069989741 14210762
-0.021869279 0.83339661 0.069989927 14079178
-0.021513984 0.83327502 0.069990113 14079178
-0.02115868 0.83315349 0.0699903 14079178
-0.020396948 0.83382475 0.070462912 13947592
-0.020043194 0.83370376 0.070463091 13947592
-0.019689448 0.8335827 0.070463277 13947592
-0.019335695 0.83346164 0.070463464 14012872
-0.018981948 0.83334064 0.07046365 14078665
-0.018628195 0.83321959 0.070463829 14012872
-0.017877266 0.83389461 0.070936449 13947079
-0.017525062 0.83377409 0.070936635 14012872
-0.017172858 0.83365357 0.070936821 14078665
-0.016820654 0.83353305 0.070937 14078665
-0.01646845 0.83341253 0.070937186 14078665
-0.016116247 0.83329207 0.070937365 14012872
-0.015764035 0.83317155 0.070937552 14078665
-0.015411831 0.83305103 0.070937738 13947592
-0.015059628 0.83293056 0.070937917 14079178
-0.014324144 0.83361083 0.071410522 14013385
-0.013973489 0.83349085 0.071410708 14013385
-0.01362282 0.83337086 0.071410887 13947592
-0.013272166 0.83325088 0.071411073 13881799
-0.012921505 0.83313096 0.071411252 13881799
-0.012570843 0.83301091 0.071411438 13881799
-0.012220182 0.83289099 0.071411617 13947592
-0.01186952 0.832771 0.071411803 13947592
-0.011147946 0.83345604 0.071884409 13947592
-0.010798827 0.83333659 0.071884587 14079178
-0.010449708 0.83321714 0.071884774 14013385
-0.010100596 0.8330977 0.071884952 14079178
-0.0097514838 0.83297825 0.071885139 14078667
-0.0094023645 0.8328588 0.071885318 14078667
-0.0086916015 0.83354753 0.072357908 14144460
-0.0083440319 0.83342862 0.072358087 14078667
-0.0079964623 0.83330971 0.072358273 14078667
-0.0076488853 0.8331908 0.072358452 14078667
-0.0073013157 0.83307183 0.072358631 14013387
-0.0069537461 0.83295292 0.072358817 14013387
-0.0066061765 0.83283401 0.072358996 14079178
-0.0062586069 0.83271509 0.072359174 14079178
-0.0059110373 0.83259618 0.072359361 13882569
-0.0055634603 0.83247727 0.07235954 13882569
-0.0052158907 0.83235836 0.072359718 13948362
-0.0048683211 0.83223939 0.072359897 14079948
-0.0041776374 0.83293498 0.072832488 13882569
-0.0038316101 0.8328166 0.072832666 13882569
-0.0034855828 0.83269823 0.072832853 13882569
-0.0031395555 0.83257985 0.072833031 13816776
-0.0027935356 0.83246148 0.07283321 13816776
-0.0024475083 0.83234304 0.072833389 13750983
-0.002101481 0.83222467 0.072833568 13881799
-0.0017554536 0.83210629 0.072833754 14013385
-0.0014094263 0.83198786 0.072833933 13947592
-0.00073419511 0.83268881 0.073306508 14013385
-0.00038971007 0.83257091 0.073306687 13947592
-4.5232475e-05 0.83245307 0.073306866 13947592
0.00029925257 0.83233517 0.073307045 13882569
0.00064373016 0.83221734 0.073307224 13882569
0.00098821521 0.83209944 0.073307402 13882569
0.0013327003 0.8319816 0.073307581 14145741
0.0016771778 0.83186376 0.07330776 14145998
0.0020216629 0.83174586 0.073307939 14145998
0.0023661405 0.83162802 0.073308118 13949391
0.0027106255 0.83151019 0.073308297 13883598
0.0030551031 0.83139229 0.073308483 14146516
0.0033995882 0.83127439 0.073308662 14343895
0.0037440658 0.83115655 0.07330884 14542046
0.0043961257 0.83186537 0.073781401 15068390
0.004739061 0.83174801 0.07378158 15267052
0.0050819963 0.83163071 0.073781759 15661810
0.0054249316 0.8315134 0.073781937 15464178
0.005767867 0.83139604 0.073782116 14674662
0.0061108097 0.83127868 0.073782295 14740457
0.0064537451 0.83116138 0.073782474 14543078
0.0067966804 0.83104402 0.073782653 14543078
0.0071396157 0.83092672 0.073782831 14082527
0.007482551 0.83080935 0.07378301 14411490
0.0078254938 0.83069205 0.073783189 14148318
0.0081684291 0.83057469 0.073783368 13818836
0.0085113645 0.83045733 0.073783547 13555664
0.0088542998 0.83034003 0.073783726 13357772
0.0091972351 0.83022273 0.073783904 13094600
0.0098245814 0.83094001 0.07425645 13028037
0.010165974 0.83082318 0.074256629 12764865
0.010507368 0.83070636 0.074256808 12698300
0.010848761 0.83058953 0.074256986 12500921
0.011190154 0.83047277 0.074257158 12566711
0.011531547 0.83035594 0.074257337 12106160
0.011872936 0.83023918 0.074257515 12236976
0.012214329 0.83012235 0.074257694 11973804
0.012555722 0.83000553 0.074257873 12104103
0.012897115 0.8298887 0.074258052 11840931
0.013238505 0.82977194 0.074258231 11708832
0.013579898 0.82965511 0.074258402 11379867
0.014187161 0.83037925 0.074730948 11445660
0.014527008 0.83026302 0.074731126 11445660
0.014866855 0.83014673 0.074731305 11314841
0.015206706 0.83003044 0.074731484 11249048
0.015546553 0.82991415 0.074731655 11314587
0.016144548 0.83064151 0.075204194 11248794
0.016482849 0.83052576 0.075204365 11183001
0.016821153 0.83041 0.075204544 11183001
0.017159455 0.83029425 0.075204723 11249048
0.017497756 0.8301785 0.075204894 11183255
0.01783606 0.83006275 0.075205073 11183255
0.018174361 0.82994699 0.075205252 11249048
0.018512666 0.82983124 0.075205423 10985876
0.018850967 0.82971549 0.075205602 11051669
0.019189268 0.82959974 0.075205781 11183255
0.019284874 0.8286351 0.074733607 11249048
0.019624718 0.82851887 0.074733786 11249048
0.019964568 0.82840252 0.074733958 11183255
0.030404583 0.82762635 0.076156072 10854290
0.030739792 0.82751167 0.076156244 10920083
0.031075004 0.82739699 0.076156422 10854290
0.031410217 0.82728225 0.076156594 10854290
0.0315568 0.8263002 0.075684451 10985876
0.031893555 0.82618499 0.075684622 10985876
0.032230314 0.82606971 0.075684801 10985874
0.032567069 0.82595456 0.07568498 11051667
0.032903828 0.82583928 0.075685151 11051667
0.033240587 0.82572407 0.07568533 10920081
0.033577345 0.82560885 0.075685501 10854290
0.0339141 0.82549363 0.07568568 10920083
0.034250863 0.82537842 0.075685851 10789267
0.034587618 0.8252632 0.07568603 10723474
0.034924377 0.82514799 0.075686201 10723474
0.035261132 0.82503277 0.07568638 10723474
0.035597891 0.82491755 0.075686552 10723987
0.035934649 0.82480234 0.07568673 10592401
0.036271408 0.82468712 0.075686902 10723987
0.036608167 0.82457185 0.075687081 10723987
0.036944926 0.82445669 0.075687259 10789780
0.037281685 0.82434142 0.075687431 10723987
0.03761844 0.8242262 0.07568761 10658194
0.037955198 0.82411098 0.075687781 10658194
0.038291954 0.82399577 0.07568796 10723987
0.038628712 0.82388055 0.075688131 10658194
0.038965471 0.82376534 0.07568831 10658194
-0.024481863 0.83316159 0.069844559 13947590
-0.024125025 0.83303952 0.069844745 13881797
-0.023768187 0.83291745 0.069844931 13947590
-0.022995368 0.8335858 0.070316143 14210762
-0.022640072 0.83346426 0.07031633 14210762
-0.022284776 0.83334267 0.070316516 14210762
-0.021929488 0.83322114 0.070316702 14210762
-0.021574184 0.83309954 0.070316888 14079176
-0.021218888 0.83297801 0.070317075 14079178
-0.020456895 0.83365005 0.070788264 13947592
-0.020103142 0.833529 0.070788443 13947592
-0.019749388 0.833408 0.070788629 13881799
-0.019395642 0.83328694 0.070788816 13947592
-0.019041896 0.83316588 0.070789002 14013385
-0.018688142 0.83304489 0.070789181 13947079
-0.017936952 0.83372062 0.071260385 13947079
-0.017584749 0.83360016 0.071260564 14012872
-0.017232545 0.83347964 0.07126075 14078665
-0.016880341 0.83335912 0.071260929 14078665
-0.01652813 0.8332386 0.071261115 14078665
-0.016175926 0.83311808 0.071261302 14012872
-0.015823722 0.83299762 0.07126148 13947079
-0.015471518 0.8328771 0.071261667 14012872
-0.015119314 0.83275658 0.071261853 14078665
-0.014383569 0.83343768 0.071733035 14013385
-0.014032908 0.83331764 0.071733214 14013385
-0.013682246 0.83319771 0.0717334 13881799
-0.013331585 0.83307773 0.071733579 13816006
-0.012980923 0.83295774 0.071733765 13881799
-0.012630269 0.83283776 0.071733944 13881799
-0.0122796 0.83271778 0.07173413 13947592
-0.011928946 0.83259779 0.071734309 13947592
-0.011207104 0.8332836 0.072205499 14013385
-0.010857984 0.83316416 0.072205678 14079178
-0.010508873 0.83304471 0.072205864 14013387
-0.010159753 0.83292526 0.072206043 14013387
-0.0098106414 0.83280581 0.072206222 14078667
-0.0094615221 0.83268636 0.072206408 14012874
-0.0087504983 0.83337587 0.072677575 14144460
-0.0084029287 0.83325696 0.072677761 14144460
-0.0080553591 0.83313805 0.07267794 14013387
-0.0077077895 0.83301914 0.072678119 14013387
-0.0073602125 0.83290017 0.072678305 14013387
-0.0070126429 0.83278126 0.072678484 14013387
-0.0066650733 0.83266234 0.072678663 14079178
-0.0063175038 0.83254343 0.072678842 14210764
-0.0059699342 0.83242452 0.072679028 14079178
-0.0056223571 0.83230561 0.072679207 13947592
-0.0052747875 0.8321867 0.072679386 13948362
-0.004927218 0.83206773 0.072679572 14079948
-0.0042362735 0.83276415 0.073150739 13948362
-0.0038902462 0.83264571 0.073150918 13948362
-0.0035442188 0.83252734 0.073151097 14079948
-0.0031981915 0.83240896 0.073151276 13948362
-0.0028521717 0.83229053 0.073151454 13882569
-0.0025061443 0.83217216 0.073151641 13882569
-0.002160117 0.83205378 0.073151819 13882571
-0.0018140897 0.83193541 0.073151998 13948364
-0.0014680624 0.83181697 0.073152177 14145748
-0.00079257041 0.83251864 0.073623329 14014162
-0.00044808537 0.8324008 0.073623508 14080725
-0.00010360777 0.8322829 0.073623687 14146518
0.00024087727 0.83216506 0.073623873 14871011
0.00058536232 0.83204722 0.073624052 15199976
0.00092983991 0.83192933 0.073624231 15134696
0.001274325 0.83181149 0.07362441 15003110
0.0016188025 0.83169359 0.073624589 14609896
0.0019632876 0.83157575 0.073624767 14609896
0.0023077652 0.83145785 0.073624946 15136242
0.0026522502 0.83134001 0.073625125 14873070
0.0029967278 0.83122218 0.073625304 15136242
0.0033412129 0.83110428 0.073625483 15728379
0.0036856905 0.83098644 0.073625661 15267314
0.0040301755 0.8308686 0.073625848 14938349
0.0043746531 0.8307507 0.073626027 14280157
0.0047191381 0.83063287 0.073626205 13885399
0.0053668171 0.83134401 0.074097343 13620944
0.0057097599 0.83122665 0.074097522 13555151
0.0060526952 0.83110934 0.0740977 13555151
0.0063956305 0.83099198 0.074097879 12897221
0.0067385659 0.83087468 0.074098058 13159623
0.0070815012 0.83075732 0.074098237 13159623
0.007424444 0.83064002 0.074098416 13224644
0.0077673793 0.83052266 0.074098594 12829886
0.0081103146 0.83040535 0.074098773 12369330
0.0084532499 0.83028799 0.074098952 12566709
0.0087961853 0.83017063 0.074099131 12500144
0.009139128 0.83005333 0.07409931 12236972
0.0094820634 0.82993603 0.074099489 12236459
0.0098249987 0.82981867 0.074099667 12039080
0.010167934 0.8297013 0.074099839 11906724
0.010790911 0.83042097 0.074570969 11775138
0.011132304 0.83030415 0.074571148 11644322
0.011473693 0.83018732 0.074571326 11644322
0.011815086 0.83007056 0.074571505 11381152
0.012156479 0.82995373 0.074571677 11381152
0.012497872 0.82983691 0.074571855 11511966
0.012839261 0.82972014 0.074572034 11380380
0.013180654 0.82960331 0.074572213 11248794
0.013522048 0.82948649 0.074572392 11314587
0.013863441 0.82936972 0.074572571 11314587
0.01420483 0.8292529 0.074572749 11183001
0.014546223 0.82913607 0.074572921 11183001
0.014887616 0.82901931 0.0745731 11051415
0.015229009 0.82890248 0.074573278 11183255
0.015570398 0.82878566 0.074573457 11183255
0.015911791 0.82866883 0.074573636 11051669
0.016253185 0.82855207 0.074573815 10985876
0.016594578 0.82843524 0.074573994 11051669
0.016935967 0.82831848 0.074574172 11051669
0.01727736 0.82820165 0.074574344 11051669
0.017618753 0.82808483 0.074574523 11183255
0.017960146 0.827968 0.074574701 10920083
0.018301535 0.82785124 0.07457488 10920083
0.018887434 0.82858354 0.075045995 10985876
0.019227281 0.82846725 0.075046167 11051669
0.019567132 0.82835102 0.075046346 11051669
0.019906979 0.82823473 0.075046524 10985876
-0.025612846 0.83335167 0.070172198 13816004
-0.025256008 0.83322954 0.070172384 13881797
-0.02489917 0.83310747 0.070172571 14013383
-0.024542332 0.8329854 0.070172757 14013383
-0.024185494 0.83286333 0.070172943 13881797
-0.023828655 0.8327412 0.070173129 13947590
-0.023055576 0.83341032 0.070642918 14210762
-0.02270028 0.83328879 0.070643105 14210762
-0.022344992 0.8331672 0.070643291 14013383
-0.021989688 0.83304566 0.07064347 14079176
-0.021634392 0.83292407 0.070643656 14079176
-0.021279097 0.83280253 0.070643842 14078665
-0.020516835 0.83347535 0.071113616 14012872
-0.020163089 0.83335429 0.071113795 13881799
-0.019809335 0.83323324 0.071113981 13881799
-0.019455582 0.83311224 0.071114168 13881799
-0.019101836 0.83299118 0.071114354 13947592
-0.01874809 0.83287019 0.071114533 13947079
-0.017996639 0.8335467 0.071584314 13947079
-0.017644435 0.83342618 0.071584493 14012872
-0.017292224 0.83330572 0.071584679 14012872
-0.01694002 0.8331852 0.071584865 14078665
-0.016587809 0.83306468 0.071585044 14078665
-0.016235605 0.83294415 0.071585231 14012872
-0.015494972 0.83362436 0.072054997 13947079
-0.015144311 0.83350444 0.072055176 13947079
-0.014793649 0.83338445 0.072055362 14012872
-0.014442988 0.83326447 0.072055541 14078665
-0.014092326 0.83314449 0.072055727 14012872
-0.013741665 0.8330245 0.072055906 13816006
-0.013391003 0.83290452 0.072056092 13881799
-0.013040349 0.83278453 0.072056279 13816006
-0.012313612 0.83346951 0.072526038 13881799
-0.0119645 0.83335006 0.072526224 13947592
-0.011615381 0.83323061 0.072526403 13947592
-0.011266261 0.83311117 0.072526589 13947592
-0.010917149 0.83299172 0.072526768 14013385
-0.01056803 0.83287227 0.072526947 14013385
-0.010218918 0.83275282 0.072527133 14013385
-0.009869799 0.83263338 0.072527312 14210766
-0.0095206872 0.83251393 0.072527498 14013387
-0.0088094026 0.83320421 0.072997242 14079180
-0.0084618255 0.8330853 0.072997428 14079180
-0.008114256 0.83296639 0.072997607 14210766
-0.0077666864 0.83284748 0.072997786 14079180
-0.0074191093 0.83272851 0.072997972 14013387
-0.0070715398 0.83260965 0.072998151 14210766
-0.0067239702 0.83249068 0.07299833 13948364
-0.0063764006 0.83237177 0.072998516 13948364
-0.006028831 0.83225286 0.072998695 13882828
-0.0056812614 0.83213395 0.072998874 14146000
-0.0053336844 0.83201504 0.07299906 14474965
-0.0049861148 0.83189607 0.072999239 14343379
-0.0042949095 0.8325932 0.073468983 14343379
-0.0039488822 0.83247483 0.073469162 14277586
-0.0036028549 0.83235645 0.073469348 14146518
-0.0032568276 0.83223808 0.073469527 14343897
-0.0029108077 0.83211964 0.073469706 14541793
-0.0025647804 0.83200127 0.073469885 14607586
-0.0022187531 0.83188289 0.073470064 15002348
-0.0018727258 0.83176446 0.07347025 15068141
-0.0015266985 0.83164608 0.073470429 15134195
-0.00085094571 0.83234853 0.073940158 15463160
-0.00050646067 0.83223069 0.073940337 15857916
-0.00016197562 0.83211279 0.073940516 15792123
0.00018250197 0.83199489 0.073940694 15069424
0.00052698702 0.83187705 0.073940881 15266803
0.00087146461 0.83175921 0.073941059 15266801
0.0012159497 0.83164132 0.073941238 15201008
0.0015604272 0.83152348 0.073941417 14806761
0.0019049123 0.83140564 0.073941596 14083038
0.0022493899 0.83128774 0.073941775 13621974
0.0025938749 0.8311699 0.073941953 13358802
0.0029383525 0.83105201 0.073942132 13292239
0.0032828376 0.83093417 0.073942311 12963274
0.0036273152 0.83081627 0.07394249 13093828
0.0039718002 0.83069843 0.073942669 13093828
0.0043162853 0.83058059 0.073942855 12961726
0.0046607628 0.83046269 0.073943034 12698554
0.00530871 0.83117461 0.074412748 12698297
0.0056516454 0.83105731 0.074412927 12500918
0.0059945807 0.83093995 0.074413106 12631734
0.006337516 0.83082265 0.074413285 12368562
0.0066804588 0.83070529 0.074413463 12302254
0.0070233941 0.83058798 0.074413642 12039082
0.0073663294 0.83047062 0.074413821 11776162
0.0077092648 0.83035326 0.074414 11249818
0.0080522001 0.83023596 0.074414179 11709597
0.0083951429 0.83011866 0.074414358 11512218
0.0087380782 0.83000129 0.074414536 11709084
0.0090810135 0.82988393 0.074414715 11577498
0.0094239488 0.82976663 0.074414894 11577498
0.0097668841 0.82964927 0.074415073 11577498
0.010109827 0.82953197 0.074415252 11577500
0.010733061 0.83025235 0.074884951 11577500
0.01107445 0.83013552 0.07488513 11380634
0.011415843 0.83001876 0.074885309 11380634
0.011757236 0.82990193 0.074885488 11248794
0.012098629 0.82978511 0.074885666 11314587
0.012440018 0.82966834 0.074885845 11314587
0.012781411 0.82955152 0.074886024 11248794
0.013122804 0.82943469 0.074886195 11248794
0.013464198 0.82931793 0.074886374 11248794
0.013805587 0.8292011 0.074886553 11183001
0.01414698 0.82908428 0.074886732 11051415
0.014488373 0.82896745 0.074886911 11051669
0.014829766 0.82885069 0.074887089 11051669
0.015171155 0.82873386 0.074887268 11249048
0.015512548 0.8286171 0.07488744 11183255
0.015853941 0.82850027 0.074887618 11183255
0.016195334 0.82838345 0.074887797 10985876
0.016536724 0.82826662 0.074887976 10985876
0.016878117 0.82814986 0.074888155 11051669
0.01721951 0.82803303 0.074888334 11051669
0.017560903 0.82791626 0.074888512 10985876
0.017902292 0.82779944 0.074888691 10854290
0.018243685 0.82768261 0.074888863 10985876
0.018829845 0.82841569 0.075358562 10985876
0.019169696 0.8282994 0.075358734 10985876
0.019509539 0.82818317 0.075358912 10985876
0.01984939 0.82806689 0.075359091 10920083
-0.025673315 0.83317542 0.070500389 13816004
-0.025316477 0.83305335 0.070500575 13881797
-0.024959639 0.83293128 0.070500761 14013383
-0.024602801 0.83280915 0.070500948 14013383
-0.024245963 0.83268708 0.070501134 13947590
-0.023889124 0.83256495 0.07050132 13947590
-0.023115784 0.83323485 0.070969686 14079176
-0.022760488 0.83311331 0.070969872 14079176
-0.022405192 0.83299172 0.070970058 14013383
-0.022049896 0.83287019 0.070970245 14079176
-0.021694601 0.83274865 0.070970431 14013383
-0.021339305 0.83262706 0.070970617 14012872
-0.020576783 0.83330065 0.071438968 13881286
-0.020223036 0.83317959 0.071439147 13815493
-0.019869283 0.8330586 0.071439333 13815493
-0.019515529 0.83293754 0.07143952 14012872
-0.019161783 0.83281648 0.071439698 13947079
-0.018808037 0.83269548 0.071439885 14012872
-0.018056318 0.83337271 0.071908243 13947079
-0.017704114 0.83325225 0.071908429 13947079
-0.01735191 0.83313173 0.071908608 13947079
-0.016999707 0.83301127 0.071908794 14012872
-0.016647495 0.83289075 0.071908981 14012872
-0.016295291 0.83277023 0.071909159 14012872
-0.015554391 0.83345121 0.072377503 14012872
-0.015203729 0.83333123 0.072377689 13947079
-0.014853075 0.83321124 0.072377875 14012872
-0.014502406 0.83309126 0.072378054 14012872
-0.014151752 0.83297133 0.072378241 14012872
-0.01380109 0.83285129 0.072378419 13947079
-0.013450429 0.83273137 0.072378606 13947079
-0.013099767 0.83261138 0.072378784 13947079
-0.012372777 0.83329713 0.072847128 13947079
-0.012023658 0.83317769 0.072847314 14013385
-0.011674538 0.83305824 0.072847493 13947592
-0.011325426 0.83293879 0.072847679 14013385
-0.010976307 0.83281934 0.072847858 14013385
-0.010627195 0.83269989 0.072848037 13947594
-0.010278076 0.83258045 0.072848223 14079180
-0.0099289566 0.832461 0.072848402 14145743
-0.0095798448 0.83234155 0.072848588 13750985
-0.008868292 0.83303255 0.073316917 13751242
-0.0085207224 0.83291364 0.073317096 13882828
-0.0081731528 0.83279473 0.073317274 14211539
-0.0078255832 0.83267581 0.073317461 14343125
-0.0074780136 0.83255684 0.07331764 13752530
-0.007130444 0.83243799 0.073317818 14015702
-0.0067828745 0.83231902 0.073318005 14278621
-0.0064352974 0.83220011 0.073318183 14476000
-0.0060877278 0.8320812 0.073318362 14805480
-0.0057401583 0.83196229 0.073318541 15134445
-0.0053925812 0.83184338 0.073318727 15002857
-0.0050450116 0.83172446 0.073318906 15002857
-0.0043535456 0.83242232 0.073787235 14674662
-0.0040075183 0.83230394 0.073787414 14872041
-0.003661491 0.83218557 0.073787592 14872043
-0.0033154637 0.83206713 0.073787771 14806250
-0.0029694438 0.83194876 0.073787957 14674664
-0.0026234165 0.83183038 0.073788136 14740457
-0.0022773892 0.83171201 0.073788315 14608871
-0.0019313619 0.83159357 0.073788494 14543078
-0.0015853345 0.8314752 0.073788673 14608873
-0.0012393072 0.83135682 0.073788851 14411494
-0.00089327991 0.83123839 0.073789038 13950171
-0.00054726005 0.83112001 0.073789217 13423827
0.00012412667 0.83182478 0.074257523 13291979
0.00046861172 0.83170694 0.074257702 13094600
0.00081308931 0.8315891 0.07425788 13290437
0.0011575744 0.8314712 0.074258059 12895679
0.0015020519 0.83135337 0.074258246 12829883
0.001846537 0.83123547 0.074258424 12829883
0.002191022 0.83111763 0.074258603 12829883
0.0025354996 0.83099973 0.074258782 12698297
0.0028799847 0.83088189 0.074258961 12565939
0.0032244623 0.83076406 0.07425914 12631732
0.0035689473 0.83064616 0.074259318 12302252
0.0039134249 0.83052832 0.074259497 12104873
0.00425791 0.83041048 0.074259676 11841185
0.0046023875 0.83029258 0.074259855 11906978
0.0049468726 0.83017468 0.074260034 11841185
0.0052913502 0.83005685 0.07426022 11775392
0.0056358352 0.82993901 0.074260399 11775392
0.0062794089 0.83065325 0.07472869 11643806
0.0066223443 0.83053595 0.074728869 11445914
0.0069652796 0.83041859 0.074729048 11511707
0.0073082149 0.83030128 0.074729227 11511705
0.0076511502 0.83018392 0.074729405 11314326
0.007994093 0.83006656 0.074729584 11380119
0.0083370283 0.82994926 0.074729763 11380119
0.0086799636 0.82983196 0.074729942 11445912
0.009022899 0.8297146 0.074730121 11511705
0.0093658343 0.82959723 0.074730299 11511705
0.0097087771 0.82947993 0.074730478 11380119
0.010051712 0.82936257 0.074730657 11380119
0.010394648 0.82924527 0.074730836 11314326
0.010737587 0.82912791 0.074731015 11249048
0.011080522 0.82901061 0.074731193 11249048
0.011423457 0.82889324 0.074731372 11249048
0.011766396 0.82877588 0.074731551 11183255
0.012109332 0.82865858 0.07473173 11183255
0.012452271 0.82854128 0.074731909 11183255
0.012795206 0.82842392 0.074732088 11183255
0.013138145 0.82830656 0.074732266 11051669
0.013481081 0.82818925 0.074732445 11183255
0.013824016 0.82807189 0.074732617 11051669
0.014430523 0.82879889 0.075200893 10985876
0.014771916 0.82868207 0.075201072 10985876
0.015113305 0.82856524 0.075201251 11051669
0.015454698 0.82844847 0.075201429 11051669
0.015796091 0.82833165 0.075201608 11051669
0.016137481 0.82821488 0.075201787 10920083
0.016478874 0.82809806 0.075201966 10920083
0.016820267 0.82798123 0.075202137 10985876
0.01716166 0.82786441 0.075202316 11051669
0.017503053 0.82774764 0.075202495 10985876
0.017844442 0.82763082 0.075202674 10854290
0.018185835 0.82751405 0.075202852 10985876
0.018772259 0.82824785 0.075671121 10920083
0.019112106 0.82813156 0.0756713 10985876
0.019451953 0.82801533 0.075671479 10985876
0.019791801 0.82789904 0.075671658 10920083
-0.025733784 0.83299923 0.070828587 13881284
-0.025376946 0.8328771 0.070828773 13881797
-0.025020108 0.83275503 0.070828959 14013383
-0.02466327 0.8326329 0.070829138 14013383
-0.024306431 0.83251083 0.070829324 14013383
-0.023949593 0.83238876 0.070829511 14013383
-0.023175992 0.83305943 0.071296461 14079176
-0.022820696 0.83293784 0.071296647 14079176
-0.0224654 0.83281624 0.071296833 14013383
-0.022110105 0.83269471 0.07129702 14078663
-0.021754809 0.83257318 0.071297199 14078663
-0.021399513 0.83245158 0.071297385 13947077
-0.020636722 0.83312595 0.071764313 13947077
-0.020282976 0.83300489 0.071764499 13881284
-0.01992923 0.83288383 0.071764685 13881284
-0.019575477 0.83276284 0.071764871 14077893
-0.019221723 0.83264178 0.07176505 14077893
-0.018867977 0.83252072 0.071765237 14077893
-0.018115997 0.83319879 0.072232172 14077893
-0.017763793 0.83307827 0.072232358 14077893
-0.01741159 0.8329578 0.072232544 14077893
-0.017059386 0.83283728 0.072232723 14143686
-0.016707182 0.83271676 0.07223291 14143686
-0.016354978 0.8325963 0.072233096 14077895
-0.015613817 0.83327806 0.072700016 14143688
-0.015263155 0.83315802 0.072700202 14012872
-0.014912494 0.83303809 0.072700381 14012872
-0.014561832 0.83291811 0.07270056 14013385
-0.014211178 0.83279812 0.072700746 14013385
-0.013860509 0.83267814 0.072700933 14013387
-0.013509847 0.83255816 0.072701111 14079180
-0.013159193 0.83243817 0.072701298 13816008
-0.012431934 0.8331247 0.073168218 13947594
-0.012082815 0.83300525 0.073168404 14277075
-0.011733696 0.8328858 0.073168583 14342868
-0.011384584 0.83276635 0.073168762 14014932
-0.011035472 0.83264691 0.073168948 14409690
-0.010686353 0.83252746 0.073169127 14541793
-0.010337234 0.83240801 0.073169313 14541793
-0.0099881217 0.83228856 0.073169492 14608869
-0.0096390024 0.83216912 0.073169671 15135213
-0.0089271963 0.83286089 0.073636584 15135726
-0.0085796267 0.83274198 0.073636763 15398898
-0.0082320571 0.83262306 0.073636942 15135728
-0.0078844801 0.83250415 0.073637128 14938349
-0.0075369105 0.83238524 0.073637307 15004658
-0.0071893334 0.83226633 0.073637486 15596795
-0.0068417639 0.83214736 0.073637672 15464695
-0.0064941943 0.83202845 0.073637851 15069937
-0.0061466247 0.83190954 0.073638029 14938349
-0.0057990551 0.83179063 0.073638216 15004142
-0.0054514855 0.83167171 0.073638394 15003629
-0.0051039159 0.8315528 0.073638573 14608871
-0.0044121817 0.83225143 0.074105479 13687767
-0.0040661544 0.83213305 0.074105658 13753560
-0.0037201345 0.83201468 0.074105844 13489618
-0.0033740997 0.83189625 0.074106023 13226446
-0.0030280799 0.83177787 0.074106202 13094860
-0.0026820526 0.8316595 0.07410638 12831688
-0.0023360252 0.83154106 0.074106559 12897734
-0.0019899979 0.83142269 0.074106745 12568769
-0.0016439706 0.83130431 0.074106924 12436670
-0.0012979433 0.83118594 0.074107103 12502463
-0.00095191598 0.8310675 0.074107282 12632761
-0.00060589612 0.83094913 0.074107461 12303796
6.5751374e-05 0.83165467 0.074574351 12171181
0.00041023642 0.83153677 0.07457453 12105388
0.00075471401 0.83141893 0.074574709 11973289
0.0010991991 0.83130109 0.074574888 11775910
0.0014436841 0.8311832 0.074575067 12104103
0.0017881617 0.83106536 0.074575245 11906724
0.0021326467 0.83094752 0.074575432 11906465
0.0024771243 0.83082962 0.07457561 11709086
0.0028216094 0.83071178 0.074575789 11709599
0.003166087 0.83059388 0.074575968 11775392
0.003510572 0.83047605 0.074576147 11709084
0.0038550496 0.83035815 0.074576326 11511705
0.0041995347 0.83024031 0.074576505 11511705
0.0045440122 0.83012247 0.074576683 11577498
0.0048884973 0.83000457 0.074576862 11577498
0.0052329749 0.82988673 0.074577041 11511705
0.0055774599 0.8297689 0.07457722 11446425
0.0062212944 0.83048391 0.075044096 11446425
0.0065642297 0.83036655 0.075044274 11511705
0.0069071651 0.83024925 0.075044453 11380119
0.0072501004 0.83013189 0.075044632 11314326
0.0075930431 0.83001459 0.075044811 11248533
0.0079359785 0.82989722 0.07504499 11314326
0.0082789138 0.82977986 0.075045168 11314326
0.0086218491 0.82966256 0.075045347 11380119
0.0089647844 0.82954526 0.075045526 11380119
0.0093077272 0.8294279 0.075045705 11380632
0.0096506625 0.82931054 0.075045884 11314839
0.0099935979 0.82919323 0.075046062 11249046
0.010336537 0.82907587 0.075046241 11183253
0.010679472 0.82895857 0.07504642 11183253
0.011022408 0.82884121 0.075046599 11249046
0.011365347 0.82872391 0.075046778 11183255
0.011708282 0.82860655 0.075046957 11051669
0.012051221 0.82848918 0.075047135 11051669
0.012394156 0.82837188 0.075047314 11183255
0.012737095 0.82825458 0.075047493 11051669
0.013080031 0.82813722 0.075047672 11051669
0.013422966 0.82801986 0.075047851 11051669
0.013765905 0.82790256 0.075048029 10985876
0.01410884 0.82778519 0.075048208 10985876
0.014451779 0.82766789 0.075048387 10985876
0.014794715 0.82755053 0.075048566 11051669
0.01513765 0.82743323 0.075048745 11051669
0.015480589 0.82731587 0.075048923 10985876
0.015823524 0.82719851 0.075049102 10920083
0.016166463 0.8270812 0.075049281 10920083
0.016509399 0.8269639 0.07504946 10985876
0.016852338 0.82684654 0.075049631 10985876
0.017445199 0.82757902 0.075516485 10985876
0.017786592 0.8274622 0.075516656 10920083
0.018127985 0.82734543 0.075516835 10985876
0.018469378 0.82722861 0.075517014 10920083
-0.025794253 0.83282298 0.071156777 13881284
-0.025437415 0.83270085 0.071156964 13881284
-0.025080577 0.83257878 0.07115715 14012870
-0.024723738 0.83245671 0.071157336 14078663
-0.0243669 0.83233464 0.071157522 14078663
-0.024010062 0.83221251 0.071157709 14144456
-0.0232362 0.83288395 0.071623236 14144456
-0.022880897 0.83276236 0.071623422 14144456
-0.022525609 0.83264077 0.071623608 14144456
-0.021757923 0.8333143 0.072089113 14144456
-0.021404169 0.8331933 0.0720893 14276042
-0.021050423 0.83307225 0.072089486 14078663
-0.02069667 0.83295119 0.072089665 14078663
-0.020342924 0.83283019 0.072089851 14276042
-0.01998917 0.83270913 0.072090037 14276042
-0.019232303 0.83338636 0.072555557 14144456
-0.018880099 0.8332659 0.072555736 14012870
-0.018527895 0.83314538 0.072555922 13881799
-0.018175684 0.83302486 0.072556108 13947592
-0.01782348 0.83290434 0.072556287 13948362
-0.017471276 0.83278382 0.072556473 14211534
-0.017119072 0.83266336 0.07255666 14145741
-0.016766861 0.83254284 0.072556838 14145741
-0.016414657 0.83242232 0.072557025 14145743
-0.015673235 0.83310485 0.073022529 13948364
-0.015322573 0.83298486 0.073022708 14212311
-0.014971912 0.83286488 0.073022895 14607069
-0.01462125 0.8327449 0.073023073 14410722
-0.014270596 0.83262491 0.07302326 14410722
-0.013919935 0.83250499 0.073023438 14673894
-0.013569266 0.832385 0.073023625 15134445
-0.013218611 0.83226502 0.073023804 15331824
-0.012491092 0.83295226 0.073489308 15594996
-0.012141973 0.83283281 0.073489487 14806250
-0.011792861 0.83271337 0.073489673 15332594
-0.011443742 0.83259392 0.073489852 15464182
-0.01109463 0.83247447 0.073490039 15069424
-0.01074551 0.83235502 0.073490217 14806765
-0.010396391 0.83223557 0.073490396 14806765
-0.010047279 0.83211613 0.073490582 14938351
-0.0096981674 0.83199668 0.073490761 15201523
-0.0089860931 0.83268923 0.073956251 15201521
-0.0086385235 0.83257031 0.07395643 14806763
-0.0082909539 0.8324514 0.073956616 14016732
-0.0079433769 0.83233249 0.073956795 13885146
-0.0075958073 0.83221358 0.073956974 13819353
-0.0072482377 0.83209467 0.07395716 13753560
-0.0069006681 0.8319757 0.073957339 13095113
-0.0065530986 0.83185679 0.073957518 12897734
-0.0062055215 0.83173788 0.073957697 13291979
-0.0058579519 0.83161896 0.073957883 12897221
-0.0055103824 0.83150005 0.073958062 13028037
-0.0051628128 0.83138114 0.07395824 12830658
-0.0044708177 0.83208054 0.07442373 12764863
-0.0041247904 0.83196217 0.074423909 12501691
-0.0037787706 0.83184373 0.074424088 12370105
-0.0034327433 0.83172536 0.074424267 12106933
-0.0030867159 0.83160698 0.074424446 12237749
-0.0027406886 0.83148861 0.074424632 12171956
-0.0023946613 0.83137017 0.074424811 12171956
-0.002048634 0.8312518 0.07442499 11777198
-0.0017026067 0.83113343 0.074425168 11514280
-0.0013565794 0.83101499 0.074425355 11251108
-0.001010552 0.83089662 0.074425533 11513251
-0.00066453218 0.83077824 0.074425712 11315872
7.3760748e-06 0.83148456 0.07489118 11578531
0.00035186112 0.83136666 0.074891359 11512738
0.00069634616 0.83124882 0.074891537 11381150
0.0010408238 0.83113098 0.074891716 11381150
0.0013853014 0.83101308 0.074891895 11446427
0.0017297864 0.83089519 0.074892074 11314841
0.0020742714 0.83077735 0.074892253 11445914
0.002418749 0.83065951 0.074892431 11511707
0.0027632341 0.83054161 0.07489261 11511707
0.0031077117 0.83042377 0.074892797 11445914
0.0034521967 0.83030593 0.074892975 11445912
0.0037966743 0.83018804 0.074893154 11445912
0.0041411594 0.8300702 0.074893333 11380119
0.0044856369 0.8299523 0.074893512 11445912
0.004830122 0.82983446 0.074893691 11380632
0.005174607 0.82971656 0.074893869 11314839
0.0055190846 0.82959872 0.074894048 11314839
0.0061631799 0.83031452 0.075359501 11380632
0.0065061152 0.83019722 0.07535968 11380119
0.0068490505 0.83007985 0.075359859 11314326
0.0071919933 0.82996249 0.075360037 11314326
0.0075349286 0.82984519 0.075360216 11248533
0.0078778639 0.82972789 0.075360395 11314326
0.0082207993 0.82961053 0.075360574 11314326
0.008563742 0.82949317 0.075360753 11314326
0.0089066774 0.82937586 0.075360931 11380119
0.0092496127 0.8292585 0.07536111 11314839
0.009592548 0.8291412 0.075361289 11183253
0.0099354833 0.82902384 0.075361468 11249046
0.010278422 0.82890654 0.075361647 11183253
0.010621361 0.82878917 0.075361826 11183253
0.010964297 0.82867181 0.075362004 11183253
0.011307232 0.82855451 0.075362183 11051667
0.011650171 0.82843721 0.075362362 11051667
0.011993106 0.82831985 0.075362541 11051669
0.012336046 0.82820249 0.07536272 11051669
0.012678981 0.82808518 0.075362898 10985876
0.013021916 0.82796788 0.075363077 10985876
0.013364855 0.82785052 0.075363256 11051669
0.013707791 0.82773316 0.075363435 10985876
0.01405073 0.82761586 0.075363614 10985876
0.014393665 0.8274985 0.075363792 10920083
0.014736604 0.82738119 0.075363971 10985876
0.015079539 0.82726383 0.07536415 10985876
0.015422475 0.82714653 0.075364329 10985876
0.015765414 0.82702917 0.075364508 10985876
0.016108349 0.82691181 0.075364687 10920083
0.016451288 0.82679451 0.075364865 10985876
0.016794223 0.8266772 0.075365044 10985876
0.017387349 0.82741046 0.075830467 10985876
0.017728742 0.82729363 0.075830646 10985876
0.018070132 0.82717681 0.075830825 10920083
0.018411525 0.82705998 0.075831003 10985876
-0.025854722 0.83264673 0.071484968 13815491
-0.025497884 0.83252466 0.071485154 13881284
-0.025141045 0.83240253 0.071485341 14012870
-0.024784207 0.83228046 0.071485527 14144456
-0.024427369 0.83215839 0.071485713 14341835
-0.024070531 0.83203626 0.071485899 14210762
-0.023296401 0.83270848 0.071950004 14276555
-0.022941113 0.83258688 0.07195019 14540499
-0.022585817 0.83246535 0.071950376 14408913
-0.02181787 0.8331396 0.072414465 14343379
-0.021464117 0.83301854 0.072414652 14738137
-0.021110371 0.83289754 0.072414838 14606551
-0.020756617 0.83277649 0.072415017 14803930
-0.020402864 0.83265549 0.072415203 14474713
-0.020049118 0.83253443 0.072415389 14869471
-0.019291982 0.83321244 0.072879486 15330792
-0.018939778 0.83309191 0.072879672 15462378
-0.018587574 0.83297145 0.072879851 15200236
-0.018235371 0.83285093 0.072880037 15594994
-0.017883167 0.83273041 0.072880223 15858166
-0.017530963 0.83260989 0.072880402 15463408
-0.017178759 0.83248937 0.072880588 15135213
-0.016826548 0.83236891 0.072880767 15069420
-0.016474344 0.83224839 0.072880954 15201008
-0.015732661 0.83293164 0.073345035 15595766
-0.015381999 0.83281171 0.073345222 15464182
-0.015031338 0.83269173 0.0733454 15135217
-0.014680676 0.83257174 0.073345587 15398902
-0.014330015 0.83245176 0.073345765 15201523
-0.013979353 0.83233178 0.073345952 15201523
-0.013628691 0.83221179 0.073346131 14675179
-0.013278037 0.83209181 0.073346317 14543078
-0.01255025 0.83277988 0.073810399 14016734
-0.012201138 0.83266044 0.073810577 14279906
-0.011852019 0.83254099 0.073810764 13621976
-0.011502907 0.83242154 0.073810942 13424595
-0.011153787 0.83230209 0.073811129 13556181
-0.010804668 0.83218265 0.073811308 13818583
-0.010455556 0.8320632 0.073811486 13686997
-0.010106437 0.83194375 0.073811673 13094600
-0.0097573251 0.8318243 0.073811851 13423565
-0.0094082057 0.83170485 0.073812038 12829886
-0.0090590939 0.83158541 0.073812217 12961472
-0.0087099746 0.83146596 0.073812395 12961215
-0.0080022737 0.83216083 0.074276462 12895422
-0.0076547042 0.83204192 0.074276641 12829629
-0.0073071346 0.83192301 0.074276827 12829629
-0.006959565 0.83180404 0.074277006 12237746
-0.0066119879 0.83168519 0.074277185 12040367
-0.0062644184 0.83156621 0.074277371 12106160
-0.0059168488 0.8314473 0.07427755 11908781
-0.0055692792 0.83132839 0.074277729 11908011
-0.0052217096 0.83120948 0.074277915 11710632
-0.00487414 0.83109057 0.074278094 11644839
-0.004526563 0.8309716 0.074278273 11644839
-0.0041789934 0.83085275 0.074278459 11579044
-0.0038314238 0.83073378 0.074278638 11315872
-0.0034838542 0.83061486 0.074278817 11579044
-0.0031362772 0.83049595 0.074278995 11579044
-0.0024532974 0.83119929 0.074743062 11447458
-0.0021072701 0.83108091 0.074743241 11447458
-0.0017612427 0.83096254 0.07474342 11447458
-0.0014152154 0.83084416 0.074743599 11250079
-0.0010691881 0.83072573 0.074743778 11117978
-0.00072316825 0.83060735 0.074743956 11117978
-0.00037714094 0.83048892 0.074744143 11249564
-3.1113625e-05 0.83037055 0.074744321 11315357
0.00031491369 0.83025217 0.0747445 11249564
0.000660941 0.8301338 0.074744679 11315357
0.0010069683 0.83001542 0.074744858 11380634
0.0016714111 0.83072507 0.075208902 11249048
0.0020158961 0.83060724 0.075209081 11314841
0.0023603737 0.8304894 0.07520926 11380634
0.0027048588 0.8303715 0.075209439 11314841
0.0030493364 0.83025366 0.075209618 11314841
0.0033938214 0.83013576 0.075209796 11314839
0.003738299 0.83001792 0.075209983 11314839
0.0040827841 0.82990003 0.075210162 11380119
0.0044272691 0.82978219 0.07521034 11380119
0.0047717467 0.82966435 0.075210519 11314839
0.0051162317 0.82954645 0.075210698 11314839
0.0054607093 0.82942861 0.075210877 11249046
0.0058051944 0.82931077 0.075211056 11249046
0.006149672 0.82919288 0.075211234 11314326
0.006494157 0.82907498 0.075211413 11314326
0.0068386346 0.82895714 0.075211592 11248533
0.0071831197 0.8288393 0.075211771 11248533
0.0075276047 0.8287214 0.075211957 11248533
0.0081626922 0.82944119 0.075675979 11248533
0.0085056275 0.82932383 0.075676158 11314326
0.0088485628 0.82920647 0.075676337 11314326
0.0091914982 0.82908916 0.075676516 11249046
-0.025915191 0.83247048 0.071813166 13815493
-0.025558352 0.83234841 0.071813352 14144458
-0.025201514 0.83222634 0.071813539 14144458
-0.024844676 0.83210421 0.071813717 14672087
-0.024487838 0.83198214 0.071813904 15198431
-0.024131 0.83186007 0.07181409 15660527
-0.023356609 0.832533 0.072276779 15857906
-0.023001313 0.83241141 0.072276965 15463408
-0.022646025 0.83228987 0.072277151 15134443
-0.02187781 0.8329649 0.072739817 15397617
-0.021524057 0.8328439 0.072740003 15726582
-0.021170311 0.83272284 0.072740182 15857655
-0.020816565 0.83260179 0.072740369 14936553
-0.020462811 0.83248079 0.072740555 15462897
-0.020109057 0.83235973 0.072740741 15726069
-0.019351669 0.83303845 0.073203415 15266029
-0.018999465 0.83291799 0.073203601 15331822
-0.018647261 0.83279747 0.073203787 15463408
-0.01829505 0.83267695 0.073203966 14739685
-0.017942846 0.83255649 0.073204152 14805478
-0.017590642 0.83243597 0.073204331 14410720
-0.017238438 0.83231544 0.073204517 14674145
-0.016886227 0.83219492 0.073204704 14279387
-0.016534023 0.8320744 0.073204882 14016215
-0.015792079 0.83275849 0.073667549 14147801
-0.015441418 0.8326385 0.073667727 13950169
-0.015090756 0.83251852 0.073667914 13555411
-0.014740095 0.83239853 0.073668092 13489105
-0.01438944 0.83227861 0.073668279 13357519
-0.014038771 0.83215857 0.073668458 13160393
-0.013688117 0.83203864 0.073668644 12897221
-0.013337456 0.83191866 0.073668823 12831426
-0.012609407 0.83260745 0.074131489 12568254
-0.012260295 0.832488 0.074131668 12830656
-0.011911176 0.83236855 0.074131854 12764863
-0.011562064 0.8322491 0.074132033 12304566
-0.011212945 0.83212966 0.074132212 12238773
-0.010863826 0.83201021 0.074132398 12369589
-0.010514714 0.83189076 0.074132577 12303796
-0.010165602 0.83177131 0.074132763 12434353
-0.0098164827 0.83165187 0.074132942 12105388
-0.0094673708 0.83153242 0.074133128 12169896
-0.0091182515 0.83141297 0.074133307 12104103
-0.0087691396 0.83129352 0.074133486 11906724
-0.0080611706 0.83198917 0.074596129 11972517
-0.007713601 0.83187026 0.074596316 11906726
-0.0073660314 0.83175135 0.074596494 11840933
-0.0070184618 0.83163244 0.074596673 11512738
-0.0066708922 0.83151352 0.07459686 11381152
-0.0063233227 0.83139455 0.074597038 11512738
-0.0059757456 0.83127564 0.074597217 11512738
-0.005628176 0.83115673 0.074597403 11315359
-0.0052806064 0.83103782 0.074597582 11249566
-0.0049330369 0.83091891 0.074597761 11315359
-0.0045854598 0.8308 0.07459794 11315359
-0.0042378902 0.83068109 0.074598126 11315357
-0.0038903207 0.83056211 0.074598305 11381150
-0.0035427511 0.8304432 0.074598484 11512736
-0.0031951815 0.83032429 0.07459867 11381150
-0.0025119334 0.8310284 0.075061306 11381150
-0.0021659061 0.83091003 0.075061485 11381150
-0.0018198788 0.83079159 0.075061664 11315357
-0.0014738515 0.83067322 0.075061843 11183771
-0.0011278242 0.83055484 0.075062029 11117978
-0.00078180432 0.83043647 0.075062208 11052185
-0.00043577701 0.83031809 0.075062387 11249564
-8.9749694e-05 0.83019966 0.075062566 11315357
0.00025627762 0.83008128 0.075062744 11183771
0.00060230494 0.82996285 0.075062931 11249564
0.00094833225 0.82984447 0.075063109 11314841
0.0016130358 0.83055496 0.075525731 11249048
0.0019575208 0.83043706 0.07552591 11314841
0.0023020059 0.83031923 0.075526088 11314841
0.0026464835 0.83020139 0.075526267 11314841
0.0029909685 0.83008349 0.075526446 11249048
0.0033354461 0.82996565 0.075526625 11249046
0.0036799312 0.82984781 0.075526804 11314839
0.0040244088 0.82972991 0.075526983 11314839
0.0043688938 0.82961208 0.075527161 11249046
0.0047133714 0.82949418 0.075527348 11249046
0.0050578564 0.82937634 0.075527526 11314839
0.005402334 0.82925844 0.075527705 11249046
0.0057468191 0.8291406 0.075527884 11249046
0.0060912967 0.82902277 0.075528063 11249046
0.0064357817 0.82890487 0.075528242 11249046
0.0067802668 0.82878703 0.075528421 11248533
0.0071247444 0.82866919 0.075528599 11248533
0.0074692294 0.82855129 0.075528778 11248533
0.0081045777 0.82927179 0.075991385 11248533
0.008447513 0.82915449 0.075991563 11248533
0.0087904483 0.82903713 0.075991742 11248533
0.0091333836 0.82891977 0.075991921 11249046
-0.02747789 0.83186948 0.071679719 13420735
-0.027119502 0.83174688 0.071679905 13618114
-0.026761115 0.83162427 0.071680091 13881286
-0.025975659 0.83229429 0.072141357 14144458
-0.025618821 0.83217216 0.072141543 14473936
-0.025261983 0.83205009 0.072141729 15197659
-0.024905145 0.83192801 0.072141916 15066848
-0.024548307 0.83180588 0.072142102 15724778
-0.024191469 0.83168381 0.072142288 15462125
-0.023416817 0.83235753 0.072603554 15067367
-0.023061521 0.83223593 0.07260374 14936551
-0.022706226 0.8321144 0.072603919 14870758
-0.021937758 0.8327902 0.073065169 14344414
-0.021584004 0.83266914 0.073065355 13883863
-0.021230258 0.83254814 0.073065534 13620691
-0.020876504 0.83242708 0.07306572 13949656
-0.020522758 0.83230603 0.073065907 13883093
-0.020169005 0.83218503 0.073066093 14014679
-0.019411355 0.83286452 0.073527351 13685967
-0.019059144 0.832744 0.07352753 13422795
-0.01870694 0.83262354 0.073527716 13225416
-0.018354736 0.83250302 0.073527895 13488588
-0.018002532 0.8323825 0.073528081 13290437
-0.017650321 0.83226204 0.073528267 13158851
-0.017298117 0.83214152 0.073528446 13159105
-0.016945913 0.832021 0.073528633 12895933
-0.01659371 0.83190048 0.073528819 12501175
-0.015851498 0.83258528 0.073990054 12764347
-0.015500844 0.83246529 0.073990241 12303796
