# .PCD v0.7 - Point Cloud Data file format
VERSION 0.7
FIELDS x y z rgb
SIZE 4 4 4 4
TYPE F F F U
COUNT 1 1 1 1
WIDTH 1104
HEIGHT 1
VIEWPOINT 0 0 0 1 0 0 0
POINTS 1104
DATA ascii
0.018212475 0.74321455 0.041492209 2430987
0.017826673 0.74326086 0.041490197 2365194
0.017440874 0.74330717 0.041488186 2365194
0.017055072 0.74335349 0.041486189 2365194
0.01666927 0.7433998 0.041484177 2365194
0.016283467 0.74344611 0.041482165 2365194
0.015897665 0.74349248 0.041480154 2365194
0.015511867 0.74353874 0.041478157 2365194
0.015126064 0.74358511 0.041476145 2430987
0.014740262 0.74363136 0.041474134 2365194
0.01435446 0.74367774 0.041472122 2365194
0.013968658 0.74372405 0.041470125 2430987
0.013582859 0.74377036 0.041468114 2430987
0.013197053 0.74381667 0.041466102 2365194
0.012811251 0.74386299 0.04146409 2365194
0.012425449 0.7439093 0.041462094 2365194
0.01203965 0.74395561 0.041460082 2365194
0.011653848 0.74400192 0.04145807 2299401
0.011268046 0.74404824 0.041456059 2365194
0.010989873 0.74327052 0.042058527 2365194
0.010605695 0.74331665 0.042056531 2430987
0.010221509 0.74336272 0.042054534 2365194
0.0098373313 0.74340886 0.042052537 2365194
0.0094531495 0.74345499 0.042050526 2365194
0.0090689715 0.74350107 0.042048529 2365194
0.0086847898 0.7435472 0.042046532 2430987
0.0083006117 0.74359334 0.042044535 2430987
0.00791643 0.74363947 0.042042539 2365194
0.0075322483 0.7436856 0.042040542 2430987
0.0071480665 0.74373174 0.04203853 2430987
0.0067638848 0.74377781 0.042036533 2365194
0.0063797031 0.74382395 0.042034537 2365194
0.005995525 0.74387008 0.04203254 2430987
0.0056113433 0.74391621 0.042030528 2430987
0.0052271634 0.74396229 0.042028531 2365194
0.0048429817 0.74400842 0.042026535 2430987
0.0044588 0.74405456 0.042024538 2365194
0.0040746257 0.74410069 0.042022541 2430987
0.0036904365 0.74414682 0.042020544 2430987
0.0033062622 0.74419296 0.042018533 2430987
0.0029220805 0.74423903 0.042016536 2365194
0.0025378987 0.74428517 0.042014539 2430987
0.002153717 0.7443313 0.042012542 2430987
0.0017695427 0.74437737 0.042010546 2365194
0.0013853535 0.74442351 0.042008534 2430987
0.0010011792 0.74446964 0.042006537 2430987
0.00061699748 0.74451578 0.042004541 2430987
0.00023281574 0.74456191 0.042002544 2430987
3.2708049e-06 0.74377835 0.042605266 2430987
-0.00037928298 0.74382424 0.042603284 2365194
-0.00076184794 0.7438702 0.042601287 2430987
-0.0011444092 0.74391609 0.042599306 2430987
-0.0015269667 0.74396205 0.042597309 2365194
-0.0019095317 0.74400795 0.042595312 2365194
-0.0022920817 0.7440539 0.04259333 2430987
-0.0026746467 0.7440998 0.042591333 2365194
-0.0030572116 0.74414575 0.042589337 2430987
-0.0034397691 0.74419165 0.042587355 2365194
-0.0038223267 0.7442376 0.042585358 2430987
-0.0042048916 0.74428356 0.042583361 2430987
-0.0045874417 0.74432945 0.042581379 2430987
-0.0049700066 0.74437535 0.042579383 2430987
-0.0053525642 0.7444213 0.042577401 2430987
-0.0057351217 0.74446726 0.042575404 2365194
-0.0061176866 0.74451315 0.042573407 2430987
-0.0065002441 0.74455905 0.042571425 2430987
-0.0068828017 0.744605 0.042569429 2430987
-0.0072653666 0.74465096 0.042567447 2430987
-0.0076479241 0.74469686 0.04256545 2430987
-0.0080304816 0.74474281 0.042563453 2430987
-0.0084130466 0.74478871 0.042561471 2430474
-0.0087955967 0.74483466 0.042559475 2496267
-0.0091781691 0.74488056 0.042557478 2496267
-0.0095607191 0.74492651 0.042555496 2496267
-0.0099432841 0.74497241 0.042553499 2430474
-0.010325842 0.74501836 0.042551503 2496267
-0.010708399 0.74506426 0.042549521 2496267
-0.011090957 0.74511021 0.042547524 2496267
-0.011473522 0.74515617 0.042545542 2430474
-0.011856072 0.74520206 0.042543545 2496267
-0.012238644 0.74524796 0.042541549 2430987
-0.012621194 0.74529392 0.042539567 2430987
-0.012793999 0.7445035 0.043142572 2365194
-0.01317494 0.74454927 0.04314059 2430987
-0.013555881 0.74459499 0.043138608 2430987
-0.013936821 0.74464071 0.043136626 2430987
-0.014317755 0.74468648 0.043134645 2430987
-0.014698695 0.7447322 0.043132663 2430987
-0.015079629 0.74477792 0.043130681 2496267
-0.015460577 0.74482363 0.043128699 2496267
-0.01584151 0.74486935 0.043126717 2496267
-0.016222451 0.74491513 0.043124735 2496267
-0.016603384 0.74496084 0.043122754 2430987
-0.016984325 0.74500656 0.043120772 2430987
-0.017365266 0.74505234 0.04311879 2430987
-0.017746206 0.74509805 0.043116808 2365194
-0.01812714 0.74514377 0.043114826 2430987
-0.01850808 0.74518949 0.043112829 2430987
-0.018889021 0.7452352 0.043110862 2430987
-0.019269962 0.74528098 0.043108866 2430987
-0.019650903 0.7453267 0.043106884 2430987
-0.020031836 0.74537241 0.043104902 2365194
-0.020412777 0.74541819 0.04310292 2430987
-0.02079371 0.74546391 0.043100938 2430987
-0.021174651 0.74550962 0.043098956 2430987
-0.021555591 0.74555534 0.043096974 2430987
-0.021936532 0.74560106 0.043094993 2430987
-0.022317465 0.74564683 0.043093011 2430987
-0.022698406 0.74569255 0.043091029 2430987
-0.023079339 0.74573827 0.043089047 2430987
-0.023460288 0.74578404 0.043087065 2430987
-0.023584455 0.74498779 0.043690339 2430987
-0.023963779 0.74503332 0.043688372 2430987
-0.024343096 0.74507886 0.04368639 2430987
-0.024722412 0.7451244 0.043684408 2365194
-0.025364984 0.74601269 0.043077156 2365194
-0.025745917 0.7460584 0.043075159 2430987
-0.026126854 0.74610412 0.043073177 2430987
0.055426188 0.74462903 0.037803531 1576964
0.055029038 0.74467671 0.037801459 1576710
0.054631889 0.74472439 0.037799403 1971468
0.054234739 0.74477208 0.037797332 2037515
0.05383759 0.74481976 0.037795261 2103308
0.053440444 0.74486744 0.037793204 2103308
0.052975759 0.74411124 0.038393289 2103308
0.052580234 0.74415874 0.038391218 2103308
0.052184708 0.74420619 0.038389161 2103308
0.051726509 0.74344921 0.038989305 2103308
0.0513326 0.74349654 0.038987249 2103308
0.050938696 0.7435438 0.038985193 2103308
0.050544787 0.74359113 0.038983151 2103308
0.050150882 0.7436384 0.038981095 2103308
0.049756974 0.74368572 0.038979053 2103308
0.049310125 0.74292737 0.039579228 2234380
0.048917837 0.74297446 0.039577186 2234380
0.048525553 0.74302155 0.039575145 2234380
0.048133269 0.74306864 0.039573103 2234380
0.047740981 0.74311572 0.039571062 2234380
0.047348697 0.74316287 0.03956902 2234380
0.046956412 0.74320996 0.039566979 2234378
0.046564125 0.74325705 0.039564937 2234378
0.046171837 0.74330413 0.039562896 2234378
0.045741197 0.74254382 0.040163174 2234378
0.045350533 0.74259073 0.040161133 2234378
0.044959866 0.74263763 0.040159106 2234378
0.044569202 0.74268454 0.040157065 2234378
0.044178538 0.74273145 0.040155038 2234378
0.043787874 0.74277836 0.040152997 2234378
0.043397211 0.74282527 0.04015097 2234378
0.043006547 0.74287212 0.040148929 2234378
0.042615883 0.74291903 0.040146902 2234378
0.042225219 0.74296594 0.040144876 2168585
0.041834552 0.74301285 0.040142834 2234378
0.041443884 0.74305975 0.040140808 2234378
0.041053221 0.7431066 0.040138766 2234378
0.040662557 0.74315357 0.04013674 2234378
0.040271893 0.74320042 0.040134698 2234378
0.039881229 0.74324733 0.040132672 2300171
0.039490562 0.74329424 0.04013063 2300171
0.039099898 0.74334115 0.040128604 2300171
0.038709231 0.74338806 0.040126562 2234378
0.038318567 0.74343491 0.040124536 2234378
0.037927903 0.74348187 0.040122494 2234378
0.037537239 0.74352872 0.040120468 2234378
0.037146576 0.74357563 0.040118441 2234378
0.036755912 0.74362254 0.0401164 2234378
0.036365248 0.74366945 0.040114373 2300171
0.035974581 0.74371636 0.040112332 2234378
0.035583917 0.74376321 0.040110305 2234378
0.03519325 0.74381018 0.040108263 2234378
0.034802586 0.74385703 0.040106237 2234378
0.034420576 0.74309093 0.040706754 2234378
0.034031533 0.7431376 0.040704742 2234378
0.033642493 0.74318433 0.040702716 2234378
0.033253446 0.74323106 0.040700689 2234378
0.032864403 0.74327773 0.040698662 2168585
0.03247536 0.74332446 0.040696636 2234378
0.032086313 0.74337113 0.040694609 2168585
0.031697273 0.74341786 0.040692583 2234378
0.031308226 0.74346459 0.040690556 2168585
0.030919183 0.74351126 0.04068853 2234378
0.030530142 0.74355799 0.040686503 2234378
0.030141095 0.74360466 0.040684491 2300171
0.029752051 0.74365139 0.040682465 2234378
0.029363008 0.74369812 0.040680438 2234378
0.029005315 0.74292904 0.041281089 2234378
0.028617892 0.74297559 0.041279078 2234378
0.02823047 0.74302208 0.041277051 2234378
0.027843047 0.74306858 0.041275039 2234378
0.027455624 0.74311507 0.041273028 2234378
0.027068201 0.74316162 0.041271001 2300171
0.026680775 0.74320811 0.041268989 2300171
0.026293352 0.74325466 0.041266978 2234378
0.025905933 0.74330115 0.041264951 2365194
0.02551851 0.74334764 0.04126294 2365194
0.025131084 0.74339414 0.041260928 2365194
0.024743661 0.74344069 0.041258901 2365194
0.024356239 0.74348718 0.04125689 2365194
0.023968816 0.74353373 0.041254878 2365194
0.023581393 0.74358022 0.041252851 2365194
0.023193974 0.74362671 0.04125084 2365194
0.022806551 0.74367321 0.041248828 2365194
0.022419129 0.74371976 0.041246817 2365194
0.022031706 0.74376625 0.04124479 2365194
0.021644283 0.7438128 0.041242778 2365194
0.02125686 0.74385929 0.041240767 2365194
0.020869438 0.74390578 0.04123874 2365194
0.020482019 0.74395227 0.041236728 2365194
0.020094596 0.74399883 0.041234717 2365194
0.019707173 0.74404532 0.04123269 2365194
0.019319747 0.74409181 0.041230679 2365194
0.01900582 0.74331754 0.041831553 2430987
0.018620018 0.74336386 0.041829541 2430987
0.018234216 0.74341017 0.041827545 2430987
0.017848413 0.74345648 0.041825533 2365194
0.017462615 0.74350286 0.041823521 2365194
0.017076813 0.74354911 0.04182151 2365194
0.01669101 0.74359548 0.041819498 2365194
0.016305208 0.74364173 0.041817501 2365194
0.015919406 0.74368811 0.04181549 2365194
0.015533607 0.74373442 0.041813478 2365194
0.015147805 0.74378073 0.041811466 2430987
0.014762003 0.74382704 0.041809469 2365194
0.014376201 0.74387336 0.041807458 2365194
0.013990398 0.74391967 0.041805446 2430987
0.0136046 0.74396598 0.041803434 2430987
0.013218794 0.7440123 0.041801438 2365194
0.012832992 0.74405861 0.041799426 2365194
0.01244719 0.74410492 0.041797414 2365194
0.012061391 0.74415123 0.041795403 2365194
0.011675589 0.74419755 0.041793406 2365194
0.011289787 0.74424386 0.041791394 2365194
0.01101152 0.7434653 0.042392448 2365194
0.010627342 0.74351144 0.042390451 2365194
0.010243157 0.74355757 0.042388454 2365194
0.0098589789 0.74360371 0.042386457 2365194
0.0094747972 0.74364978 0.042384446 2430987
0.0090906192 0.74369591 0.042382449 2365194
0.0087064374 0.74374205 0.042380452 2430987
0.0083222594 0.74378812 0.042378455 2430987
0.0079380777 0.74383426 0.042376444 2365194
0.0075538959 0.74388039 0.042374447 2430987
0.0071697142 0.74392653 0.04237245 2430987
0.0067855325 0.74397266 0.042370453 2365194
0.0064013507 0.74401879 0.042368457 2365194
0.0060171727 0.74406487 0.04236646 2430987
0.005632991 0.744111 0.042364448 2430987
0.005248813 0.74415714 0.042362452 2365194
0.0048646331 0.74420327 0.042360455 2430987
0.0044804513 0.74424934 0.042358458 2430987
0.0040962696 0.74429548 0.042356461 2430987
0.0037120879 0.74434161 0.04235445 2430987
0.0033279061 0.74438775 0.042352453 2430987
0.0029437244 0.74443388 0.042350456 2365194
0.0025595501 0.74448001 0.042348459 2365194
0.0021753684 0.74452609 0.042346463 2430987
0.0017911866 0.74457222 0.042344466 2365194
0.0014070049 0.74461836 0.042342454 2365194
0.0010228306 0.74466443 0.042340457 2430987
0.00063864142 0.74471056 0.042338461 2430987
0.00025446713 0.7447567 0.042336464 2430987
2.4825335e-05 0.7439723 0.042937785 2430987
-0.00035772473 0.74401826 0.042935789 2365194
-0.00074028969 0.74406415 0.042933792 2430987
-0.0011228547 0.74411011 0.04293181 2365194
-0.0015054122 0.744156 0.042929813 2365194
-0.0018879697 0.74420196 0.042927817 2365194
-0.0022705272 0.74424791 0.042925835 2430987
-0.0026530847 0.74429381 0.042923838 2430987
-0.0030356497 0.7443397 0.042921856 2430987
-0.0034182072 0.74438566 0.042919859 2365194
-0.0038007647 0.74443161 0.042917863 2430987
-0.0041833296 0.74447751 0.042915881 2430987
-0.0045658797 0.74452341 0.042913884 2430987
-0.0049484447 0.74456936 0.042911902 2430987
-0.0053310022 0.74461532 0.042909905 2430987
-0.0057135597 0.74466121 0.042907909 2430987
-0.0060961246 0.74470717 0.042905927 2430987
-0.0064786822 0.74475306 0.04290393 2430987
-0.0068612397 0.74479902 0.042901933 2430987
-0.0072438046 0.74484491 0.042899951 2430987
-0.0076263621 0.74489087 0.042897955 2430987
-0.0080089197 0.74493676 0.042895958 2430987
-0.0083914846 0.74498272 0.042893976 2430474
-0.0087740347 0.74502861 0.042891979 2496267
-0.0091566071 0.74507457 0.042889997 2496267
-0.0095391572 0.74512053 0.042888001 2496267
-0.0099217221 0.74516642 0.042886004 2496267
-0.01030428 0.74521232 0.042884022 2496267
-0.010686837 0.74525827 0.042882025 2496267
-0.011069395 0.74530423 0.042880043 2496267
-0.01145196 0.74535012 0.042878047 2496267
-0.01183451 0.74539602 0.04287605 2496267
-0.012217082 0.74544197 0.042874068 2430987
-0.012599632 0.74548793 0.042872071 2430987
-0.012772534 0.74469668 0.043473676 2365194
-0.013153475 0.74474239 0.043471694 2430987
-0.013534416 0.74478817 0.043469712 2430987
-0.013915356 0.74483389 0.04346773 2430987
-0.01429629 0.7448796 0.043465748 2430987
-0.01467723 0.74492538 0.043463767 2430987
-0.015058164 0.7449711 0.043461785 2496267
-0.015439112 0.74501681 0.043459803 2496267
-0.015820045 0.74506253 0.043457821 2496267
-0.016200986 0.74510825 0.043455839 2496267
-0.016581919 0.74515402 0.043453857 2496267
-0.01696286 0.74519974 0.043451861 2496267
-0.017343801 0.74524546 0.043449879 2430987
-0.017724741 0.74529123 0.043447897 2365194
-0.018105675 0.74533695 0.043445915 2430987
-0.018486615 0.74538267 0.043443933 2430987
-0.018867556 0.74542838 0.043441951 2430987
-0.019248497 0.7454741 0.043439969 2430987
-0.019629437 0.74551988 0.043437988 2430987
-0.020010371 0.74556559 0.043436006 2430987
-0.020391311 0.74561131 0.043434024 2430987
-0.020772245 0.74565709 0.043432042 2430987
-0.021153186 0.7457028 0.04343006 2430987
-0.021534126 0.74574852 0.043428078 2430987
-0.021915067 0.7457943 0.043426096 2430987
-0.022296 0.74584001 0.043424115 2430987
-0.022676941 0.74588573 0.043422133 2430987
-0.023057874 0.74593145 0.043420151 2430987
-0.023438822 0.74597716 0.043418154 2430987
-0.02356308 0.74518013 0.044020027 2430987
-0.023942403 0.74522567 0.04401806 2430987
-0.02432172 0.74527121 0.044016078 2430987
-0.024701037 0.74531674 0.044014111 2365194
-0.025343519 0.74620587 0.043408245 2365194
-0.025724452 0.74625158 0.043406263 2430987
-0.026105396 0.7462973 0.043404281 2430987
0.055448566 0.74483043 0.038148716 1576964
0.055051416 0.74487811 0.03814666 1576710
0.05465427 0.74492574 0.038144588 1971468
0.054257121 0.74497342 0.038142517 2103308
0.053859971 0.7450211 0.038140461 2103308
0.053462826 0.74506879 0.03813839 2103308
0.052998051 0.74431181 0.038737059 2169101
0.052602522 0.74435931 0.038735002 2103308
0.052206993 0.74440676 0.038732946 2103308
0.051748708 0.74364901 0.039331675 2103308
0.051354799 0.74369627 0.039329618 2103308
0.050960891 0.74374354 0.039327562 2103308
0.050566986 0.74379086 0.03932552 2103308
0.050173081 0.74383813 0.039323464 2103308
0.049779169 0.7438854 0.039321423 2103308
0.049332231 0.74312627 0.039920196 2234380
0.048939943 0.74317336 0.03991814 2234380
0.048547659 0.74322045 0.039916113 2234380
0.048155375 0.74326754 0.039914057 2234380
0.047763087 0.74331462 0.03991203 2234380
0.047370803 0.74336177 0.039909974 2234380
0.046978518 0.74340886 0.039907932 2234380
0.04658623 0.74345595 0.039905891 2234380
0.046193942 0.74350303 0.039903849 2234378
0.045763209 0.74274194 0.040502712 2234378
0.045372546 0.74278885 0.040500686 2234378
0.044981882 0.74283576 0.040498659 2234378
0.044591218 0.74288261 0.040496618 2234378
0.044200554 0.74292958 0.040494591 2234378
0.043809891 0.74297643 0.04049255 2234378
0.043419223 0.74302334 0.040490523 2234378
0.04302856 0.74307024 0.040488482 2234378
0.042637896 0.74311715 0.040486455 2234378
0.042247232 0.74316406 0.040484414 2168585
0.041856565 0.74321091 0.040482387 2234378
0.041465901 0.74325782 0.04048036 2234378
0.041075237 0.74330473 0.040478319 2300171
0.040684573 0.74335164 0.040476277 2234378
0.04029391 0.74339855 0.040474251 2234378
0.039903246 0.74344546 0.040472224 2300171
0.039512575 0.74349236 0.040470183 2300171
0.039121911 0.74353921 0.040468156 2300171
0.038731247 0.74358612 0.040466115 2234378
0.038340583 0.74363303 0.040464088 2234378
0.03794992 0.74367994 0.040462047 2234378
0.037559256 0.74372685 0.04046002 2234378
0.037168588 0.74377376 0.040457979 2234378
0.036777925 0.74382067 0.040455952 2234378
0.036387261 0.74386752 0.040453926 2234378
0.035996594 0.74391443 0.040451884 2234378
0.03560593 0.74396133 0.040449858 2234378
0.035215266 0.74400824 0.040447816 2234378
0.034824602 0.74405515 0.04044579 2234378
0.034442499 0.74328822 0.041044906 2234378
0.034053456 0.74333489 0.041042879 2234378
0.033664413 0.74338162 0.041040853 2234378
0.03327537 0.74342835 0.041038826 2234378
0.032886326 0.74347502 0.0410368 2168585
0.032497279 0.74352175 0.041034773 2234378
0.03210824 0.74356842 0.041032746 2168585
0.031719193 0.74361515 0.041030735 2234378
0.031330153 0.74366188 0.041028708 2234378
0.030941106 0.74370855 0.041026682 2234378
0.030552065 0.74375522 0.041024655 2234378
0.030163018 0.74380195 0.041022629 2300171
0.029773975 0.74384868 0.041020602 2234378
0.029384932 0.74389535 0.041018575 2234378
0.029027145 0.7431255 0.041617826 2234378
0.028639726 0.74317205 0.041615799 2234378
0.028252304 0.74321854 0.041613787 2234378
0.027864881 0.74326503 0.041611776 2234378
0.027477458 0.74331152 0.041609749 2234378
0.027090035 0.74335808 0.041607738 2300171
0.026702609 0.74340457 0.041605726 2300171
0.026315186 0.74345112 0.041603699 2234378
0.025927767 0.74349761 0.041601688 2234378
0.025540344 0.7435441 0.041599676 2234378
0.025152918 0.74359059 0.041597664 2365194
0.024765495 0.74363714 0.041595638 2365194
0.024378072 0.74368364 0.041593626 2365194
0.02399065 0.74373019 0.041591614 2365194
0.023603227 0.74377668 0.041589588 2365194
0.023215808 0.74382317 0.041587576 2365194
0.022828385 0.74386966 0.041585565 2365194
0.022440962 0.74391621 0.041583538 2365194
0.02205354 0.74396271 0.041581526 2365194
0.021666117 0.74400926 0.041579515 2365194
0.021278694 0.74405575 0.041577488 2365194
0.020891272 0.74410224 0.041575477 2365194
0.020503853 0.74414873 0.041573465 2365194
0.02011643 0.74419528 0.041571438 2430987
0.019729007 0.74424177 0.041569427 2365194
0.019341581 0.74428827 0.041567415 2365194
0.019027561 0.74351323 0.042166874 2430987
0.018641759 0.74355948 0.042164862 2430987
0.018255956 0.74360585 0.042162865 2430987
0.017870154 0.74365211 0.042160854 2365194
0.017484356 0.74369848 0.042158842 2365194
0.017098553 0.74374473 0.04215683 2365194
0.016712751 0.7437911 0.042154834 2365194
0.016326949 0.74383742 0.042152822 2365194
0.015941147 0.74388373 0.04215081 2365194
0.015555348 0.74393004 0.042148799 2365194
0.015169546 0.74397635 0.042146787 2430987
0.014783744 0.74402267 0.04214479 2365194
0.014397942 0.74406898 0.042142779 2365194
0.014012139 0.74411529 0.042140767 2365194
0.013626341 0.74416161 0.04213877 2430987
0.013240535 0.74420792 0.042136759 2365194
0.012854733 0.74425423 0.042134747 2365194
0.01246893 0.74430054 0.042132735 2365194
0.012083132 0.74434686 0.042130724 2365194
0.01169733 0.74439323 0.042128727 2365194
0.011311527 0.74443948 0.042126715 2365194
0.011033172 0.74366009 0.042726368 2430987
0.010648994 0.74370623 0.042724371 2430987
0.010264808 0.74375236 0.042722359 2365194
0.0098806303 0.74379849 0.042720363 2365194
0.0094964486 0.74384463 0.042718366 2430987
0.0091122705 0.74389076 0.042716369 2365194
0.0087280888 0.74393684 0.042714372 2430987
0.0083439108 0.74398297 0.042712376 2430987
0.0079597291 0.7440291 0.042710364 2365194
0.0075755473 0.74407518 0.042708367 2430987
0.0071913656 0.74412131 0.04270637 2430987
0.0068071838 0.74416745 0.042704374 2365194
0.0064230021 0.74421358 0.042702362 2365194
0.0060388241 0.74425972 0.042700365 2430987
0.0056546424 0.74430585 0.042698368 2430987
0.0052704643 0.74435192 0.042696372 2365194
0.0048862845 0.74439806 0.042694375 2430987
0.0045021027 0.74444419 0.042692378 2430987
0.004117921 0.74449033 0.042690367 2430987
0.0037337393 0.7445364 0.04268837 2496267
0.0033495575 0.74458253 0.042686373 2496267
0.0029653758 0.74462867 0.042684376 2365194
0.0025812015 0.7446748 0.042682379 2430987
0.0021970198 0.74472094 0.042680368 2430987
0.001812838 0.74476707 0.042678371 2365194
0.0014286563 0.74481314 0.042676374 2365194
0.001044482 0.74485928 0.042674378 2430987
0.0006602928 0.74490541 0.042672381 2430987
0.00027611852 0.74495149 0.042670384 2430987
4.638359e-05 0.74416631 0.04327029 2430987
-0.0003361702 0.74421227 0.043268293 2365194
-0.00071873516 0.74425817 0.043266311 2430987
-0.0011012964 0.74430406 0.043264315 2365194
-0.0014838502 0.74435002 0.043262318 2365194
-0.0018664151 0.74439597 0.043260336 2365194
-0.0022489652 0.74444187 0.043258339 2430987
-0.0026315302 0.74448776 0.043256342 2430987
-0.0030140951 0.74453372 0.043254361 2430987
-0.0033966526 0.74457967 0.043252364 2430987
-0.0037792102 0.74462557 0.043250367 2430987
-0.0041617751 0.74467152 0.043248385 2430987
-0.0045443252 0.74471742 0.043246388 2430987
-0.0049268901 0.74476337 0.043244407 2430987
-0.0053094476 0.74480927 0.04324241 2430987
-0.0056920052 0.74485523 0.043240413 2430987
-0.0060745701 0.74490112 0.043238431 2430987
-0.0064571276 0.74494708 0.043236434 2430987
-0.0068396851 0.74499297 0.043234453 2430987
-0.0072222501 0.74503893 0.043232456 2430987
-0.0076048076 0.74508482 0.043230459 2430987
-0.0079873651 0.74513078 0.043228477 2430987
-0.0083699301 0.74517667 0.04322648 2496267
-0.0087524801 0.74522263 0.043224484 2496267
-0.0091350526 0.74526858 0.043222502 2496267
-0.0095176026 0.74531448 0.043220505 2562060
-0.0099001676 0.74536037 0.043218508 2496267
-0.010282725 0.74540633 0.043216527 2496267
-0.010665283 0.74545228 0.04321453 2430474
-0.01104784 0.74549818 0.043212548 2496267
-0.011430405 0.74554408 0.043210551 2496267
-0.011812955 0.74559003 0.043208554 2496267
-0.012195528 0.74563599 0.043206573 2496267
-0.012578078 0.74568188 0.043204576 2496267
-0.012751061 0.74488986 0.04380478 2365194
-0.013132002 0.74493557 0.043802798 2430987
-0.013512943 0.74498129 0.043800816 2430987
-0.013893884 0.74502707 0.043798834 2430987
-0.014274817 0.74507278 0.043796852 2430987
-0.014655758 0.7451185 0.043794855 2430987
-0.015036691 0.74516428 0.043792874 2430987
-0.015417639 0.74520999 0.043790892 2430987
-0.015798572 0.74525571 0.04378891 2496267
-0.016179513 0.74530143 0.043786928 2496267
-0.016560446 0.74534714 0.043784946 2496267
-0.016941387 0.74539292 0.043782964 2496267
-0.017322328 0.74543864 0.043780982 2496267
-0.017703269 0.74548435 0.043779001 2496267
-0.018084202 0.74553013 0.043777019 2496267
-0.018465143 0.74557585 0.043775037 2496267
-0.018846083 0.74562156 0.043773055 2562060
-0.019227024 0.74566734 0.043771073 2496267
-0.019607965 0.74571306 0.043769091 2496267
-0.019988898 0.74575877 0.04376711 2496267
-0.020369839 0.74580449 0.043765128 2496267
-0.020750772 0.74585021 0.043763146 2496267
-0.021131713 0.74589598 0.043761149 2496267
-0.021512654 0.7459417 0.043759167 2496267
-0.021893594 0.74598742 0.043757185 2496267
-0.022274528 0.74603319 0.043755203 2496267
-0.022655468 0.74607891 0.043753222 2496267
-0.023036402 0.74612463 0.04375124 2496267
-0.02341735 0.74617034 0.043749258 2496267
-0.023541704 0.74537247 0.044349715 2496267
-0.023921028 0.74541801 0.044347748 2496267
-0.024300344 0.74546355 0.044345766 2496267
-0.024679661 0.74550909 0.044343799 2496267
-0.025322046 0.74639904 0.043739349 2430474
-0.025702979 0.74644476 0.043737367 2496267
-0.026083924 0.74649048 0.043735385 2496267
0.055393506 0.74422747 0.039093196 1642757
0.054997977 0.74427497 0.03909114 1576710
0.054602452 0.74432242 0.039089069 1971468
0.054206923 0.74436992 0.039087012 2103308
0.053811394 0.74441743 0.039084956 2103308
0.053415865 0.74446487 0.0390829 2103308
0.052952625 0.74370688 0.039680183 2103308
0.052558716 0.74375415 0.039678141 2103308
0.052164812 0.74380147 0.039676085 2103308
0.051770903 0.74384874 0.039674044 2103308
0.051376998 0.74389601 0.039671987 2103308
0.05098309 0.74394333 0.039669931 2103308
0.050531194 0.74318391 0.040267274 2103308
0.050138909 0.743231 0.040265232 2234380
0.049746621 0.74327815 0.040263191 2234380
0.049354337 0.74332523 0.040261149 2234380
0.048962049 0.74337232 0.040259108 2234380
0.048569765 0.74341941 0.040257066 2234380
0.048129216 0.74265862 0.040854469 2234380
0.047738552 0.74270552 0.040852442 2234380
0.047347885 0.74275243 0.040850401 2234380
0.046957221 0.74279934 0.040848374 2234380
0.046566553 0.74284625 0.040846333 2234380
0.04617589 0.74289316 0.040844306 2234378
0.045785226 0.74294007 0.040842265 2234378
0.045394562 0.74298692 0.040840238 2234378
0.045003898 0.74303383 0.040838197 2234378
0.044579558 0.74227113 0.041435689 2234378
0.044190515 0.74231786 0.041433662 2234378
0.043801472 0.74236453 0.041431651 2300171
0.043412428 0.74241126 0.041429624 2234378
0.043023385 0.74245799 0.041427597 2234378
0.042634342 0.74250466 0.041425571 2234378
0.042245299 0.74255139 0.041423544 2234378
0.041856252 0.74259806 0.041421518 2234378
0.041467212 0.74264479 0.041419491 2234378
0.041078165 0.74269152 0.041417465 2300171
0.040689122 0.74273819 0.041415438 2234378
0.040300079 0.74278492 0.041413411 2234378
0.039911035 0.74283159 0.0414114 2234378
0.039521992 0.74287832 0.041409373 2300171
0.039132949 0.74292505 0.041407347 2234378
0.038743902 0.74297172 0.04140532 2234378
0.038354859 0.74301839 0.041403294 2300171
0.037965819 0.74306512 0.041401267 2234378
0.037576772 0.74311185 0.04139924 2234378
0.037187733 0.74315858 0.041397214 2234378
0.036798686 0.74320525 0.041395202 2234378
0.036409643 0.74325192 0.041393176 2234378
0.036020599 0.74329865 0.041391149 2234378
0.035631552 0.74334538 0.041389123 2234378
0.035242509 0.74339205 0.041387096 2234378
0.034853466 0.74343878 0.041385069 2234378
0.034464423 0.74348545 0.041383043 2234378
0.034075379 0.74353218 0.041381016 2234378
0.03368634 0.74357891 0.04137899 2234378
0.033310629 0.74281037 0.041976735 2234378
0.032923203 0.74285686 0.041974723 2234378
0.03253578 0.74290335 0.041972712 2234378
0.032148357 0.7429499 0.041970685 2234378
0.031760935 0.74299639 0.041968673 2234378
0.031373512 0.74304289 0.041966662 2234378
0.030986089 0.74308944 0.041964635 2234378
0.030598668 0.74313593 0.041962624 2234378
0.030211244 0.74318242 0.041960612 2300171
0.029823821 0.74322891 0.041958585 2234378
0.029436402 0.74327546 0.041956574 2234378
0.029048979 0.74332196 0.041954562 2234378
0.028661557 0.74336851 0.041952536 2234378
0.028274134 0.743415 0.041950524 2300171
0.027886711 0.74346149 0.041948512 2234378
0.027499288 0.74350798 0.041946486 2234378
0.027111866 0.74355453 0.041944474 2300171
0.026765332 0.74278247 0.042542368 2300171
0.026379533 0.74282885 0.042540357 2234378
0.025993731 0.7428751 0.042538345 2234378
0.025607929 0.74292147 0.042536333 2300171
0.025222126 0.74296778 0.042534336 2365194
0.024836324 0.7430141 0.042532325 2365194
0.024450526 0.74306041 0.042530313 2365194
0.024064723 0.74310672 0.042528301 2365194
0.023678921 0.74315304 0.042526305 2365194
0.023293119 0.74319935 0.042524293 2365194
0.02290732 0.74324566 0.042522281 2365194
0.022521518 0.74329197 0.04252027 2365194
0.022135716 0.74333829 0.042518273 2365194
0.021749914 0.7433846 0.042516261 2365194
0.021364111 0.74343091 0.04251425 2365194
0.020978313 0.74347723 0.042512238 2365194
0.020592511 0.74352354 0.042510226 2365194
0.020206708 0.74356985 0.04250823 2430987
0.019820906 0.74361622 0.042506218 2365194
0.0194351 0.74366248 0.042504206 2430987
0.019049302 0.74370885 0.04250221 2430987
0.0186635 0.7437551 0.042500198 2430987
0.018277697 0.74380147 0.042498186 2430987
0.017891895 0.74384779 0.042496175 2365194
0.017506097 0.7438941 0.042494163 2365194
0.017120294 0.74394041 0.042492166 2365194
0.016817531 0.74316311 0.043090269 2365194
0.016433349 0.74320924 0.043088272 2365194
0.016049167 0.74325538 0.043086275 2365194
0.015664989 0.74330145 0.043084279 2365194
0.015280807 0.74334759 0.043082282 2430987
0.014896629 0.74339372 0.043080285 2365194
0.014512448 0.74343985 0.043078274 2365194
0.014128266 0.74348593 0.043076277 2365194
0.013744088 0.74353206 0.04307428 2430987
0.013359899 0.7435782 0.043072283 2365194
0.012975721 0.74362433 0.043070272 2365194
0.012591539 0.74367046 0.043068275 2365194
0.012207361 0.7437166 0.043066278 2365194
0.011823179 0.74376267 0.043064281 2365194
0.011439001 0.74380881 0.043062285 2365194
0.011054819 0.74385494 0.043060288 2365194
0.010670641 0.74390101 0.043058276 2365194
0.010286456 0.74394715 0.043056279 2365194
0.009902278 0.74399328 0.043054283 2430987
0.0095180962 0.74403942 0.043052286 2430987
0.0091339182 0.74408555 0.043050289 2365194
0.0087497365 0.74413168 0.043048277 2430987
0.0083655585 0.74417776 0.043046281 2430987
0.008101698 0.74339581 0.043644607 2430987
0.007719133 0.74344176 0.04364261 2430987
0.0073365755 0.74348772 0.043640628 2430987
0.0069540143 0.74353361 0.043638632 2365194
0.0065714568 0.74357951 0.043636635 2365194
0.0061888956 0.74362546 0.043634653 2430987
0.005806338 0.74367142 0.043632656 2430987
0.0054237768 0.74371731 0.043630674 2365194
0.0050412193 0.74376327 0.043628678 2430987
0.0046586581 0.74380916 0.043626681 2430987
0.0042761005 0.74385512 0.043624699 2430987
0.0038935393 0.74390101 0.043622702 2496267
0.0035109818 0.74394697 0.043620721 2496267
0.0031284206 0.74399287 0.043618724 2430987
0.0027458631 0.74403882 0.043616727 2430987
0.0023633018 0.74408472 0.043614745 2430987
0.0019807443 0.74413067 0.043612748 2430987
0.0015981793 0.74417657 0.043610752 2365194
0.0012156256 0.74422252 0.04360877 2430987
0.00083306059 0.74426842 0.043606773 2430987
0.00045050681 0.74431437 0.043604776 2430987
6.7941844e-05 0.74436033 0.043602794 2430987
-0.00031461194 0.74440622 0.043600798 2365194
-0.0006971769 0.74445212 0.043598816 2430987
-0.0010797381 0.74449807 0.043596819 2365194
-0.0014622957 0.74454403 0.043594822 2365194
-0.0018448532 0.74458992 0.04359284 2365194
-0.0022274107 0.74463582 0.043590844 2430987
-0.0026099682 0.74468178 0.043588862 2430987
-0.0029925331 0.74472773 0.043586865 2430987
-0.0033750907 0.74477363 0.043584868 2430987
-0.0037576482 0.74481958 0.043582886 2430987
-0.003968019 0.74403119 0.044181481 2430987
-0.0043489523 0.74407691 0.044179499 2430987
-0.0047298931 0.74412262 0.044177517 2430987
-0.0051108263 0.7441684 0.044175521 2430987
-0.0054917745 0.74421412 0.044173554 2430987
-0.0058727078 0.74425983 0.044171557 2430987
-0.0062536485 0.74430555 0.044169575 2430987
-0.0066345818 0.74435127 0.044167593 2430987
-0.0070155226 0.74439704 0.044165611 2430987
-0.0073964633 0.74444276 0.044163629 2430987
-0.0077773966 0.74448848 0.044161648 2430987
-0.0081583373 0.74453425 0.044159666 2496267
-0.0085392706 0.74457997 0.044157684 2496267
-0.0089202113 0.74462569 0.044155702 2496267
-0.0093011521 0.74467146 0.04415372 2496267
-0.0096820928 0.74471718 0.044151738 2496267
-0.010063026 0.7447629 0.044149756 2496267
-0.010443967 0.74480861 0.044147775 2430474
-0.0108249 0.74485433 0.044145793 2496267
-0.011205848 0.74490011 0.044143811 2430474
-0.011586782 0.74494582 0.044141814 2496267
-0.011967722 0.74499154 0.044139847 2496267
-0.012348656 0.74503732 0.04413785 2496267
-0.012729596 0.74508303 0.044135869 2430474
-0.013110537 0.74512875 0.044133887 2496267
-0.013491478 0.74517447 0.044131905 2562060
-0.013872419 0.74522018 0.044129923 2496267
-0.014253352 0.74526596 0.044127941 2496267
-0.014634293 0.74531168 0.044125959 2496267
-0.015015226 0.74535739 0.044123977 2496267
-0.015396174 0.74540317 0.044121996 2496267
-0.015777107 0.74544889 0.044120014 2496267
-0.016158048 0.7454946 0.044118032 2496267
-0.016538981 0.74554032 0.04411605 2496267
-0.016919922 0.74558604 0.044114068 2496267
-0.017300863 0.74563181 0.044112086 2496267
-0.017681804 0.74567753 0.044110104 2496267
-0.018062737 0.74572325 0.044108123 2496267
-0.01820989 0.74492729 0.044707045 2496267
-0.018589213 0.74497283 0.044705078 2562060
-0.018968523 0.74501836 0.044703096 2496267
-0.019347839 0.7450639 0.044701129 2562060
-0.019727156 0.74510944 0.044699147 2496267
-0.02010648 0.74515498 0.04469718 2496267
-0.020485789 0.74520051 0.044695199 2496267
-0.020865113 0.74524605 0.044693232 2496267
-0.021244429 0.74529159 0.04469125 2496267
-0.021623746 0.74533713 0.044689283 2496267
-0.022003055 0.74538267 0.044687301 2496267
-0.022382379 0.7454282 0.044685334 2496267
-0.022761695 0.74547374 0.044683352 2496267
-0.023141019 0.74551928 0.044681385 2496267
-0.023520328 0.74556482 0.044679403 2496267
-0.023899652 0.74561036 0.044677436 2496267
-0.024278969 0.74565589 0.044675454 2496267
-0.024658285 0.74570143 0.044673488 2496267
-0.025037602 0.74574697 0.044671506 2496267
-0.025416918 0.74579251 0.044669539 2496267
-0.025796242 0.74583805 0.044667557 2496267
0.055415794 0.74442804 0.039436981 1642757
0.055020265 0.74447548 0.03943491 1576710
0.054624736 0.74452299 0.039432853 1971468
0.054229211 0.74457049 0.039430797 2103308
0.053833682 0.74461794 0.039428741 2103308
0.053438157 0.74466544 0.039426684 2103308
0.05297482 0.74390662 0.040022567 2103308
0.052580915 0.74395388 0.040020511 2103308
0.052187007 0.74400115 0.040018454 2103308
0.051793098 0.74404848 0.040016413 2169101
0.051399194 0.74409574 0.040014356 2103308
0.051005289 0.74414307 0.040012315 2103308
0.050553299 0.74338281 0.040608242 2103308
0.050161015 0.7434299 0.040606201 2234380
0.049768727 0.74347705 0.040604159 2234380
0.049376443 0.74352413 0.040602103 2234380
0.048984155 0.74357122 0.040600076 2234380
0.048591871 0.74361831 0.04059802 2234380
0.048151232 0.74285674 0.041194022 2234380
0.047760565 0.74290365 0.041191995 2234380
0.047369901 0.74295056 0.041189954 2234380
0.046979234 0.74299741 0.041187927 2234380
0.04658857 0.74304438 0.041185886 2234380
0.046197906 0.74309123 0.041183859 2234380
0.045807242 0.74313813 0.041181818 2234380
0.045416579 0.74318504 0.041179791 2234378
0.045025911 0.74323195 0.041177765 2234378
0.044601481 0.74246842 0.041773841 2234378
0.044212438 0.74251515 0.041771814 2234378
0.043823395 0.74256182 0.041769788 2300171
0.043434352 0.74260855 0.041767761 2234378
0.043045305 0.74265528 0.041765735 2234378
0.042656265 0.74270195 0.041763708 2234378
0.042267222 0.74274862 0.041761681 2234378
0.041878175 0.74279535 0.04175967 2234378
0.041489132 0.74284208 0.041757643 2234378
0.041100089 0.74288875 0.041755617 2300171
0.040711045 0.74293548 0.04175359 2300171
0.040322002 0.74298215 0.041751564 2234378
0.039932959 0.74302888 0.041749537 2234378
0.039543912 0.74307561 0.04174751 2300171
0.039154872 0.74312228 0.041745484 2234378
0.038765825 0.74316901 0.041743472 2300171
0.038376786 0.74321568 0.041741446 2300171
0.037987739 0.74326241 0.041739419 2234378
0.037598696 0.74330914 0.041737393 2234378
0.037209652 0.74335581 0.041735366 2234378
0.036820609 0.74340254 0.041733339 2234378
0.036431566 0.74344921 0.041731313 2234378
0.036042519 0.74349594 0.041729286 2234378
0.035653479 0.74354267 0.04172726 2234378
0.035264432 0.74358934 0.041725233 2234378
0.034875393 0.74363607 0.041723222 2234378
0.034486346 0.74368274 0.041721195 2234378
0.034097303 0.74372947 0.041719168 2234378
0.033708259 0.7437762 0.041717142 2234378
0.03333246 0.74300683 0.042313471 2234378
0.032945037 0.74305332 0.04231146 2234378
0.032557614 0.74309981 0.042309448 2234378
0.032170191 0.74314636 0.042307422 2234378
0.031782769 0.74319285 0.04230541 2300171
0.031395346 0.74323934 0.042303398 2234378
0.031007921 0.74328589 0.042301372 2234378
0.0306205 0.74333239 0.04229936 2234378
0.030233078 0.74337888 0.042297348 2234378
0.029845655 0.74342537 0.042295322 2234378
0.029458232 0.74347192 0.04229331 2234378
0.029070809 0.74351841 0.042291299 2234378
0.02868339 0.74356496 0.042289272 2234378
0.028295968 0.74361145 0.04228726 2300171
0.027908545 0.74365795 0.042285249 2300171
0.027521122 0.74370444 0.042283222 2234378
0.0271337 0.74375099 0.04228121 2300171
0.026787072 0.74297816 0.042877689 2300171
0.026401274 0.74302447 0.042875677 2234378
0.026015472 0.74307078 0.042873666 2234378
0.025629669 0.74311709 0.042871669 2300171
0.025243867 0.74316341 0.042869657 2430987
0.024858065 0.74320972 0.042867646 2365194
0.024472266 0.74325603 0.042865649 2365194
0.024086464 0.74330235 0.042863637 2365194
0.023700662 0.74334866 0.042861626 2365194
0.02331486 0.74339497 0.042859614 2365194
0.022929061 0.74344128 0.042857602 2365194
0.022543259 0.7434876 0.042855605 2430987
0.022157457 0.74353391 0.042853594 2430987
0.021771654 0.74358022 0.042851582 2365194
0.021385852 0.74362659 0.042849571 2365194
0.021000054 0.74367285 0.042847574 2365194
0.020614251 0.74371922 0.042845562 2365194
0.020228449 0.74376547 0.04284355 2365194
0.019842647 0.74381185 0.042841539 2365194
0.019456841 0.74385816 0.042839542 2430987
0.019071043 0.74390447 0.04283753 2430987
0.01868524 0.74395078 0.042835519 2430987
0.018299438 0.7439971 0.042833507 2430987
0.017913636 0.74404341 0.04283151 2365194
0.017527837 0.74408972 0.042829499 2365194
0.017142035 0.74413604 0.042827487 2365194
0.016839182 0.7433579 0.043424189 2365194
0.016455 0.74340403 0.043422192 2365194
0.016070819 0.74345016 0.043420196 2365194
0.015686641 0.7434963 0.043418199 2365194
0.015302459 0.74354243 0.043416187 2430987
0.014918281 0.74358851 0.04341419 2365194
0.014534099 0.74363464 0.043412194 2365194
0.014149917 0.74368078 0.043410197 2430987
0.013765739 0.74372691 0.0434082 2365194
0.01338155 0.74377298 0.043406203 2365194
0.012997372 0.74381912 0.043404192 2365194
0.01261319 0.74386525 0.043402195 2365194
0.012229012 0.74391139 0.043400198 2365194
0.011844831 0.74395752 0.043398201 2430987
0.011460653 0.74400365 0.043396205 2365194
0.011076471 0.74404973 0.043394193 2365194
0.010692293 0.74409586 0.043392196 2365194
0.010308107 0.744142 0.0433902 2365194
0.0099239293 0.74418807 0.043388203 2430987
0.0095397476 0.7442342 0.043386206 2430987
0.0091555696 0.74428034 0.043384209 2365194
0.0087713879 0.74432647 0.043382198 2430987
0.0083872098 0.74437261 0.043380201 2430987
0.0081232563 0.74358982 0.043977112 2430987
0.0077406913 0.74363577 0.04397513 2430987
0.0073581338 0.74368167 0.043973133 2430987
0.0069755726 0.74372762 0.043971136 2365194
0.006593015 0.74377352 0.043969154 2430987
0.0062104538 0.74381948 0.043967158 2430987
0.0058278963 0.74386537 0.043965176 2430987
0.0054453351 0.74391133 0.043963179 2365194
0.0050627775 0.74395722 0.043961182 2430987
0.0046802163 0.74400318 0.0439592 2430987
0.0042976588 0.74404907 0.043957204 2430987
0.0039150976 0.74409503 0.043955222 2430987
0.0035325401 0.74414092 0.043953225 2430987
0.0031499788 0.74418688 0.043951228 2430987
0.0027674213 0.74423277 0.043949246 2430987
0.0023848601 0.74427873 0.04394725 2430987
0.0020023026 0.74432468 0.043945253 2430987
0.0016197376 0.74437058 0.043943271 2430987
0.0012371838 0.74441648 0.043941274 2430987
0.00085461885 0.74446243 0.043939278 2430987
0.00047206506 0.74450839 0.043937296 2430987
8.9500099e-05 0.74455428 0.043935299 2430987
-0.00029305369 0.74460018 0.043933317 2365194
-0.00067561865 0.74464613 0.04393132 2430987
-0.0010581799 0.74469209 0.043929324 2430987
-0.0014407337 0.74473798 0.043927342 2430987
-0.0018232986 0.74478394 0.043925345 2430987
-0.0022058487 0.74482983 0.043923363 2430987
-0.0025884137 0.74487579 0.043921366 2430987
-0.0029709786 0.74492168 0.04391937 2430987
-0.0033535361 0.74496764 0.043917388 2430987
-0.0037360936 0.74501354 0.043915391 2430987
-0.0039465539 0.74422431 0.044512585 2430987
-0.0043274872 0.74427009 0.044510588 2430987
-0.0047084279 0.7443158 0.044508621 2430987
-0.0050893612 0.74436152 0.044506624 2430987
-0.0054703094 0.7444073 0.044504642 2430987
-0.0058512427 0.74445301 0.044502661 2430987
-0.0062321834 0.74449873 0.044500679 2430987
-0.0066131167 0.74454451 0.044498697 2430987
-0.0069940574 0.74459022 0.044496715 2430987
-0.0073749982 0.74463594 0.044494733 2430987
-0.0077559315 0.74468166 0.044492751 2430987
-0.0081368722 0.74472737 0.04449077 2430987
-0.0085178055 0.74477315 0.044488788 2430987
-0.0088987462 0.74481887 0.044486806 2496267
-0.009279687 0.74486458 0.044484824 2496267
-0.0096606277 0.74491036 0.044482842 2496267
-0.010041561 0.74495608 0.04448086 2496267
-0.010422502 0.74500179 0.044478878 2430474
-0.010803435 0.74504751 0.044476882 2496267
-0.011184383 0.74509323 0.044474915 2496267
-0.011565316 0.745139 0.044472918 2496267
-0.011946257 0.74518472 0.044470936 2496267
-0.01232719 0.74523044 0.044468954 2496267
-0.012708131 0.74527621 0.044466972 2365194
-0.013089072 0.74532193 0.04446499 2430987
-0.013470013 0.74536765 0.044463009 2496780
-0.013850953 0.74541336 0.044461027 2430987
-0.014231887 0.74545908 0.044459045 2430987
-0.014612827 0.74550486 0.044457063 2430987
-0.014993761 0.74555057 0.044455081 2430987
-0.015374709 0.74559629 0.044453099 2430987
-0.015755642 0.74564207 0.044451118 2496780
-0.016136583 0.74568778 0.044449136 2430987
-0.016517516 0.7457335 0.044447154 2430987
-0.016898457 0.74577928 0.044445172 2496780
-0.017279398 0.74582499 0.044443175 2496267
-0.017660338 0.74587071 0.044441208 2430474
-0.018041272 0.74591643 0.044439211 2496267
-0.018188514 0.74511963 0.045036733 2496267
-0.018567838 0.74516517 0.045034766 2562060
-0.018947147 0.74521071 0.045032784 2562060
-0.019326463 0.74525625 0.045030817 2562060
-0.01970578 0.74530178 0.045028836 2496267
-0.020085104 0.74534732 0.045026869 2496267
-0.020464413 0.74539286 0.045024887 2496267
-0.020843737 0.7454384 0.04502292 2496267
-0.021223053 0.74548393 0.045020938 2496267
-0.02160237 0.74552947 0.045018971 2496267
-0.021981679 0.74557501 0.045016989 2496267
-0.022361003 0.74562055 0.045015022 2496267
-0.022740319 0.74566609 0.045013055 2496267
-0.023119643 0.74571162 0.045011073 2496267
-0.023498952 0.74575716 0.045009091 2496267
-0.023878276 0.7458027 0.045007125 2496267
-0.024257593 0.74584824 0.045005158 2496267
-0.024636909 0.74589378 0.045003176 2496267
-0.025016226 0.74593931 0.045001194 2496267
-0.025395542 0.74598485 0.044999227 2496267
-0.025774866 0.74603039 0.04499726 2496267
0.055438083 0.74462861 0.039780751 1577477
0.055042557 0.74467611 0.039778695 1576710
0.054647028 0.74472356 0.039776638 1971468
0.054251499 0.74477106 0.039774582 2103308
0.053855971 0.74481857 0.039772525 2103308
0.053460445 0.74486601 0.039770454 2103308
0.052997019 0.74410635 0.040364936 2103308
0.052603111 0.74415362 0.04036288 2103308
0.052209206 0.74420094 0.040360823 2103308
0.051815297 0.74424821 0.040358782 2103308
0.051421389 0.74429548 0.040356725 2103308
0.051027484 0.7443428 0.040354684 2103308
0.050575405 0.74358177 0.040949196 2103308
0.050183121 0.74362886 0.040947154 2234380
0.049790837 0.74367595 0.040945113 2234380
0.049398549 0.74372303 0.040943071 2234380
0.049006261 0.74377012 0.04094103 2234380
0.048613977 0.74381721 0.040938988 2234380
0.048173245 0.74305487 0.041533574 2234380
0.047782581 0.74310172 0.041531548 2234380
0.047391914 0.74314862 0.041529506 2234380
0.04700125 0.74319553 0.04152748 2234380
0.046610586 0.74324244 0.041525438 2234380
0.046219923 0.74328935 0.041523412 2234380
0.045829255 0.7433362 0.04152137 2234380
0.045438591 0.74338317 0.041519344 2234380
0.045047924 0.74343002 0.041517302 2234380
0.044623405 0.74266571 0.042111978 2234378
0.044234361 0.74271238 0.042109951 2234378
0.043845318 0.74275911 0.042107925 2234378
0.043456275 0.74280584 0.042105898 2234378
0.043067232 0.74285251 0.042103887 2234378
0.042678189 0.74289924 0.04210186 2234378
0.042289145 0.74294591 0.042099833 2234378
0.041900098 0.74299264 0.042097807 2234378
0.041511059 0.74303937 0.04209578 2300171
0.041122012 0.74308604 0.042093754 2300171
0.040732969 0.74313277 0.042091727 2300171
0.040343925 0.74317944 0.042089701 2300171
0.039954882 0.74322617 0.042087689 2234378
0.039565839 0.7432729 0.042085662 2234378
0.039176796 0.74331957 0.042083636 2234378
0.038787749 0.74336624 0.042081609 2300171
0.038398705 0.74341297 0.042079583 2300171
0.038009666 0.7434597 0.042077556 2234378
0.037620619 0.74350637 0.04207553 2234378
0.037231579 0.7435531 0.042073503 2234378
0.036842532 0.74359977 0.042071477 2234378
0.036453489 0.7436465 0.04206945 2234378
0.036064446 0.74369323 0.042067438 2234378
0.035675399 0.7437399 0.042065412 2234378
0.035286356 0.74378663 0.042063385 2234378
0.034897313 0.7438333 0.042061359 2234378
0.034508269 0.74388003 0.042059332 2234378
0.034119226 0.74392676 0.042057306 2234378
0.033730187 0.74397343 0.042055279 2300171
0.03335429 0.74320328 0.042650208 2234378
0.032966867 0.74324977 0.042648196 2234378
0.032579444 0.74329627 0.042646185 2234378
0.032192022 0.74334282 0.042644158 2234378
0.031804599 0.74338931 0.042642146 2300171
0.031417176 0.7434358 0.042640135 2234378
0.031029753 0.74348235 0.042638108 2234378
0.030642333 0.74352884 0.042636096 2234378
0.030254908 0.74357533 0.042634085 2234378
0.029867485 0.74362183 0.042632058 2234378
0.029480066 0.74366838 0.042630047 2234378
0.029092643 0.74371487 0.042628035 2234378
0.028705221 0.74376142 0.042626008 2234378
0.028317798 0.74380791 0.042623997 2300171
0.027930375 0.7438544 0.042621985 2300171
0.027542952 0.7439009 0.042619959 2234378
0.02715553 0.74394745 0.042617947 2300171
0.026808813 0.74317378 0.04321301 2300171
0.026423015 0.74322009 0.043211013 2234378
0.026037212 0.7432664 0.043209001 2234378
0.02565141 0.74331272 0.04320699 2300171
0.025265608 0.74335903 0.043204978 2430987
0.024879806 0.74340534 0.043202981 2430987
0.024494007 0.74345165 0.04320097 2430987
0.024108205 0.74349797 0.043198958 2430987
0.023722403 0.74354428 0.043196946 2365194
0.023336601 0.74359059 0.043194935 2365194
0.022950802 0.74363691 0.043192938 2365194
0.022565 0.74368322 0.043190926 2430987
0.022179198 0.74372959 0.043188915 2430987
0.021793395 0.74377584 0.043186918 2365194
0.021407593 0.74382222 0.043184906 2365194
0.021021795 0.74386847 0.043182895 2365194
0.020635992 0.74391484 0.043180883 2365194
0.02025019 0.74396116 0.043178871 2365194
0.019864388 0.74400747 0.043176875 2365194
0.019478582 0.74405378 0.043174863 2430987
0.019092783 0.74410009 0.043172851 2496780
0.018706981 0.74414641 0.043170854 2430987
0.018321179 0.74419272 0.043168843 2430987
0.017935377 0.74423903 0.043166831 2430987
0.017549578 0.74428535 0.043164819 2365194
0.017163776 0.74433166 0.043162808 2365194
0.01686083 0.74355274 0.043758109 2365194
0.016476648 0.74359882 0.043756112 2365194
0.016092466 0.74364495 0.043754116 2365194
0.015708288 0.74369109 0.043752104 2365194
0.015324106 0.74373722 0.043750107 2430987
0.014939928 0.74378335 0.043748111 2365194
0.014555747 0.74382949 0.043746114 2430987
0.014171565 0.74387556 0.043744117 2430987
0.013787387 0.7439217 0.043742105 2365194
0.013403198 0.74396783 0.043740109 2365194
0.01301902 0.74401397 0.043738112 2365194
0.012634838 0.74406004 0.043736115 2430987
0.01225066 0.74410617 0.043734118 2430987
0.011866478 0.74415231 0.043732107 2430987
0.0114823 0.74419844 0.04373011 2430987
0.011098118 0.74424458 0.043728113 2365194
0.01071394 0.74429071 0.043726116 2365194
0.010329755 0.74433678 0.04372412 2365194
0.009945577 0.74438292 0.043722108 2430987
0.0095613953 0.74442905 0.043720111 2430987
0.0091772173 0.74447513 0.043718114 2365194
0.0087930355 0.74452126 0.043716118 2430987
0.0084088575 0.74456739 0.043714121 2430987
0.0081448145 0.74378383 0.044309631 2430987
0.0077622496 0.74382973 0.044307634 2430987
0.007379692 0.74387568 0.044305637 2430987
0.0069971308 0.74392158 0.044303656 2430987
0.0066145733 0.74396753 0.044301659 2430987
0.0062320121 0.74401343 0.044299662 2430987
0.0058494546 0.74405938 0.04429768 2430987
0.0054668933 0.74410528 0.044295684 2365194
0.0050843358 0.74415123 0.044293687 2430987
0.0047017746 0.74419713 0.044291705 2365194
0.0043192171 0.74424309 0.044289708 2430987
0.0039366558 0.74428904 0.044287726 2430987
