# .PCD v0.7 - Point Cloud Data file format
VERSION 0.7
FIELDS x y z rgb
SIZE 4 4 4 4
TYPE F F F U
COUNT 1 1 1 1
WIDTH 1106
HEIGHT 1
VIEWPOINT 0 0 0 1 0 0 0
POINTS 1106
DATA ascii
0.028960489 0.83417332 0.014843538 1119502
0.029061988 0.83400124 0.01519385 1053709
0.029163487 0.83382916 0.015544161 1250572
0.029264979 0.83365715 0.015894473 1250572
0.029366486 0.83348507 0.016244784 1381899
0.029467992 0.83331299 0.016595095 1316106
0.029569484 0.83314091 0.016945407 2953988
0.029670991 0.83296883 0.017295718 6835775
0.029772483 0.83279681 0.01764603 10057056
0.02987399 0.83262473 0.017996341 9991263
0.029975481 0.83245265 0.018346652 10320226
0.030076988 0.83228058 0.018696964 10451812
0.03017848 0.8321085 0.019047275 10582882
0.030279987 0.83193648 0.019397587 10517089
0.030381493 0.8317644 0.019747898 10320480
0.028800018 0.83333033 0.028102063 1318685
0.028899051 0.83316243 0.028443865 1647652
0.028998084 0.83299458 0.028785668 1779238
0.029097117 0.83282667 0.029127471 1845804
0.029196151 0.83265877 0.029469274 2372148
0.029295184 0.83249092 0.029811077 2636092
0.029394217 0.83232301 0.03015288 3030850
0.02949325 0.83215511 0.030494682 3228744
0.029592298 0.83198726 0.030836485 3426123
0.029691331 0.83181936 0.031178288 3360328
0.029790364 0.83165145 0.031520091 3228742
0.029889397 0.8314836 0.031861894 3162686
0.029466175 0.83201522 0.032703258 2833721
0.02956479 0.83184803 0.033043645 3094064
0.029663406 0.83168083 0.033384025 2633513
0.029238544 0.83221525 0.034219719 2304548
0.029336758 0.83204877 0.034558684 2172962
0.029434972 0.8318823 0.034897655 2172960
0.029008456 0.83241951 0.035727672 2172960
0.029106252 0.83225369 0.036065221 2894366
0.029204063 0.83208787 0.036402769 3486503
0.028775908 0.83262789 0.037227109 4931123
0.028873295 0.83246279 0.037563235 5589053
0.028970689 0.83229768 0.037899368 7298127
0.029068075 0.83213258 0.038235493 8087643
0.02969306 0.83125889 0.038090505 9139036
0.029790871 0.83109313 0.038428053 9533794
0.027977355 0.83230907 0.055189617 10912617
0.028071046 0.83215022 0.05551298 10912617
0.028164737 0.83199143 0.055836342 10978410
0.028258435 0.83183259 0.056159705 10912617
0.028352126 0.83167374 0.056483075 10912617
0.027900539 0.83225346 0.057226568 10912617
0.027993821 0.83209532 0.057548515 10978410
0.028087102 0.83193719 0.057870463 10978410
0.028180383 0.83177906 0.058192417 10912617
0.028273664 0.83162093 0.058514357 10912617
0.028366953 0.83146274 0.058836311 10912617
0.02791249 0.83204734 0.05956988 10846824
0.028005362 0.83188993 0.059890412 10912617
0.028098233 0.83173251 0.060210943 10846824
0.027642131 0.83231986 0.060938843 10649706
0.027734593 0.8321631 0.061257958 10781292
0.027827054 0.83200634 0.061577067 7164992
0.027919509 0.83184963 0.061896175 9138782
0.02801197 0.83169287 0.062215284 12563611
0.028104432 0.83153617 0.062534392 9208168
0.027645454 0.83212841 0.063252375 9598813
0.027737498 0.83197236 0.063570067 10783087
0.02782955 0.83181632 0.06388776 11046000
0.027368926 0.83241129 0.064600058 10980207
0.027460568 0.83225596 0.064916328 10979437
0.027552202 0.83210063 0.065232605 10847851
0.027643837 0.8319453 0.065548882 10847851
0.027735479 0.83178991 0.065865152 10847851
0.027827114 0.83163458 0.066181429 10781804
0.027363621 0.8322345 0.066883802 10781804
0.027454846 0.83207983 0.067198649 10781804
0.027546071 0.83192515 0.067513511 10781804
0.027080931 0.83252788 0.068210214 10781804
0.027171746 0.83237392 0.068523645 10781804
0.027262561 0.83221996 0.068837084 10650218
0.027353376 0.832066 0.069150522 10716011
0.028509066 0.83414441 0.014495894 1250318
0.028610565 0.83397233 0.014846206 1119502
0.028712071 0.83380026 0.015196517 1119502
0.028813563 0.83362818 0.015546829 1119756
0.02891507 0.83345616 0.01589714 1119756
0.029016562 0.83328408 0.016247451 1512715
0.029118069 0.833112 0.016597763 1446922
0.02921956 0.83293998 0.016948074 4466198
0.029321067 0.83276784 0.0172984 9269087
0.029422574 0.83259583 0.017648712 9925470
0.029524066 0.83242375 0.017999023 10122849
0.029625572 0.83225167 0.018349335 10452066
0.029727064 0.83207965 0.018699646 10517859
0.029828571 0.83190757 0.019049957 10582882
0.029930063 0.83173549 0.019400269 10582882
0.030031569 0.83156341 0.01975058 10320480
0.028458595 0.83313429 0.028104678 1252892
0.028557628 0.83296639 0.028446481 1581857
0.028656662 0.83279848 0.028788283 1713443
0.028755702 0.83263063 0.029130086 1976876
0.028854735 0.83246273 0.029471889 2437427
0.028953768 0.83229482 0.029813692 2570299
0.029052801 0.83212698 0.030155487 3030850
0.029151835 0.83195907 0.03049729 3162951
0.029250868 0.83179116 0.030839093 3360330
0.029349901 0.83162332 0.031180896 3426121
0.029448934 0.83145541 0.031522699 3228742
0.029547982 0.8312875 0.031864502 3162686
0.02912616 0.83181995 0.032705858 2965307
0.029224791 0.83165276 0.033046246 3094577
0.029323407 0.83148557 0.033386625 2634026
0.028899953 0.83202082 0.034222312 2370341
0.028998166 0.83185434 0.034561276 2238755
0.02909638 0.83168781 0.034900241 2107167
0.028671287 0.83222586 0.03573025 2172960
0.028769083 0.83206004 0.036067799 2828573
0.028866887 0.83189428 0.036405347 3289124
0.028440155 0.83243501 0.037229672 4537135
0.028537542 0.83226991 0.037565805 5458237
0.028634936 0.8321048 0.037901931 7035466
0.028732322 0.8319397 0.038238063 7824982
0.02765435 0.83212358 0.055192083 10912617
0.027748041 0.83196473 0.055515446 10978410
0.027841739 0.83180594 0.055838816 10978410
0.02793543 0.8316471 0.056162179 10912617
0.028029121 0.83148825 0.056485541 10912617
0.027578957 0.83206874 0.057229027 10912617
0.027672239 0.83191061 0.057550974 10978410
0.02776552 0.83175248 0.057872921 10978410
0.027858801 0.83159435 0.058194876 10912617
0.027952082 0.83143622 0.058516815 10912617
0.028045364 0.83127809 0.05883877 10846824
0.027592324 0.83186346 0.059572332 10912617
0.027685195 0.83170605 0.059892856 10912617
0.027778067 0.83154857 0.060213387 10846824
0.02732338 0.83213675 0.060941279 10518118
0.027415842 0.83198005 0.061260387 10715497
0.027508296 0.83182329 0.061579503 6639415
0.027600758 0.83166659 0.061898611 10718581
0.027693219 0.83150983 0.06221772 12037008
0.027785681 0.83135307 0.062536836 8813151
0.027328111 0.83194613 0.063254796 9664347
0.027420163 0.83179009 0.063572489 10914414
0.027512215 0.83163404 0.063890181 11046000
0.027053006 0.83222985 0.064602479 10914414
0.027144648 0.83207452 0.064918749 10979437
0.027236283 0.83191919 0.065235019 10847851
0.027327918 0.83176386 0.065551296 10782058
0.02741956 0.83160847 0.065867573 10847851
0.027511194 0.83145314 0.066183843 10781804
0.027049117 0.83205384 0.066886202 10781804
0.027140342 0.83189917 0.067201056 10781804
0.027231567 0.83174455 0.06751591 10781804
0.026767842 0.83234805 0.068212599 10781804
0.026858658 0.83219409 0.068526044 10781804
0.026949473 0.83204013 0.068839476 10650218
0.027040295 0.83188617 0.069152914 10716011
0.028159149 0.83394343 0.014498577 1316111
0.028260648 0.83377135 0.014848888 1185295
0.028362148 0.83359933 0.015199199 1185295
0.028463647 0.83342725 0.015549511 1119502
0.028565146 0.83325517 0.015899822 1185295
0.028666653 0.83308309 0.016250134 1840397
0.028768145 0.83291101 0.016600445 1840397
0.028869651 0.832739 0.016950756 6176814
0.028971151 0.83256692 0.017301068 10058601
0.02907265 0.83239484 0.017651379 9925468
0.029174142 0.83222282 0.018001691 10122847
0.029275648 0.83205068 0.018352002 10582882
0.029377155 0.83187866 0.018702313 10582882
0.029478647 0.83170658 0.019052625 10582882
0.029580154 0.8315345 0.019402936 10517089
0.029681645 0.83136249 0.019753247 10320480
0.028117172 0.83293819 0.028107285 1252890
0.028216213 0.83277029 0.028449088 1516064
0.028315246 0.83260238 0.028790891 1647650
0.028414279 0.83243454 0.029132694 1846058
0.028513312 0.83226663 0.029474497 2240816
0.028612353 0.83209872 0.0298163 2570299
0.028711386 0.83193088 0.030158103 2965057
0.028810419 0.83176297 0.030499905 3162951
0.028909452 0.83159506 0.030841708 3360330
0.029008485 0.83142722 0.031183511 3426121
0.029107518 0.83125931 0.031525314 3360328
0.029206552 0.8310914 0.031867117 3097408
0.02878616 0.83162469 0.032708459 2900029
0.028884783 0.8314575 0.033048838 3029554
0.028983407 0.8312903 0.033389226 2634796
0.028561369 0.83182633 0.034224898 2370341
0.028659582 0.83165985 0.034563862 2304548
0.028757796 0.83149338 0.034902826 2172960
0.028334118 0.8320322 0.035732828 2172960
0.028431915 0.83186638 0.036070377 2697757
0.028529719 0.83170062 0.036407925 3158308
0.028104402 0.83224219 0.037232243 4208170
0.028201796 0.83207709 0.037568368 5260858
0.028299183 0.83191198 0.037904501 6772294
0.028396577 0.83174688 0.038240626 7627603
0.027331352 0.83193803 0.055194549 10912617
0.027425043 0.83177924 0.055517912 10978410
0.027518734 0.8316204 0.055841282 10978410
0.027612425 0.83146155 0.056164645 10912617
0.027706124 0.83130276 0.056488007 10912617
0.027257375 0.83188403 0.057231486 10912617
0.027350657 0.83172596 0.057553433 10978410
0.027443938 0.83156776 0.05787538 10978410
0.027537219 0.83140963 0.058197327 10846824
0.0276305 0.8312515 0.058519274 10912617
0.027723782 0.83109337 0.058841221 10846824
0.027272157 0.83167958 0.059574775 10912617
0.027365021 0.83152217 0.059895307 10846824
0.027457893 0.83136475 0.060215831 10781031
0.027004629 0.8319537 0.060943715 10649704
0.027097084 0.831797 0.061262831 9794395
0.027189545 0.83164024 0.061581939 6574392
0.027282007 0.83148348 0.061901048 12166797
0.027374469 0.83132672 0.062220156 10983035
0.027466923 0.83117002 0.062539265 8746073
0.027010776 0.83176386 0.063257217 10190691
0.027102828 0.83160782 0.06357491 10914414
0.02719488 0.83145177 0.063892603 11176816
0.026737086 0.83204842 0.064604893 11045230
0.026828729 0.83189309 0.064921163 10847851
0.026920371 0.83173776 0.065237433 10847851
0.027012005 0.83158243 0.06555371 10781804
0.02710364 0.83142704 0.065869987 10847597
0.027195282 0.83127171 0.066186257 10781804
0.026734613 0.83187324 0.066888608 10781804
0.026825838 0.83171856 0.067203462 10781804
0.02691707 0.83156395 0.067518316 10781804
0.026454762 0.83216822 0.068214998 10716011
0.026545577 0.83201426 0.068528436 10781804
0.026636392 0.8318603 0.068841867 10650218
0.026727207 0.8317064 0.069155306 10716011
0.027809232 0.8337425 0.014501244 1316111
0.027409561 0.83424377 0.015409231 1316111
0.02751065 0.83407247 0.015758127 1316111
0.02761174 0.83390105 0.016107023 1250318
0.027712829 0.83372968 0.016455919 1316111
0.027813919 0.83355832 0.016804814 1905161
0.027915008 0.83338696 0.01715371 2168333
0.028519727 0.83253801 0.016953424 7952455
0.028621234 0.83236593 0.017303735 9926245
0.028218277 0.83287287 0.018200383 9925981
0.028319366 0.8327015 0.018549278 10254946
0.028420456 0.83253014 0.018898174 10452066
0.028521545 0.83235872 0.01924707 10452066
0.028622635 0.83218741 0.019595966 10582882
0.028723724 0.83201599 0.019944862 10517089
0.028824814 0.83184463 0.020293757 10320480
0.027478658 0.83324575 0.027084485 857362
0.027577691 0.83307785 0.027426288 988948
0.027676724 0.83290994 0.02776809 1055511
0.027775757 0.83274209 0.028109893 1252890
0.02787479 0.83257419 0.028451696 1450271
0.027973823 0.83240628 0.028793499 1647650
0.028072864 0.83223844 0.029135302 1780265
0.028171897 0.83207053 0.029477105 2175023
0.02827093 0.83190262 0.029818907 2372922
0.028369963 0.83173478 0.03016071 2833473
0.028469004 0.83156687 0.030502513 3097158
0.028568037 0.83139896 0.030844316 3360330
0.02815029 0.83193099 0.031689905 3426123
0.028248914 0.83176374 0.032030284 3426123
0.028347537 0.83159661 0.032370672 3163201
0.02844616 0.83142942 0.032711059 2965822
0.028544784 0.83126223 0.033051439 3161140
0.028643407 0.83109504 0.033391826 2634796
0.027703546 0.83233595 0.03472276 2370854
0.027801342 0.83217013 0.035060309 2305061
0.027899146 0.83200431 0.035397857 2172960
0.027476482 0.83254468 0.036226414 2172960
0.027573869 0.83237958 0.036562547 2632223
0.027671263 0.83221447 0.036898673 3026981
0.027246945 0.83275759 0.037721567 3945512
0.027343921 0.8325932 0.038056277 4866614
0.027440898 0.83242881 0.038390987 6706501
0.027537882 0.83226442 0.038725697 7561810
0.026727274 0.83222902 0.05422692 10912617
0.026820965 0.83207023 0.05455029 10912617
0.026914656 0.83191139 0.054873653 10912617
0.02646938 0.83249003 0.055624209 10978410
0.026562661 0.8323319 0.055946156 10978410
0.026655942 0.83217376 0.056268103 10978410
0.026749223 0.83201563 0.05659005 10912617
0.026842505 0.8318575 0.056911997 10912617
0.026935786 0.83169937 0.057233945 10912617
0.026487634 0.8322829 0.057974577 10978410
0.026580505 0.83212543 0.058295108 10978410
0.026673377 0.83196801 0.05861564 10846824
0.026766248 0.83181059 0.058936164 10912617
0.026859112 0.83165312 0.059256695 10846824
0.026951991 0.8314957 0.059577227 10912617
0.026500955 0.83208412 0.060307935 10846824
0.026593417 0.83192742 0.060627043 10781031
0.026685879 0.83177066 0.060946152 10649704
0.026778333 0.8316139 0.06126526 8017984
0.026870795 0.83145714 0.061584376 7628107
0.0264173 0.83204973 0.062306568 12825754
0.026509352 0.83189368 0.062624261 9864554
0.026601397 0.83173764 0.062941954 8943452
0.026693441 0.83158159 0.063259646 10847851
0.026237898 0.8321777 0.063974753 11111023
0.026329532 0.83202231 0.06429103 11176816
0.026421167 0.83186698 0.064607307 10979437
0.025963984 0.83246583 0.065316729 10847851
0.026055209 0.83231115 0.065631583 10782058
0.026146434 0.83215654 0.065946445 10781804
0.026237659 0.83200192 0.066261299 10847597
0.026328884 0.83184725 0.066576153 10781804
0.026420116 0.83169258 0.066891015 10781804
0.025960043 0.83229631 0.067590512 10781804
0.026050858 0.83214235 0.067903951 10781804
0.026141673 0.83198845 0.068217389 10716011
0.026232488 0.83183444 0.068530828 10781804
0.026323311 0.83168054 0.068844259 10650218
0.026414119 0.83152658 0.069157705 10716011
0.025381148 0.83274913 0.072454646 10716011
0.025470734 0.83259726 0.07276383 10716011
0.025560312 0.83244538 0.073073015 10781804
0.025649898 0.83229351 0.073382199 10781804
0.025739484 0.83214164 0.073691376 10847597
0.025829069 0.83198977 0.07400056 10979183
0.025918648 0.83183795 0.074309744 10979955
0.026008226 0.83168608 0.074618921 11637885
0.026097812 0.83153421 0.074928105 11572090
0.027061068 0.83404362 0.015411898 1316111
0.027162157 0.83387232 0.015760794 1316111
0.027263246 0.8337009 0.01610969 1250572
0.027364336 0.83352953 0.016458586 1447951
0.027465425 0.83335817 0.016807482 2100739
0.027566507 0.83318681 0.017156363 4008736
0.028169811 0.83233702 0.016956106 9136983
0.02827131 0.832165 0.017306417 9794913
0.027869776 0.83267272 0.01820305 10058081
0.027970865 0.83250129 0.018551946 10189667
0.028071955 0.83232999 0.018900841 10386019
0.028173044 0.83215857 0.019249737 10451812
0.028274134 0.8319872 0.019598633 10582882
0.028375223 0.83181584 0.019947529 10582882
0.028476313 0.83164448 0.02029641 10320226
0.027137235 0.83304965 0.027087092 791569
0.027236268 0.83288181 0.027428895 923155
0.027335301 0.8327139 0.027770698 1055511
0.027434342 0.832546 0.028112501 1121304
0.027533375 0.83237815 0.028454304 1450271
0.027632408 0.83221024 0.028796107 1581857
0.027731441 0.83204234 0.029137909 1714472
0.027830474 0.83187449 0.029479712 2043437
0.027929507 0.83170658 0.029821515 2307129
0.02802854 0.83153868 0.030163318 2833473
0.028127581 0.83137083 0.030505121 3162438
0.028226614 0.83120292 0.030846924 3425610
0.027810283 0.83173573 0.031692505 3491916
0.027908906 0.83156848 0.032032885 3491916
0.02800753 0.83140135 0.032373272 3228740
0.02810616 0.8312341 0.032713652 3031361
0.027366377 0.83214229 0.034725338 2568233
0.027464174 0.83197653 0.035062887 2305061
0.027561978 0.83181071 0.035400435 2173473
0.027140729 0.8323518 0.036228985 2107680
0.027238116 0.8321867 0.03656511 2566430
0.027335502 0.83202159 0.036901243 2895395
0.026912607 0.83256555 0.037724122 3879465
0.027009584 0.83240116 0.038058832 4471602
0.027106561 0.83223677 0.038393542 6377536
0.027203545 0.83207238 0.038728252 7561810
0.026404269 0.83204353 0.054229394 10912617
0.02649796 0.83188468 0.054552756 10912617
0.026591651 0.83172584 0.054876126 10978410
0.02614779 0.83230531 0.055626668 10978410
0.026241072 0.83214718 0.055948615 10978410
0.026334353 0.83198905 0.056270562 10912617
0.026427634 0.83183092 0.056592509 10978410
0.026520915 0.83167279 0.056914456 10912617
0.026614197 0.83151466 0.057236403 10912617
0.026167467 0.83209902 0.057977028 10978410
0.026260339 0.8319416 0.05829756 10978410
0.026353203 0.83178413 0.058618084 10912617
0.026446082 0.83162671 0.058938615 10912617
0.026538946 0.8314693 0.059259146 10846824
0.026631817 0.83131182 0.05957967 10912617
0.026182204 0.83190107 0.060310364 10781544
0.026274659 0.83174431 0.06062948 10649958
0.02636712 0.83158755 0.060948588 10387816
0.026459582 0.83143085 0.061267704 7361338
0.026552044 0.83127409 0.061586812 9470827
0.026099965 0.83186746 0.062308997 12694684
0.026192017 0.83171141 0.06262669 9075038
0.026284061 0.83155537 0.062944382 9140831
0.026376106 0.83139932 0.063262075 10979437
0.025921978 0.83199626 0.063977167 11111023
0.026013613 0.83184087 0.064293444 11111023
0.026105247 0.83168554 0.064609721 10847851
0.025649481 0.83228523 0.065319136 10847851
0.025740705 0.83213055 0.06563399 10782058
0.02583193 0.83197594 0.065948844 10781804
0.025923155 0.83182126 0.066263698 10781804
0.02601438 0.83166659 0.066578552 10781804
0.026105613 0.83151197 0.066893414 10781804
0.025646955 0.83211648 0.067592904 10716011
0.02573777 0.83196259 0.067906342 10716011
0.025828592 0.83180863 0.068219781 10716011
0.0259194 0.83165467 0.068533219 10781804
0.026010223 0.83150071 0.068846658 10650218
0.026101038 0.83134675 0.069160089 10716011
0.025072314 0.83257174 0.072457008 10716011
0.0251619 0.83241987 0.072766192 10716011
0.025251478 0.832268 0.073075369 10781804
0.025341064 0.83211613 0.073384553 10781804
0.025430642 0.83196425 0.073693737 10847597
0.025520228 0.83181244 0.074002922 10979183
0.025609814 0.83166057 0.074312106 11045748
0.025699392 0.8315087 0.074621283 11835264
0.025788978 0.83135682 0.074930467 11572090
0.026712559 0.83384347 0.015414566 1316111
0.026813649 0.83367217 0.015763462 1250318
0.026914738 0.83350074 0.016112357 1316365
0.027015828 0.83332938 0.016461253 1316365
0.027116917 0.83315802 0.016810134 2428931
0.027218007 0.83298665 0.01715903 6508097
0.027819894 0.83213609 0.016958773 9597530
0.027921394 0.83196402 0.017309085 9729116
0.027521275 0.83247256 0.018205717 10058081
0.027622364 0.83230114 0.018554613 10189667
0.027723454 0.83212984 0.018903509 10386019
0.027824543 0.83195841 0.019252405 10451812
0.027925633 0.83178705 0.019601285 10582882
0.028026722 0.83161569 0.019950181 10582882
0.028127812 0.83144432 0.020299077 10451296
0.026795819 0.83285356 0.0270897 791569
0.026894853 0.83268571 0.027431503 923155
0.026993886 0.8325178 0.027773313 989718
0.027092919 0.8323499 0.028115116 1121304
0.027191959 0.83218205 0.028456919 1318685
0.027290992 0.83201414 0.028798714 1581857
0.027390026 0.83184624 0.029140525 1714472
0.027489059 0.83167839 0.02948232 1977644
0.027588092 0.83151048 0.029824123 2372150
0.027687125 0.83134258 0.030165926 2898494
0.027786158 0.83117473 0.030507728 3031365
0.027885199 0.83100682 0.030849531 3360330
0.027470283 0.83154041 0.031695098 3491916
0.027568907 0.83137321 0.032035485 3491916
0.02766753 0.83120602 0.032375872 3228740
0.027766153 0.83103883 0.032716252 3097154
0.027029209 0.83194864 0.034727916 2634024
0.027127005 0.83178282 0.035065465 2370852
0.027224809 0.83161706 0.035403013 2173473
0.026804976 0.83215898 0.036231548 2107680
0.02690237 0.83199388 0.036567681 2566430
0.026999757 0.83182883 0.036903806 2829602
0.02657827 0.83237356 0.037726678 3747879
0.026675247 0.83220917 0.038061388 4471602
0.026772231 0.83204472 0.038396098 6114364
0.026869208 0.83188033 0.038730808 7298638
0.026081271 0.83185804 0.05423186 10846824
0.026174963 0.83169919 0.05455523 10912617
0.026268654 0.83154035 0.054878592 10978410
0.025826208 0.83212066 0.055629127 10978410
0.02591949 0.83196247 0.055951074 10978410
0.026012771 0.83180439 0.056273021 10912617
0.026106052 0.8316462 0.056594968 10912617
0.026199333 0.83148813 0.056916915 10912617
0.026292615 0.83132994 0.057238862 10912617
0.025847293 0.83191514 0.057979472 10978410
0.025940165 0.83175766 0.058300003 10978410
0.026033036 0.83160025 0.058620535 10912617
0.026125908 0.83144283 0.058941059 10846824
0.026218779 0.83128536 0.05926159 10781031
0.026311643 0.83112794 0.059582114 10846824
0.025863454 0.83171797 0.060312808 10715497
0.025955908 0.83156127 0.060631916 10649704
0.02604837 0.83140451 0.060951024 9730403
0.026140831 0.83124775 0.061270133 6835511
0.026233293 0.83109105 0.061589248 11642509
0.02578263 0.83168525 0.062311426 11971474
0.025874682 0.8315292 0.062629111 8613971
0.025966726 0.83137316 0.062946804 9666659
0.026058778 0.83121711 0.063264497 10847851
0.025606059 0.83181483 0.063979581 11111023
0.025697701 0.83165944 0.064295858 10979183
0.025789335 0.83150411 0.064612135 10847597
0.025334977 0.83210456 0.065321535 10781804
0.025426202 0.83194995 0.065636396 10781804
0.025517426 0.83179528 0.06595125 10781804
0.025608651 0.8316406 0.066266105 10781804
0.025699884 0.83148599 0.066580959 10781804
0.025791109 0.83133131 0.06689582 10716011
0.025333874 0.83193672 0.067595303 10716011
0.025424689 0.83178276 0.067908734 10716011
0.025515504 0.8316288 0.068222173 10716011
0.025606319 0.83147484 0.068535611 10781804
0.025697134 0.83132088 0.06884905 10716011
0.02578795 0.83116692 0.069162488 10716011
0.02476348 0.83239436 0.07245937 10716011
0.024853058 0.83224249 0.072768554 10716011
0.024942644 0.83209062 0.073077731 10781804
0.02503223 0.83193874 0.073386915 10781804
0.025121816 0.83178693 0.073696099 10847597
0.025211394 0.83163506 0.074005283 10847597
0.025300972 0.83148319 0.07431446 11112056
0.025390558 0.83133131 0.074623644 11835779
0.025480144 0.83117944 0.074932829 11440504
0.02556511 0.83483124 0.014932439 1316111
0.02566579 0.83466053 0.015279919 1250318
0.02576647 0.83448982 0.015627384 1250318
0.025867149 0.83431917 0.015974864 1316111
0.026465148 0.83347195 0.015766114 1250318
0.026566237 0.83330059 0.01611501 1381901
0.026667327 0.83312923 0.016463906 1381901
0.026768416 0.83295786 0.016812801 3677711
0.026869506 0.8327865 0.017161697 7888463
0.026970595 0.83261514 0.017510593 9466714
0.027071685 0.83244377 0.017859489 9664093
0.027172774 0.83227241 0.018208385 10255200
0.027273856 0.83210099 0.01855728 10320993
0.027374946 0.83192968 0.018906161 10517089
0.026974611 0.83244181 0.019797102 10582882
0.027075283 0.8322711 0.020144582 10647908
0.027175963 0.83210045 0.020492047 10582115
0.027276643 0.8319298 0.020839527 10451042
0.026157297 0.83316112 0.026066914 1444610
0.02625633 0.83299327 0.026408702 724744
0.026355363 0.83282536 0.026750505 856330
0.026454397 0.83265746 0.027092308 857102
0.02655343 0.83248961 0.027434111 922895
0.026652463 0.8323217 0.027775921 989718
0.026751503 0.8321538 0.028117724 1055511
0.026850536 0.83198595 0.028459527 1187612
0.02694957 0.83181804 0.028801329 1450784
0.026538543 0.83234829 0.029655389 1582886
0.026637167 0.8321811 0.029995777 1977644
0.02673579 0.83201391 0.030336164 2306357
0.026834413 0.83184671 0.030676544 2832701
0.027444743 0.83097863 0.030510344 3030852
0.027543776 0.83081073 0.030852146 3425610
0.027130283 0.83134514 0.031697698 3491916
0.027228907 0.83117795 0.032038085 3491916
0.02732753 0.83101076 0.032378465 3228740
0.027426153 0.83084357 0.032718852 3162947
0.026177049 0.83246148 0.035225727 2699817
0.026274443 0.83229637 0.03556186 2502438
0.026371829 0.83213127 0.035897985 2304546
0.026469223 0.83196616 0.036234118 2238753
0.026566617 0.83180106 0.036570244 2500637
0.026664004 0.83163595 0.036906376 2698016
0.026243933 0.83218157 0.037729234 3616293
0.026340917 0.83201712 0.038063943 4340016
0.026437894 0.83185273 0.038398653 5916985
0.026534878 0.83168834 0.038733363 7035466
0.024944939 0.83288473 0.053699903 10846824
0.02503822 0.8327266 0.05402185 10912617
0.025131501 0.83256847 0.054343797 10846824
0.025224783 0.83241034 0.054665744 10846824
0.025318064 0.8322522 0.054987691 10912617
0.025411345 0.83209407 0.055309638 10912617
0.025504626 0.83193594 0.055631585 10912617
0.025597908 0.83177781 0.055953532 10912617
0.025691189 0.83161968 0.056275479 10912617
0.02524852 0.83220357 0.057020336 10912617
0.025341384 0.83204615 0.05734086 10912617
0.025434263 0.83188868 0.057661392 10912617
0.025527127 0.83173126 0.057981923 10912617
0.025619999 0.83157384 0.058302447 10912617
0.02571287 0.83141637 0.058622979 10846824
0.025267325 0.83200514 0.059357911 10846824
0.025359787 0.83184838 0.05967702 10781031
0.025452241 0.83169162 0.059996128 10846824
0.02500505 0.8322832 0.060725391 10518632
0.025097102 0.83212715 0.061043084 10387046
0.025189146 0.83197111 0.061360776 8611668
0.024740316 0.83256543 0.062084354 7164222
0.024831951 0.8324101 0.062400632 12103830
0.024923593 0.83225477 0.062716901 10524798
0.024473108 0.83285189 0.063434809 8811350
0.024564341 0.83269721 0.063749664 9732452
0.024655566 0.83254254 0.064064518 10914414
0.024746791 0.83238792 0.064379372 10980207
0.024838023 0.83223325 0.064694233 10848621
0.024929248 0.83207858 0.065009087 10717035
0.024475895 0.83268058 0.065717071 10781804
0.02456671 0.83252668 0.066030502 10781804
0.024657525 0.83237267 0.066343948 10781804
0.024202526 0.83297747 0.067046255 10781804
0.024292931 0.83282423 0.06735827 10716011
0.024383336 0.83267093 0.067670293 10716011
0.024473742 0.83251768 0.067982316 10716011
0.024564147 0.83236444 0.068294331 10716011
0.024654552 0.8322112 0.068606347 10650218
0.024196677 0.83282083 0.069298729 10716011
0.024286665 0.8326683 0.069609329 10716011
0.024376661 0.83251572 0.069919929 10716011
0.023917146 0.83312821 0.070606634 10781804
0.024006732 0.83297634 0.070915818 10716011
0.02409631 0.83282447 0.071225002 10650218
0.024185896 0.8326726 0.071534179 10716011
0.024275474 0.83252072 0.071843363 10650218
0.02436506 0.83236885 0.07215254 10716011
0.024454646 0.83221698 0.072461724 10716011
0.024544232 0.83206511 0.072770908 10716011
0.02463381 0.83191323 0.073080093 10781804
0.024723388 0.83176142 0.073389277 10781804
0.024812974 0.83160955 0.073698461 10781804
0.02490256 0.83145767 0.074007645 10847597
0.024992146 0.8313058 0.074316822 11375228
0.025081724 0.83115393 0.074626006 11835779
0.02517131 0.83100212 0.07493519 11308402
0.025260888 0.83085024 0.075244367 10650472
0.025350474 0.83069837 0.075553551 10452579
0.02544006 0.8305465 0.075862736 10386786
0.025218032 0.83463186 0.014935091 1250318
0.025318705 0.83446121 0.015282571 1250318
0.025419384 0.8342905 0.015630037 1250318
0.025520064 0.83411986 0.015977517 1316111
0.026116647 0.8332718 0.015768781 1250318
0.026217736 0.83310044 0.016117677 1512202
0.026318826 0.83292907 0.016466573 1380616
0.026419915 0.83275771 0.016815469 5782058
0.026521005 0.83258635 0.017164364 9137501
0.026622094 0.83241498 0.01751326 9597530
0.026723184 0.83224362 0.017862141 9926495
0.026824273 0.83207226 0.018211037 10320478
0.026925363 0.83190084 0.018559933 10320478
0.027026445 0.83172953 0.018908828 10517087
0.026627518 0.83224243 0.019799754 10582880
0.026728198 0.83207178 0.020147234 10517089
0.026828878 0.83190107 0.020494699 10517089
0.026929557 0.83173043 0.02084218 10451042
0.025815874 0.83296508 0.026069522 1707266
0.025914907 0.83279717 0.026411325 855560
0.026013941 0.83262926 0.026753128 987146
0.026112981 0.83246142 0.02709493 791309
0.026212014 0.83229351 0.027436733 922895
0.026311047 0.8321256 0.027778529 989718
0.02641008 0.83195776 0.028120331 1055511
0.026509114 0.83178985 0.028462134 1187612
0.026608147 0.83162194 0.028803937 1450784
0.026198536 0.83215302 0.02965799 1713956
0.026297159 0.83198583 0.029998377 2042921
0.026395783 0.83181864 0.030338757 2306357
0.026494406 0.83165145 0.030679144 2766908
0.025841296 0.8322686 0.03522829 2896683
0.02593869 0.83210355 0.035564423 2633511
0.026036076 0.83193845 0.035900556 2501155
0.02613347 0.83177334 0.036236681 2369569
0.026230864 0.83160824 0.036572814 2500637
0.026328251 0.83144313 0.036908939 2632223
0.026425637 0.83127803 0.037245072 3550500
0.024623349 0.83270001 0.053702362 10846824
0.024716631 0.83254194 0.054024309 10846824
0.024809912 0.83238375 0.054346256 10781031
0.024903193 0.83222562 0.054668203 10846824
0.024996474 0.83206749 0.05499015 10912617
0.025089756 0.83190936 0.055312097 10912617
0.025183037 0.83175123 0.055634044 10912617
0.025276318 0.8315931 0.055955991 10912617
0.025369599 0.83143497 0.056277938 10846824
0.024928346 0.83201969 0.05702278 10912617
0.025021218 0.83186221 0.057343312 10912617
0.025114089 0.8317048 0.057663843 10912617
0.025206961 0.83154738 0.057984367 10912617
0.025299825 0.8313899 0.058304898 10912617
0.025392704 0.83123249 0.05862543 10781031
0.024948575 0.83182204 0.059360348 10846824
0.025041029 0.83166534 0.059679456 10781031
0.025133491 0.83150858 0.059998572 10781031
0.024687715 0.83210093 0.060727812 10518632
0.024779767 0.83194488 0.061045505 10518632
0.024871811 0.83178884 0.061363198 7493957
0.024424396 0.83238399 0.062086768 8349266
0.024516031 0.83222866 0.062403046 12103060
0.024607673 0.83207333 0.062719315 9273961
0.024158612 0.83267123 0.063437209 9139286
0.024249837 0.83251655 0.06375207 10652525
0.024341062 0.83236194 0.064066924 10914414
0.024432294 0.83220726 0.064381778 10980207
0.024523519 0.83205265 0.06469664 10979437
0.024614744 0.83189797 0.065011494 10847851
0.024162807 0.83250082 0.065719463 10781804
0.024253622 0.83234686 0.066032901 10781804
0.024344437 0.8321929 0.066346332 10781804
0.02389086 0.83279848 0.067048639 10781804
0.023981266 0.83264518 0.067360654 10781804
0.024071671 0.83249199 0.06767267 10781804
0.024162076 0.83233869 0.067984693 10650218
0.024252474 0.83218545 0.068296716 10716011
0.02434288 0.8320322 0.068608731 10650218
0.02388642 0.83264267 0.069301099 10716011
0.023976415 0.83249009 0.069611698 10716011
0.024066411 0.83233756 0.069922298 10716011
0.023608312 0.83295083 0.070608996 10716011
0.02369789 0.83279896 0.070918173 10716011
0.023787476 0.83264709 0.071227357 10650218
0.023877062 0.83249521 0.071536541 10716011
0.02396664 0.83234334 0.071845725 10650218
0.024056226 0.83219147 0.072154902 10650218
0.024145804 0.83203959 0.072464086 10716011
0.02423539 0.83188772 0.07277327 10716011
0.024324976 0.83173591 0.073082455 10781806
0.024414562 0.83158404 0.073391639 10781806
0.02450414 0.83143216 0.073700815 10847599
0.024593718 0.83128029 0.07401 10979185
0.024683304 0.83112842 0.074319184 11506814
0.02477289 0.83097661 0.074628368 11769986
0.024862476 0.83082473 0.074937552 11111023
0.024952054 0.83067286 0.075246729 10518886
0.02504164 0.83052099 0.075555913 10386786
0.025131218 0.83036911 0.07586509 10320993
0.02487094 0.83443248 0.014937744 1250318
0.024971619 0.83426183 0.015285224 1250318
0.025072299 0.83409119 0.015632704 1250318
0.025172971 0.83392048 0.015980169 1316111
0.025768146 0.83307165 0.015771449 1250318
0.025869235 0.83290029 0.016120344 1774089
0.025970325 0.83272892 0.01646924 2037261
0.026071407 0.83255756 0.016818136 7032123
0.026172496 0.8323862 0.017167017 9927015
0.026273586 0.83221483 0.017515913 9663323
0.026374675 0.83204341 0.017864808 10058081
0.026475765 0.83187211 0.018213704 10320478
0.026576854 0.83170068 0.0185626 10320478
0.026677944 0.83152932 0.018911496 10451294
0.026280433 0.83204311 0.019802406 10517087
0.026381113 0.83187246 0.020149887 10517087
0.026481792 0.83170176 0.020497352 10517087
0.026582472 0.83153105 0.020844832 10517087
0.025474459 0.83276898 0.02607213 1772544
0.025573492 0.83260107 0.026413932 855814
0.025672525 0.83243322 0.026755735 855814
0.025771558 0.83226532 0.027097538 791309
0.025870599 0.83209741 0.027439341 857102
0.025969632 0.83192956 0.027781136 858132
0.026068665 0.83176166 0.028122939 1055511
0.026167698 0.83159375 0.028464742 1121819
0.026266731 0.83142591 0.028806545 1384991
0.025858536 0.83195776 0.02966059 1648165
0.02595716 0.83179057 0.030000977 2042923
0.026055783 0.83162338 0.030341357 2109748
0.026154406 0.83145618 0.030681744 2504506
0.02550555 0.83207583 0.03523086 2962989
0.025602937 0.83191073 0.035566986 2568231
0.025700323 0.83174562 0.035903119 2501155
0.025797717 0.83158052 0.036239251 2369569
0.025895111 0.83141541 0.036575377 2369823
0.025992498 0.83125031 0.03691151 2501409
0.026089892 0.83108521 0.037247635 3484707
0.024301767 0.83251536 0.053704821 10846824
0.024395049 0.83235723 0.054026768 10846824
0.02448833 0.8321991 0.054348715 10781031
0.024581611 0.83204097 0.054670662 10846824
0.024674892 0.83188283 0.054992601 10846824
0.024768174 0.83172464 0.055314556 10846824
0.024861455 0.83156657 0.055636503 10912617
0.024954736 0.83140838 0.05595845 10912617
0.025048018 0.83125031 0.056280397 10846570
0.02460818 0.83183581 0.057025231 10846570
0.024701051 0.83167839 0.057345763 10912363
0.024793923 0.83152092 0.057666287 10912363
0.024886794 0.8313635 0.057986818 10912363
0.024979658 0.83120608 0.05830735 10846570
0.025072537 0.83104861 0.058627874 10780777
0.024629824 0.83163899 0.059362784 10846570
0.024722278 0.83148229 0.059681892 10780777
0.02481474 0.83132553 0.060001001 10714984
0.02437038 0.83191872 0.060730241 10321253
0.024462432 0.83176267 0.061047927 10321253
0.024554476 0.83160663 0.061365627 6508345
0.024108477 0.83220255 0.062089182 10455925
0.024200119 0.83204722 0.06240546 11378824
0.024291754 0.83189189 0.062721729 8483932
0.023844108 0.83249062 0.063439615 9467997
0.023935333 0.83233595 0.063754469 10718064
0.024026565 0.83218133 0.064069331 10848880
0.02411779 0.83202666 0.064384177 10783087
0.024209015 0.83187199 0.064699039 10847597
0.02430024 0.83171737 0.065013893 10781804
0.023849718 0.83232099 0.065721855 10781804
0.023940541 0.83216703 0.066035293 10781804
0.024031356 0.83201307 0.066348732 10716011
0.023579188 0.83261949 0.067051016 10781804
0.023669593 0.83246624 0.067363039 10716011
0.023759998 0.83231294 0.067675054 10781804
0.023850404 0.8321597 0.067987077 10716011
0.023940809 0.83200645 0.068299092 10716011
0.024031214 0.83185315 0.068611115 10650218
0.02357617 0.83246446 0.069303475 10716011
0.023666166 0.83231193 0.069614075 10716011
0.023756161 0.83215934 0.069924675 10716011
0.023299478 0.83277345 0.070611358 10716011
0.023389056 0.83262157 0.070920534 10716011
0.023478642 0.8324697 0.071229719 10650218
0.02356822 0.83231783 0.071538903 10716011
0.023657806 0.83216596 0.07184808 10650218
0.023747392 0.83201408 0.072157264 10650218
0.023836978 0.83186227 0.072466448 10781804
0.023926556 0.8317104 0.072775632 10781804
0.024016134 0.83155853 0.073084816 10847599
0.02410572 0.83140665 0.073394001 10847599
0.024195306 0.83125478 0.073703177 10847601
0.024284892 0.83110297 0.074012361 11110773
0.02437447 0.83095109 0.074321546 11572605
0.024464056 0.83079922 0.074630722 11506812
0.024553634 0.83064735 0.074939907 11045230
0.02464322 0.83049548 0.075249091 10518886
0.024732806 0.8303436 0.075558275 10386786
0.024822384 0.83019173 0.075867459 10320993
0.024523854 0.83423316 0.014940396 1250318
0.024624534 0.83406252 0.015287876 1250318
0.024725214 0.83389187 0.015635356 1250318
0.024825893 0.83372116 0.015982822 1316111
0.024926566 0.83355045 0.016330302 1316111
0.025027245 0.83337981 0.016677782 1838339
0.025127925 0.83320916 0.017025247 3680543
0.025722913 0.83235741 0.016820788 8677200
0.025824003 0.83218604 0.017169684 9466716
0.025925092 0.83201468 0.01751858 9794909
0.026026182 0.83184326 0.017867476 10058081
0.025631316 0.8323558 0.018762633 10320480
0.025731996 0.83218509 0.019110113 10320480
0.025832675 0.83201444 0.019457579 10451294
0.025933348 0.83184373 0.019805059 10517087
0.026034027 0.83167309 0.020152539 10517087
0.026134707 0.83150244 0.020500004 10517087
0.02573698 0.83201975 0.021385238 10451294
0.025837243 0.83184981 0.021731287 10385501
0.025937513 0.83167982 0.022077352 9991774
0.025538132 0.83219993 0.022956908 9531223
0.025637984 0.83203065 0.023301557 8676950
0.025737844 0.83186138 0.023646191 7755848
0.025336817 0.83238435 0.024520084 6374454
0.02543626 0.83221573 0.024863303 4795422
0.02553571 0.83204716 0.025206521 3021841
0.025133036 0.83257288 0.026074737 1969153
0.025232069 0.83240497 0.02641654 855814
0.025331102 0.83223712 0.026758343 855814
0.025430143 0.83206922 0.027100146 791309
0.025529176 0.83190131 0.027441949 857102
0.025628209 0.83173347 0.027783751 858132
0.025727242 0.83156556 0.028125554 989718
0.025826283 0.83139765 0.028467357 1187099
0.025925316 0.83122981 0.028809153 1450271
0.025518537 0.83176243 0.02966319 1713443
0.02561716 0.8315953 0.03000357 1976615
0.025715783 0.83142805 0.030343957 2109748
0.025814407 0.83126092 0.030684344 2372920
0.025169797 0.83188295 0.035233423 3094575
0.025267184 0.83171785 0.035569556 2634024
0.025364578 0.83155274 0.035905682 2436132
0.025461964 0.83138764 0.036241814 2238753
0.025559358 0.83122253 0.03657794 2369823
0.025656752 0.83105749 0.036914073 2435616
0.025754139 0.83089238 0.037250206 3419427
0.023700334 0.83280504 0.052741438 10846824
0.023793615 0.83264691 0.053063385 10846824
0.023886897 0.83248878 0.053385332 10846824
0.023980178 0.83233064 0.053707279 10781031
0.024073459 0.83217251 0.054029226 10846824
0.02416674 0.83201438 0.054351173 10781031
0.023730792 0.83259654 0.055104509 10846824
0.023823656 0.83243906 0.055425033 10846824
0.023916528 0.83228165 0.055745564 10912617
0.024009399 0.83212423 0.056066096 10912363
0.024102271 0.83196676 0.05638662 10846570
0.024195142 0.83180934 0.056707151 10846570
0.02375631 0.83239639 0.057450555 10846570
0.023848772 0.83223963 0.057769671 10846570
0.023941226 0.83208287 0.058088779 10912363
0.024033688 0.83192617 0.058407888 10846570
0.02412615 0.83176941 0.058726996 10846570
0.024218611 0.83161271 0.059046112 10780777
0.023776896 0.83220458 0.059779584 10780777
0.023868948 0.83204854 0.060097277 10780777
0.023961 0.83189249 0.06041497 10583398
0.023517646 0.83248717 0.06114278 10255462
0.023609281 0.83233178 0.06145905 9597532
0.023700923 0.83217645 0.061775327 6311480
0.023255929 0.83277392 0.062497452 11443334
0.023347154 0.83261931 0.062812313 11181699
0.023438387 0.83246464 0.063127168 8418393
0.022991739 0.83306491 0.063843623 9993571
0.023082562 0.83291095 0.064157061 10914673
0.023173369 0.832757 0.0644705 10914160
0.023264192 0.83260304 0.064783931 10716781
0.023355007 0.83244908 0.065097377 10847597
0.023445822 0.83229512 0.065410808 10781804
0.022996306 0.83290023 0.066117346 10912876
0.023086712 0.83274698 0.066429362 10912876
0.023177117 0.83259374 0.066741377 10716011
0.023267522 0.8324405 0.0670534 10716011
0.023357928 0.83228719 0.067365415 10650218
0.023448333 0.83213395 0.067677438 10716011
0.022995941 0.832744 0.068374038 10716011
0.023085929 0.83259141 0.068684645 10716011
0.023175925 0.83243883 0.068995245 10716011
0.023265921 0.8322863 0.069305845 10650218
0.023355916 0.83213371 0.069616444 10716013
0.023445912 0.83198118 0.069927044 10716013
0.022990637 0.83259606 0.070613712 10716013
0.023080222 0.83244419 0.070922896 10716013
0.023169808 0.83229232 0.07123208 10716013
0.023259386 0.83214045 0.071541265 10716013
0.023348972 0.83198857 0.071850449 10716011
0.023438551 0.83183676 0.072159626 10716011
0.023528136 0.83168489 0.07246881 10781804
0.023617722 0.83153301 0.072777994 10781804
0.023707308 0.83138114 0.073087171 10847599
0.023247927 0.832003 0.073759668 10847599
0.023337096 0.83185184 0.074067429 10847601
0.023426272 0.83170068 0.074375197 11308152
0.023515441 0.83154953 0.074682958 11638400
0.024155222 0.83062184 0.074633084 11506814
0.0242448 0.83046997 0.074942268 10847597
0.024334386 0.83031809 0.075251453 10387046
0.024423964 0.83016622 0.075560637 10320993
0.02451355 0.83001435 0.075869814 10255200
0.024176769 0.83403385 0.014943048 1316111
0.024277449 0.83386314 0.015290529 1250318
0.024378128 0.83369249 0.015638009 1316111
0.024478801 0.83352184 0.015985474 1316111
0.02457948 0.83335114 0.016332954 1447697
0.02468016 0.83318049 0.016680434 2100480
0.02478084 0.83300978 0.0170279 5324337
0.025374405 0.83215725 0.016823456 9335128
0.025475495 0.83198589 0.017172351 9335128
0.025576584 0.83181453 0.017521247 9860702
0.025677674 0.8316431 0.017870143 10058081
0.025284231 0.83215642 0.018765286 10320480
0.02538491 0.83198577 0.019112766 10320480
0.025485583 0.83181512 0.019460231 10451296
0.025586262 0.83164442 0.019807711 10517089
0.025686942 0.83147371 0.020155191 10451296
0.025787622 0.83130306 0.020502657 10517089
0.025391303 0.8318212 0.021387875 10451296
0.025491573 0.83165127 0.02173394 10451296
0.025591843 0.83148128 0.022079989 10057567
0.025193878 0.83200222 0.022959545 9597016
0.02529373 0.83183295 0.023304179 8676950
0.02539359 0.83166367 0.023648828 7821641
0.024993978 0.83218741 0.024522692 6506810
0.025093429 0.83201885 0.024865925 4861985
0.025192872 0.83185029 0.025209144 3285013
0.024791621 0.83237678 0.026077345 2100739
0.024890654 0.83220887 0.026419148 921350
0.024989687 0.83204103 0.026760951 921350
0.02508872 0.83187312 0.027102754 725516
0.025187753 0.83170521 0.027444556 857102
0.025286786 0.83153737 0.027786359 792339
0.025385827 0.83136946 0.028128162 858132
0.02548486 0.83120161 0.028469965 1187099
0.025583893 0.83103371 0.028811768 1450271
0.025682926 0.8308658 0.029153571 1713443
0.023378752 0.83262038 0.052743897 10846824
0.023472033 0.83246219 0.053065844 10846824
0.023565315 0.83230412 0.053387791 10846824
0.023658596 0.83214593 0.053709738 10781031
0.023751877 0.8319878 0.054031685 10781031
0.023845159 0.83182967 0.054353632 10781031
0.023410618 0.83241266 0.055106953 10846824
0.02350349 0.83225524 0.055427484 10846824
0.023596361 0.83209777 0.055748008 10912617
0.023689233 0.83194035 0.05606854 10912363
0.023782097 0.83178294 0.056389064 10846570
0.023874976 0.83162546 0.056709595 10846570
0.02343756 0.83221328 0.057452992 10846570
0.023530014 0.83205658 0.0577721 10846570
0.023622476 0.83189982 0.058091216 10846570
0.023714937 0.83174312 0.058410324 10846570
0.023807399 0.83158636 0.058729433 10846570
0.023899853 0.8314296 0.059048548 10780777
0.023459561 0.83202231 0.059782013 10780777
0.023551613 0.83186626 0.060099706 10714984
0.023643665 0.83171022 0.060417399 10517605
0.023201726 0.83230573 0.061145194 10321255
0.023293361 0.83215034 0.061461464 8676430
0.023385003 0.83199501 0.061777741 7035970
0.022941425 0.83259332 0.062499858 12430996
0.02303265 0.83243865 0.062814713 10588790
0.023123883 0.83228397 0.063129567 8483414
0.022678658 0.83288509 0.063846022 10387816
0.022769473 0.83273113 0.064159453 10914160
0.022860289 0.83257717 0.064472891 10848367
0.022951104 0.83242321 0.06478633 10650988
0.023041919 0.83226925 0.065099768 10781804
0.023132734 0.83211529 0.065413207 10781804
0.022684634 0.83272123 0.066119723 10912876
0.022775039 0.83256799 0.066431746 10912876
0.022865444 0.83241475 0.066743761 10847083
0.02295585 0.83226144 0.067055784 10781290
0.023046255 0.8321082 0.0673678 10781290
0.02313666 0.83195496 0.067679822 10781290
0.022685684 0.83256578 0.068376414 10716011
0.02277568 0.8324132 0.068687014 10716011
0.022865675 0.83226067 0.068997614 10716011
0.022955664 0.83210808 0.069308221 10650218
0.023045659 0.83195555 0.069618821 10716013
0.023135655 0.83180296 0.069929421 10716013
0.022681803 0.83241868 0.070616074 10716013
0.022771388 0.83226681 0.070925258 10716013
0.022860967 0.83211493 0.071234442 10781806
0.022950552 0.83196306 0.071543619 10716013
0.023040138 0.83181125 0.071852803 10716013
0.023129717 0.83165938 0.072161987 10716013
0.023219302 0.8315075 0.072471172 10781806
0.023308881 0.83135563 0.072780356 10781806
0.023398466 0.83120376 0.073089533 10847599
0.022940509 0.83182645 0.073762015 10847599
0.023029678 0.83167529 0.074069783 10847601
0.023118854 0.83152413 0.074377544 11439738
0.023208022 0.83137292 0.074685305 11507330
0.02384638 0.83044446 0.074635446 11178365
0.023935966 0.83029258 0.07494463 10781806
0.024025552 0.83014071 0.075253814 10321255
0.02411513 0.82998884 0.075562999 10320993
0.024204716 0.82983696 0.075872175 10255200
0.023829684 0.83383453 0.014945701 1316111
0.023930363 0.83366382 0.015293181 1316111
0.024031043 0.83349311 0.015640661 1447697
0.024131723 0.83332247 0.015988126 1381647
0.024232395 0.83315182 0.016335607 1315854
0.024333075 0.83298111 0.016683087 2888195
0.024433754 0.83281046 0.017030552 7954256
0.025025904 0.8319571 0.016826123 9137749
0.025126994 0.83178574 0.017175019 9532507
0.025228083 0.83161438 0.017523915 9860702
0.025329173 0.83144295 0.01787281 10058081
0.024937145 0.8319571 0.018767938 10320480
0.025037825 0.83178639 0.019115418 10320480
0.025138505 0.83161575 0.019462883 10451296
0.025239177 0.8314451 0.019810364 10451296
0.025339857 0.83127439 0.020157844 10451296
0.025440536 0.83110374 0.020505309 10451296
0.025045641 0.83162272 0.021390513 10451296
0.025145911 0.83145273 0.021736577 10385503
0.025246173 0.83128273 0.022082627 10122847
0.024849631 0.83180451 0.022962168 9859675
0.024949484 0.83163524 0.023306817 8742743
0.025049336 0.83146596 0.023651451 8216399
0.024651147 0.83199054 0.024525315 6638396
0.02475059 0.83182192 0.024868548 5190950
0.024850033 0.83165336 0.025211766 3482133
0.024450205 0.83218074 0.026079953 2100480
0.024549238 0.83201283 0.026421756 1183752
0.024648272 0.83184493 0.026763558 1052166
0.024747305 0.83167708 0.027105361 725516
0.024846338 0.83150917 0.027447164 791309
0.024945371 0.83134127 0.027788967 726546
0.025044404 0.83117342 0.02813077 858132
0.025143445 0.83100551 0.028472573 1121306
0.025242478 0.83083761 0.028814375 1318685
0.025341511 0.83066976 0.029156178 1647650
0.02305717 0.83243567 0.052746356 10846824
0.023150451 0.83227754 0.053068303 10846824
0.023243733 0.83211941 0.05339025 10846824
0.023337014 0.83196127 0.053712197 10846824
0.023430295 0.83180314 0.054034136 10781031
0.023523577 0.83164501 0.054356083 10781031
0.023090452 0.83222878 0.055109397 10846824
0.023183323 0.8320713 0.055429928 10846824
0.023276195 0.83191389 0.055750459 10846824
0.023369066 0.83175647 0.056070983 10846570
0.02346193 0.831599 0.056391515 10780777
0.023554809 0.83144158 0.056712046 10780777
0.023118809 0.83203024 0.057455428 10846570
0.023211263 0.83187348 0.057774544 10846570
0.023303725 0.83171678 0.058093652 10846570
0.023396187 0.83156002 0.05841276 10846570
0.023488648 0.83140326 0.058731869 10846570
0.023581102 0.83124655 0.059050985 10780777
0.023142226 0.83184004 0.059784442 10780777
0.023234278 0.83168399 0.060102127 10649704
0.02332633 0.83152795 0.06041982 10452325
0.022885807 0.83212429 0.061147608 10058085
0.022977449 0.8319689 0.061463878 7492158
0.023069084 0.83181357 0.061780155 8943713
0.022626929 0.83241266 0.062502265 12825500
0.022718154 0.83225799 0.062817119 9600866
0.022809379 0.83210337 0.063131973 8942936
0.02236557 0.83270526 0.063848406 10650988
0.022456385 0.8325513 0.064161845 10914160
0.022547208 0.83239734 0.064475283 10848367
0.022638015 0.83224338 0.064788722 10585195
0.022728838 0.83208942 0.06510216 10781804
0.022819653 0.83193552 0.065415598 10781804
0.022372968 0.83254224 0.066122107 10847083
0.022463374 0.832389 0.06643413 10912876
0.022553779 0.83223569 0.066746145 10847083
0.022644185 0.83208245 0.067058161 10781290
0.02273459 0.83192921 0.067370184 10781290
0.022824995 0.83177596 0.067682207 10781290
0.022375435 0.83238757 0.068378784 10716011
0.02246543 0.83223504 0.068689391 10716011
0.022555426 0.83208251 0.068999991 10716011
0.022645421 0.83192992 0.069310591 10650218
0.022735409 0.83177733 0.06962119 10650220
0.022825405 0.83162481 0.06993179 10716013
0.022372968 0.8322413 0.070618436 10716013
0.022462554 0.83208942 0.07092762 10716013
0.02255214 0.83193755 0.071236804 10781806
0.022641718 0.83178574 0.071545981 10716013
0.022731297 0.83163387 0.071855165 10716013
0.022820882 0.83148199 0.072164342 10781806
0.022910468 0.83133012 0.072473526 10716013
0.023000054 0.83117825 0.07278271 10847599
0.023089632 0.83102643 0.073091894 10847599
0.022633091 0.8316499 0.073764369 10847599
0.022722259 0.83149874 0.07407213 10848371
0.022811435 0.83134753 0.074379891 11440508
