# .PCD v0.7 - Point Cloud Data file format
VERSION 0.7
FIELDS x y z rgb
SIZE 4 4 4 4
TYPE F F F U
COUNT 1 1 1 1
WIDTH 1070
HEIGHT 1
VIEWPOINT 0 0 0 1 0 0 0
POINTS 1070
DATA ascii
-0.02686961 0.74780607 0.074156851 11969164
-0.027057856 0.74807286 0.074153706 12034957
-0.027246095 0.74833965 0.074150562 12100750
-0.027434334 0.74860644 0.074147418 12100752
-0.027622581 0.74887323 0.074144274 11903373
-0.027810819 0.74914002 0.074141137 11903373
-0.027999058 0.74940687 0.074137993 11969166
-0.028187305 0.74967366 0.074134849 11969166
-0.028375536 0.74994045 0.074131705 11903373
-0.028563783 0.75020725 0.074128561 11969166
-0.028752021 0.75047404 0.074125417 11903373
-0.02894026 0.75074083 0.074122272 11969166
-0.029128507 0.75100768 0.074119128 11969166
-0.029316746 0.75127447 0.074115984 12034959
-0.029504985 0.75154126 0.07411284 12034959
-0.029693224 0.75180805 0.074109696 12034959
-0.029881462 0.75207484 0.074106559 11969166
-0.030069709 0.75234163 0.074103415 12165775
-0.030257948 0.75260842 0.074100271 12165775
-0.030446194 0.75287521 0.074097127 12100752
-0.030634433 0.753142 0.074093983 12100752
-0.030822672 0.75340879 0.074090838 12166545
-0.031010911 0.75367558 0.074087694 12363924
-0.031199157 0.75394237 0.07408455 12561303
-0.031387396 0.75420922 0.074081406 12561303
-0.031575635 0.75447601 0.074078262 12298391
-0.031763881 0.7547428 0.074075118 12298391
-0.031952113 0.75500959 0.074071974 12298391
-0.032140359 0.75527638 0.074068829 12298391
-0.032328598 0.75554317 0.074065685 12430490
-0.032516837 0.75581002 0.074062549 12430490
-0.032705083 0.75607681 0.074059404 12627873
-0.032350883 0.75701851 0.073495977 12693666
-0.032540061 0.75728661 0.073492818 12760490
-0.032729246 0.75755477 0.073489659 13221041
-0.032918431 0.75782287 0.073486499 13091770
-0.033107609 0.75809103 0.07348334 13420735
-0.033296794 0.75835913 0.073480181 12629938
-0.032550208 0.77606928 0.066091195 11179398
-0.032751627 0.77635479 0.066087835 11245191
-0.032953046 0.77664024 0.066084467 11508363
-0.033154465 0.77692574 0.066081107 11574156
-0.0328511 0.77793944 0.065516829 11639949
-0.033053465 0.77822626 0.065513454 11574670
-0.033255823 0.77851307 0.065510072 11837842
-0.024461053 0.74612254 0.073909327 10652282
-0.024650238 0.7463907 0.073906168 11441798
-0.024839416 0.7466588 0.073903009 11442568
-0.025028601 0.74692696 0.07389985 11705740
-0.025217779 0.74719507 0.073896691 11903373
-0.025406964 0.74746323 0.073893532 11771787
-0.025596142 0.74773133 0.073890373 11771787
-0.025785327 0.74799943 0.073887214 11771787
-0.026548676 0.7476362 0.074442402 11969166
-0.026736915 0.74790299 0.074439257 11969166
-0.026925154 0.74816984 0.074436113 12100752
-0.027113393 0.74843663 0.074432969 12034959
-0.027301639 0.74870342 0.074429832 12100752
-0.027489878 0.74897021 0.074426688 11969166
-0.027678117 0.749237 0.074423544 11903373
-0.027866364 0.74950379 0.0744204 11969166
-0.028054602 0.74977064 0.074417256 11969166
-0.028242841 0.75003743 0.074414112 11969166
-0.028431088 0.75030422 0.074410968 11969166
-0.028619319 0.75057101 0.074407823 11969166
-0.028807566 0.7508378 0.074404679 12034959
-0.028995804 0.75110459 0.074401535 12034959
-0.029184043 0.75137138 0.074398391 12100752
-0.02937229 0.75163817 0.074395254 12166545
-0.029560529 0.75190496 0.07439211 12166545
-0.029748768 0.75217175 0.074388966 12034959
-0.029937014 0.75243855 0.074385822 12231568
-0.030125245 0.75270534 0.074382678 12231568
-0.030313492 0.75297219 0.074379534 12100752
-0.030501731 0.75323898 0.074376389 12166545
-0.030689977 0.75350577 0.074373245 12232338
-0.030878216 0.75377256 0.074370101 12429717
-0.031066455 0.75403935 0.074366957 12627096
-0.031254694 0.7543062 0.074363813 12627096
-0.03144294 0.75457299 0.074360669 12429977
-0.031631179 0.75483978 0.074357525 12364184
-0.031819418 0.75510657 0.07435438 12298391
-0.032007657 0.75537336 0.074351244 12364184
-0.032195896 0.75564015 0.0743481 12495770
-0.032384142 0.75590694 0.074344955 12495770
-0.032572381 0.75617373 0.074341811 12561565
-0.032217517 0.75711596 0.073779799 12561565
-0.032406703 0.75738406 0.07377664 12627873
-0.03259588 0.75765216 0.073773481 12891045
-0.032785065 0.75792032 0.073770322 13090485
-0.032974243 0.75818849 0.073767163 13287864
-0.033163428 0.75845659 0.073764004 13025979
-0.032408223 0.77617306 0.066393375 11244421
-0.032609642 0.7764585 0.066390008 11244421
-0.032811061 0.77674401 0.066386648 11376007
-0.03301248 0.77702945 0.06638328 11441800
-0.032708451 0.77804369 0.065820426 11441800
-0.032910809 0.7783305 0.065817043 11508363
-0.033113167 0.77861726 0.065813661 11705742
-0.02376014 0.74541557 0.074202627 9864050
-0.023949325 0.74568373 0.074199468 10653568
-0.02413851 0.74595189 0.074196309 10982533
-0.024327695 0.74621999 0.07419315 11443082
-0.024516873 0.74648809 0.074189991 11640461
-0.024706051 0.74675626 0.074186832 11772047
-0.024895236 0.74702442 0.074183673 11772047
-0.025084421 0.74729252 0.074180514 11772301
-0.025273599 0.74756062 0.074177355 11640715
-0.025462784 0.74782878 0.074174196 11640715
-0.025651962 0.74809694 0.074171036 11640715
-0.026415974 0.74773318 0.074724808 11838094
-0.026604213 0.74799997 0.074721672 11838094
-0.026792452 0.74826676 0.074718527 11903887
-0.026980698 0.74853361 0.074715383 11903887
-0.027168937 0.7488004 0.074712239 11969680
-0.027357176 0.74906719 0.074709095 11838094
-0.027545422 0.74933398 0.074705951 11969166
-0.027733661 0.74960077 0.074702807 12034959
-0.0279219 0.74986756 0.074699663 12034959
-0.028110139 0.75013435 0.074696518 12034959
-0.028298385 0.75040114 0.074693374 12034959
-0.028486624 0.75066793 0.07469023 12034959
-0.028674863 0.75093472 0.074687093 12100752
-0.028863102 0.75120151 0.074683949 12034959
-0.029051349 0.75146836 0.074680805 12166545
-0.029239587 0.75173515 0.074677661 12166545
-0.029427826 0.75200194 0.074674517 12166545
-0.029616065 0.75226873 0.074671373 12100752
-0.029804312 0.75253552 0.074668229 12297361
-0.029992551 0.75280231 0.074665084 12363154
-0.030180797 0.75306916 0.07466194 12166545
-0.030369028 0.75333595 0.074658796 12232338
-0.030557275 0.75360274 0.074655652 12363924
-0.030745514 0.75386953 0.074652508 12429717
-0.030933753 0.75413632 0.074649364 12561303
-0.031121999 0.75440311 0.07464622 12561303
-0.031310238 0.7546699 0.074643083 12561049
-0.031498477 0.7549367 0.074639939 12561049
-0.031686723 0.75520349 0.074636795 12364184
-0.031874955 0.75547028 0.07463365 12429977
-0.032063201 0.75573707 0.074630506 12561563
-0.03225144 0.75600392 0.074627362 12693149
-0.032439679 0.75627071 0.074624218 12561563
-0.032084152 0.75721335 0.074063621 12561563
-0.032273337 0.75748152 0.074060462 12561565
-0.032462522 0.75774962 0.074057296 12561565
-0.032651708 0.75801778 0.074054137 12562596
-0.032840885 0.75828588 0.074050978 12957354
-0.033030063 0.75855404 0.074047819 12630447
-0.03268113 0.75950605 0.073487103 13222584
-0.032871254 0.75977552 0.073483929 13288127
-0.03306137 0.76004493 0.073480755 13024955
-0.033251502 0.76031446 0.073477581 12233379
-0.033441626 0.76058388 0.073474407 10785933
-0.032266229 0.77627677 0.066695549 11244421
-0.032467648 0.77656227 0.066692188 11178628
-0.032669067 0.77684772 0.066688821 11178628
-0.032870486 0.77713323 0.066685461 11309701
-0.032565802 0.77814794 0.066124007 11309701
-0.03276816 0.77843469 0.066120632 11441800
-0.032970518 0.77872151 0.066117249 11573386
-0.023626782 0.74551302 0.074486449 10784640
-0.02381596 0.74578118 0.07448329 11903635
-0.024005145 0.74604928 0.074480131 11640463
-0.02419433 0.74631745 0.074476972 11706767
-0.023801431 0.74720854 0.073918387 11904146
-0.024572693 0.74685371 0.074470654 11838353
-0.024761871 0.74712181 0.074467495 11706767
-0.024951056 0.74738991 0.074464336 11640461
-0.025140241 0.74765807 0.074461177 11640461
-0.025329418 0.74792624 0.074458018 11640461
-0.025518604 0.74819434 0.074454859 11772047
-0.025707781 0.7484625 0.074451692 11837840
-0.025896966 0.7487306 0.074448533 11903633
-0.026086152 0.74899876 0.074445374 11903887
-0.026275329 0.74926686 0.074442215 11903887
-0.026464507 0.74953496 0.074439056 11969680
-0.026653692 0.74980313 0.074435897 11903887
-0.026842877 0.75007129 0.074432738 11969166
-0.027032062 0.75033939 0.074429579 12034959
-0.027221248 0.75060749 0.07442642 12100752
-0.027410425 0.75087565 0.074423261 12034959
-0.027599603 0.75114381 0.074420102 12100752
-0.027788788 0.75141191 0.074416943 12100752
-0.028542161 0.7510317 0.0749695 12100752
-0.028730407 0.75129849 0.074966356 12100752
-0.028918646 0.75156528 0.074963212 12363924
-0.029106885 0.75183213 0.074960068 12166545
-0.029295132 0.75209892 0.074956924 12166545
-0.02948337 0.75236571 0.07495378 12166545
-0.029671609 0.7526325 0.074950635 12232338
-0.029302239 0.75355697 0.074391671 12363924
-0.029491425 0.75382507 0.074388511 12363924
-0.030236334 0.75343287 0.074941203 12363924
-0.03042458 0.75369966 0.074938059 12429717
-0.030612811 0.75396645 0.074934922 12429717
-0.03024815 0.75489759 0.074375875 12495510
-0.030437335 0.75516576 0.074372716 12495510
-0.030626521 0.75543392 0.074369557 12561049
-0.030815706 0.75570202 0.074366398 12561049
-0.031004883 0.75597012 0.074363239 12561049
-0.031194061 0.75623828 0.07436008 12626842
-0.031383246 0.75650644 0.074356921 12561563
-0.031572431 0.75677454 0.074353755 12561563
-0.031761609 0.75704265 0.074350595 12561563
-0.031950794 0.75731081 0.074347436 12495770
-0.032139972 0.75757897 0.074344277 12495770
-0.032329157 0.75784707 0.074341118 12495770
-0.03197673 0.75879556 0.073781863 12496285
-0.032166854 0.75906503 0.073778689 12759457
-0.032356977 0.7593345 0.073775515 12431523
-0.032547101 0.75960398 0.073772341 13352625
-0.032737225 0.75987339 0.073769167 13091002
-0.032927349 0.76014292 0.073765986 13288381
-0.033117473 0.76041234 0.073762812 13222588
-0.033307597 0.76068181 0.073759638 12827830
-0.023493417 0.74561048 0.074770272 11903633
-0.023682602 0.74587858 0.074767113 11838353
-0.023871779 0.74614674 0.074763954 11838353
-0.024060965 0.7464149 0.074760787 11772560
-0.023667403 0.74730647 0.074203618 11838353
-0.024439327 0.7469511 0.074754469 11838353
-0.024628513 0.74721926 0.07475131 11706767
-0.02481769 0.74748743 0.074748151 11575181
-0.025006875 0.74775553 0.074744992 11575181
-0.025196061 0.74802363 0.074741833 11772047
-0.025385238 0.74829179 0.074738674 11772047
-0.025574423 0.74855995 0.074735515 11903887
-0.025763601 0.74882805 0.074732356 11969680
-0.025952786 0.74909616 0.074729197 11969680
-0.026141971 0.74936432 0.074726038 11969680
-0.026331149 0.74963248 0.074722879 12035473
-0.026520334 0.74990058 0.07471972 11969680
-0.026709512 0.75016868 0.074716561 11969680
-0.026898697 0.75043684 0.074713401 11969680
-0.027087882 0.750705 0.074710242 12166545
-0.02727706 0.75097311 0.074707083 12100752
-0.027466238 0.75124121 0.074703924 12100752
-0.027655423 0.75150937 0.074700765 12166545
-0.028409466 0.75112867 0.075251907 12166545
-0.028597713 0.75139546 0.075248763 12166545
-0.028785944 0.75166225 0.075245619 12363924
-0.02897419 0.75192904 0.075242475 12232338
-0.029162429 0.75219584 0.075239331 12232338
-0.029350668 0.75246263 0.075236186 12232338
-0.029538915 0.75272942 0.07523305 12232338
-0.029168881 0.75365442 0.074675493 12429717
-0.029358067 0.75392258 0.074672334 12495510
-0.030103639 0.75352985 0.075223617 12495510
-0.030291878 0.75379664 0.075220473 12495510
-0.030480117 0.75406343 0.075217329 12495510
-0.030114792 0.75499505 0.07465969 12561303
-0.03030397 0.75526321 0.074656531 12561303
-0.030493155 0.75553131 0.074653372 12561049
-0.03068234 0.75579947 0.074650213 12561049
-0.030871518 0.75606757 0.074647054 12561049
-0.031060703 0.75633574 0.074643895 12626842
-0.031249881 0.75660384 0.074640736 12692635
-0.031439066 0.756872 0.074637577 12626842
-0.031628251 0.7571401 0.074634418 12495770
-0.031817429 0.75740826 0.074631259 12495770
-0.032006614 0.75767636 0.0746281 12495770
-0.032195792 0.75794452 0.074624941 12495770
-0.031842709 0.75889349 0.074067093 12495770
-0.032032833 0.75916296 0.074063919 12758942
-0.032222956 0.75943244 0.074060746 12627871
-0.03241308 0.75970185 0.074057572 12891043
-0.032603204 0.75997138 0.074054398 12892076
-0.032793321 0.76024079 0.074051224 13155248
-0.032983452 0.76051027 0.074048042 13156793
-0.033173576 0.76077974 0.074044868 13091000
-0.02199465 0.74667436 0.073952213 11509388
-0.023360059 0.74570793 0.075054087 11838353
-0.023549244 0.74597603 0.075050928 11969939
-0.023738421 0.74624419 0.075047769 11838353
-0.023927607 0.74651229 0.07504461 11838607
-0.023533382 0.7474044 0.074488848 11838607
-0.024305969 0.74704856 0.075038292 11838607
-0.024495155 0.74731672 0.075035132 11707021
-0.024684332 0.74758482 0.075031973 11772814
-0.02487351 0.74785292 0.075028814 11707021
-0.025062695 0.74812108 0.075025655 11772301
-0.02525188 0.74838924 0.075022496 11903887
-0.025441058 0.74865735 0.075019337 11969680
-0.025630243 0.74892545 0.075016178 11969680
-0.025819421 0.74919361 0.075013019 12035473
-0.026008606 0.74946177 0.07500986 11969680
-0.026197791 0.74972987 0.075006701 11969680
-0.026386969 0.74999797 0.075003542 11969680
-0.026576154 0.75026613 0.075000383 11969680
-0.026765332 0.7505343 0.074997224 12035473
-0.026954517 0.7508024 0.074994065 12035473
-0.027143702 0.7510705 0.074990898 12035473
-0.02733288 0.75133866 0.074987739 12035473
-0.027522065 0.75160682 0.07498458 12035473
-0.028276771 0.75122559 0.075534314 12101266
-0.02846501 0.75149238 0.07553117 12232852
-0.028653249 0.75175917 0.075528026 12232852
-0.028841496 0.75202602 0.075524881 12232852
-0.029029727 0.75229281 0.075521737 12232852
-0.029217973 0.7525596 0.075518601 12232852
-0.029406212 0.75282639 0.075515456 12363924
-0.029035516 0.75375187 0.074959308 12495510
-0.029224701 0.75401998 0.074956149 12561303
-0.029970936 0.75362682 0.075506024 12561303
-0.030159175 0.75389361 0.07550288 12561303
-0.030347422 0.7541604 0.075499736 12561303
-0.029981434 0.7550925 0.074943513 12627096
-0.030170612 0.7553606 0.074940354 12627096
-0.03035979 0.75562876 0.074937195 12561049
-0.030548975 0.75589693 0.074934036 12561049
-0.03073816 0.75616503 0.074930876 12429977
-0.030927345 0.75643313 0.074927717 12561563
-0.031116523 0.75670129 0.074924558 12561563
-0.031305701 0.75696945 0.074921399 12495770
-0.031494886 0.75723755 0.07491824 12561563
-0.031684071 0.75750566 0.074915081 12561563
-0.031873249 0.75777382 0.074911922 12495772
-0.032062426 0.75804198 0.074908763 12495772
-0.03170868 0.75899142 0.074352324 12561563
-0.031898804 0.75926089 0.07434915 12693149
-0.032088928 0.75953031 0.074345976 12561563
-0.032279044 0.75979984 0.074342802 12693149
-0.032469176 0.76006925 0.074339628 12627871
-0.032659292 0.76033872 0.074336454 12891043
-0.032849416 0.7606082 0.07433328 12892074
-0.03303954 0.76087767 0.074330106 13089453
-0.032694265 0.76183915 0.073773533 13157563
-0.032885328 0.76210994 0.073770344 13223356
-0.033076391 0.76238072 0.073767155 13222588
-0.033267453 0.76265156 0.073763967 11972521
-0.033458516 0.76292235 0.07376077 10982283
-0.033649586 0.76319313 0.073757581 10521732
-0.021859959 0.74677277 0.074238859 11772814
-0.022051021 0.74704361 0.07423567 11838607
-0.022242092 0.74731439 0.074232474 11904400
-0.023019105 0.74696338 0.074780434 11772814
-0.023209229 0.74723285 0.07477726 11838607
-0.023399353 0.74750233 0.074774086 11838607
-0.023589477 0.7477718 0.074770913 11904400
-0.023779601 0.74804127 0.074767739 11838607
-0.023969725 0.74831069 0.074764557 11838094
-0.024159849 0.74858022 0.074761383 11772301
-0.024349973 0.74884963 0.074758209 11838094
-0.024540097 0.7491191 0.074755035 11903887
-0.024730213 0.74938858 0.074751861 11969680
-0.024920337 0.74965805 0.074748687 12035473
-0.025110461 0.74992752 0.074745513 12035473
-0.025300585 0.75019699 0.074742332 11969680
-0.025490709 0.75046647 0.074739158 11969680
-0.025680833 0.75073588 0.074735984 12035473
-0.025870956 0.75100541 0.07473281 12101266
-0.02606108 0.75127482 0.074729636 12101266
-0.026251204 0.7515443 0.074726462 12232852
-0.026441328 0.75181377 0.074723288 12101266
-0.026631445 0.75208324 0.074720114 12101266
-0.026821569 0.75235271 0.074716933 12101266
-0.027011693 0.75262213 0.074713759 12232852
-0.027201816 0.75289166 0.074710585 12298645
-0.02739194 0.75316107 0.074707411 12298645
-0.02967342 0.75639468 0.074669309 12495770
-0.029863544 0.75666416 0.074666135 12561563
-0.030053668 0.75693357 0.074662961 12495770
-0.030243792 0.7572031 0.074659787 12561563
-0.030433916 0.75747252 0.074656613 12561563
-0.030624039 0.75774199 0.074653439 12561563
-0.030814163 0.75801146 0.074650258 12561563
-0.03100428 0.75828093 0.074647084 12561563
-0.031194404 0.75855041 0.07464391 12495772
-0.031384528 0.75881988 0.074640736 12495772
-0.031574652 0.75908935 0.074637562 12561563
-0.031764776 0.75935876 0.074634388 12561563
-0.03141319 0.76031274 0.07407932 12561563
-0.031604245 0.76058352 0.074076131 12561563
-0.031795315 0.76085436 0.074072942 12693149
-0.031986378 0.76112515 0.074069753 12758942
-0.032177448 0.76139593 0.074066564 12759457
-0.032368511 0.76166677 0.074063368 12825250
-0.032559574 0.76193756 0.074060179 12958899
-0.032750636 0.76220834 0.07405699 12893106
-0.032941699 0.76247919 0.074053794 13091772
-0.033132769 0.76274991 0.074050605 13025979
-0.033323832 0.76302075 0.074047416 13090235
-0.033514902 0.76329154 0.074044228 11971754
-0.021725267 0.74687117 0.074525505 11772814
-0.021916337 0.74714196 0.074522316 11838607
-0.0221074 0.7474128 0.07451912 11838607
-0.022885084 0.74706131 0.075065665 11772814
-0.023075208 0.74733078 0.075062491 11772814
-0.023265325 0.74760026 0.075059317 11838607
-0.023455448 0.74786973 0.075056143 11969680
-0.023645572 0.74813914 0.075052969 11903887
-0.023835696 0.74840868 0.075049795 11903887
-0.02402582 0.74867809 0.075046614 11903887
-0.024215944 0.74894756 0.07504344 11838094
-0.024406068 0.74921703 0.075040266 11903887
-0.024596184 0.74948651 0.075037092 11969680
-0.024786308 0.74975598 0.075033918 12035473
-0.024976432 0.75002545 0.075030744 12035473
-0.025166556 0.75029492 0.07502757 11969680
-0.02535668 0.75056434 0.075024396 12035473
-0.025546804 0.75083387 0.075021215 12101266
-0.025736928 0.75110328 0.075018041 12232852
-0.025927052 0.75137275 0.075014867 12232852
-0.026117176 0.75164223 0.075011693 12298645
-0.0263073 0.7519117 0.075008519 12101266
-0.026497424 0.75218117 0.075005345 12232852
-0.026687548 0.75245064 0.075002171 12232852
-0.026877671 0.75272012 0.07499899 12232852
-0.027067795 0.75298953 0.074995816 12298645
-0.027257919 0.753259 0.074992642 12298645
-0.029539391 0.75649261 0.07495454 12561563
-0.029729515 0.75676209 0.074951366 12561563
-0.029919639 0.75703156 0.074948192 12561563
-0.030109763 0.75730097 0.074945018 12693149
-0.030299887 0.75757051 0.074941844 12561563
-0.030490011 0.75783992 0.07493867 12561563
-0.030680135 0.75810939 0.074935496 12561563
-0.030870259 0.75837886 0.074932322 12561563
-0.031060383 0.75864834 0.074929141 12561565
-0.031250507 0.75891781 0.074925967 12495772
-0.031440631 0.75918722 0.074922793 12561565
-0.031630754 0.75945675 0.074919619 12561565
-0.031278498 0.76041114 0.074365966 12561563
-0.031469561 0.76068199 0.074362777 12561563
-0.031660631 0.76095277 0.074359588 12561563
-0.031851687 0.76122355 0.074356399 12693149
-0.032042757 0.76149434 0.074353203 12758942
-0.032233819 0.76176512 0.074350014 12758942
-0.032424882 0.76203597 0.074346825 12826022
-0.032615945 0.76230675 0.074343637 12760229
-0.032807015 0.76257753 0.07434044 12761260
-0.032998078 0.76284838 0.074337251 13221811
-0.03318914 0.76311916 0.074334063 13353920
-0.03338021 0.76338995 0.074330874 13353920
-0.021017388 0.74615723 0.074821718 11904398
-0.02120845 0.74642801 0.074818529 11904400
-0.021399513 0.7466988 0.07481534 11838607
-0.021590583 0.74696958 0.074812144 11772812
-0.021781646 0.74724042 0.074808955 11838605
-0.021972716 0.74751121 0.074805766 11838605
-0.022751056 0.74715924 0.075350903 11772812
-0.02294118 0.74742872 0.075347722 11772812
-0.023131303 0.74769819 0.075344548 11838605
-0.023321427 0.7479676 0.075341374 11903887
-0.023511544 0.74823713 0.0753382 11838094
-0.023701668 0.74850655 0.075335026 11969680
-0.023891792 0.74877602 0.075331852 11969680
-0.024081916 0.74904549 0.075328678 11903887
-0.02427204 0.74931496 0.075325504 11903887
-0.024462163 0.74958444 0.075322323 12035473
-0.024652287 0.74985391 0.075319149 12035473
-0.024842411 0.75012338 0.075315975 12035473
-0.025032535 0.75039279 0.075312801 12035473
-0.025222659 0.75066233 0.075309627 12101266
-0.025412783 0.75093174 0.075306453 12232852
-0.025602907 0.75120121 0.075303271 12232852
-0.025793031 0.75147069 0.075300097 12232852
-0.025983155 0.75174016 0.075296924 12298645
-0.026173279 0.75200963 0.07529375 12298645
-0.026363395 0.7522791 0.075290576 12232852
-0.026553519 0.75254858 0.075287402 12298645
-0.026743643 0.75281799 0.075284228 12364438
-0.026933767 0.75308746 0.075281054 12364438
-0.027123891 0.75335693 0.075277872 12298645
-0.02940537 0.75659055 0.075239778 12561817
-0.029595494 0.75686002 0.075236604 12561817
-0.029785618 0.75712943 0.07523343 12561563
-0.029975742 0.7573989 0.075230248 12693149
-0.030165866 0.75766838 0.075227074 12561563
-0.03035599 0.75793785 0.0752239 12561563
-0.030546114 0.75820732 0.075220726 12693149
-0.03073623 0.75847679 0.075217552 12561563
-0.030926354 0.75874627 0.075214379 12561565
-0.031116478 0.75901568 0.075211197 12561565
-0.031306602 0.75928521 0.075208023 12561565
-0.031496726 0.75955462 0.075204849 12561565
-0.031143814 0.76050955 0.074652612 12561563
-0.03133487 0.76078033 0.074649423 12561563
-0.03152594 0.76105118 0.074646235 12561563
-0.031717002 0.76132196 0.074643038 12693149
-0.031908065 0.76159275 0.074639849 12758942
-0.032099128 0.76186359 0.074636661 12693149
-0.03229019 0.76213437 0.074633472 12759457
-0.032481261 0.76240516 0.074630275 12825250
-0.032672323 0.762676 0.074627087 12760229
-0.032863393 0.76294672 0.074623898 12957608
-0.033054456 0.76321757 0.074620709 12958903
-0.033245519 0.76348835 0.074617513 13419454
-0.032904834 0.76446062 0.074065067 13486025
-0.033096835 0.76473278 0.074061856 13420232
-0.033288836 0.76500487 0.074058652 12432557
-0.033480853 0.76527703 0.074055448 11379869
-0.033672854 0.76554918 0.074052244 10653570
-0.020882696 0.74625564 0.075108364 11904398
-0.021073759 0.74652642 0.075105175 11838605
-0.021264829 0.7467972 0.075101987 11838605
-0.021455891 0.74706805 0.07509879 11838605
-0.021057129 0.74795938 0.074548714 11772812
-0.021249138 0.74823153 0.07454551 11838605
-0.022029087 0.7478804 0.075089216 11772812
-0.02222015 0.74815118 0.075086027 11838092
-0.022411212 0.74842203 0.075082839 11838092
-0.022602275 0.74869281 0.07507965 11838094
-0.022793345 0.74896359 0.075076461 11838094
-0.022984408 0.74923444 0.075073265 11969680
-0.023175471 0.74950522 0.075070076 11969680
-0.023366541 0.74977601 0.075066887 11903887
-0.023557603 0.75004679 0.075063691 11969680
-0.023748666 0.75031757 0.075060502 12035473
-0.023939729 0.75058842 0.075057313 12035473
-0.024130791 0.7508592 0.075054124 12035473
-0.024321854 0.75112998 0.075050935 12101266
-0.024512924 0.75140083 0.075047739 12232852
-0.024703994 0.75167161 0.07504455 12232852
-0.024895057 0.7519424 0.075041361 12232852
-0.02508612 0.75221318 0.075038165 12298645
-0.025277182 0.75248396 0.075034976 12364438
-0.025468245 0.75275481 0.075031787 12364438
-0.025659308 0.75302559 0.075028598 12364438
-0.025850378 0.75329638 0.075025409 12298645
-0.026041441 0.75356722 0.075022213 12364438
-0.026232503 0.753838 0.075019024 12364438
-0.026423566 0.75410879 0.075015835 12364438
-0.030818053 0.76033717 0.074942447 12693151
-0.031009123 0.76060796 0.074939258 12693151
-0.031200185 0.7608788 0.07493607 12693151
-0.031391248 0.76114959 0.074932873 12561563
-0.031582311 0.76142037 0.074929684 12693149
-0.031773373 0.76169121 0.074926496 12693149
-0.031964444 0.76196194 0.074923307 12693149
-0.032155506 0.76223278 0.07492011 12758944
-0.032346569 0.76250356 0.074916922 12824737
-0.032537639 0.76277435 0.074913733 12890530
-0.032193467 0.7637431 0.07436274 13022116
-0.032385468 0.76401526 0.074359536 12892076
-0.032577477 0.76428735 0.074356332 13155248
-0.032769479 0.76455951 0.074353121 13288127
-0.032961488 0.76483166 0.074349917 13485506
-0.033153489 0.76510382 0.074346706 13617862
-0.033345498 0.76537591 0.074343503 12762553
-0.033537507 0.76564807 0.074340299 11972004
-0.020748004 0.74635404 0.07539501 11904400
-0.020939074 0.74662483 0.075391822 11772812
-0.021130137 0.74689561 0.075388625 11838605
-0.0213212 0.7471664 0.075385436 11838605
-0.020921782 0.74805832 0.074836768 11838605
-0.021113783 0.74833041 0.074833564 11838605
-0.021894395 0.74797881 0.075375862 11838605
-0.022085458 0.74824965 0.075372674 11772812
-0.022276521 0.74852043 0.075369485 11838605
-0.022467591 0.74879122 0.075366296 11903885
-0.022658654 0.749062 0.0753631 11903885
-0.022849716 0.74933279 0.075359911 11969678
-0.023040786 0.74960363 0.075356722 11969678
-0.023231849 0.74987441 0.075353533 11969680
-0.023422912 0.7501452 0.075350337 11969680
-0.023613974 0.75041604 0.075347148 12035473
-0.023805037 0.75068682 0.075343959 12101266
-0.023996107 0.75095761 0.07534077 12101266
-0.02418717 0.75122839 0.075337574 12232852
-0.024378233 0.75149918 0.075334385 12232852
-0.024569303 0.75177002 0.075331196 12232852
-0.024760365 0.7520408 0.075328007 12298645
-0.024951428 0.75231159 0.075324818 12364438
-0.025142491 0.75258243 0.075321622 12364438
-0.025333554 0.75285321 0.075318433 12430231
-0.025524624 0.753124 0.075315244 12430231
-0.025715686 0.75339484 0.075312048 12364438
-0.025906749 0.75366563 0.075308859 12364438
-0.026097819 0.75393641 0.07530567 12364438
-0.026288882 0.75420719 0.075302482 12430231
-0.030683368 0.76043558 0.075229093 12627871
-0.030874431 0.76070642 0.075225905 12693151
-0.031065494 0.76097715 0.075222716 12693151
-0.031256557 0.76124799 0.075219519 12693151
-0.031447619 0.76151878 0.075216331 12758944
-0.031638682 0.76178956 0.075213142 12693151
-0.031829752 0.7620604 0.075209945 12693151
-0.032020815 0.76233119 0.075206757 12758944
-0.032211885 0.76260197 0.075203568 12824737
-0.032402948 0.76287282 0.075200379 12890530
-0.032058112 0.76384199 0.074650794 12956323
-0.032250114 0.76411414 0.074647591 12891043
-0.032442123 0.7643863 0.074644387 12956836
-0.032634124 0.76465845 0.074641183 12892076
-0.032826133 0.76493055 0.074637972 13352627
-0.033018135 0.76520264 0.074634768 13551038
-0.033210143 0.7654748 0.074631557 13551038
-0.033402145 0.76574695 0.074628353 13420483
-0.02061332 0.74645245 0.075681657 11904400
-0.020804383 0.74672323 0.07567846 11838605
-0.020995446 0.74699402 0.075675271 11838605
-0.021186516 0.74726486 0.075672083 11970191
-0.020786427 0.74815714 0.07512483 11904398
-0.020978436 0.7484293 0.075121619 11970191
-0.021759704 0.74807721 0.075662509 11838605
-0.021950774 0.748348 0.07565932 11838092
-0.022141837 0.74861884 0.075656131 11903885
-0.022332899 0.74888963 0.075652935 11903885
-0.022523962 0.74916041 0.075649746 11969678
-0.022715032 0.74943125 0.075646557 11969678
-0.022906095 0.74970204 0.075643368 12035471
-0.023097157 0.74997282 0.075640172 11969678
-0.02328822 0.7502436 0.075636983 12101264
-0.023479283 0.75051439 0.075633794 12035471
-0.023670346 0.75078523 0.075630605 12101264
-0.023861416 0.75105602 0.075627409 12101264
-0.024052478 0.7513268 0.07562422 12232850
-0.024243541 0.75159764 0.075621031 12232852
-0.024434611 0.75186843 0.075617842 12232852
-0.024625674 0.75213921 0.075614646 12298645
-0.024816737 0.75240999 0.075611457 12364438
-0.025007799 0.75268078 0.075608268 12430231
-0.025198869 0.75295162 0.07560508 12430231
-0.025389932 0.75322241 0.075601891 12430231
-0.025580995 0.75349319 0.075598694 12364438
-0.025772065 0.75376403 0.075595506 12364438
-0.025963128 0.75403482 0.075592317 12430231
-0.02615419 0.7543056 0.07558912 12430231
-0.030548677 0.76053399 0.07551574 12627871
-0.03073974 0.76080477 0.075512543 12824737
-0.030930802 0.76107562 0.075509354 12824737
-0.031121865 0.7613464 0.075506166 12824737
-0.031312928 0.76161718 0.075502977 12824737
-0.031503998 0.76188803 0.075499788 12824737
-0.031695068 0.76215881 0.075496592 12824737
-0.031886131 0.76242959 0.075493403 12890530
-0.032077193 0.76270038 0.075490214 12890530
-0.032268256 0.76297116 0.075487018 12890530
-0.031922758 0.76394093 0.074938856 12956323
-0.032114759 0.76421303 0.074935652 12891043
-0.032306775 0.76448518 0.074932441 12825250
-0.032498777 0.76475728 0.074929237 12891043
-0.032690778 0.76502943 0.074926034 13088422
-0.03288278 0.76530159 0.074922822 13023662
-0.033074796 0.76557374 0.074919619 13418420
-0.033266798 0.76584584 0.074916407 13551551
-0.032929771 0.76682758 0.074368112 13683137
-0.033122718 0.76710105 0.074364886 13617092
-0.033315666 0.76737452 0.074361667 12564404
-0.032982402 0.76836157 0.073813297 11378583
-0.033176288 0.76863635 0.073810056 10325895
-0.033370182 0.76891112 0.073806822 10587775
-0.020478629 0.74655086 0.075968295 11969680
-0.020669699 0.74682164 0.075965106 11903887
-0.020860761 0.74709243 0.075961918 11903887
-0.021051824 0.74736321 0.075958729 11970193
-0.020651072 0.74825609 0.075412884 11904400
-0.020843081 0.74852818 0.075409681 11970191
-0.02103509 0.74880034 0.075406469 11838605
-0.021227092 0.74907243 0.075403266 11838092
-0.021419093 0.74934459 0.075400054 11969678
-0.021611102 0.74961674 0.075396851 11969678
-0.021803111 0.7498889 0.075393647 11969678
-0.021995112 0.75016099 0.075390443 11969678
-0.022187121 0.75043315 0.075387232 12035471
-0.022379123 0.75070524 0.075384028 11969678
-0.022571132 0.7509774 0.075380817 12035471
-0.022763133 0.75124955 0.075377613 12232336
-0.022955142 0.75152165 0.07537441 12232336
-0.023147143 0.7517938 0.075371198 12232336
-0.023339152 0.7520659 0.075367995 12363922
-0.023531154 0.75233805 0.075364791 12363922
-0.023723163 0.75261021 0.07536158 12495508
-0.023915172 0.75288236 0.075358376 12495508
-0.024107173 0.75315446 0.075355172 12495508
-0.024873115 0.75277925 0.075894915 12430231
-0.025064178 0.75305003 0.075891726 12430231
-0.025255248 0.75332081 0.075888529 12430231
-0.025446311 0.75359166 0.075885341 12430231
-0.030443363 0.76213485 0.075249359 12891043
-0.030635372 0.762407 0.075246148 12759457
-0.030827373 0.7626791 0.075242944 12825250
-0.031019382 0.76295125 0.07523974 12891043
-0.031211391 0.76322341 0.075236529 13022116
-0.031403393 0.76349556 0.075233325 12956323
-0.031595394 0.76376766 0.075230122 12956323
-0.03178741 0.76403981 0.07522691 12956323
-0.031979412 0.76431191 0.075223707 12825250
-0.031636074 0.76528615 0.074676909 12825250
-0.031829014 0.76555961 0.07467369 12891043
-0.03202197 0.76583308 0.074670464 12891043
-0.03221491 0.76610655 0.074667245 13154217
-0.032407865 0.76638001 0.074664026 13285803
-0.032600805 0.76665348 0.0746608 13155248
-0.03279376 0.76692694 0.074657574 13550006
-0.032986701 0.76720041 0.074654356 13616833
-0.033179648 0.76747388 0.074651137 14143177
-0.032845721 0.76846141 0.074104175 13353920
-0.033039615 0.76873624 0.074100941 12301232
-0.033233508 0.76901102 0.0740977 11510169
-0.020343944 0.74664927 0.076254942 11969426
-0.020535007 0.74692005 0.076251753 11903887
-0.02072607 0.74719083 0.076248564 11903887
-0.020917132 0.74746168 0.076245375 11970193
-0.020515718 0.74835497 0.075700939 11904400
-0.020707726 0.74862707 0.075697735 11970193
-0.020899735 0.74889922 0.075694531 11904400
-0.021091737 0.74917138 0.07569132 11903885
-0.021283746 0.74944353 0.075688116 11969678
-0.021475747 0.74971563 0.075684905 11969678
-0.021667756 0.74998778 0.075681701 11969678
-0.021859758 0.75025988 0.075678498 12035471
-0.022051767 0.75053203 0.075675286 12035471
-0.022243768 0.75080419 0.075672083 12035471
-0.022435777 0.75107628 0.075668879 12101264
-0.022627786 0.75134844 0.075665668 12232336
-0.022819787 0.75162053 0.075662464 12363922
-0.023011789 0.75189269 0.07565926 12363922
-0.023203798 0.75216484 0.075656049 12363922
-0.023395807 0.752437 0.075652845 12429715
-0.023587808 0.75270909 0.075649634 12495508
-0.023779817 0.75298125 0.07564643 12561301
-0.023971826 0.75325334 0.075643227 12495508
-0.024738424 0.75287765 0.076181561 12561303
-0.024929494 0.75314844 0.076178364 12561303
-0.025120556 0.75341922 0.076175176 12430231
-0.025311619 0.75369 0.076171987 12430231
-0.030308008 0.76223373 0.075537413 12891043
-0.030500017 0.76250589 0.07553421 12825250
-0.030692026 0.76277804 0.075530998 12891043
-0.030884027 0.7630502 0.075527795 12956836
-0.031076036 0.76332229 0.075524591 12956836
-0.031268045 0.76359439 0.07552138 12956836
-0.031460047 0.76386654 0.075518176 12956836
-0.031652056 0.7641387 0.075514972 12891043
-0.031844057 0.76441085 0.075511761 12891043
-0.031500056 0.76538551 0.074966379 12891043
-0.031692997 0.76565897 0.07496316 12891043
-0.031885952 0.76593244 0.074959934 12891043
-0.032078892 0.76620591 0.074956715 12956836
-0.032271847 0.76647937 0.074953489 13088422
-0.032464787 0.76675284 0.07495027 13088424
-0.032657743 0.76702631 0.074947044 13154217
-0.032850683 0.76729977 0.074943826 13352373
-0.03304363 0.76757324 0.074940607 13681338
-0.032709047 0.76856124 0.074395061 13617346
-0.032902934 0.76883608 0.07439182 13683139
-0.03309682 0.76911086 0.074388579 13354692
-0.020209253 0.74674767 0.076541588 11969426
-0.020400316 0.74701846 0.076538399 11969426
-0.020591378 0.74728924 0.07653521 11969426
-0.020782441 0.74756002 0.076532014 12035473
-0.020380363 0.74845386 0.075989 12035473
-0.020572372 0.74872601 0.075985789 11969680
-0.020764381 0.74899811 0.075982586 11969680
-0.020956382 0.74927026 0.075979382 11969680
-0.021148391 0.74954236 0.075976171 12035473
-0.0213404 0.74981451 0.075972967 12035473
-0.021532401 0.75008667 0.075969763 12035473
-0.021724403 0.75035882 0.075966552 12101266
-0.021916412 0.75063092 0.075963348 12101266
-0.022108421 0.75090307 0.075960144 12232852
-0.022300422 0.75117517 0.075956933 12232852
-0.022492431 0.75144732 0.075953729 12232850
-0.022684433 0.75171947 0.075950518 12298643
-0.022876441 0.75199157 0.075947315 12298643
-0.023068443 0.75226372 0.075944111 12298643
-0.023260452 0.75253582 0.0759409 12298643
-0.023452461 0.75280797 0.075937696 12364436
-0.023644462 0.75308013 0.075934492 12430229
-0.023836471 0.75335228 0.075931281 12430229
-0.024603739 0.75297606 0.076468199 12430231
-0.024794802 0.75324684 0.076465011 12430231
-0.024985865 0.75351763 0.076461822 12496024
-0.025176927 0.75378847 0.076458633 12496024
-0.030172661 0.76233268 0.075825468 12891043
-0.030364662 0.76260477 0.075822264 12891043
-0.030556671 0.76287693 0.07581906 12891043
-0.03074868 0.76314902 0.075815849 12956836
-0.030940682 0.76342118 0.075812645 12956836
-0.031132683 0.76369333 0.075809442 12956836
-0.031324692 0.76396549 0.07580623 12956836
-0.031516701 0.76423758 0.075803027 12891043
-0.031708702 0.76450974 0.075799823 12891043
-0.031364039 0.76548493 0.075255848 12956836
-0.031556986 0.7657584 0.07525263 12956836
-0.031749934 0.76603186 0.075249404 12956836
-0.031942882 0.76630533 0.075246185 12956836
-0.032135829 0.76657879 0.075242959 13088422
-0.03232877 0.76685226 0.07523974 12956838
-0.032521725 0.76712573 0.075236514 12956838
-0.032714665 0.76739919 0.075233296 12957354
-0.03290762 0.76767266 0.075230069 12957354
-0.032572359 0.76866114 0.074685939 13221559
-0.032766253 0.76893592 0.074682698 13747903
-0.032960147 0.76921076 0.074679464 13683655
-0.021205045 0.74991345 0.076261021 12101266
-0.021397047 0.75018555 0.076257817 12101266
-0.021589056 0.75045764 0.076254606 12232852
-0.021781057 0.7507298 0.076251402 12232852
-0.021387734 0.75163746 0.075709648 12232852
-0.021580681 0.75191092 0.075706422 12232852
-0.021773621 0.75218439 0.075703204 12298643
-0.021966569 0.75245786 0.075699978 12298643
-0.022159517 0.75273132 0.075696759 12364436
-0.029333472 0.76436418 0.075028621 12956836
-0.029527366 0.76463902 0.075025387 12956836
-0.029721245 0.7649138 0.075022146 12956836
-0.029915139 0.76518857 0.075018913 12956836
-0.030109026 0.76546335 0.075015672 12956836
-0.030302912 0.76573819 0.075012438 12956836
-0.031035081 0.76531076 0.075548537 12891043
-0.031228021 0.76558429 0.075545318 12956836
-0.031420968 0.7658577 0.075542092 12891043
-0.031613916 0.76613122 0.075538874 12956836
-0.031272352 0.7671122 0.074996248 12956836
-0.031466246 0.76738703 0.074993007 13088422
-0.031660125 0.76766181 0.074989766 12956836
-0.031854019 0.76793659 0.074986532 12956836
-0.032047905 0.76821136 0.074983291 12956838
-0.032241791 0.7684862 0.074980058 13088424
-0.032435685 0.76876098 0.074976817 13023149
-0.032629572 0.76903582 0.074973583 13154735
-0.032823458 0.76931059 0.074970342 13090487
-0.021069691 0.75001228 0.076549083 12232852
-0.021261692 0.75028443 0.076545872 12101266
-0.021453701 0.75055659 0.076542668 12232852
-0.02164571 0.75082874 0.076539457 12298645
-0.021251716 0.75173682 0.075999118 12298645
-0.021444663 0.75201029 0.075995892 12298645
-0.021637604 0.75228375 0.075992674 12298645
-0.021830559 0.75255722 0.075989448 12364438
-0.022023499 0.75283068 0.075986229 12364438
-0.028615132 0.76363963 0.075329222 12956836
-0.028809018 0.76391447 0.075325981 12956836
-0.029002905 0.76418924 0.07532274 12891043
-0.029196799 0.76446402 0.075319506 12956836
-0.029390678 0.76473886 0.075316265 12956836
-0.029584572 0.76501364 0.075313032 12956836
-0.029778466 0.76528847 0.075309791 12956836
-0.029972345 0.76556325 0.075306557 12956836
-0.030166239 0.76583803 0.075303316 13088422
-0.030899063 0.76541018 0.075838007 13088422
-0.031092003 0.76568365 0.075834788 13088422
-0.031284951 0.76595712 0.075831562 12956836
-0.031477898 0.76623058 0.075828344 12956836
-0.031135678 0.76721203 0.075287126 12956836
-0.031329565 0.76748687 0.075283885 13088422
-0.031523451 0.76776165 0.075280651 12956836
-0.031717345 0.76803648 0.07527741 12956836
-0.031911224 0.76831126 0.075274177 13088422
-0.032105118 0.76858604 0.075270936 13154215
-0.032299004 0.76886088 0.075267702 12957608
-0.032492891 0.76913565 0.075264461 13023401
-0.032686785 0.76941049 0.07526122 13023660
-0.032552749 0.77508652 0.073075756 10718845
-0.032750398 0.77536666 0.073072463 10718845
-0.032948047 0.77564681 0.073069155 10849663
-0.033145703 0.77592695 0.073065862 10915456
-0.03282889 0.77694446 0.072524227 10849663
-0.033027492 0.77722597 0.072520912 10849663
-0.03322608 0.77750742 0.072517596 10849663
-0.028478444 0.76373947 0.0756201 12956836
-0.028672338 0.7640143 0.075616859 12956836
-0.028866224 0.76428908 0.075613625 12956836
-0.02906011 0.76456392 0.075610384 12956836
-0.029254004 0.7648387 0.075607151 12956836
-0.029447891 0.76511347 0.07560391 12956836
-0.029641777 0.76538831 0.075600669 12956836
-0.029835671 0.76566315 0.075597435 12956836
-0.03002955 0.76593792 0.075594194 13088422
-0.030223444 0.7662127 0.075590961 13088422
-0.030417331 0.76648748 0.07558772 12956836
-0.030611217 0.76676232 0.075584486 12956836
-0.030805111 0.76703715 0.075581245 12891043
-0.03099899 0.76731193 0.075578004 12891043
-0.031192884 0.76758671 0.075574771 12956836
-0.03138677 0.76786149 0.07557153 12956836
-0.031580657 0.76813632 0.075568296 13088422
-0.031774551 0.7684111 0.075565055 13088422
-0.03196843 0.76868594 0.075561821 13220008
-0.031632133 0.76967722 0.075021915 12957608
-0.031826958 0.76995337 0.075018659 13023401
-0.032413416 0.77518833 0.07337229 10784642
-0.032611065 0.77546847 0.073368989 10718849
-0.032808721 0.77574861 0.073365688 10915458
-0.03300637 0.77602875 0.073362388 10915458
-0.032688893 0.77704674 0.072822168 10915458
-0.032887489 0.77732825 0.072818853 10849665
-0.033086076 0.77760971 0.072815537 10849665
-0.02834177 0.76383936 0.075910978 13088424
-0.028535657 0.76411414 0.075907744 13088424
-0.028729543 0.76438898 0.075904503 12956838
-0.028923437 0.76466376 0.07590127 13088424
-0.029117323 0.76493859 0.075898029 12956838
-0.02931121 0.76521337 0.075894788 13088424
-0.029505104 0.76548815 0.075891554 12956838
-0.029698983 0.76576298 0.075888313 12956838
-0.029892877 0.76603776 0.07588508 13088424
-0.030086756 0.7663126 0.075881839 13088422
-0.03028065 0.76658738 0.075878605 13088422
-0.030474536 0.76686215 0.075875364 12956836
-0.030668423 0.76713699 0.075872123 12891043
-0.030862316 0.76741177 0.07586889 12956836
-0.031056203 0.76768661 0.075865649 12956836
-0.031250089 0.76796138 0.075862415 13088422
-0.031443983 0.76823616 0.075859174 13154215
-0.031637862 0.768511 0.075855941 13154215
-0.031831756 0.76878577 0.0758527 13154215
-0.031494789 0.76977754 0.075314209 13023401
-0.031689614 0.77005374 0.075310953 13023401
-0.032274082 0.77529013 0.073668823 12366252
-0.032471731 0.77557027 0.073665515 10787220
-0.03266938 0.77585042 0.073662221 10915204
-0.032867037 0.77613056 0.073658913 11046790
-0.032548897 0.77714902 0.07312011 10915458
-0.032747492 0.77743053 0.073116794 10849665
-0.03294608 0.77771199 0.073113471 10915458
-0.028205089 0.76393926 0.076201864 13088424
-0.028398976 0.76421404 0.076198623 13088424
-0.028592862 0.76448882 0.076195389 12956838
-0.028786749 0.76476359 0.076192148 13088424
-0.028980643 0.76503843 0.076188907 13154217
-0.029174529 0.76531327 0.076185673 13154217
-0.029368415 0.76558805 0.076182432 13154217
-0.029562309 0.76586282 0.076179199 12956836
-0.029756188 0.76613766 0.076175958 13088422
-0.029950082 0.76641244 0.076172724 13088422
-0.030143969 0.76668727 0.076169483 13154215
-0.030337855 0.76696205 0.076166242 12956836
-0.030531749 0.76723683 0.076163009 12956836
-0.030725628 0.76751161 0.076159768 13088422
-0.030919522 0.76778644 0.076156534 13088422
-0.031113409 0.76806128 0.076153293 13154215
-0.031307295 0.76833606 0.076150052 13154215
-0.031501189 0.76861084 0.076146819 13154215
-0.031695068 0.76888561 0.076143578 13154215
-0.031357445 0.76987791 0.075606495 13154215
-0.03155227 0.77015406 0.075603247 13220008
-0.031081274 0.77242804 0.074525669 13088940
-0.031277984 0.77270687 0.074522384 12957354
-0.031474695 0.7729857 0.074519098 12957869
-0.031671405 0.77326447 0.074515812 12957869
-0.031868115 0.77354324 0.074512526 12958899
-0.032064825 0.77382207 0.074509241 13156278
-0.032261543 0.7741009 0.074505955 13816008
-0.031937093 0.77511179 0.073968649 13552836
-0.032134749 0.77539194 0.073965348 13815503
-0.032332398 0.77567208 0.073962048 12894401
-0.032530054 0.77595222 0.073958747 11772832
-0.032727703 0.77623236 0.073955446 10720144
-0.032408901 0.7772513 0.073418051 11047560
-0.032607496 0.77753282 0.073414728 10784388
-0.032806084 0.77781427 0.073411413 10915458
-0.033004686 0.77809572 0.073408097 10849665
-0.033203274 0.77837718 0.073404782 10718849
-0.033401877 0.77865869 0.073401466 10718849
-0.030942604 0.77252936 0.074820787 13089194
-0.031139314 0.77280819 0.074817501 13023401
-0.031336024 0.77308697 0.074814215 12892074
-0.031532735 0.7733658 0.07481093 12957867
-0.031729445 0.77364457 0.074807644 13023662
-0.031926155 0.7739234 0.074804358 13155248
-0.032122873 0.77420223 0.074801072 12827313
-0.031797752 0.7752136 0.074265175 13353657
-0.031995416 0.77549374 0.074261874 13749961
-0.032193065 0.77577388 0.074258573 14013133
-0.032390714 0.77605402 0.074255273 14275541
-0.032588363 0.77633417 0.074251972 12893888
-0.032268897 0.77735364 0.073715992 11706269
-0.032467499 0.7776351 0.073712677 10785167
-0.032666087 0.77791655 0.073709354 11046790
-0.032864682 0.778198 0.073706038 10915204
-0.033063278 0.77847946 0.073702723 10784642
-0.033261873 0.77876097 0.073699407 10718849
-0.030803934 0.77263069 0.075115904 13154987
-0.031000644 0.77290952 0.075112619 13089194
-0.031197354 0.77318829 0.075109333 12958121
-0.031394064 0.77346706 0.075106047 12958121
-0.031590775 0.77374589 0.075102761 13023660
-0.031787485 0.77402472 0.075099476 13155246
-0.031984203 0.7743035 0.07509619 13024432
-0.031658426 0.7753154 0.074561708 13024432
-0.031856075 0.77559555 0.074558407 13091000
-0.032053724 0.77587569 0.074555106 13485758
-0.03225138 0.77615583 0.074551806 14275794
-0.032449037 0.77643597 0.074548505 14538966
-0.0321289 0.77745593 0.074013934 14208980
-0.032327503 0.77773738 0.074010611 12827327
-0.032526091 0.77801883 0.074007295 11772060
-0.032724686 0.77830029 0.07400398 10785165
-0.032923281 0.77858174 0.074000664 10587775
-0.033121876 0.77886325 0.073997349 10653568
-0.022624709 0.76281106 0.075006768 12825250
-0.022822358 0.76309121 0.075003468 12891043
-0.023020014 0.76337135 0.075000167 12891043
-0.023217663 0.76365149 0.074996866 12891043
-0.029542565 0.77261585 0.074891239 13089192
-0.029740214 0.77289599 0.074887939 13154985
-0.029937863 0.77317613 0.074884638 13154985
-0.030665264 0.77273202 0.075411022 13154985
-0.030861974 0.77301079 0.075407736 13154985
-0.031058684 0.77328962 0.07540445 13023914
-0.031255394 0.77356839 0.075401165 13023914
-0.031452104 0.77384722 0.075397879 13089707
-0.031648815 0.77412605 0.075394593 13155500
-0.031845532 0.77440482 0.075391307 13155246
-0.031519085 0.77541721 0.074858233 13155246
-0.031716749 0.77569735 0.074854933 13221811
-0.031914398 0.77597749 0.074851632 13353397
-0.032112047 0.77625763 0.074848332 13419452
-0.032309696 0.77653778 0.074845031 13748417
-0.031988904 0.77755821 0.074311875 14407380
-0.032187507 0.77783966 0.074308559 14604759
-0.032386094 0.77812111 0.074305236 13814990
-0.03258469 0.77840257 0.074301921 11643821
-0.032783285 0.77868408 0.074298605 11575449
-0.03298188 0.77896553 0.07429529 10588554
-0.022485375 0.76291287 0.075303294 12891043
-0.022683024 0.76319301 0.075299993 12891043
-0.022880681 0.76347315 0.075296693 12891043
-0.023078337 0.76375329 0.075293392 12891043
-0.029403225 0.77271765 0.075187773 13154987
-0.029600881 0.7729978 0.075184472 13220778
-0.029798537 0.77327794 0.075181171 13154985
-0.029996186 0.77355808 0.075177871 13154987
-0.030193835 0.77383822 0.07517457 13286573
-0.030391492 0.7741183 0.075171269 13089707
-0.030589148 0.77439845 0.075167969 13089707
-0.030786797 0.77467859 0.075164668 13155246
-0.030984446 0.77495873 0.075161368 13221039
-0.03118211 0.77523887 0.075158067 13221039
-0.031379759 0.77551901 0.075154766 13089453
-0.031577408 0.77579916 0.075151466 13221039
-0.031253129 0.77681607 0.074619763 13221039
-0.031451717 0.77709752 0.074616447 13287604
-0.031650312 0.77737898 0.074613132 13287604
-0.031848907 0.77766049 0.074609816 13419454
-0.03204751 0.77794194 0.074606493 14274763
-0.032246098 0.7782234 0.074603178 14670812
-0.032444686 0.77850485 0.074599862 14539226
-0.032643288 0.77878636 0.074596547 13091780
-0.032841876 0.77906781 0.074593231 11775920
-0.022346042 0.76301467 0.075599827 12891043
-0.022543691 0.76329482 0.075596526 12956836
-0.022741348 0.76357496 0.075593226 12956836
-0.022938997 0.7638551 0.075589925 12956836
-0.029263899 0.77281946 0.075484298 13220780
-0.029461548 0.7730996 0.075480998 13220780
-0.029659197 0.77337974 0.075477697 13154987
-0.029856853 0.77365988 0.075474396 13155500
-0.03005451 0.77394003 0.075471096 13221293
-0.030252159 0.77422011 0.075467795 13155246
-0.030449808 0.77450025 0.075464495 13089453
-0.030647464 0.77478039 0.075461194 13155246
-0.030845121 0.77506053 0.075457893 13221039
-0.03104277 0.77534068 0.075454593 13352625
-0.031240419 0.77562082 0.075451292 13221039
-0.031438082 0.77590096 0.075447991 13221039
-0.031113133 0.77691835 0.074917704 13221039
-0.031311721 0.7771998 0.074914388 13221039
-0.031510316 0.77748126 0.074911073 13221039
-0.031708911 0.77776277 0.074907757 13287604
-0.031907514 0.77804422 0.074904434 13287604
-0.032106102 0.77832568 0.074901119 13288381
-0.032304689 0.77860713 0.074897803 14538448
-0.032503292 0.77888864 0.074894488 14671584
-0.03270188 0.7791701 0.074891172 14145240
-0.019851863 0.76125824 0.075401366 12891041
-0.020050451 0.7615397 0.07539805 12891041
-0.020249046 0.76182115 0.075394735 12825248
-0.020447642 0.76210266 0.075391412 12891043
-0.020646237 0.76238412 0.075388096 12891043
-0.020844832 0.76266563 0.075384781 12891043
-0.021043427 0.76294708 0.075381465 12891043
-0.021242023 0.76322854 0.07537815 12956836
-0.02144061 0.76350999 0.075374834 12891043
-0.022206709 0.76311648 0.075896353 12891043
