# .PCD v0.7 - Point Cloud Data file format
VERSION 0.7
FIELDS x y z rgb
SIZE 4 4 4 4
TYPE F F F U
COUNT 1 1 1 1
WIDTH 1121
HEIGHT 1
VIEWPOINT 0 0 0 1 0 0 0
POINTS 1121
DATA ascii
0.054378569 0.74731177 0.024037644 6834226
0.054078117 0.74704772 0.024038896 6702640
0.054409876 0.74630117 0.024687514 6636847
0.054110646 0.7460382 0.024688751 6505261
0.053811431 0.74577516 0.024689987 6243372
0.053512216 0.74551219 0.024691224 6111786
0.053212985 0.74524921 0.024692461 6111786
0.05291377 0.74498618 0.024693683 5980200
0.053254113 0.7442472 0.025342271 5980200
0.052956119 0.74398524 0.025343508 5914407
0.052658126 0.74372333 0.025344744 5849386
0.052360132 0.74346143 0.025345966 5717800
0.051417664 0.74367124 0.024699867 5060131
0.051118448 0.7434082 0.024701104 5257510
0.050819218 0.74314523 0.02470234 5520682
0.050520003 0.74288225 0.024703577 5520682
0.050220773 0.74261922 0.024704799 5586475
0.049921557 0.74235624 0.024706051 5586475
0.049622342 0.74209327 0.024707273 5520680
0.049323112 0.74183023 0.024708509 5520680
0.048369631 0.74203032 0.024062455 5520680
0.048069179 0.74176627 0.024063691 5520680
0.047768727 0.74150217 0.024064943 5455141
0.054546654 0.74772811 0.024382129 6900017
0.054246202 0.747464 0.024383381 6834226
0.05394575 0.74719995 0.024384618 6702640
0.054278046 0.74645275 0.02503182 6636847
0.053978831 0.74618977 0.025033057 6505261
0.053679615 0.7459268 0.025034294 6308652
0.053380385 0.74566376 0.02503553 6242859
0.05308117 0.74540079 0.025036767 6177579
0.052781954 0.74513781 0.025038004 6111786
0.053122833 0.74439812 0.025685176 5980200
0.05282484 0.74413621 0.025686398 5914407
0.052526847 0.74387431 0.025687635 5849384
0.052228838 0.74361241 0.025688872 5717798
0.051285848 0.74382281 0.025044173 5060131
0.050986618 0.74355984 0.02504541 5191717
0.050687402 0.7432968 0.025046647 5520682
0.050388172 0.74303383 0.025047883 5586475
0.050088957 0.74277085 0.02504912 5586475
0.049789742 0.74250782 0.025050357 5586475
0.049490526 0.74224484 0.025051594 5520680
0.049191296 0.74198186 0.025052831 5520680
0.048237264 0.74218255 0.024408177 5520680
0.047936812 0.74191844 0.024409428 5454887
0.047636375 0.7416544 0.024410665 5455141
0.055673495 0.7469064 0.026016995 6900271
0.055375502 0.74664444 0.026018232 6834224
0.055077508 0.74638253 0.026019469 6834224
0.054779515 0.74612063 0.026020691 6636847
0.054481521 0.74585873 0.026021928 6571054
0.054183528 0.74559677 0.026023149 6440238
0.053885534 0.74533486 0.026024386 6242859
0.053587541 0.74507296 0.026025608 6177579
0.053289533 0.74481106 0.026026845 5980200
0.0536322 0.74407184 0.026672617 5914407
0.053335443 0.74381101 0.026673838 5914407
0.053038672 0.74355018 0.02667506 5849384
0.0527419 0.74328935 0.026676282 5783591
0.052445129 0.74302852 0.026677504 5125922
0.052148357 0.74276769 0.026678741 5191715
0.051851586 0.74250686 0.026679963 5520428
0.050905585 0.74271572 0.026036695 5586221
0.050607592 0.74245381 0.026037917 5652268
0.050309598 0.74219185 0.026039138 5586475
0.050011605 0.74192995 0.026040375 5520680
0.049713612 0.74166805 0.026041612 5520680
0.04876025 0.74187046 0.025398374 5520680
0.048461035 0.74160743 0.02539961 5520680
0.04816182 0.74134445 0.025400847 5455141
0.047862589 0.74108148 0.025402084 5520934
0.047563374 0.74081844 0.025403306 5455141
0.047264144 0.74055547 0.025404558 5455141
0.055542216 0.74705732 0.026359901 6966064
0.055244222 0.74679542 0.026361138 7031089
0.054946229 0.74653351 0.02636236 6965296
0.054648235 0.74627161 0.026363596 6636847
0.054350242 0.74600971 0.026364818 6636847
0.054052249 0.74574775 0.026366055 6440238
0.053754255 0.74548584 0.026367292 6242859
0.053456262 0.74522394 0.026368514 6177579
0.053158253 0.74496204 0.026369736 5980200
0.053501457 0.74422222 0.027014107 5914407
0.0532047 0.74396139 0.027015328 5980200
0.052907929 0.74370056 0.02701655 5980970
0.052611157 0.74343967 0.027017772 5783591
0.052314386 0.74317884 0.027019009 5257508
0.052017614 0.74291801 0.027020231 5060129
0.051720858 0.74265718 0.027021453 5520682
0.050774306 0.74286669 0.026379585 5586475
0.050476313 0.74260473 0.026380822 5652268
0.050178319 0.74234283 0.026382044 5652268
0.049880326 0.74208093 0.026383266 5586473
0.049582332 0.74181902 0.026384503 5520680
0.048628435 0.74202204 0.02574268 5585960
0.048329219 0.74175906 0.025743917 5585960
0.048029989 0.74149603 0.025745153 5454887
0.047730774 0.74123305 0.02574639 5520680
0.047431543 0.74097008 0.025747612 5454887
0.047132328 0.74070704 0.025748864 5454887
0.055410936 0.74720836 0.026702806 7097136
0.055112943 0.74694639 0.026704028 7031089
0.05481495 0.74668449 0.026705265 7031089
0.054516956 0.74642259 0.026706487 6702638
0.054218963 0.74616063 0.026707724 6636845
0.053920969 0.74589872 0.026708946 6440236
0.053622976 0.74563682 0.026710182 6242857
0.053324983 0.74537492 0.026711419 6177577
0.053026974 0.74511302 0.026712641 5980198
0.053370729 0.74437261 0.027355582 5914405
0.053073958 0.74411172 0.027356818 5980198
0.052777186 0.74385089 0.02735804 5980968
0.052480415 0.74359006 0.027359262 5849382
0.052183643 0.74332923 0.027360484 5454887
0.051886886 0.7430684 0.027361706 5060129
0.051590115 0.74280751 0.027362928 5454889
0.050643027 0.74301767 0.026722476 5586475
0.050345019 0.74275571 0.026723713 5586475
0.050047025 0.74249381 0.026724949 5586475
0.049749032 0.74223191 0.026726171 5586473
0.049451038 0.74196994 0.026727408 5520680
0.048496619 0.74217361 0.026086986 5520680
0.048197404 0.74191064 0.026088223 5520680
0.047898173 0.74164766 0.02608946 5454887
0.047598958 0.74138463 0.026090696 5520680
0.047299728 0.74112165 0.026091933 5520680
0.047000512 0.74085867 0.02609317 5520680
0.055279657 0.74735928 0.027045697 7096882
0.054981664 0.74709737 0.027046934 7096882
0.05468367 0.74683547 0.027048156 7031089
0.055020586 0.74608797 0.027689725 6702638
0.054723814 0.74582714 0.027690947 6636845
0.054427058 0.74556631 0.027692169 6440236
0.054130286 0.74530542 0.027693406 6242857
0.053833514 0.74504459 0.027694628 6177577
0.053536758 0.74478376 0.02769585 5980198
0.053882241 0.74404383 0.028337374 5980198
0.053586707 0.74378407 0.028338596 5980198
0.053291157 0.74352431 0.028339818 5980968
0.052995622 0.74326456 0.02834104 5849382
0.052700073 0.7430048 0.028342247 5454887
0.052404538 0.74274498 0.028343469 5060129
0.052108988 0.74248523 0.028344691 5454889
0.051813453 0.74222547 0.028345913 5586475
0.051517904 0.74196571 0.028347135 5586475
0.051222369 0.74170595 0.028348356 5586475
0.050272301 0.74191451 0.02770932 5586473
0.049975529 0.74165368 0.027710542 5586473
0.049021766 0.74185902 0.027071536 5586473
0.048723772 0.74159712 0.027072757 5520680
0.048425779 0.74133521 0.027073994 5520680
0.048127785 0.74107325 0.027075216 5520680
0.047829792 0.74081135 0.027076453 5586473
0.047531798 0.74054945 0.02707769 5520680
0.054889843 0.74623829 0.028031215 6702638
0.054593086 0.74597746 0.028032437 6702638
0.054296315 0.74571663 0.028033659 6440236
0.053999543 0.7454558 0.028034881 6308650
0.053702787 0.74519497 0.028036118 6177577
0.053406015 0.74493414 0.028037339 6111784
0.05375205 0.74419355 0.028677449 5980198
0.0534565 0.7439338 0.028678671 6111784
0.053160951 0.74367404 0.028679892 6111784
0.052865416 0.74341428 0.028681114 5980198
0.052569881 0.74315453 0.028682321 5389864
0.052274331 0.74289471 0.028683543 4995106
0.051978797 0.74263495 0.028684765 5324073
0.051683247 0.7423752 0.028685987 5455659
0.051387712 0.74211544 0.028687209 5586475
0.051092163 0.74185568 0.028688431 5586475
0.050141558 0.74206489 0.02805081 5586475
0.049844787 0.74180406 0.028052047 5520682
0.048890486 0.74201 0.027414426 5586473
0.048592493 0.74174809 0.027415663 5520680
0.0482945 0.74148619 0.027416885 5520680
0.047996506 0.74122423 0.027418122 5520680
0.047698513 0.74096233 0.027419344 5586473
0.047400519 0.74070042 0.02742058 5520680
0.054759115 0.74638867 0.028372705 6703408
0.054462343 0.74612784 0.028373927 6571822
0.054165572 0.74586701 0.028375149 6440236
0.0538688 0.74560612 0.028376371 6374443
0.053572044 0.74534529 0.028377607 6308650
0.053275272 0.74508446 0.028378829 6177064
0.053621843 0.74434328 0.029017523 6111784
0.053326309 0.74408352 0.029018745 6111784
0.053030759 0.74382377 0.029019967 6111784
0.052735224 0.74356401 0.029021189 6111784
0.052439675 0.74330425 0.029022411 5521704
0.05214414 0.7430445 0.029023632 4995360
0.05184859 0.74278468 0.029024839 5324073
0.051553056 0.74252492 0.029026061 5521452
0.051257506 0.74226516 0.029027283 5521452
0.050961971 0.74200541 0.029028505 5521452
0.050010815 0.74221522 0.0283923 5521452
0.049714044 0.74195439 0.028393522 5521452
0.048759207 0.74216098 0.027757332 5586473
0.048461214 0.74189907 0.027758554 5520680
0.04816322 0.74163711 0.02775979 5520680
0.047865227 0.74137521 0.027761027 5586473
0.047567233 0.74111331 0.027762249 5586473
0.04726924 0.7408514 0.027763486 5520680
0.05526489 0.74605155 0.029350281 6703410
0.054969355 0.74579179 0.029351503 6571824
0.054673806 0.74553204 0.029352725 6374443
0.054378271 0.74527228 0.029353946 6374443
0.054082721 0.74501252 0.029355153 6308650
0.053787187 0.74475276 0.029356375 6242857
0.053491637 0.74449301 0.029357597 6177064
0.053196102 0.74423325 0.029358819 6177064
0.052900553 0.74397349 0.029360041 6111784
0.053252593 0.74323595 0.029997319 6111784
0.05295828 0.74297726 0.029998526 5652520
0.052663967 0.74271858 0.029999748 5191969
0.052369639 0.74245989 0.030000955 5323303
0.052075341 0.74220121 0.030002177 5586475
0.051781014 0.74194252 0.030003384 5652268
0.051486701 0.74168384 0.030004606 5652268
0.05053623 0.74189538 0.029369801 5652268
0.050240681 0.74163562 0.029371023 5652268
0.049945131 0.74137586 0.029372245 5586473
0.049649596 0.74111611 0.029373452 5586473
0.049354061 0.74085635 0.029374674 5520680
0.047733948 0.74152619 0.028103918 5652266
0.047435954 0.74126428 0.028105155 5586473
0.047137961 0.74100238 0.028106377 5520680
0.055134699 0.74620128 0.029690355 6703408
0.054839149 0.74594152 0.029691577 6571822
0.054543614 0.74568176 0.029692799 6440238
0.054248065 0.74542201 0.029694021 6374445
0.05395253 0.74516225 0.029695243 6308652
0.05365698 0.74490249 0.029696465 6242859
0.053361446 0.74464273 0.029697672 6308652
0.053065911 0.74438298 0.029698893 6177066
0.052770361 0.74412322 0.029700115 6111786
0.053122938 0.74338508 0.030335978 6177579
0.052828625 0.74312639 0.0303372 5784106
0.052534297 0.74286771 0.030338407 5191969
0.052239984 0.74260902 0.030339628 5323301
0.051945671 0.74235034 0.030340835 5652266
0.051651359 0.74209166 0.030342057 5652266
0.051357046 0.74183297 0.030343279 5718059
0.050406024 0.7420451 0.029709876 5652266
0.050110489 0.74178535 0.029711097 5652266
0.049814939 0.74152559 0.029712319 5586473
0.049519405 0.74126583 0.029713541 5652266
0.049223855 0.74100608 0.029714763 5586473
0.056230739 0.74637973 0.030661285 6835248
0.055936426 0.74612105 0.030662492 6835248
0.055642113 0.74586236 0.030663714 6638128
0.054708943 0.74609125 0.030031651 6506542
0.054413408 0.74583149 0.030032873 6374956
0.05475916 0.74508631 0.03066735 6309163
0.054464862 0.74482763 0.030668572 6243370
0.054170534 0.74456894 0.030669793 6177577
0.053876221 0.74431026 0.030671 6243372
0.053581908 0.74405158 0.030672222 6111786
0.053287581 0.74379289 0.030673429 6177579
0.052993283 0.74353421 0.030674651 6177579
0.052698955 0.74327552 0.030675858 6046765
0.052404642 0.74301684 0.03067708 5323042
0.052110329 0.74275815 0.030678287 5257508
0.051816016 0.74249947 0.030679509 5652266
0.051521704 0.74224079 0.030680716 5652266
0.051227376 0.7419821 0.030681938 5718059
0.050933063 0.74172342 0.030683145 5652266
0.05063875 0.74146473 0.030684367 5652266
0.050344437 0.74120605 0.030685589 5652266
0.050050125 0.74094737 0.030686796 5652266
0.049755797 0.74068868 0.030688018 5586473
0.049461484 0.74043 0.030689225 5652266
0.056101084 0.7465288 0.030999944 6769455
0.055806771 0.74627012 0.031001166 6769455
0.055512458 0.74601144 0.031002373 6638382
0.054578751 0.74624097 0.030371726 6506796
0.054283217 0.74598122 0.030372947 6440749
0.054629505 0.74523538 0.031006023 6374956
0.054335192 0.7449767 0.03100723 6309165
0.054040879 0.74471802 0.031008452 6243372
0.053746566 0.74445933 0.031009659 6177579
0.053452253 0.74420065 0.031010881 6111786
0.053157926 0.74394196 0.031012103 6177579
0.052863613 0.74368328 0.03101331 6243372
0.0525693 0.74342459 0.031014532 6046511
0.052274987 0.74316591 0.031015739 5388581
0.051980659 0.74290723 0.031016961 5257508
0.051686361 0.74264854 0.031018168 5586473
0.051392034 0.74238986 0.03101939 5652266
0.051097721 0.74213117 0.031020597 5718059
0.050803408 0.74187249 0.031021819 5652266
0.050509095 0.74161381 0.031023026 5652266
0.050214782 0.74135512 0.031024247 5652266
0.049920455 0.74109644 0.031025454 5586473
0.049626142 0.74083775 0.031026676 5652266
0.049331829 0.74057907 0.031027898 5652266
0.055971429 0.74667794 0.031338617 6769455
0.055677116 0.74641925 0.031339824 6769455
0.055382803 0.74616057 0.031341046 6638382
0.05444856 0.7463907 0.030711815 6506796
0.05415301 0.74613094 0.030713022 6440749
0.05449985 0.74538451 0.031344682 6374956
0.054205537 0.74512583 0.031345904 6309163
0.053911224 0.74486715 0.031347111 6243370
0.053616896 0.74460846 0.031348333 6177579
0.053322583 0.74434978 0.031349555 6111786
0.053028271 0.74409109 0.031350762 6177579
0.052733958 0.74383241 0.031351984 6243372
0.052439645 0.74357373 0.031353191 6046765
0.052145317 0.74331504 0.031354412 5520421
0.051851004 0.74305636 0.031355619 5191715
0.051556692 0.74279767 0.031356841 5586473
0.051262379 0.74253899 0.031358048 5652266
0.050968066 0.7422803 0.03135927 5718059
0.050673753 0.74202162 0.031360477 5718059
0.05037944 0.74176294 0.031361699 5652266
0.050085112 0.74150425 0.031362906 5652266
0.0497908 0.74124557 0.031364128 5586473
0.049496487 0.74098688 0.03136535 5652266
0.049202174 0.7407282 0.031366557 5652266
0.055841774 0.74682701 0.031677276 6769455
0.055547446 0.74656832 0.031678498 6769455
0.055253133 0.74630964 0.031679705 6638382
0.05495882 0.74605095 0.031680927 6638382
0.054664508 0.74579227 0.031682134 6440749
0.054370195 0.74553359 0.031683356 6440749
0.054075882 0.7452749 0.031684563 6374956
0.053781554 0.74501622 0.031685784 6243370
0.054133832 0.74427348 0.032315999 6177577
0.053840742 0.74401587 0.032317206 6111784
0.053547651 0.74375826 0.032318428 6177577
0.05325456 0.74350065 0.032319635 6243370
0.052961469 0.74324304 0.032320842 6112558
0.052668378 0.74298543 0.032322049 5652007
0.052375287 0.74272782 0.032323256 5125922
0.052082196 0.7424702 0.032324478 5520680
0.05178912 0.74221265 0.032325685 5652266
0.051496029 0.74195504 0.032326892 5652266
0.051202938 0.74169743 0.032328099 5718059
0.050909847 0.74143982 0.032329306 5652266
0.050616756 0.74118221 0.032330528 5718059
0.049661145 0.74139464 0.031702787 5586473
0.049366832 0.74113595 0.031704009 5652266
0.049072519 0.74087727 0.031705216 5652266
0.055712104 0.74697614 0.032015949 6835246
0.055417791 0.74671745 0.032017156 6835246
0.055123478 0.74645877 0.032018378 6704175
0.054829165 0.74620008 0.0320196 6638382
0.054534838 0.7459414 0.032020807 6440749
0.054240525 0.74568272 0.032022014 6440749
0.053946212 0.74542403 0.032023236 6374956
0.053651899 0.74516535 0.032024458 6243370
0.054004714 0.74442196 0.032653257 6177577
0.053711623 0.74416435 0.032654464 6111784
0.053418532 0.74390674 0.032655686 6111784
0.053125441 0.74364913 0.032656893 6243370
0.05283235 0.74339151 0.0326581 6046763
0.052539259 0.7431339 0.032659307 5652005
0.052246168 0.74287629 0.032660514 5060129
0.051953077 0.74261874 0.032661736 5520680
0.051659986 0.74236113 0.032662943 5586473
0.05136691 0.74210352 0.03266415 5652266
0.051073804 0.74184591 0.032665357 5718059
0.050780728 0.74158829 0.032666564 5718059
0.050487638 0.74133068 0.032667771 5718059
0.055582449 0.74712527 0.032354608 6769453
0.055288136 0.74686658 0.03235583 6769453
0.054993823 0.7466079 0.032357037 6704175
0.054699495 0.74634922 0.032358259 6506796
0.054405183 0.74609053 0.032359466 6506542
0.05411087 0.74583185 0.032360688 6506542
0.053816557 0.74557316 0.032361895 6374956
0.053522244 0.74531448 0.032363117 6243370
0.053875595 0.74457043 0.032990515 6243370
0.053582504 0.74431282 0.032991722 6177577
0.053289413 0.74405527 0.032992929 6243370
0.052996323 0.74379766 0.032994136 6177577
0.052703232 0.74354005 0.032995358 6046763
0.052410141 0.74328244 0.032996565 5717798
0.05211705 0.74302483 0.032997772 5125922
0.051823959 0.74276721 0.032998979 5454887
0.051530868 0.7425096 0.033000186 5455657
0.051237777 0.74225199 0.033001408 5587243
0.050944701 0.74199438 0.033002615 5587497
0.05065161 0.74173677 0.033003822 5587497
0.050358519 0.74147916 0.033005029 5718313
0.055452794 0.74727434 0.032693282 6769453
0.055158466 0.74701566 0.032694489 6769453
0.054864153 0.74675697 0.032695711 6704175
0.05456984 0.74649829 0.032696918 6638382
0.054275528 0.7462396 0.03269814 6506542
0.054625735 0.74549174 0.033324137 6440749
0.054332644 0.74523413 0.033325344 6374956
0.054039553 0.74497652 0.033326551 6243370
0.053746477 0.74471891 0.033327773 6243370
0.053453386 0.7444613 0.03332898 6243370
0.053160295 0.74420375 0.033330187 6243370
0.052867204 0.74394614 0.033331394 6177577
0.052574113 0.74368852 0.033332601 6177577
0.052281022 0.74343091 0.033333823 5980198
0.052643508 0.74269378 0.033959776 5126176
0.052351654 0.74243724 0.033960983 5455141
0.052059785 0.74218076 0.033962175 5521704
0.051767915 0.74192423 0.033963382 5587497
0.050815567 0.74214286 0.033339873 5587497
0.050522491 0.7418853 0.03334108 5587497
0.0502294 0.74162769 0.033342287 5587497
0.055323124 0.74742347 0.03303194 6769455
0.055028811 0.74716479 0.033033162 6769455
0.054734498 0.7469061 0.033034369 6703921
0.054440185 0.74664742 0.033035591 6638128
0.054145858 0.74638873 0.033036798 6506542
0.054496616 0.74564028 0.033661395 6506542
0.054203525 0.74538267 0.033662602 6440749
0.053910449 0.74512506 0.033663809 6309163
0.053617343 0.74486744 0.033665016 6243370
0.053324267 0.74460983 0.033666238 6243370
0.053031176 0.74435222 0.033667445 6243370
0.052738085 0.74409461 0.033668652 6177577
0.052444994 0.743837 0.033669859 6243370
0.052151904 0.74357939 0.033671066 6177577
0.052514926 0.74284166 0.034295619 5126174
0.052223071 0.74258512 0.034296826 5455139
0.051931202 0.74232864 0.034298018 5521704
0.051639348 0.74207211 0.034299225 5587497
0.050686464 0.74229133 0.033677116 5653290
0.050393373 0.74203378 0.033678338 5587497
0.050100282 0.74177617 0.033679545 5587497
0.055193469 0.74757254 0.033370599 6769455
0.054899156 0.74731386 0.033371821 6769455
0.054604843 0.74705517 0.033373043 6703921
0.05431053 0.74679655 0.03337425 6638128
0.054016203 0.7465378 0.033375472 6506542
0.054367498 0.74578875 0.033998653 6506542
0.054074407 0.74553114 0.03399986 6440749
0.053781316 0.74527353 0.034001067 6309163
0.05348824 0.74501592 0.034002274 6243370
0.053195149 0.74475831 0.034003481 6243370
0.052902058 0.7445007 0.034004703 6309163
0.052608967 0.74424309 0.03400591 6243370
0.052315876 0.74398547 0.034007117 6243370
0.052022785 0.74372786 0.034008324 6243370
0.052386358 0.74298954 0.034631461 5257760
0.052094489 0.742733 0.034632653 5455139
0.05180262 0.74247646 0.03463386 5521450
0.051510766 0.74221992 0.034635067 5653036
0.05055733 0.74243987 0.034014374 5653290
0.050264254 0.74218225 0.034015581 5587497
0.049971163 0.74192464 0.034016803 5587497
0.055063814 0.74772167 0.033709273 6769455
0.054769501 0.74746299 0.033710495 6769455
0.054475173 0.7472043 0.033711702 6769201
0.054824561 0.74645245 0.034333482 6769201
0.05453147 0.74619484 0.034334704 6506542
0.054238379 0.74593723 0.034335911 6638128
0.053945288 0.74567962 0.034337118 6440749
0.053652197 0.74542201 0.034338325 6374956
0.053359106 0.74516439 0.034339532 6309163
0.053717092 0.74442005 0.034961283 6243370
0.053425223 0.74416351 0.03496249 6309163
0.053133368 0.74390697 0.034963682 6243370
0.052841499 0.74365044 0.034964889 6243370
0.05254963 0.7433939 0.034966096 6309163
0.052257776 0.74313742 0.034967303 5192739
0.051965907 0.74288088 0.03496851 5192739
0.051674053 0.74262434 0.034969717 5587243
0.051382184 0.7423678 0.034970924 5653036
0.051090315 0.74211133 0.034972116 5653290
0.050798461 0.74185479 0.034973323 5653290
0.050506592 0.74159825 0.03497453 5587497
0.050214738 0.74134171 0.034975737 5521704
0.049922869 0.74108517 0.034976944 5521704
0.049631014 0.74082863 0.034978151 5521704
0.054934159 0.7478708 0.034047946 6966064
0.054639831 0.74761212 0.034049153 6900271
0.054345518 0.74735343 0.03405036 6834994
0.054695442 0.74660093 0.03467074 6769201
0.054402351 0.74634331 0.034671947 6571822
0.05410926 0.7460857 0.034673154 6703408
0.05381617 0.74582809 0.034674376 6440749
0.053523079 0.74557048 0.034675583 6374956
0.053229988 0.74531287 0.03467679 6243370
0.05358851 0.74456793 0.035297126 6243370
0.053296641 0.74431139 0.035298333 6243370
0.053004786 0.74405485 0.035299525 6243370
0.052712917 0.74379832 0.035300732 6243370
0.052421048 0.74354178 0.035301939 6309163
0.052129194 0.7432853 0.035303146 5390118
0.05183734 0.74302876 0.035304353 5192739
0.051545471 0.74277222 0.03530556 5521450
0.051253602 0.74251568 0.035306767 5653036
0.050961748 0.74225914 0.035307959 5653290
0.050669879 0.74200261 0.035309166 5653290
0.05037801 0.74174607 0.035310373 5784106
0.050086156 0.74148959 0.03531158 5652520
0.049794286 0.74123305 0.035312787 5652520
0.049502432 0.74097651 0.035313994 5652520
0.054804489 0.74801993 0.034386605 7031603
0.054510176 0.74776125 0.034387827 6965810
0.054215863 0.74750257 0.034389034 7031857
0.054566309 0.7467494 0.035007998 6966064
0.054273233 0.74649179 0.035009205 6703408
0.053980142 0.74623418 0.035010412 6703408
0.053687051 0.74597657 0.035011619 6440749
0.05339396 0.74571896 0.035012826 6374956
0.053100869 0.7454614 0.035014048 6309163
0.053459927 0.74471581 0.035632968 6243370
0.053168073 0.74445927 0.035634175 6243370
0.052876204 0.74420273 0.035635367 6243370
0.052584335 0.74394619 0.035636574 6243370
0.052292481 0.74368966 0.035637781 6309163
0.052000612 0.74343312 0.035638988 5586473
0.051708758 0.74317658 0.035640195 5323301
0.051416889 0.7429201 0.035641402 5521450
0.051125035 0.74266356 0.035642609 5653036
0.050833166 0.74240702 0.035643801 5784106
0.050541297 0.74215049 0.035645008 5784106
0.050249442 0.74189395 0.035646215 5784106
0.049957573 0.74163747 0.035647422 5718313
0.049665704 0.74138093 0.035648629 5718313
0.04937385 0.74112439 0.035649836 5718313
0.054674834 0.748169 0.034725264 6965810
0.054380521 0.74791032 0.034726486 7031603
0.054086193 0.74765164 0.034727708 7031603
0.054437205 0.74689788 0.035345241 6965810
0.054144114 0.74664032 0.035346463 6506542
0.053851023 0.74638271 0.03534767 6638128
0.054206938 0.74563324 0.035965189 6506542
0.053915069 0.74537671 0.035966396 6309163
0.053623214 0.74512017 0.035967603 6243370
0.05333136 0.74486363 0.03596881 6243370
0.053039491 0.74460709 0.035970017 6243372
0.052747622 0.74435061 0.035971209 6243372
0.053112105 0.74360871 0.036588714 6243372
0.052821457 0.74335325 0.036589906 6309165
0.052530825 0.74309778 0.036591098 5718059
0.052240193 0.74284238 0.036592305 5257508
0.051949546 0.74258691 0.036593512 5455657
0.051658913 0.74233145 0.036594704 5653036
0.051368281 0.74207598 0.036595896 5915692
0.051077649 0.74182057 0.036597103 5784106
0.050787002 0.74156511 0.03659831 5784106
0.05049637 0.74130964 0.036599502 5718313
0.050205737 0.74105418 0.036600709 5718313
0.04991509 0.74079877 0.036601901 5718313
0.054308072 0.74704635 0.035682499 6965810
0.054014996 0.7467888 0.035683706 6571822
0.053721905 0.74653119 0.035684928 6769201
0.054078355 0.74578112 0.036301032 6440749
0.053786501 0.74552459 0.036302239 6374956
0.053494632 0.74526805 0.036303446 6309163
0.053202778 0.74501151 0.036304653 6309163
0.052910909 0.74475497 0.03630586 6243372
0.052619055 0.74449849 0.036307067 6243372
0.052984059 0.74375594 0.03692314 6112556
0.052693427 0.74350047 0.036924332 6178349
0.052402779 0.74324507 0.036925539 5915438
0.052112147 0.7429896 0.036926731 5191715
0.051821515 0.74273413 0.036927938 5455657
0.051530883 0.74247873 0.036929131 5653036
0.051240236 0.74222326 0.036930338 5784876
0.050949603 0.7419678 0.03693153 5653290
0.050658971 0.74171233 0.036932737 5784106
0.050368324 0.74145693 0.036933944 5718313
0.050077692 0.74120146 0.036935136 5718313
0.049787059 0.74094599 0.036936328 5784106
0.054178968 0.74719489 0.036019757 6965810
0.053885877 0.74693727 0.036020964 6703408
0.053592786 0.74667966 0.036022171 6769201
0.053949788 0.74592894 0.036636874 6440749
0.053657919 0.74567246 0.036638081 6374956
0.05336605 0.74541593 0.036639288 6309163
0.053074196 0.74515939 0.036640495 6309163
0.052782327 0.74490285 0.036641702 6243372
0.052490473 0.74464631 0.036642909 6243372
0.052856013 0.74390322 0.037257567 6112556
0.052565381 0.74364775 0.037258774 6178349
0.052274749 0.74339229 0.037259966 5981231
0.051984116 0.74313682 0.037261173 5257508
0.051693469 0.74288142 0.037262365 5455657
0.051402837 0.74262595 0.037263572 5587243
0.051112205 0.74237049 0.037264764 5915692
0.050821558 0.74211502 0.037265971 5915692
0.050530925 0.74185961 0.037267163 5915692
0.050240293 0.74160415 0.03726837 5718313
0.049949661 0.74134868 0.037269562 5718313
0.049659014 0.74109328 0.037270769 5784106
0.055572376 0.74761599 0.036965504 7097396
0.055280522 0.74735945 0.036966696 7031603
0.054988652 0.74710298 0.036967903 6965810
0.054696783 0.74684644 0.03696911 6965810
0.054404929 0.7465899 0.036970317 6834224
0.05411306 0.74633336 0.036971524 6900017
0.054471806 0.74558318 0.037584811 6506029
0.054181173 0.74532771 0.037586004 6440236
0.053890526 0.74507225 0.037587211 6309163
0.053599894 0.74481678 0.037588403 6309163
0.053309247 0.74456131 0.03758961 6309163
0.053018615 0.74430591 0.037590802 6243370
0.052727982 0.74405044 0.037592009 6112556
0.05243735 0.74379498 0.037593201 6178349
0.052146703 0.74353957 0.037594408 6046511
0.051856071 0.74328411 0.0375956 5322788
0.051565424 0.74302864 0.037596807 5586473
0.051274791 0.74277318 0.037597999 5718059
0.050984159 0.74251771 0.037599206 5915692
0.050693527 0.7422623 0.037600398 5915692
0.050402895 0.74200684 0.037601605 5915692
0.050112247 0.74175137 0.037602797 5718313
0.049821615 0.74149597 0.037604004 5718313
0.049530983 0.7412405 0.037605196 5784106
0.055443808 0.74776387 0.037301347 7097396
0.055151939 0.74750733 0.037302539 7031603
0.05486007 0.7472508 0.037303746 6965810
0.054568216 0.74699426 0.037304953 6965810
0.054276347 0.74673778 0.03730616 6834224
0.053984478 0.74648124 0.037307367 6900017
0.05434376 0.7457304 0.037919238 6571822
0.054053128 0.74547493 0.03792043 6440236
0.053762481 0.74521947 0.037921637 6309163
0.053471848 0.74496406 0.037922844 6309163
0.053181216 0.7447086 0.037924036 6309163
0.052890584 0.74445313 0.037925243 6243370
0.052599937 0.74419773 0.037926435 6309163
0.052309304 0.74394226 0.037927642 6309163
0.052018672 0.7436868 0.037928835 6046765
0.051728025 0.74343133 0.037930042 5388835
0.051437393 0.74317586 0.037931234 5585960
0.051146761 0.74292046 0.037932441 5783339
0.050856128 0.74266499 0.037933633 5980972
0.050565481 0.74240953 0.03793484 6046765
0.050274849 0.74215412 0.037936032 5915692
0.049984217 0.74189866 0.037937239 5784106
0.04969357 0.74164319 0.037938431 5718313
0.049402937 0.74138772 0.037939638 5784106
0.055315226 0.74791175 0.037637189 7097396
0.055023357 0.74765521 0.037638381 7031603
0.054731503 0.74739867 0.037639588 6965810
0.054439634 0.74714214 0.037640795 6900017
0.054147765 0.74688566 0.037642002 6965810
0.053855911 0.74662912 0.037643209 6965810
0.054215714 0.74587762 0.038253665 6702638
0.053925082 0.74562216 0.038254872 6636845
0.05363445 0.74536675 0.038256064 6374443
0.053343818 0.74511129 0.038257271 6308650
0.05305317 0.74485582 0.038258478 6309163
0.052762538 0.74460042 0.03825967 6309163
0.052471906 0.74434495 0.038260862 6309163
0.052181259 0.74408948 0.038262069 6309163
0.051890627 0.74383402 0.038263276 6046765
0.051599994 0.74357855 0.038264468 5520421
0.051309362 0.74332315 0.03826566 5585960
0.05101873 0.74306768 0.038266867 5783339
0.050728083 0.74281222 0.038268074 5980972
0.05043745 0.74255681 0.038269266 6046765
0.050146803 0.74230134 0.038270473 5980972
0.049856171 0.74204588 0.038271666 5849386
0.049565539 0.74179041 0.038272873 5783593
0.049274907 0.74153501 0.038274065 5849386
0.055831507 0.74755758 0.038580909 7097396
0.055540875 0.74730211 0.038582101 7031603
0.055250227 0.74704671 0.038583308 6965810
0.055608168 0.74629241 0.039192364 7031603
0.055318758 0.74603808 0.039193556 6965810
0.055029348 0.74578369 0.039194763 6965810
0.054739937 0.74552929 0.039195955 6703408
0.054450527 0.74527496 0.039197147 6571822
0.054161116 0.74502057 0.039198339 6374443
0.053871706 0.74476618 0.039199531 6374443
0.053582296 0.74451184 0.039200738 6309163
0.053292885 0.74425745 0.03920193 6309163
0.053003475 0.74400306 0.039203122 6309165
0.052714065 0.74374872 0.039204314 6374958
0.052424654 0.74349433 0.039205506 6243374
0.052135244 0.74323994 0.039206699 5717030
0.051845834 0.74298561 0.039207891 5520167
0.051556423 0.74273121 0.039209098 5783339
0.051267013 0.74247682 0.03921029 5980972
0.050977603 0.74222249 0.039211482 6046765
0.050688192 0.7419681 0.039212674 5980972
0.050398782 0.7417137 0.039213866 5849386
0.050109372 0.74145937 0.039215073 5783593
0.049819961 0.74120498 0.039216265 5849386
0.055703461 0.74770486 0.038915336 7097396
0.055412829 0.7474494 0.038916543 7031603
0.055122197 0.74719393 0.038917735 7031857
0.055480674 0.74643904 0.03952539 7031857
0.055191264 0.74618471 0.039526582 6966064
0.054901853 0.74593031 0.039527774 6966064
0.054612443 0.74567592 0.039528981 6703408
0.054323032 0.74542153 0.039530173 6769201
0.054033622 0.7451672 0.039531365 6440236
0.053744212 0.7449128 0.039532557 6374443
0.053454801 0.74465847 0.039533749 6440236
0.053165391 0.74440408 0.039534941 6440236
0.052875981 0.74414968 0.039536148 6374958
0.05258657 0.74389529 0.03953734 6374958
0.05229716 0.74364096 0.039538532 6243120
0.05200775 0.74338657 0.039539725 5848362
0.051718339 0.74313223 0.039540917 5520169
0.051428929 0.74287784 0.039542124 5783341
0.051139519 0.74262345 0.039543316 5980972
0.050850108 0.74236906 0.039544508 6046765
0.050560698 0.74211472 0.0395457 5980972
0.050271288 0.74186033 0.039546892 5849386
0.049981877 0.741606 0.039548084 5783593
0.049692467 0.7413516 0.039549276 5783593
0.05557543 0.74785209 0.039249763 7097396
0.055284783 0.74759662 0.03925097 7031603
0.054994151 0.74734116 0.039252177 7031857
0.055353165 0.74658567 0.039858416 7031857
0.055063754 0.74633133 0.039859608 6901041
0.054774344 0.74607694 0.0398608 6835248
0.054484934 0.74582255 0.039861992 6769201
0.054195523 0.74556816 0.039863184 6769201
0.053906113 0.74531382 0.039864391 6506031
0.053616703 0.74505943 0.039865583 6440238
0.053327292 0.7448051 0.039866775 6440238
0.053037882 0.7445507 0.039867967 6440238
0.052748471 0.74429631 0.039869159 6374958
0.052459061 0.74404192 0.039870366 6374958
0.052169651 0.74378759 0.039871559 6178351
0.05188024 0.74353319 0.039872751 5783593
0.05159083 0.74327886 0.039873943 5520169
0.05130142 0.74302447 0.039875135 5783341
0.051012009 0.74277008 0.039876327 5980972
0.050722599 0.74251568 0.039877519 6046765
0.050433189 0.74226135 0.039878726 5980972
0.050143778 0.74200696 0.039879918 5849386
0.049854368 0.74175262 0.03988111 5783593
0.049564958 0.74149823 0.039882302 5783593
0.056093901 0.74749541 0.040187851 7097396
0.055804491 0.74724102 0.040189043 7031603
0.055515081 0.74698669 0.040190235 7097650
0.05522567 0.74673229 0.040191427 7031857
0.05493626 0.74647796 0.040192634 6901041
0.05464685 0.74622357 0.040193826 6835248
0.054357439 0.74596918 0.040195018 6769201
0.054068029 0.74571478 0.04019621 6769201
0.053778619 0.74546045 0.040197402 6571824
0.054146752 0.74471188 0.040802211 6440238
0.053858563 0.74445856 0.040803403 6440238
0.053570375 0.7442053 0.04080458 6440238
0.053282186 0.74395198 0.040805772 6374958
0.052993998 0.74369872 0.040806964 6374958
0.052705824 0.7434454 0.040808156 6309167
0.052417636 0.74319208 0.040809348 6111788
0.052129462 0.74293882 0.04081054 5520167
0.051841274 0.7426855 0.040811732 5783339
0.051553085 0.74243224 0.04081291 6046765
0.050595105 0.74266231 0.040210545 5980972
0.050305694 0.74240798 0.040211737 5980972
0.050016284 0.74215358 0.040212944 5849386
0.049726874 0.74189925 0.040214136 5783593
0.049437463 0.74164486 0.040215328 5783593
0.049148053 0.74139047 0.04021652 5849386
0.048858643 0.74113607 0.040217713 5783593
0.048569232 0.74088174 0.040218905 5783593
0.055966392 0.74764204 0.040520877 7097396
0.055676982 0.74738765 0.040522069 6965810
0.055387586 0.74713331 0.040523261 7097650
0.055098161 0.74687892 0.040524453 7031857
0.054808751 0.74662453 0.040525645 6835248
0.054519355 0.7463702 0.040526852 6835248
0.054229945 0.7461158 0.040528044 6769201
0.05394052 0.74586141 0.040529236 6769201
0.053651124 0.74560708 0.040530428 6571824
0.054019779 0.74485791 0.041133821 6506031
0.053731605 0.74460459 0.041135013 6440238
0.053443417 0.74435127 0.041136205 6440238
0.053155228 0.74409801 0.041137382 6374958
0.05286704 0.74384469 0.041138574 6374958
0.052578866 0.74359143 0.041139767 6374958
0.052290678 0.74333811 0.041140959 6111786
0.05200249 0.74308479 0.041142151 5520167
0.051714316 0.74283153 0.041143343 5783339
0.051426128 0.74257821 0.041144535 5980972
0.050467595 0.74280894 0.040543571 5980972
0.0501782 0.74255461 0.040544763 5980972
0.04988879 0.74230021 0.040545955 5980972
0.049599364 0.74204588 0.040547147 5849386
0.049309969 0.74179149 0.040548354 5849386
0.049020559 0.74153709 0.040549546 5849386
0.048731148 0.7412827 0.040550739 5783593
0.048441738 0.74102837 0.040551931 5783593
0.055838898 0.74778867 0.040853888 6966580
0.055549487 0.74753428 0.04085508 6966580
0.055260077 0.74727994 0.040856287 6966580
0.055621937 0.74652362 0.041458294 6834994
0.055333748 0.74627036 0.041459486 6900787
0.05504556 0.74601704 0.041460678 6834994
0.054757372 0.74576378 0.04146187 6769203
0.054469198 0.74551046 0.041463047 6769203
0.05418101 0.7452572 0.041464239 6571824
0.053892821 0.74500388 0.041465431 6506031
0.053604648 0.74475062 0.041466624 6440238
0.053316459 0.7444973 0.041467816 6440238
0.053690583 0.74375176 0.042069763 6374958
0.053403631 0.74349958 0.04207094 6374958
0.053116664 0.74324733 0.042072132 6374958
0.052829713 0.74299514 0.042073309 6111786
0.052542746 0.7427429 0.042074502 5586214
0.052255794 0.74249071 0.042075679 5783593
0.051968843 0.74223846 0.042076871 5915692
0.051010981 0.74247092 0.041477323 5915692
0.050722808 0.74221766 0.041478515 5915692
0.050434619 0.74196434 0.041479707 5915692
0.050146431 0.74171102 0.041480899 5980972
0.049858257 0.74145776 0.041482091 5849386
0.048893049 0.74168372 0.040882558 5849386
0.048603639 0.74142933 0.040883765 5849386
0.048314229 0.741175 0.040884957 5783593
0.048024818 0.7409206 0.040886149 5849386
0.047735408 0.74066627 0.040887341 5783593
0.047445998 0.74041188 0.040888533 5783593
0.055711403 0.7479353 0.041186914 7097396
0.055421993 0.7476809 0.041188106 7097396
0.055132583 0.74742657 0.041189298 7163189
0.055494979 0.74666965 0.041789904 7031603
0.055206791 0.74641633 0.041791096 7031603
0.054918602 0.74616307 0.041792288 6965810
0.054630414 0.74590975 0.041793481 6769201
0.05434224 0.74565649 0.041794658 6769201
0.054054052 0.74540317 0.04179585 6571822
0.053765863 0.74514985 0.041797042 6506029
0.05347769 0.74489659 0.041798234 6440236
0.053189501 0.74464333 0.041799426 6440236
0.053564161 0.74389714 0.042399958 6374958
0.053277209 0.74364495 0.04240115 6309165
0.052990243 0.74339271 0.042402327 6244142
0.052703291 0.74314052 0.042403519 6046763
0.05241634 0.74288833 0.042404696 5586214
0.052129373 0.74263608 0.042405888 5717800
0.051842421 0.74238384 0.042407066 5915692
0.050884023 0.74261695 0.041808933 5915692
0.050595835 0.74236363 0.041810125 5915692
0.050307661 0.74211037 0.041811317 5981485
0.050019473 0.74185705 0.041812509 5915692
0.049731299 0.74160373 0.041813701 5784106
0.048765555 0.74183035 0.041215584 5980972
0.048476145 0.74157596 0.041216776 5849386
0.048186734 0.74132162 0.041217968 5783593
0.047897324 0.74106723 0.041219175 5849386
0.047607914 0.74081284 0.041220367 5849386
0.047318503 0.74055851 0.041221559 5783593
0.055583909 0.74808192 0.04151994 7097396
0.055294499 0.74782753 0.041521132 7163189
0.055005088 0.74757314 0.041522324 7163189
0.055368006 0.74681568 0.042121515 7097396
0.055079833 0.74656236 0.042122707 7031603
0.054791644 0.74630904 0.042123899 6965810
0.054503456 0.74605578 0.042125091 6769201
0.054215282 0.74580246 0.042126268 6769201
0.053927094 0.7455492 0.04212746 6703408
0.053638905 0.74529588 0.042128652 6571822
0.053350732 0.74504256 0.042129844 6440236
0.053062543 0.7447893 0.042131037 6440236
0.053437755 0.74404252 0.042730168 6374958
0.053150788 0.74379033 0.042731345 6374958
0.052863821 0.74353814 0.042732522 6244142
0.05257687 0.74328589 0.042733714 6046763
0.052289918 0.74303365 0.042734906 5520934
0.052002952 0.74278146 0.042736083 5652520
0.051716 0.74252927 0.04273726 5653290
0.050757065 0.74276292 0.042140543 5784876
0.050468877 0.74250966 0.042141736 5784876
0.050180703 0.74225634 0.042142928 5784876
0.049892515 0.74200308 0.04214412 5981485
0.049604341 0.74174976 0.042145312 5784106
0.048638061 0.74197698 0.04154861 6046765
0.04834865 0.74172258 0.041549802 5980972
0.04805924 0.74146825 0.041550994 5783593
0.04776983 0.74121386 0.041552201 5849386
0.047480419 0.74095947 0.041553393 5849386
0.047191009 0.74070513 0.041554585 5849386
0.056105599 0.74772155 0.042449549 7294775
0.055817425 0.74746823 0.042450741 7163189
0.055529237 0.74721497 0.042451933 7163189
0.055241048 0.74696165 0.042453125 7097396
0.054952875 0.74670839 0.042454317 7097396
0.054664686 0.74645507 0.042455509 7031603
0.055033073 0.74570125 0.043053254 6834994
0.054746121 0.74544901 0.043054432 6769201
0.054459155 0.74519682 0.043055624 6571822
0.054172203 0.74494457 0.043056801 6571822
0.053885236 0.74469239 0.043057993 6440236
0.053598285 0.74444014 0.04305917 6440236
0.053975239 0.74369383 0.043656901 6374445
0.05368951 0.74344271 0.043658078 6440238
0.05340378 0.7431916 0.043659255 6374958
0.05311805 0.74294043 0.043660432 6243372
0.052163497 0.74317908 0.043065101 5586727
0.05187653 0.74292684 0.043066278 5586727
0.051589578 0.74267465 0.04306747 5653036
0.051302627 0.7424224 0.043068647 5784622
0.05101566 0.74217021 0.043069839 5784876
0.050728709 0.74191797 0.043071017 5850669
0.050441757 0.74166578 0.043072209 5981485
0.05015479 0.74141353 0.043073386 5784106
0.049867839 0.74116135 0.043074578 5980972
0.048901007 0.74138916 0.042479292 5980972
0.048612818 0.7411359 0.042480484 5783593
0.047642335 0.74136049 0.041885212 5849386
0.047352925 0.74110609 0.041886404 5849386
0.047063515 0.74085176 0.041887596 5849386
0.046774104 0.74059737 0.041888788 5783593
0.046484694 0.74034297 0.041889995 5783593
0.046195284 0.74008864 0.041891187 5717800
0.055978641 0.74786752 0.042781159 7163443
0.055690467 0.74761426 0.042782351 7163443
0.055402279 0.74736094 0.042783543 7163443
0.05511409 0.74710768 0.042784736 7163443
0.054825917 0.74685436 0.042785928 7097396
0.054537728 0.7466011 0.04278712 7031603
0.054906651 0.74584663 0.043383449 6834994
0.0546197 0.74559438 0.043384641 6703408
0.054332748 0.7453422 0.043385819 6571822
0.054045781 0.74508995 0.043387011 6571822
0.05375883 0.74483776 0.043388188 6440236
0.053471863 0.74458551 0.04338938 6374443
0.053849369 0.74383861 0.04398568 6374443
0.05356364 0.74358749 0.043986872 6440236
0.053277895 0.74333632 0.043988049 6374958
0.052992165 0.74308521 0.043989226 6243372
0.052037075 0.74332446 0.043395296 5717546
0.051750124 0.74307221 0.043396488 5585960
0.051463172 0.74282002 0.043397665 5653038
0.051176205 0.74256778 0.043398857 5850417
0.050889254 0.74231559 0.043400034 5784876
0.050602287 0.74206334 0.043401226 5850669
0.050315335 0.74181116 0.043402404 5850669
0.050028369 0.74155891 0.043403596 5653290
0.049741417 0.74130672 0.043404773 5915692
0.048774049 0.74153519 0.042810902 5784106
0.04848586 0.74128187 0.042812094 5718313
0.047514826 0.74150711 0.042218238 5784106
0.047225416 0.74125272 0.04221943 5784106
0.046936005 0.74099839 0.042220622 5784106
0.046646595 0.74074399 0.042221814 5718313
0.046357185 0.7404896 0.042223021 5718313
0.046067774 0.74023521 0.042224213 5718313
0.055851683 0.74801356 0.04311277 7163443
0.055563509 0.74776024 0.043113962 7163443
0.055275321 0.74750698 0.043115154 7163443
0.054987133 0.74725366 0.043116346 7163443
0.054698959 0.74700034 0.043117538 6966580
0.054410771 0.74674708 0.04311873 6900787
0.05478023 0.745992 0.043713644 6900787
0.054493278 0.74573976 0.043714836 6769201
0.054206327 0.74548757 0.043716028 6571822
0.05391936 0.74523532 0.043717206 6571822
0.053632408 0.74498314 0.043718383 6440236
0.053345457 0.74473089 0.043719575 6374443
0.053723484 0.74398339 0.044314474 6374443
0.053437755 0.74373221 0.044315651 6440236
0.053152025 0.7434811 0.044316828 6374958
0.052866295 0.74322999 0.044318005 6309165
0.051910654 0.74346983 0.043725491 5849132
0.051623702 0.74321759 0.043726683 5585960
0.05133675 0.7429654 0.04372786 5653038
0.051049784 0.74271315 0.043729052 5850417
0.050762832 0.74246097 0.043730229 5784876
0.050475881 0.74220872 0.043731421 5850669
0.050188914 0.74195653 0.043732598 5850669
0.049901962 0.74170429 0.043733791 5784876
0.049614996 0.7414521 0.043734968 5915692
0.048647091 0.74168116 0.043142512 5915692
0.048358902 0.7414279 0.043143705 5784106
0.047387332 0.74165374 0.042551249 5784106
0.047097921 0.74139935 0.042552456 5784106
0.046808511 0.74114501 0.042553648 5784106
0.046519101 0.74089062 0.04255484 5718313
0.04622969 0.74063623 0.042556033 5718313
0.04594028 0.74038184 0.042557225 5718313
0.055724725 0.74815953 0.04344438 7163443
0.055436552 0.74790627 0.043445572 7163443
0.055148363 0.74765295 0.043446764 7163443
0.055514693 0.746894 0.044040293 7295029
0.055227742 0.74664181 0.044041485 6966580
0.054940775 0.74638957 0.044042662 6900787
0.055311993 0.74563497 0.04463619 6900789
0.055026263 0.74538386 0.044637367 6834996
0.054740533 0.74513268 0.044638544 6703410
0.054454803 0.74488157 0.044639722 6571824
0.054169074 0.74463046 0.044640899 6440238
0.053883344 0.74437928 0.044642076 6440238
0.053597614 0.74412817 0.044643268 6374445
0.05331187 0.74387699 0.044644445 6440238
0.05302614 0.74362588 0.044645622 6374958
0.05274041 0.74337471 0.0446468 6309165
0.05245468 0.74312359 0.044647977 5980718
0.05216895 0.74287248 0.044649154 5585960
0.051883221 0.7426213 0.044650331 5653038
0.051597491 0.74237019 0.044651523 5850417
0.051311761 0.74211901 0.0446527 5784876
0.051026031 0.7418679 0.044653878 5850669
0.050062492 0.74210191 0.044062808 5850669
0.049775541 0.74184966 0.044063985 5784876
0.049488589 0.74159747 0.044065177 5915692
0.049201623 0.74134529 0.044066355 5915692
0.048914671 0.74109304 0.044067547 5915692
0.047943771 0.74132061 0.043476507 5784106
0.047655582 0.74106729 0.043477699 5784106
0.047367394 0.74081397 0.043478891 5784106
0.046391606 0.74103725 0.042887866 5718313
0.046102196 0.74078286 0.042889059 5718313
0.045812786 0.74052846 0.042890251 5718313
0.045523375 0.74027413 0.042891443 5718313
0.045233965 0.74001974 0.042892635 5652520
0.044944555 0.73976541 0.042893842 5652520
0.055597767 0.74830556 0.043775991 7032627
0.055309594 0.74805224 0.043777183 7032627
0.055021405 0.74779898 0.043778375 7032627
0.055388272 0.74703944 0.044370502 7164213
0.05510132 0.74678719 0.044371679 6966580
0.054814354 0.74653494 0.044372872 6900787
0.055186123 0.74577975 0.044964969 6900789
0.054900393 0.74552858 0.044966146 6834996
0.054614648 0.74527746 0.044967338 6703923
0.054328918 0.74502635 0.044968516 6506544
0.054043189 0.74477518 0.044969693 6506031
0.053757459 0.74452406 0.04497087 6440238
0.053471729 0.74427289 0.044972047 6440238
0.053185999 0.74402177 0.044973224 6506031
0.05290027 0.7437706 0.044974402 6374958
0.05261454 0.74351948 0.044975594 6309165
0.05232881 0.74326837 0.044976771 5980972
0.052043065 0.7430172 0.044977948 5586214
0.051757351 0.74276608 0.044979125 5718059
0.051471606 0.74251491 0.044980302 5981231
0.051185876 0.74226379 0.04498148 5850669
0.050900146 0.74201268 0.044982672 5850669
0.049936071 0.74224728 0.044393003 5850669
0.049649119 0.7419951 0.04439418 5784876
0.049362168 0.74174285 0.044395372 5915692
0.049075201 0.7414906 0.044396564 5915692
0.048788249 0.74123842 0.044397742 5980972
0.047816813 0.74146658 0.043808118 5849386
0.047528625 0.74121332 0.04380931 5784106
0.047240436 0.74096 0.043810502 5915692
0.046264097 0.74118388 0.043220878 5718313
0.045974687 0.74092948 0.043222085 5718313
0.045685276 0.74067509 0.043223277 5784106
0.045395866 0.74042076 0.043224469 5718313
0.045106456 0.74016637 0.043225661 5652520
0.044817045 0.73991203 0.043226853 5652520
0.055470809 0.74845159 0.044107601 7032627
0.055182636 0.74819827 0.044108793 7032627
0.054894447 0.74794495 0.044109985 7164213
0.05526185 0.74718475 0.044700697 7164213
0.054974899 0.74693257 0.044701874 7032373
0.054687932 0.74668038 0.044703066 6900787
0.055060238 0.74592447 0.045293763 6835509
0.054774508 0.74567336 0.04529494 6769716
0.054488778 0.74542224 0.045296118 6703923
0.054203048 0.74517107 0.045297295 6638130
0.053917319 0.74491996 0.045298472 6506031
0.053631589 0.74466884 0.045299664 6440238
0.053345859 0.74441767 0.045300841 6440238
0.053060129 0.74416649 0.045302019 6506031
0.052774385 0.74391538 0.045303196 6374958
0.052488655 0.74366426 0.045304373 6374958
0.052202925 0.74341309 0.04530555 6112558
0.051917195 0.74316198 0.045306742 5652007
0.051631466 0.74291086 0.045307919 5718313
0.051345736 0.74265969 0.045309097 6047278
0.051060006 0.74240857 0.045310274 5850415
0.050774276 0.7421574 0.045311451 5916208
0.049809664 0.74239266 0.044723198 6047278
0.049522713 0.74214047 0.04472439 5915692
0.049235746 0.74188823 0.044725567 5915692
0.048948795 0.74163604 0.044726759 5915692
0.048661828 0.74138379 0.044727936 5980972
0.047689855 0.74161261 0.044139728 5849386
0.047401667 0.74135929 0.04414092 5849386
0.047113478 0.74110603 0.044142112 5849386
0.046136603 0.7413305 0.043553904 5718313
0.045847192 0.74107611 0.043555096 5718313
0.045557782 0.74082172 0.043556288 5784106
0.045268372 0.74056739 0.04355748 5784106
0.044978961 0.74031299 0.043558687 5718313
0.044689551 0.7400586 0.043559879 5718313
0.055343851 0.74859756 0.044439211 7032627
0.055055678 0.7483443 0.044440404 7032627
0.054767489 0.74809098 0.044441596 7230006
0.055135444 0.74733019 0.045030892 7164213
0.055505827 0.74657154 0.045620188 7032373
0.055220097 0.74632037 0.045621365 6900787
0.054934368 0.74606925 0.045622543 6835507
0.055309668 0.74531496 0.046211824 6769714
0.055025175 0.74506485 0.046212986 6703921
0.054740667 0.74481481 0.046214163 6638128
0.054456159 0.74456477 0.04621534 6440749
0.054171652 0.74431467 0.046216518 6374956
0.053887144 0.74406463 0.046217695 6440236
0.053602636 0.74381459 0.046218857 6506029
0.053318143 0.74356449 0.046220034 6374956
0.053033635 0.74331445 0.046221212 6309163
0.052749127 0.7430644 0.046222389 6112556
0.052464619 0.7428143 0.046223566 5652005
0.052180111 0.74256426 0.046224743 5718313
0.051895618 0.74231422 0.046225905 5981485
0.051611111 0.74206412 0.046227083 5850669
0.051326603 0.74181408 0.04622826 5916462
0.050362661 0.74205101 0.045641422 6047278
0.050076932 0.74179989 0.045642599 5981485
0.049791202 0.74154878 0.045643777 5915692
0.049505472 0.7412976 0.045644954 5915692
0.049219742 0.74104649 0.045646146 5915692
0.048933998 0.74079537 0.045647323 5784106
0.047961503 0.74102473 0.045060501 5784106
0.047674537 0.74077255 0.045061693 5784106
0.046698332 0.74099874 0.0444749 5784106
0.046410158 0.74074543 0.044476092 5784106
0.04612197 0.74049211 0.044477284 5784106
0.045833781 0.74023885 0.044478476 5784106
0.045545608 0.73998553 0.044479668 5784106
0.045257419 0.73973227 0.044480845 5718313
0.055379942 0.74671632 0.045948982 7032373
0.055094212 0.74646515 0.045950159 6966580
0.054808483 0.74621403 0.045951337 6966580
