# .PCD v0.7 - Point Cloud Data file format
VERSION 0.7
FIELDS x y z rgb
SIZE 4 4 4 4
TYPE F F F U
COUNT 1 1 1 1
WIDTH 1120
HEIGHT 1
VIEWPOINT 0 0 0 1 0 0 0
POINTS 1120
DATA ascii
0.044139281 0.74173868 0.019246906 5257508
0.043785796 0.74154121 0.019247636 5191715
0.04343231 0.74134374 0.019248366 5191715
0.043078825 0.74114627 0.019249082 5191715
0.042725325 0.7409488 0.019249812 5191715
0.041842774 0.74133933 0.018589169 5125922
0.041487858 0.74114108 0.018589884 5191715
0.041132957 0.74094284 0.018590614 4995106
0.040244699 0.74133021 0.017929971 4995106
0.039888367 0.74113113 0.017930716 4929313
0.055035695 0.74540663 0.021557182 5717798
0.054686487 0.74521154 0.021557897 5717798
0.054337278 0.74501646 0.021558613 5652005
0.053988069 0.74482143 0.021559328 5652005
0.053638861 0.74462628 0.021560043 5520934
0.053289652 0.74443126 0.021560773 5455141
0.052940443 0.74423617 0.021561489 4730912
0.052591234 0.74404109 0.021562204 4994084
0.052242018 0.743846 0.021562919 5323303
0.05189281 0.74365091 0.021563634 5454889
0.051543601 0.74345583 0.02156435 5454887
0.051194392 0.74326074 0.021565065 5454887
0.050845183 0.74306566 0.02156578 5520167
0.050495967 0.74287057 0.02156651 5520167
0.050146759 0.74267554 0.021567225 5520167
0.049292311 0.74308276 0.020907909 5585960
0.048941672 0.74288684 0.020908624 5520167
0.04859104 0.74269098 0.020909354 5520167
0.048240408 0.74249506 0.020910069 5454887
0.047889769 0.7422992 0.0209108 5454887
0.04753913 0.74210334 0.020911515 5323301
0.046674699 0.74250495 0.020252228 5454887
0.046322644 0.74230832 0.020252943 5454887
0.045970589 0.74211162 0.020253658 5454887
0.045618519 0.74191499 0.020254388 5323301
0.045266464 0.74171829 0.020255119 5323301
0.04439348 0.74211514 0.019595847 5257508
0.044039994 0.74191767 0.019596577 5257508
0.043686509 0.7417202 0.019597292 5191715
0.043333024 0.74152273 0.019598022 5191715
0.042979538 0.74132526 0.019598752 5191715
0.042626038 0.74112779 0.019599468 5191715
0.0417431 0.74151909 0.018940225 5191715
0.041388184 0.74132085 0.018940955 5257508
0.041033268 0.74112254 0.018941686 5060899
0.040144622 0.74151063 0.018282458 5060899
0.039788276 0.74131155 0.018283188 4995106
0.054937616 0.74558347 0.021902606 5848614
0.054588407 0.74538839 0.021903321 5848614
0.054239199 0.7451933 0.021904036 5848614
0.054378524 0.74438566 0.022563398 5848614
0.054030731 0.74419141 0.022564113 5652007
0.053682953 0.7439971 0.022564828 5520421
0.053335175 0.74380285 0.022565544 4665119
0.052987382 0.74360853 0.022566259 4994084
0.052639604 0.74341428 0.022566974 5323303
0.052291811 0.74321997 0.022567689 5454889
0.051944032 0.74302566 0.022568405 5454889
0.051596247 0.74283141 0.02256912 5454889
0.050747097 0.7432425 0.021911204 5520169
0.050397888 0.74304742 0.021911919 5520169
0.050048679 0.74285233 0.021912634 5520169
0.04969947 0.7426573 0.021913365 5585962
0.049350262 0.74246216 0.02191408 5520167
0.049001053 0.74226713 0.021914795 5520167
0.048651844 0.74207205 0.02191551 5454887
0.048302636 0.74187696 0.021916226 5520680
0.047953412 0.74168187 0.021916941 5454887
0.047090024 0.74208504 0.021259069 5454887
0.046739385 0.74188912 0.021259785 5454887
0.045871705 0.7422899 0.020601913 5454887
0.045519635 0.74209327 0.020602629 5323301
0.04516758 0.74189657 0.020603359 5323301
0.044815525 0.74169993 0.020604074 5323301
0.044463471 0.74150324 0.020604804 5257508
0.044111401 0.74130654 0.020605519 5257508
0.043233737 0.74170172 0.019947678 5191715
0.042880252 0.74150431 0.019948393 5257508
0.042526767 0.74130678 0.019949123 5191715
0.042173281 0.74110937 0.019949853 5060899
0.041819796 0.74091184 0.019950569 5192485
0.041466311 0.74071443 0.019951299 5126946
0.040578678 0.74110401 0.019293487 5061153
0.040223762 0.74090576 0.019294202 4995360
0.038079336 0.74147874 0.017979294 5060129
0.037721574 0.74127889 0.017980024 5060129
0.037363812 0.74107903 0.017980754 5060129
0.03700605 0.74087918 0.017981499 4994336
0.054839537 0.74576032 0.02224803 5848614
0.054490328 0.74556524 0.022248745 5848614
0.054141119 0.74537015 0.02224946 5848614
0.05428084 0.74456179 0.022907421 5848614
0.053933054 0.74436748 0.022908121 5717798
0.053585276 0.74417323 0.022908837 5586212
0.05323749 0.74397898 0.022909552 4665119
0.052889705 0.74378467 0.022910267 4862498
0.052541919 0.74359035 0.022910982 5257510
0.052194133 0.7433961 0.022911698 5454889
0.051846355 0.74320179 0.022912413 5454889
0.051498562 0.74300754 0.022913128 5454889
0.050649017 0.74341935 0.022256628 5520169
0.050299808 0.74322426 0.022257358 5520169
0.0499506 0.74302918 0.022258073 5520169
0.049601391 0.74283409 0.022258788 5585962
0.049252182 0.74263906 0.022259504 5520169
0.048902974 0.74244392 0.022260219 5520169
0.048553765 0.74224889 0.022260934 5520680
0.048204556 0.74205381 0.022261649 5520680
0.047855332 0.74185872 0.022262365 5454887
0.046991542 0.7422626 0.021605909 5454887
0.046640903 0.74206674 0.021606624 5520680
0.045772821 0.74246824 0.020950153 5323301
0.045420751 0.74227154 0.020950884 5323301
0.045068696 0.74207485 0.020951599 5323301
0.044716641 0.74187815 0.020952329 5323301
0.044364586 0.74168152 0.020953044 5323301
0.044012517 0.74148488 0.020953774 5257508
0.043134466 0.74188077 0.020297334 5191715
0.04278098 0.74168324 0.020298064 5323301
0.04242748 0.74148583 0.020298779 5257508
0.042073995 0.7412883 0.020299509 5257508
0.04172051 0.74109089 0.020300239 5257508
0.041367024 0.74089336 0.020300955 5126946
0.040478989 0.74128377 0.019644544 5061153
0.040124089 0.74108547 0.019645274 5126176
0.037978858 0.74165994 0.018333182 5125409
0.037621096 0.74146008 0.018333912 5191202
0.037263334 0.74126023 0.018334657 5125409
0.036905557 0.74106038 0.018335387 5059616
0.054741457 0.74593717 0.022593468 5848614
0.054392248 0.74574208 0.022594184 5782821
0.05404304 0.745547 0.022594899 5848614
0.054183155 0.74473792 0.023251429 5848614
0.053835377 0.74454367 0.023252144 5717798
0.053487591 0.74434936 0.02325286 5586212
0.053139806 0.74415505 0.023253575 4730912
0.05279202 0.7439608 0.02325429 4796705
0.052444234 0.74376649 0.023255005 5191717
0.052096456 0.74357224 0.023255721 5454889
0.051748671 0.74337792 0.023256421 5520682
0.051400885 0.74318361 0.023257136 5454889
0.050550938 0.7435962 0.022602051 5454889
0.050201729 0.74340111 0.022602782 5520682
0.04985252 0.74320602 0.022603497 5520169
0.049503312 0.74301094 0.022604212 5520169
0.049154095 0.74281585 0.022604927 5520169
0.048804887 0.74262083 0.022605643 5520169
0.048455685 0.74242568 0.022606358 5520680
0.048106462 0.74223065 0.022607073 5454887
0.047757253 0.74203557 0.022607803 5454887
0.04689306 0.74244016 0.021952733 5454887
0.046542421 0.74224424 0.021953464 5520680
0.045673937 0.74264646 0.021298409 5323301
0.045321882 0.74244982 0.021299124 5323301
0.044969812 0.74225318 0.021299839 5323301
0.044617757 0.74205649 0.021300569 5323301
0.044265702 0.74185979 0.021301299 5323301
0.043913633 0.7416631 0.021302015 5257508
0.043035179 0.74205977 0.020646989 5257508
0.042681694 0.7418623 0.02064772 5323301
0.042328194 0.74166483 0.02064845 5257508
0.041974723 0.74146736 0.020649165 5323301
0.041621223 0.74126989 0.020649895 5257508
0.041267738 0.74107242 0.020650625 5257762
0.040379316 0.74146348 0.0199956 5191969
0.0400244 0.74126518 0.01999633 5191969
0.037878364 0.74184108 0.018687069 5125409
0.037520602 0.74164122 0.0186878 5322018
0.03716284 0.74144137 0.01868853 5256225
0.036805078 0.74124151 0.018689275 5125411
0.035900965 0.74162382 0.018034309 5125411
0.035541788 0.74142319 0.018035054 5125411
0.035182595 0.7412225 0.018035784 5125411
0.054643378 0.74611402 0.022938877 5848614
0.054294169 0.74591893 0.022939593 5782821
0.05394496 0.74572384 0.022940308 5848614
0.054085478 0.74491405 0.023595452 5848614
0.053737693 0.74471974 0.023596168 5717798
0.053389907 0.74452543 0.023596883 5586212
0.053042129 0.74433118 0.023597598 4730912
0.052694343 0.74413693 0.023598298 4730912
0.052346557 0.74394262 0.023599014 5191463
0.051998772 0.74374831 0.023599729 5454635
0.051650986 0.74355406 0.023600444 5520682
0.051303208 0.74335974 0.023601159 5454889
0.050955422 0.74316549 0.023601875 5520682
0.050607637 0.74297118 0.02360259 5520682
0.050259851 0.74277687 0.023603305 5520169
0.049912065 0.74258262 0.023604006 5520169
0.04956428 0.74238837 0.023604721 5520169
0.049216494 0.74219406 0.023605436 5520169
0.048357591 0.74260259 0.022951782 5520680
0.048008382 0.74240744 0.022952497 5454887
0.047659174 0.74221241 0.022953212 5454887
0.047309965 0.74201733 0.022953928 5454887
0.046960756 0.74182224 0.022954643 5520680
0.046611547 0.74162716 0.022955373 5323301
0.045742676 0.74203008 0.022301733 5323301
0.045392036 0.74183422 0.022302449 5323301
0.044518873 0.74223477 0.021648824 5323301
0.044166818 0.74203807 0.021649539 5323301
0.043814763 0.74184144 0.021650255 5257508
0.043462694 0.74164474 0.021650985 5257508
0.043110639 0.74144804 0.021651715 5323301
0.042758569 0.74125141 0.02165243 5323301
0.041875437 0.74164635 0.020998821 5323301
0.041521952 0.74144888 0.020999551 5323301
0.041168466 0.74125141 0.021000266 5257508
0.040814981 0.74105394 0.021000996 5257508
0.040461496 0.74085647 0.021001726 5191969
0.04010801 0.740659 0.021002442 5126176
0.039754525 0.74046153 0.021003172 5322272
0.039401039 0.74026406 0.021003902 5322272
0.037420124 0.74182242 0.019041687 5322018
0.037062362 0.74162257 0.019042417 5256225
0.0367046 0.74142271 0.019043148 5256227
0.035800084 0.74180573 0.018389612 5256227
0.035440907 0.74160504 0.018390343 5125157
0.035081714 0.74140441 0.018391088 5125157
0.053987801 0.74509013 0.023939461 5848614
0.053640015 0.74489588 0.023940176 5717798
0.05329223 0.74470162 0.023940891 5652005
0.052944452 0.74450731 0.023941606 4994084
0.052596658 0.744313 0.023942322 4665119
0.05224888 0.74411875 0.023943037 5125670
0.051901087 0.74392444 0.023943752 5454635
0.051553309 0.74373019 0.023944467 5520682
0.051205523 0.74353588 0.023945183 5454889
0.050857738 0.74334157 0.023945898 5520682
0.050509959 0.74314731 0.023946613 5520682
0.050162166 0.74295306 0.023947328 5585962
0.049814388 0.74275875 0.023948029 5520169
0.049466603 0.74256444 0.023948744 5388583
0.049118817 0.74237019 0.023949459 5520169
0.048259512 0.74277937 0.02329722 5520680
0.047910303 0.74258435 0.023297936 5454887
0.047561094 0.7423892 0.023298651 5324071
0.047211885 0.74219418 0.023299366 5324071
0.046862677 0.74199909 0.023300081 5520680
0.046513468 0.741804 0.023300797 5323301
0.045644194 0.74220765 0.022648573 5323301
0.045293555 0.74201179 0.022649288 5323301
0.044419989 0.74241304 0.021997064 5323301
0.044067934 0.74221635 0.02199778 5454887
0.043715879 0.74201971 0.02199851 5323301
0.04336381 0.74182302 0.02199924 5323301
0.043011755 0.74162638 0.021999955 5323301
0.042659685 0.74142969 0.02200067 5323301
0.04177615 0.74182534 0.021348476 5323301
0.041422665 0.74162787 0.021349207 5323301
0.04106918 0.7414304 0.021349937 5257508
0.040715694 0.74123293 0.021350652 5257508
0.040362209 0.74103546 0.021351382 5257762
0.040008724 0.74083805 0.021352112 5191969
0.039655238 0.74064052 0.021352828 5191456
0.039301753 0.74044311 0.021353558 5257249
0.053890117 0.74526632 0.024283484 5848614
0.053542331 0.74507201 0.024284199 5848614
0.053194553 0.7448777 0.024284914 5782821
0.052846767 0.74468344 0.024285629 5059877
0.052498981 0.74448913 0.02428633 4599326
0.052151196 0.74429488 0.024287045 5125670
0.05180341 0.74410057 0.02428776 5454635
0.051455632 0.74390626 0.024288476 5520428
0.051107846 0.74371201 0.024289191 5454635
0.050760061 0.74351776 0.024289906 5586475
0.050412275 0.74332345 0.024290621 5520682
0.050064489 0.74312913 0.024291337 5520682
0.049716704 0.74293488 0.024292052 5454889
0.049368918 0.74274057 0.024292767 5388583
0.049021132 0.74254632 0.024293482 5388583
0.048161432 0.74295622 0.023642644 5586473
0.047812223 0.74276114 0.02364336 5520680
0.047463015 0.74256611 0.023644075 5454887
0.047113806 0.74237096 0.02364479 5520680
0.046764597 0.74217594 0.023645505 5520680
0.046415389 0.74198085 0.023646221 5323301
0.045545712 0.74238521 0.022995412 5454887
0.045195073 0.74218935 0.022996128 5323301
0.044321105 0.74259132 0.022345304 5323301
0.04396905 0.74239469 0.022346035 5454887
0.043616995 0.74219799 0.022346765 5454887
0.04326494 0.7420013 0.02234748 5323301
0.042912871 0.7418046 0.022348195 5323301
0.042560801 0.74160796 0.022348925 5323301
0.041676864 0.74200439 0.021698132 5323301
0.041323379 0.74180686 0.021698862 5257508
0.040969893 0.74160945 0.021699578 5257508
0.040616408 0.74141192 0.021700308 5257508
0.040262923 0.74121451 0.021701038 5323301
0.039909437 0.74101698 0.021701753 5257508
0.039555952 0.74081957 0.021702483 5257249
0.039202467 0.74062204 0.021703213 5257249
0.054283373 0.74482548 0.025277689 5914407
0.053937018 0.74463201 0.025278389 5914407
0.053590655 0.74443853 0.025279105 5782821
0.053244293 0.74424505 0.02527982 5125670
0.052897938 0.74405158 0.025280535 4599326
0.052551582 0.74385804 0.025281236 5125670
0.05220522 0.74366456 0.025281951 5454635
0.051858857 0.74347109 0.025282666 5520682
0.051512495 0.74327755 0.025283366 5520682
0.051166147 0.74308407 0.025284082 5586475
0.050819784 0.7428906 0.025284797 5520682
0.050473422 0.74269712 0.025285512 5520680
0.050127067 0.74250364 0.025286213 5520680
0.049780697 0.74231017 0.025286928 5388581
0.049434341 0.74211669 0.025287643 5388581
0.04857567 0.74252814 0.024638206 5586473
0.048227876 0.74233383 0.024638921 5520680
0.047880098 0.74213958 0.024639636 5454887
0.04753232 0.74194527 0.024640352 5520680
0.047184527 0.74175096 0.024641067 5454887
0.046836749 0.7415567 0.024641782 5454887
0.0459681 0.74196261 0.02399236 5454887
0.045618877 0.74176753 0.02399309 5454887
0.044745952 0.74217105 0.023343682 5455141
0.044395328 0.74197513 0.023344398 5520934
0.044044688 0.74177927 0.023345113 5455141
0.043166056 0.74217963 0.02269572 5323555
0.042813987 0.74198294 0.02269645 5323555
0.042461917 0.74178624 0.022697166 5323555
0.042109862 0.74158955 0.022697896 5323555
0.041757807 0.74139291 0.022698611 5323555
0.041405752 0.74119622 0.022699341 5323301
0.040517136 0.74159098 0.022049963 5323301
0.040163651 0.74139351 0.022050694 5323301
0.039810151 0.74119604 0.022051424 5257508
0.03945668 0.74099857 0.022052139 5257508
0.039103195 0.7408011 0.022052869 5191715
0.038206026 0.74119103 0.021403521 5191715
0.03785111 0.74099278 0.021404237 5191715
0.037496209 0.74079454 0.021404967 5125922
0.054186091 0.7450009 0.025620297 5914409
0.053839736 0.74480742 0.025620997 5980202
0.053493373 0.74461389 0.025621712 5848616
0.053147018 0.74442041 0.025622427 5191717
0.052800655 0.74422693 0.025623143 4599580
0.0524543 0.74403346 0.025623843 5125670
0.052107938 0.74383998 0.025624558 5454635
0.051761575 0.7436465 0.025625274 5520682
0.05141522 0.74345303 0.025625974 5520682
0.051068857 0.74325949 0.025626689 5586475
0.050722502 0.74306601 0.025627404 5586475
0.050376147 0.74287254 0.02562812 5586473
0.050029784 0.742679 0.02562882 5586473
0.049683422 0.74248552 0.025629535 5388581
0.049337059 0.74229205 0.025630251 5388581
0.048477992 0.74270427 0.024982214 5586473
0.048130199 0.74250996 0.024982929 5520680
0.047782421 0.74231565 0.024983644 5455141
0.047434643 0.7421214 0.02498436 5586727
0.04708685 0.74192715 0.024985075 5324325
0.046739072 0.74173284 0.02498579 5324325
0.045870021 0.74213946 0.024337798 5324071
0.045520797 0.74194437 0.024338514 5324071
0.04464747 0.74234855 0.023690522 5324071
0.044296846 0.74215269 0.023691237 5389864
0.043946207 0.74195683 0.023691952 5455141
0.043067172 0.74235785 0.023043975 5323555
0.042715102 0.74216121 0.02304469 5323555
0.042363048 0.74196452 0.023045421 5323555
0.042010978 0.74176788 0.023046136 5455141
0.041658923 0.74157119 0.023046866 5257762
0.041306868 0.74137449 0.023047581 5323555
0.04041785 0.74176997 0.022399619 5323555
0.040064365 0.7415725 0.022400349 5323555
0.039710879 0.74137503 0.022401065 5323555
0.039357394 0.74117756 0.022401795 5257508
0.039003909 0.74098009 0.022402525 5257508
0.038106352 0.7413708 0.021754578 5191715
0.037751436 0.74117255 0.021755308 5191715
0.03739652 0.74097425 0.021756038 5191715
0.054088816 0.74517632 0.025962904 5914409
0.053742453 0.74498284 0.025963604 5980202
0.053396091 0.7447893 0.02596432 5848616
0.053049736 0.74459583 0.025965035 5323303
0.052703381 0.74440235 0.02596575 4533787
0.052357018 0.74420881 0.025966451 5125670
0.052010655 0.74401534 0.025967166 5454635
0.051664293 0.74382186 0.025967881 5520682
0.051317938 0.74362838 0.025968581 5520682
0.050971583 0.74343491 0.025969297 5586473
0.05062522 0.74324143 0.025970012 5586473
0.050278865 0.74304795 0.025970727 5586473
0.04993251 0.74285442 0.025971428 5586473
0.04958614 0.74266094 0.025972143 5454887
0.049239784 0.74246746 0.025972858 5323301
0.0483803 0.74288034 0.025326237 5520680
0.048032522 0.74268609 0.025326952 5520680
0.047684744 0.74249184 0.025327668 5455141
0.047336951 0.74229753 0.025328383 5520934
0.046989173 0.74210322 0.025329098 5324325
0.046641394 0.74190897 0.025329813 5390118
0.045771942 0.74231625 0.024683222 5389864
0.045422718 0.74212122 0.024683937 5389864
0.044549003 0.74252617 0.024037361 5389864
0.044198364 0.74233031 0.024038076 5324071
0.043847725 0.74213439 0.024038792 5324325
0.042968288 0.74253619 0.023392215 5192739
0.042616233 0.74233949 0.023392946 5192739
0.042264163 0.7421428 0.023393661 5192739
0.041912094 0.74194616 0.023394376 5455141
0.041560039 0.74174947 0.023395106 5323555
0.041207984 0.74155283 0.023395836 5323555
0.040318564 0.74194896 0.022749275 5323555
0.039965078 0.74175149 0.022750005 5455141
0.039611593 0.74155402 0.022750735 5455141
0.039258108 0.74135661 0.022751451 5257508
0.038904622 0.74115908 0.022752181 5257508
0.038006663 0.74155051 0.022105649 5257508
0.037651747 0.74135226 0.022106379 5257508
0.037296847 0.74115396 0.022107095 5191715
0.053991526 0.74535167 0.026305512 5980200
0.053645171 0.7451582 0.026306212 5980200
0.053298816 0.74496472 0.026306927 5848614
0.053448871 0.74415457 0.026953593 5454889
0.053103939 0.74396187 0.026954293 4533787
0.052759007 0.74376917 0.026955009 5125670
0.052414075 0.74357647 0.026955724 5454635
0.052069142 0.74338377 0.026956424 5586475
0.05172421 0.74319112 0.026957124 5586475
0.051379271 0.74299842 0.02695784 5586473
0.051034339 0.74280572 0.026958555 5652266
0.050689399 0.74261302 0.026959255 5652266
0.050344467 0.74242032 0.026959971 5586473
0.049999535 0.74222767 0.026960671 5454889
0.049654603 0.74203491 0.026961386 5454889
0.049309663 0.74184227 0.026962087 5520680
0.048964731 0.74164957 0.026962802 5520680
0.048619799 0.74145687 0.026963502 5455141
0.047757059 0.74186891 0.026318312 5520934
0.047410712 0.74167538 0.026319012 5324325
0.047064349 0.7414819 0.026319727 5390118
0.046717986 0.74128842 0.026320428 5390118
0.046371624 0.74109495 0.026321143 5390118
0.046025261 0.74090147 0.026321858 5390118
0.04515256 0.74130791 0.025676683 5390118
0.044804782 0.74111366 0.025677398 5324325
0.043398604 0.74211609 0.024386346 5390118
0.043047965 0.74192023 0.024387076 5324325
0.042697325 0.74172431 0.024387792 5324325
0.041813225 0.74212444 0.023742631 5455141
0.041461155 0.74192774 0.023743361 5323555
0.0411091 0.74173105 0.023744076 5323555
0.040757045 0.74153441 0.023744792 5323555
0.040404975 0.74133778 0.023745522 5455141
0.040052921 0.74114108 0.023746252 5455141
0.039158836 0.74153554 0.023101121 5323301
0.038805351 0.74133813 0.023101836 5191715
0.03845185 0.7411406 0.023102567 5257508
0.03809838 0.74094319 0.023103297 5257508
0.03774488 0.74074566 0.023104012 5257508
0.028254613 0.74259603 0.017947748 5191715
0.027889729 0.74239218 0.017948493 5125922
0.027524829 0.74218833 0.017949253 5060131
0.053894252 0.74552709 0.026648119 5980200
0.053547889 0.74533361 0.026648819 5980200
0.053201534 0.74514008 0.026649535 5914407
0.053351998 0.74432921 0.027294785 5520680
0.053007059 0.74413657 0.0272955 4599578
0.052662127 0.74394387 0.027296215 5059877
0.052317187 0.74375117 0.027296916 5454635
0.051972263 0.74355847 0.027297616 5586475
0.051627323 0.74336576 0.027298331 5586475
0.051282391 0.74317312 0.027299047 5586475
0.050937459 0.74298036 0.027299747 5652268
0.050592527 0.74278772 0.027300462 5652266
0.050247587 0.74259502 0.027301162 5520680
0.049902648 0.74240232 0.027301878 5520682
0.049557723 0.74220961 0.027302578 5454889
0.049212784 0.74201691 0.027303293 5520680
0.048867851 0.74182427 0.027303994 5586473
0.048522919 0.74163157 0.027304709 5520934
0.047659785 0.74204433 0.026660919 5520934
0.047313422 0.74185079 0.02666162 5390118
0.046967074 0.74165732 0.026662335 5390118
0.046620712 0.74146384 0.026663035 5390118
0.046274349 0.74127036 0.02666375 5390118
0.045927987 0.74107683 0.026664466 5390118
0.045054883 0.74148405 0.026020706 5324325
0.044707105 0.74128973 0.026021406 5324325
0.043300122 0.74229366 0.024733186 5390118
0.042949483 0.74209774 0.024733901 5520934
0.042598858 0.74190187 0.024734631 5455141
0.04171434 0.74230272 0.024090886 5455141
0.041362271 0.74210608 0.024091601 5455141
0.041010216 0.74190938 0.024092317 5455141
0.040658161 0.74171269 0.024093047 5455141
0.040306091 0.74151599 0.024093777 5455141
0.039954036 0.74131936 0.024094492 5323555
0.03905955 0.7417146 0.023450762 5257508
0.038706064 0.74151713 0.023451492 5191715
0.038352564 0.74131966 0.023452222 5257508
0.037999094 0.74112219 0.023452938 5257508
0.037645593 0.74092472 0.023453668 5257508
0.028152123 0.7427808 0.018308684 5191717
0.027787238 0.74257696 0.018309429 5125924
0.027422354 0.74237311 0.018310174 5125924
0.053796969 0.74570251 0.026990712 5980200
0.053450614 0.74550903 0.026991427 5980200
0.053104252 0.74531549 0.026992142 5914407
0.053255111 0.74450392 0.027635992 5520680
0.052910179 0.74431121 0.027636692 4665371
0.052565247 0.74411851 0.027637407 4994084
0.052220315 0.74392581 0.027638108 5454635
0.051875383 0.74373317 0.027638823 5586475
0.051530451 0.74354047 0.027639523 5586475
0.051185519 0.74334776 0.027640238 5586475
0.050840579 0.74315506 0.027640939 5652268
0.050495639 0.74296236 0.027641654 5586475
0.050150707 0.74276972 0.027642369 5520682
0.049805775 0.74257696 0.02764307 5520682
0.049460843 0.74238431 0.02764377 5520682
0.049115911 0.74219161 0.027644485 5520680
0.048770979 0.74199891 0.0276452 5652266
0.048426047 0.74180621 0.027645901 5520680
0.04756251 0.74221969 0.027003512 5586473
0.047216147 0.74202621 0.027004227 5390118
0.046869785 0.74183273 0.027004942 5390118
0.046523422 0.74163926 0.027005643 5259046
0.046177074 0.74144578 0.027006358 5259046
0.045830712 0.74125224 0.027007073 5390118
0.044957206 0.74166018 0.026364714 5324325
0.044609413 0.74146593 0.026365429 5455141
0.04320164 0.74247122 0.025080025 5520934
0.042851016 0.74227536 0.02508074 5520934
0.042500362 0.7420795 0.025081456 5455141
0.041615456 0.74248099 0.024439126 5455141
0.041263402 0.7422843 0.024439842 5455141
0.040911332 0.74208766 0.024440572 5455141
0.040559277 0.74189097 0.024441302 5455141
0.040207222 0.74169433 0.024442017 5323555
0.039855152 0.74149764 0.024442732 5323555
0.038960263 0.74189359 0.023800433 5257508
0.038606778 0.74169612 0.023801148 5257508
0.038253292 0.74149865 0.023801878 5323301
0.037899807 0.74130118 0.023802608 5323301
0.037546322 0.74110371 0.023803324 5257508
0.028049648 0.74296558 0.01866962 5257510
0.027684763 0.74276173 0.018670365 5191717
0.027319863 0.74255788 0.018671125 5191717
0.026382223 0.74293 0.018028885 5060131
0.026015922 0.74272537 0.018029645 5125924
0.025649592 0.74252069 0.01803039 5125924
0.054686382 0.74463546 0.028616786 6111786
0.054342873 0.74444354 0.028617501 5980200
0.053999364 0.74425161 0.028618202 5980200
0.053655855 0.74405974 0.028618902 5586473
0.053312346 0.74386787 0.028619617 4796957
0.052968837 0.74367595 0.028620318 4862498
0.052625328 0.74348402 0.028621018 5454635
0.052281827 0.74329215 0.028621733 5586475
0.05193831 0.74310029 0.028622434 5586475
0.051594809 0.74290836 0.028623134 5652268
0.051251292 0.74271643 0.028623849 5652268
0.050907791 0.74252456 0.02862455 5586475
0.050564274 0.7423327 0.02862525 5586475
0.050220765 0.74214077 0.028625965 5586475
0.049877256 0.7419489 0.028626665 5520682
0.049019024 0.74236631 0.027985677 5520680
0.048674092 0.74217355 0.027986392 5586473
0.04832916 0.74198091 0.027987093 5520680
0.047984228 0.74178821 0.027987808 5520680
0.047639295 0.74159551 0.027988508 5258792
0.047294363 0.7414028 0.027989224 5258792
0.046426147 0.74181461 0.02734825 5258792
0.046079785 0.74162114 0.027348965 5258792
0.045733422 0.74142766 0.027349681 5390118
0.045387074 0.74123418 0.027350396 5324325
0.045040712 0.74104071 0.027351096 5455141
0.044694349 0.74084723 0.027351812 5520934
0.043816164 0.74125344 0.026710868 5586214
0.043468386 0.74105918 0.026711583 5520421
0.042585924 0.74146301 0.026070654 5520421
0.042236716 0.74126792 0.026071385 5520421
0.041887507 0.74107283 0.0260721 5520421
0.040999353 0.7414735 0.025431186 5520421
0.040648714 0.74127764 0.025431901 5323555
0.040298089 0.74108177 0.025432616 5323555
0.038860977 0.74207258 0.024150074 5257762
0.038507491 0.74187517 0.024150804 5257762
0.038154006 0.74167764 0.024151534 5323301
0.037800521 0.74148023 0.024152249 5323301
0.037447035 0.7412827 0.024152979 5323301
0.036543205 0.74167466 0.023512095 5323301
0.03618829 0.74147636 0.023512825 5257508
0.035833374 0.74127811 0.023513556 5257508
0.030735642 0.74201763 0.020953044 5125924
0.030375034 0.74181622 0.020953789 5125924
0.030014426 0.74161476 0.02095452 5191717
0.029653803 0.7414133 0.020955265 5257510
0.028722897 0.74179006 0.02031444 5191717
0.028360859 0.74158782 0.02031517 5191717
0.02799882 0.74138558 0.020315915 5125924
0.027062193 0.74175918 0.019675091 5125924
0.026698723 0.74155617 0.019675836 5125924
0.025757834 0.74192733 0.019035041 5125922
0.025392935 0.74172354 0.019035786 5060129
0.02502805 0.74151969 0.019036546 5060131
0.054589897 0.74480939 0.028956577 6177066
0.054246396 0.74461746 0.028957278 5980200
0.053902887 0.74442559 0.028957993 5980200
0.053559378 0.74423373 0.028958693 5717800
0.053215869 0.7440418 0.028959394 5059870
0.05287236 0.74384987 0.028960109 4796705
0.052528851 0.74365801 0.028960809 5454635
0.052185342 0.74346614 0.028961509 5586475
0.051841833 0.74327421 0.02896221 5586475
0.051498324 0.74308228 0.028962925 5652268
0.051154815 0.74289042 0.028963625 5652268
0.050811313 0.74269855 0.028964326 5652268
0.050467804 0.74250662 0.028965026 5586475
0.050124288 0.74231476 0.028965741 5586475
0.049780779 0.74212283 0.028966442 5586475
0.048922144 0.74254096 0.028326884 5586473
0.048577219 0.74234825 0.028327584 5586473
0.048232272 0.74215555 0.0283283 5586473
0.04788734 0.74196291 0.028329 5520680
0.047542408 0.74177021 0.028329715 5389864
0.047197476 0.74157751 0.028330415 5389864
0.046328858 0.74199003 0.027690858 5389864
0.04598251 0.74179655 0.027691573 5389864
0.045636147 0.74160302 0.027692288 5455657
0.045289785 0.74140954 0.027692989 5324071
0.044943437 0.74121606 0.027693704 5520934
0.044597074 0.74102259 0.027694419 5586727
0.043718487 0.74142957 0.027054891 5586214
0.043370709 0.74123526 0.027055606 5520421
0.042487845 0.74163985 0.026416093 5520421
0.042138636 0.74144477 0.026416808 5520421
0.041789427 0.74124968 0.026417524 5455141
0.040900871 0.74165106 0.02577801 5455141
0.040550232 0.7414552 0.025778741 5323555
0.040199593 0.74125934 0.025779456 5257762
0.038761705 0.74225163 0.024499744 5257762
0.03840822 0.7420541 0.024500459 5257762
0.03805472 0.74185669 0.02450119 5323301
0.037701249 0.74165916 0.02450192 5323301
0.037347749 0.74146175 0.024502635 5323301
0.036443517 0.74185437 0.023863167 5323301
0.036088601 0.74165606 0.023863897 5257508
0.0357337 0.74145782 0.023864627 5323301
0.030634359 0.74220026 0.021309748 5191717
0.03027375 0.74199879 0.021310493 5191717
0.029913142 0.74179739 0.021311224 5191717
0.029552519 0.74159592 0.021311969 5257510
0.028621212 0.7419734 0.02067256 5191717
0.028259173 0.74177116 0.020673305 5191717
0.027897134 0.74156892 0.02067405 5191717
0.026960105 0.74194324 0.020034611 5191717
0.026596636 0.74174023 0.020035356 5125924
0.025655344 0.74211216 0.019395977 5125922
0.025290444 0.74190831 0.019396722 5060129
0.024925575 0.74170446 0.019397482 5060131
0.023396447 0.7426458 0.018117934 5060131
0.023028716 0.74244034 0.018118694 5060131
0.022660971 0.74223495 0.018119454 5060131
0.05449342 0.74498332 0.029296368 6177066
0.054149911 0.74479145 0.029297069 6045480
0.053806409 0.74459958 0.029297769 6177066
0.053462893 0.74440765 0.029298484 5783593
0.053119391 0.74421573 0.029299185 5059870
0.052775882 0.74402386 0.029299885 4796705
0.052432373 0.74383199 0.0293006 5454635
0.052088864 0.74364007 0.029301301 5586475
0.051745355 0.74344814 0.029302001 5586475
0.051401846 0.74325627 0.029302716 5718061
0.051058337 0.7430644 0.029303417 5652268
0.050714836 0.74287248 0.029304117 5652268
0.050371319 0.74268055 0.029304817 5586475
0.05002781 0.74248868 0.029305533 5652266
0.049684301 0.74229681 0.029306233 5586473
0.048825264 0.7427156 0.028668076 5586473
0.048480332 0.74252295 0.028668776 5652266
0.0481354 0.74233025 0.028669491 5586473
0.047790468 0.74213755 0.028670192 5520680
0.047445536 0.74194485 0.028670907 5389864
0.047100604 0.74175215 0.028671607 5389864
0.046231583 0.74216545 0.028033465 5389864
0.04588522 0.74197197 0.02803418 5389864
0.045538858 0.74177843 0.028034896 5455657
0.04519251 0.74158496 0.028035611 5389864
0.044846147 0.74139148 0.028036311 5520934
0.0444998 0.741198 0.028037027 5520934
0.04362081 0.74160564 0.027398899 5586214
0.043273017 0.74141139 0.027399614 5520421
0.042389765 0.7418167 0.026761502 5586214
0.042040557 0.74162161 0.026762232 5520421
0.041691348 0.74142653 0.026762947 5455141
0.040802389 0.74182868 0.02612485 5455141
0.04045175 0.74163276 0.02612558 5455141
0.040101126 0.7414369 0.026126295 5323555
0.038662419 0.74243063 0.024849385 5323555
0.038308933 0.74223316 0.024850115 5257762
0.037955448 0.74203569 0.024850845 5323301
0.037601963 0.74183822 0.024851561 5323301
0.037248477 0.74164075 0.024852291 5388581
0.036343828 0.74203408 0.024214238 5388581
0.035988927 0.74183583 0.024214953 5322788
0.035634011 0.74163759 0.024215683 5388581
0.030533075 0.74238288 0.021666452 5191717
0.030172467 0.74218142 0.021667197 5257510
0.029811859 0.74197996 0.021667928 5257510
0.029451236 0.74177855 0.021668673 5257510
0.028519526 0.74215674 0.021030664 5257510
0.028157488 0.74195451 0.02103141 5191717
0.027795449 0.74175227 0.021032155 5191717
0.026858017 0.7421273 0.020394146 5191717
0.026494548 0.74192429 0.020394892 5191717
0.025552854 0.74229693 0.019756913 5125924
0.025187969 0.74209309 0.019757658 5125924
0.024823084 0.74188924 0.019758418 5060131
0.023293167 0.74283201 0.018481702 5125924
0.022925422 0.74262655 0.018482447 5191717
0.022557691 0.74242115 0.018483207 5125924
0.021603167 0.74278665 0.017845243 5125924
0.021233991 0.74258041 0.017846003 5125924
0.020864829 0.74237418 0.017846763 4995108
0.054396942 0.7451573 0.029636145 6177066
0.054053433 0.74496543 0.02963686 6045480
0.053709924 0.74477351 0.02963756 6177066
0.053865232 0.74396062 0.030275762 5783593
0.053523146 0.74376953 0.030276462 5323042
0.053181067 0.74357843 0.030277163 4730912
0.052838981 0.74338728 0.030277863 5454635
0.052496895 0.74319619 0.030278563 5586475
0.052154809 0.7430051 0.030279279 5586475
0.051812738 0.742814 0.030279979 5718061
0.051470652 0.74262291 0.030280679 5652268
0.051128566 0.74243176 0.03028138 5652268
0.05078648 0.74224067 0.03028208 5586475
0.049931332 0.74266267 0.029645324 5521450
0.049587816 0.74247074 0.029646024 5455657
0.049244314 0.74227887 0.029646724 5455657
0.048900805 0.74208695 0.02964744 5455657
0.048557296 0.74189508 0.02964814 5455657
0.04821378 0.74170315 0.02964884 5455657
0.047870278 0.74151129 0.029649556 5455657
0.047526762 0.74131936 0.029650256 5455657
0.046134308 0.7423408 0.028376073 5389864
0.045787945 0.74214733 0.028376788 5389864
0.045441583 0.74195385 0.028377503 5455657
0.04509522 0.74176037 0.028378218 5389864
0.044748873 0.7415669 0.028378919 5455657
0.04440251 0.74137342 0.028379634 5389864
0.043523133 0.74178183 0.027742922 5520934
0.04317534 0.74158752 0.027743638 5455141
0.042291686 0.74199355 0.027106941 5455141
0.041942477 0.74179846 0.027107656 5455141
0.041593269 0.74160337 0.027108371 5455141
0.04124406 0.74140829 0.027109087 5455141
0.040894851 0.7412132 0.027109802 5455141
0.040545627 0.74101812 0.027110517 5455141
0.039652005 0.7414186 0.02647385 5455141
0.039301366 0.74122268 0.026474565 5323555
0.038950726 0.74102682 0.026475281 5323301
0.037502676 0.74201721 0.025201231 5323301
0.037149191 0.74181974 0.025201946 5520167
0.036244154 0.74221385 0.024565294 5520167
0.035889253 0.7420156 0.024566025 5388581
0.035534337 0.7418173 0.024566755 5388581
0.030431792 0.74256551 0.022023171 5191717
0.030071184 0.74236405 0.022023901 5257510
0.029710576 0.74216259 0.022024646 5257510
0.029349953 0.74196112 0.022025377 5257510
0.028989345 0.74175972 0.022026122 5257510
0.028628737 0.74155825 0.022026867 5191717
0.028268114 0.74135679 0.022027612 5191717
0.02733174 0.74173337 0.021391019 5191717
0.026969701 0.74153113 0.021391764 5191717
0.026607648 0.74132884 0.021392494 5191717
0.025665537 0.7417022 0.020755902 5125924
0.025302067 0.74149919 0.020756647 5125924
0.024355695 0.74187016 0.020120099 5125924
0.023990825 0.74166632 0.020120844 5191717
0.023625925 0.74146247 0.020121604 5125924
0.02149947 0.74297357 0.018210411 5125924
0.021130309 0.74276733 0.018211171 5125924
0.020761147 0.7425611 0.018211931 4995108
0.054300457 0.74533123 0.029975936 6177066
0.053956956 0.74513936 0.029976636 6177066
0.053613447 0.74494743 0.029977351 6242859
0.053769156 0.74413383 0.030614138 5849386
0.05342707 0.74394274 0.030614838 5388835
0.053084984 0.74375165 0.030615538 4665119
0.052742906 0.74356055 0.030616239 5323049
0.05240082 0.74336946 0.030616939 5586475
0.052058734 0.74317837 0.030617654 5652268
0.051716655 0.74298722 0.030618355 5718061
0.05137457 0.74279612 0.030619055 5652268
0.051032484 0.74260503 0.030619755 5718059
0.050690405 0.74241394 0.030620456 5652266
0.049834847 0.74283659 0.0299851 5521450
0.049491346 0.74264467 0.029985815 5455657
0.049147829 0.7424528 0.029986516 5455657
0.048804328 0.74226093 0.029987216 5455657
0.048460826 0.74206901 0.029987931 5455657
0.04811731 0.74187714 0.029988632 5455657
0.047773793 0.74168521 0.029989332 5455657
0.047430292 0.74149334 0.029990032 5455657
0.041495189 0.74178022 0.02745381 5324071
0.04114598 0.74158514 0.027454525 5389864
0.040796772 0.74139005 0.02745524 5389864
0.040447548 0.74119496 0.027455956 5324071
0.039553523 0.7415961 0.026820689 5324071
0.039202884 0.74140024 0.026821405 5192485
0.03885226 0.74120438 0.02682212 5323301
0.02924867 0.74214375 0.022382081 5257510
0.028888062 0.74194229 0.022382826 5257510
0.028527454 0.74174088 0.022383571 5191717
0.028166845 0.74153942 0.022384316 5257510
0.027230054 0.74191666 0.021749124 5191717
0.026868016 0.74171448 0.021749869 5191717
0.026505962 0.74151218 0.021750614 5191717
0.025563464 0.74188626 0.021115437 5125924
0.025199994 0.74168324 0.021116182 5191717
0.024253219 0.74205494 0.020481035 5125924
0.023888335 0.74185109 0.02048178 5125924
0.02352345 0.74164724 0.02048254 5125924
0.054203987 0.74550521 0.030315727 6177066
0.053860471 0.74531329 0.030316427 6177066
0.053516969 0.74512142 0.030317128 6242859
0.053673074 0.74430704 0.030952513 5849386
0.053330988 0.74411595 0.030953214 5323042
0.052988902 0.74392486 0.030953914 4665373
0.053150721 0.7431137 0.031589285 5323303
0.052810065 0.74292338 0.031589985 5586475
0.052469403 0.74273312 0.031590685 5652268
0.052128747 0.74254274 0.031591386 5718059
0.051278487 0.74296939 0.030957431 5652266
0.050936408 0.7427783 0.030958131 5718059
0.05059433 0.74258715 0.030958831 5652266
0.050252236 0.74239606 0.030959532 5718059
0.049910158 0.74220496 0.030960232 5652266
0.049568072 0.74201387 0.030960947 5586473
0.049225986 0.74182278 0.030961648 5652266
0.048883907 0.74163163 0.030962348 5521450
0.048541829 0.74144053 0.030963048 5455657
0.048199743 0.74124944 0.030963749 5455657
0.047857657 0.74105835 0.030964449 5455657
0.04139711 0.74195707 0.027799219 5324071
0.041047901 0.74176198 0.027799949 5389864
0.040698677 0.7415669 0.027800664 5389864
0.040349469 0.74137181 0.02780138 5324071
0.039455041 0.74177372 0.027167514 5324071
0.039104402 0.74157786 0.027168244 5324071
0.038753763 0.74138194 0.027168959 5454887
0.029147387 0.74232638 0.022738799 5257508
0.028786778 0.74212492 0.02273953 5323301
0.028426155 0.74192345 0.022740275 5126694
0.028065547 0.74172205 0.02274102 5126694
0.027704939 0.74152058 0.022741765 5126694
0.027344331 0.74131912 0.022742495 5126694
0.026983708 0.74111772 0.02274324 5191717
0.026042253 0.74149328 0.022109479 5125924
0.025680214 0.74129105 0.022110224 5191717
0.024734437 0.74166429 0.021476448 5125924
0.024370983 0.74146122 0.021477193 5191717
0.024007514 0.74125814 0.021477938 5125924
0.053576991 0.74448031 0.031290889 5849386
0.053234905 0.74428916 0.031291589 5520421
0.052892826 0.74409807 0.031292289 4599580
0.053055048 0.74328619 0.031926244 5323303
0.052714385 0.74309587 0.031926945 5586475
0.05237373 0.74290562 0.031927645 5652268
0.052033067 0.7427153 0.031928346 5718059
0.051182412 0.7431426 0.031295806 5652266
0.050840333 0.74295151 0.031296507 5652266
0.050498247 0.74276042 0.031297207 5652266
0.050156161 0.74256933 0.031297907 5652266
0.049814075 0.74237823 0.031298608 5652266
0.049471997 0.74218708 0.031299323 5652266
0.049129911 0.74199599 0.031300023 5652266
0.048787832 0.7418049 0.031300724 5652266
0.048445746 0.74161381 0.031301424 5586473
0.04810366 0.74142271 0.031302124 5455657
0.047761574 0.74123156 0.031302825 5455657
0.027964279 0.74190462 0.023097724 5323303
0.027603656 0.74170321 0.023098469 5257510
0.027243033 0.74150175 0.023099199 5257510
0.026882425 0.74130028 0.023099944 5257510
0.025940567 0.74167663 0.022467583 5191717
0.025578529 0.74147439 0.022468328 5256997
0.02463235 0.74184835 0.021835983 5256997
0.024268895 0.74164528 0.021836728 5191717
0.023905441 0.74144226 0.021837473 5125924
0.053480916 0.74465352 0.031629264 5849386
0.05313883 0.74446243 0.031629965 5717800
0.052796751 0.74427134 0.031630665 4402199
0.052959368 0.74345875 0.032263219 5191715
0.052618712 0.74326843 0.032263905 5586475
0.052278049 0.74307811 0.032264605 5652268
0.051937386 0.74288779 0.032265306 5718059
0.051086336 0.74331582 0.031634182 5652266
0.05074425 0.74312472 0.031634882 5652266
0.050402164 0.74293363 0.031635582 5652266
0.050060079 0.74274254 0.031636298 5652266
0.049717993 0.74255145 0.031636998 5652266
0.049375921 0.74236035 0.031637698 5652266
0.049033836 0.74216926 0.031638399 5652266
0.04869175 0.74197817 0.031639099 5586473
0.048349664 0.74178702 0.031639799 5652266
0.048007578 0.74159592 0.0316405 5455657
0.047665492 0.74140483 0.0316412 5521450
0.027862981 0.74208724 0.023454428 5323301
0.027502373 0.74188578 0.023455173 5257508
0.027141765 0.74168438 0.023455903 5191715
0.026781142 0.74148291 0.023456648 5257510
0.025838882 0.74185997 0.022825703 5191717
0.025476843 0.74165773 0.022826448 5322790
0.024530277 0.74203241 0.022195503 5256997
0.024166808 0.74182934 0.022196248 5256997
0.023803353 0.74162632 0.022196993 5191204
0.053885654 0.74420214 0.032598078 5849386
0.053544998 0.74401182 0.032598779 5783593
0.053204343 0.7438215 0.032599479 4533785
0.052863687 0.74363124 0.032600179 5191715
0.052523032 0.74344093 0.03260088 5586475
0.052182376 0.74325061 0.03260158 5652268
0.051841706 0.74306035 0.03260228 5718059
0.051501051 0.74286997 0.032602981 5718059
0.051160395 0.74267972 0.032603681 5718059
0.05081974 0.7424894 0.032604367 5718059
0.050479077 0.74229908 0.032605082 5652266
0.050138421 0.74210882 0.032605767 5652266
0.049797758 0.7419185 0.032606468 5652266
0.049457103 0.74172819 0.032607168 5652266
0.049116448 0.74153787 0.032607868 5586473
0.048775792 0.74134755 0.032608569 5652266
0.04791151 0.74176919 0.031978875 5586473
0.047569424 0.7415781 0.031979576 5652266
0.027761698 0.74226987 0.023811132 5323301
0.02740109 0.74206841 0.023811877 5257508
0.027040467 0.74186695 0.023812607 5191715
0.026679859 0.74166554 0.023813352 5191717
0.02631925 0.74146408 0.023814097 5257510
0.025958627 0.74126261 0.023814827 5322790
0.025598019 0.74106121 0.023815572 5256997
0.02465108 0.7414366 0.023186058 5256997
0.024289042 0.7412343 0.023186803 5256997
0.053789981 0.74437463 0.032935053 5980970
0.053449318 0.74418437 0.032935753 5783591
0.053108662 0.74399406 0.032936454 4533785
0.052768007 0.74380374 0.032937154 5125922
0.052427351 0.74361342 0.032937855 5586475
0.052086696 0.7434231 0.03293854 5652268
0.051746033 0.74323285 0.03293924 5718059
0.05140537 0.74304253 0.032939941 5718059
0.051064715 0.74285221 0.032940641 5718059
0.050724059 0.74266195 0.032941341 5718059
0.050383396 0.74247158 0.032942042 5652266
0.050042741 0.74228132 0.032942742 5652266
0.049702078 0.742091 0.032943442 5652266
0.049361423 0.74190068 0.032944143 5652266
0.049020767 0.74171042 0.032944843 5652266
0.048680112 0.74152011 0.032945544 5652266
0.047815427 0.74194241 0.032317251 5652266
0.047473341 0.74175131 0.032317966 5652266
0.026578575 0.74184811 0.024170056 5191717
0.026217967 0.74164671 0.024170801 5257510
0.025857344 0.74144524 0.024171531 5257510
0.025496736 0.74124378 0.024172276 5257510
0.024549395 0.74161988 0.023544163 5257510
0.024187371 0.74141765 0.023544908 5257510
0.0536943 0.74454713 0.033272013 5980970
0.053353645 0.74435687 0.033272713 5783591
0.053012982 0.74416655 0.033273414 4731164
0.052672327 0.74397624 0.033274114 5125922
0.052331671 0.74378598 0.033274814 5586473
0.051991016 0.74359566 0.033275515 5652266
0.051650353 0.74340534 0.033276215 5718059
0.051309697 0.74321502 0.033276916 5718059
0.050969034 0.74302471 0.033277616 5718059
0.050628379 0.74283445 0.033278316 5718059
0.050287724 0.74264413 0.033279017 5718059
0.049947061 0.74245381 0.033279717 5652266
0.049606405 0.74226356 0.033280402 5652266
0.04926575 0.74207318 0.033281103 5652266
0.048925087 0.74188292 0.033281803 5652266
0.048584431 0.7416926 0.033282503 5718059
0.047719344 0.74211562 0.032655627 5652266
0.047377259 0.74192452 0.032656342 5652266
0.026477292 0.74203074 0.02452676 5257510
0.026116684 0.74182928 0.024527505 5323303
0.025756061 0.74162787 0.02452825 5323303
0.025395453 0.74142641 0.02452898 5323303
0.024447709 0.74180323 0.023902282 5257508
0.024085686 0.74160099 0.023903027 5257508
0.054100633 0.74409288 0.034235209 6046763
0.053761408 0.7439034 0.034235895 5783591
0.053422168 0.74371386 0.034236595 4796959
0.053082943 0.74352437 0.034237295 5125924
0.052743711 0.74333489 0.034237981 5586473
0.052404478 0.74314535 0.034238681 5718059
0.052065238 0.74295586 0.034239382 5783852
0.051726013 0.74276638 0.034240082 5718059
0.051386781 0.74257684 0.034240767 5718059
0.051047549 0.74238735 0.034241468 5718059
0.050708309 0.74219781 0.034242168 5718059
0.050369076 0.74200833 0.034242868 5652266
0.050029844 0.74181879 0.034243554 5652266
0.049690619 0.7416293 0.034244254 5652266
0.049351379 0.74143982 0.034244955 5652266
0.049012147 0.74125028 0.03424564 5718059
0.048672915 0.74106079 0.03424634 5652266
0.04833369 0.74087131 0.034247041 5652266
0.04799445 0.74068177 0.034247741 5652266
0.028035432 0.74223316 0.025507316 5454887
0.02767624 0.74203247 0.025508061 5323301
0.027317062 0.74183184 0.025508791 5257508
0.026957855 0.74163115 0.025509536 5257510
0.026598677 0.74143052 0.025510266 5323303
0.026239485 0.74122989 0.025511011 5323303
0.025880307 0.7410292 0.025511742 5323303
0.024933562 0.74140757 0.024886429 5323301
0.024572954 0.74120611 0.024887174 5323301
0.023621961 0.7415821 0.024261892 5257508
0.023259923 0.74137986 0.024262622 5257508
0.022897884 0.74117756 0.024263367 5257762
0.010944799 0.74357247 0.018015504 5125411
0.0105685 0.74336225 0.018016279 5125411
0.010192201 0.74315202 0.018017039 5191204
0.0098159164 0.74294186 0.018017814 5191204
0.054005355 0.74426472 0.034570754 5981485
0.05366613 0.74407518 0.034571454 5718313
0.05332689 0.74388564 0.034572154 4994338
0.052987665 0.74369615 0.03457284 5060131
0.052648433 0.74350667 0.03457354 5520680
0.0523092 0.74331713 0.03457424 5718059
0.05196996 0.74312764 0.034574941 5783852
0.051630735 0.74293816 0.034575626 5718059
0.051291503 0.74274862 0.034576327 5718059
0.050952271 0.74255913 0.034577027 5718059
0.050613031 0.74236965 0.034577727 5652266
0.050273798 0.74218011 0.034578413 5652266
0.049934566 0.74199057 0.034579113 5652266
0.049595341 0.74180108 0.034579813 5652266
0.049256101 0.7416116 0.034580499 5652266
0.048916869 0.74142206 0.034581199 5718059
0.048577636 0.74123257 0.0345819 5652266
0.048238412 0.74104309 0.0345826 5652266
0.047899172 0.74085355 0.034583285 5652266
0.027934536 0.74241501 0.025862619 5454887
0.027575359 0.74221438 0.025863349 5323301
0.027216181 0.74201369 0.025864094 5257508
0.026856974 0.74181306 0.025864825 5257508
0.026497796 0.74161243 0.02586557 5323301
0.026138604 0.74141175 0.0258663 5323301
0.025779411 0.74121112 0.025867045 5323301
0.024832278 0.7415902 0.025243133 5323301
0.024471655 0.74138874 0.025243878 5323301
0.023520276 0.74176544 0.024619997 5257508
0.023158237 0.7415632 0.024620742 5323301
0.022796199 0.7413609 0.024621487 5323555
0.010839105 0.74376297 0.018387705 5125409
0.010462806 0.7435528 0.01838848 5191202
0.010086522 0.74334258 0.018389255 5125922
0.0097102225 0.74313235 0.01839003 5191715
0.053910077 0.7444365 0.034906313 6046765
0.053570852 0.74424696 0.034907013 5849386
0.053231612 0.74405748 0.034907699 5125924
0.052892387 0.74386793 0.034908399 4994338
0.052553155 0.74367845 0.034909099 5586473
0.052213922 0.74348891 0.0349098 5783852
0.051874682 0.74329942 0.034910485 5783852
0.051535457 0.74310994 0.034911186 5783852
0.051196225 0.7429204 0.034911886 5783852
0.050856993 0.74273092 0.034912586 5718059
0.050517753 0.74254143 0.034913272 5652266
0.05017852 0.74235189 0.034913972 5652266
0.049839288 0.74216241 0.034914672 5652266
0.049500063 0.74197292 0.034915358 5652266
0.049160823 0.74178338 0.034916058 5652266
0.048821591 0.74159384 0.034916759 5652266
0.048482358 0.74140435 0.034917459 5652266
0.048143134 0.74121487 0.034918144 5652266
0.047803894 0.74102533 0.034918845 5652266
0.027833655 0.74259692 0.026217908 5454887
0.027474478 0.74239624 0.026218653 5323301
0.027115285 0.74219561 0.026219383 5257508
0.026756093 0.74199498 0.026220128 5323301
0.026396915 0.74179429 0.026220858 5454887
0.026037723 0.74159366 0.026221603 5454887
0.02567853 0.74139297 0.026222333 5454887
0.024730995 0.74177277 0.025599837 5323301
0.024370387 0.74157137 0.025600582 5323301
0.02341859 0.74194872 0.024978116 5257508
0.023056552 0.74174654 0.024978861 5323301
0.022694513 0.74154425 0.024979606 5323555
0.010733411 0.74395359 0.018759921 5191202
0.010357127 0.74374336 0.018760696 5191202
0.0099808425 0.74353313 0.018761471 5191715
0.0096045285 0.74332297 0.018762246 5257508
0.0086057037 0.74367404 0.018139854 5125922
0.0082279742 0.74346304 0.018140629 5060129
0.0078502595 0.74325204 0.018141404 5125922
0.054993629 0.74435675 0.035862461 6177579
0.054655828 0.74416804 0.035863146 6111786
0.054318018 0.74397933 0.035863847 5980972
0.053980209 0.74379063 0.035864532 5849386
0.053642407 0.74360192 0.035865232 5191717
0.053304598 0.74341321 0.035865933 4994338
0.052966788 0.7432245 0.035866618 5520682
0.052628979 0.74303579 0.035867304 5718061
0.052291177 0.74284708 0.035868004 5783854
0.051953368 0.74265838 0.035868704 5783854
0.051615566 0.74246967 0.03586939 5783854
0.051277757 0.74228096 0.03587009 5718061
0.050939947 0.74209225 0.035870776 5718059
0.050602138 0.74190354 0.035871476 5652266
0.050264329 0.74171484 0.035872161 5652266
0.049926527 0.74152607 0.035872862 5652266
0.049588718 0.74133736 0.035873547 5652266
0.049250908 0.74114865 0.035874248 5718059
0.04838708 0.74157619 0.035253018 5652266
0.048047855 0.74138665 0.035253704 5718059
0.047708616 0.74119711 0.035254404 5652266
0.047369376 0.74100763 0.035255104 5652266
0.047030151 0.74081814 0.035255805 5652266
