# .PCD v0.7 - Point Cloud Data file format
VERSION 0.7
FIELDS x y z rgb
SIZE 4 4 4 4
TYPE F F F U
COUNT 1 1 1 1
WIDTH 1070
HEIGHT 1
VIEWPOINT 0 0 0 1 0 0 0
POINTS 1070
DATA ascii
-0.033075497 0.77562582 0.069624864 10325888
-0.033143058 0.77595353 0.069618791 10260095
-0.033210635 0.7762813 0.069612727 10325888
-0.033278197 0.77660906 0.069606654 10325888
-0.032571435 0.77729529 0.069036521 10325888
-0.032639325 0.77762461 0.069030419 10391681
-0.032707229 0.77795398 0.069024324 10325888
-0.032775119 0.77828336 0.069018222 10391681
-0.032843024 0.77861267 0.06901212 10391681
-0.032910913 0.77894205 0.069006026 10325888
-0.032978818 0.77927136 0.068999924 10325888
-0.033046722 0.77960074 0.068993829 10391681
-0.032342911 0.78030133 0.06842342 10391681
-0.032411143 0.78063226 0.068417296 10391681
-0.032479361 0.78096324 0.068411164 10391681
-0.032547593 0.78129417 0.068405032 10391681
-0.032615826 0.78162515 0.068398908 10391681
-0.032684043 0.78195608 0.068392776 10391681
-0.032752275 0.782287 0.068386652 10457474
-0.032820508 0.78261799 0.06838052 10457474
-0.032888725 0.78294891 0.068374395 10457474
-0.032188237 0.78366554 0.067803703 10457474
-0.032256797 0.78399807 0.067797542 10457474
-0.032325342 0.78433061 0.067791387 10325888
-0.032393903 0.7846632 0.067785226 10391681
-0.032462463 0.78499573 0.067779064 10457474
-0.032531023 0.78532827 0.06777291 10391681
-0.032599583 0.7856608 0.067766748 10391681
-0.032668129 0.78599334 0.067760594 10391681
-0.031970605 0.78672433 0.067189626 10522497
-0.032039493 0.78705847 0.067183435 10456704
-0.032108381 0.78739268 0.067177251 10456704
-0.032177269 0.78772682 0.06717106 10588290
-0.032246158 0.78806096 0.067164876 10456704
-0.032315046 0.78839511 0.067158684 10456704
-0.032383934 0.78872925 0.0671525 10456704
-0.032452807 0.78906339 0.067146309 10456704
-0.03252171 0.78939754 0.067140125 10522497
-0.03182745 0.7901445 0.066568859 10522497
-0.031896666 0.79048026 0.066562645 10522497
-0.031965896 0.79081601 0.066556424 10522497
-0.032035097 0.79115176 0.06655021 10325886
-0.032104328 0.79148746 0.066543989 10391679
-0.032173529 0.79182327 0.066537775 10260093
-0.03224276 0.79215896 0.066531554 10260093
-0.032311961 0.79249471 0.06652534 10260093
-0.032381192 0.79283047 0.066519119 10391679
-0.032450408 0.79316622 0.066512905 10391679
-0.032519624 0.79350197 0.066506684 10325886
-0.031829327 0.79426813 0.065935068 10325888
-0.031898871 0.79460549 0.065928817 10391681
-0.031968415 0.7949428 0.065922573 10325888
-0.032037959 0.79528016 0.06591633 10260095
-0.032107517 0.79561752 0.065910079 10391681
-0.032177061 0.79595482 0.065903828 10391681
-0.031489074 0.79673219 0.06533201 10391681
-0.031558946 0.79707116 0.06532573 10325888
-0.031628832 0.79741007 0.065319449 10391681
-0.031698704 0.79774904 0.065313175 10457474
-0.031768575 0.79808795 0.065306902 10457474
-0.031838447 0.79842693 0.065300621 10457474
-0.031908333 0.79876584 0.065294348 10457474
-0.031978205 0.79910481 0.065288067 10457474
-0.032048076 0.79944372 0.065281793 10457474
-0.032117948 0.79978269 0.065275513 10589060
-0.032187834 0.80012167 0.065269239 10457474
-0.031503811 0.80091816 0.064697057 10589060
-0.031574026 0.80125868 0.064690754 10588806
-0.031644225 0.80159926 0.064684443 10588806
-0.031714424 0.80193979 0.06467814 10588806
-0.031784639 0.80228031 0.064671829 10654599
-0.031854838 0.80262089 0.064665526 10654599
-0.031925052 0.80296141 0.064659223 10654599
-0.031995252 0.80330193 0.064652912 10654599
-0.032065466 0.80364251 0.064646609 10720392
-0.032135665 0.80398303 0.064640298 10720392
-0.032205865 0.80432355 0.064633995 10654599
-0.031525791 0.8051393 0.064061463 10720392
-0.031596333 0.80548143 0.064055122 10720392
-0.03166686 0.80582356 0.064048789 10654853
-0.031737402 0.80616575 0.064042449 10720646
-0.031807929 0.80650789 0.064036116 10786439
-0.031878471 0.80685002 0.064029783 10720646
-0.031200707 0.80767691 0.063457042 10655366
-0.031271577 0.80802065 0.063450679 10786952
-0.031342447 0.80836439 0.063444316 10786952
-0.031413302 0.80870813 0.063437946 10786952
-0.031484172 0.80905187 0.063431583 10786952
-0.031555042 0.80939561 0.063425213 10721159
-0.031625897 0.80973935 0.06341885 10720905
-0.031696767 0.81008309 0.063412488 10786698
-0.031021982 0.81092441 0.062839478 10852745
-0.031093165 0.81126976 0.062833086 10786952
-0.031164363 0.81161511 0.062826686 10852745
-0.031235561 0.8119604 0.062820293 10786952
-0.031306759 0.81230575 0.062813893 10786952
-0.031377956 0.8126511 0.0628075 10852745
-0.031449139 0.81299645 0.062801108 10852745
-0.031520337 0.81334174 0.062794715 10721159
-0.031591535 0.81368709 0.062788315 10524550
-0.030920029 0.81454444 0.062215008 10721929
-0.030991554 0.81489134 0.062208585 10655882
-0.03106308 0.8152383 0.062202163 10524296
-0.031134591 0.8155852 0.062195733 10392710
-0.031206116 0.81593215 0.062189311 10195331
-0.030536592 0.81679904 0.061615825 10458503
-0.030608445 0.81714755 0.061609372 10392710
-0.030680299 0.81749612 0.06160292 10392710
-0.030752152 0.81784463 0.061596468 10195331
-0.030824006 0.8181932 0.061590008 10129538
-0.030895859 0.81854171 0.061583556 9537401
-0.030228645 0.8194198 0.061009869 9997954
-0.030300826 0.81976992 0.061003387 10195333
-0.030373007 0.8201201 0.060996905 10261640
-0.030445188 0.82047021 0.060990423 10590605
-0.03051737 0.82082033 0.060983941 11118491
-0.030589551 0.82117045 0.060977452 11710628
-0.030661732 0.82152063 0.060970969 12041392
-0.030733928 0.82187074 0.060964487 12699322
-0.030069679 0.8227632 0.060390532 13292740
-0.030142188 0.82311493 0.060384013 14477014
-0.030214712 0.82346666 0.060377501 14741723
-0.030287221 0.82381839 0.060370989 15202274
-0.03035973 0.82417011 0.06036447 15269099
-0.030432239 0.8245219 0.060357958 15597552
-0.030504763 0.82487363 0.060351446 15859702
-0.030577272 0.82522535 0.060344934 15925239
-0.030649781 0.82557708 0.060338423 15859700
-0.03072229 0.82592881 0.060331903 15728626
-0.030794814 0.82628053 0.060325392 15400948
-0.030867323 0.82663226 0.06031888 14150881
-0.030939832 0.82698399 0.060312368 13031885
-0.031012341 0.82733572 0.060305849 11913404
-0.03035304 0.8282522 0.059731454 10135198
-0.030425876 0.82860553 0.059724912 9082510
-0.030498713 0.82895887 0.05971837 8948871
-0.030571565 0.82931221 0.059711829 8751492
-0.030644402 0.82966554 0.059705272 9407875
-0.030717239 0.83001888 0.059698731 9276289
-0.028509215 0.74607521 0.071574077 8156002
-0.028576121 0.74639976 0.071568064 8353381
-0.028643027 0.74672431 0.071562052 8616553
-0.028709948 0.74704885 0.071556047 9011311
-0.028776854 0.7473734 0.071550034 9405297
-0.02884376 0.74769795 0.071544021 9865848
-0.02971448 0.74780297 0.072098091 9931641
-0.029781058 0.74812591 0.072092116 9931641
-0.029847652 0.74844885 0.072086133 10456954
-0.02991423 0.74877179 0.07208015 10720126
-0.029980808 0.74909478 0.072074175 10917505
-0.030047387 0.74941772 0.072068192 11049091
-0.030113965 0.74974066 0.072062209 10983296
-0.030180544 0.75006366 0.072056226 10917503
-0.030247122 0.7503866 0.072050251 10917503
-0.0303137 0.75070953 0.072044268 11114882
-0.030380279 0.75103247 0.072038285 11114882
-0.030446857 0.75135547 0.072032303 11246468
-0.030513436 0.75167841 0.072026327 11378056
-0.030580029 0.75200135 0.072020344 11312263
-0.030646607 0.75232434 0.072014362 11575181
-0.030713186 0.75264728 0.072008386 11575181
-0.030779764 0.75297022 0.072002403 11378572
-0.030846342 0.75329316 0.071996421 11444365
-0.030912921 0.75361615 0.071990445 11444365
-0.030979499 0.75393909 0.071984462 11444365
-0.031046078 0.75426203 0.07197848 11379085
-0.031112656 0.75458503 0.071972497 11510671
-0.031179234 0.75490797 0.071966521 11576466
-0.031245813 0.7552309 0.071960539 11576466
-0.031312391 0.75555384 0.071954556 11576466
-0.031378984 0.75587684 0.071948573 11708052
-0.031445563 0.75619978 0.071942598 11708822
-0.031512141 0.75652272 0.071936615 11840408
-0.03157872 0.75684571 0.071930632 11709336
-0.031645298 0.75716865 0.071924657 11577750
-0.031711876 0.75749159 0.071918674 11511959
-0.031778455 0.75781453 0.071912691 11511959
-0.031845033 0.75813752 0.071906716 11446425
-0.031911612 0.75846046 0.071900733 11314839
-0.03197819 0.7587834 0.07189475 11051667
-0.032044768 0.7591064 0.071888767 10920081
-0.032111362 0.75942934 0.071882792 10853775
-0.03217794 0.75975227 0.071876809 10853775
-0.032244518 0.76007521 0.071870826 11050640
-0.032311097 0.76039821 0.071864843 10655882
-0.032377675 0.76072115 0.071858868 10590089
-0.032444254 0.76104409 0.071852885 10261124
-0.032510832 0.76136708 0.071846902 10392194
-0.03257741 0.76169002 0.071840927 10326401
-0.032643989 0.76201296 0.071834944 10194815
-0.032710567 0.7623359 0.071828961 10129022
-0.032777146 0.76265889 0.071822986 9931643
-0.032843724 0.76298183 0.071817003 10129022
-0.032910302 0.76330477 0.07181102 10129022
-0.032976881 0.76362777 0.071805038 10194815
-0.032256126 0.76425022 0.071237497 10129022
-0.032323048 0.76457477 0.071231484 10129022
-0.032389954 0.76489931 0.071225479 10129022
-0.03245686 0.76522386 0.071219467 10194815
-0.032523766 0.76554841 0.071213454 10194815
-0.032590672 0.76587296 0.071207449 10129022
-0.032657593 0.76619756 0.071201436 10129022
-0.0327245 0.76652205 0.071195424 10063229
-0.032791406 0.76684666 0.071189418 10129020
-0.032858312 0.7671712 0.071183406 10129020
-0.032925218 0.76749575 0.071177393 10063229
-0.032992139 0.7678203 0.071171388 10129022
-0.033059046 0.76814485 0.071165375 10129022
-0.033125952 0.76846939 0.071159363 10194815
-0.03241013 0.76911587 0.070591375 10129022
-0.032477379 0.76944202 0.07058534 10129022
-0.032544613 0.76976818 0.070579298 10129022
-0.032611862 0.77009434 0.070573255 10194815
-0.032679096 0.77042043 0.07056722 10260608
-0.03274633 0.77074659 0.070561178 10194815
-0.032813564 0.77107275 0.070555136 10194815
-0.032880813 0.7713989 0.070549101 10194815
-0.032948047 0.77172506 0.070543058 10194815
-0.033015281 0.77205122 0.070537016 10129022
-0.03308253 0.77237737 0.070530981 10194815
-0.033149764 0.77270353 0.070524938 10260608
-0.033216998 0.77302969 0.070518903 10260608
-0.033284247 0.77335584 0.070512861 10260608
-0.032573387 0.77402627 0.069944426 10194815
-0.032640949 0.77435398 0.069938362 10129022
-0.032708526 0.77468175 0.069932289 10325888
-0.032776088 0.77500951 0.069926217 10325888
-0.032843664 0.77533728 0.069920152 10325888
-0.032911226 0.77566504 0.06991408 10260095
-0.032978803 0.77599275 0.069908015 10260095
-0.033046365 0.77632052 0.069901943 10325888
-0.033113942 0.77664828 0.069895871 10325888
-0.03240636 0.77733469 0.069327146 10325888
-0.032474265 0.77766407 0.069321051 10325888
-0.032542154 0.77799338 0.069314949 10325888
-0.032610059 0.77832276 0.069308847 10325888
-0.032677948 0.77865207 0.069302753 10391681
-0.032745853 0.77898145 0.069296651 10325888
-0.032813743 0.77931082 0.069290549 10325888
-0.032881647 0.77964014 0.069284454 10391681
-0.032177046 0.78034097 0.068715461 10457474
-0.032245263 0.78067189 0.068709329 10391681
-0.032313496 0.78100288 0.068703204 10391681
-0.032381728 0.7813338 0.068697073 10457474
-0.032449946 0.78166473 0.068690948 10391681
-0.032518178 0.78199571 0.068684816 10391681
-0.032586411 0.78232664 0.068678692 10457474
-0.032654628 0.78265762 0.06867256 10457474
-0.032722861 0.78298855 0.068666428 10391681
-0.032021567 0.78370535 0.068097152 10391681
-0.032090127 0.78403789 0.06809099 10457474
-0.032158688 0.78437042 0.068084836 10325888
-0.032227233 0.78470296 0.068078674 10325888
-0.032295793 0.78503549 0.068072513 10391681
-0.032364354 0.78536808 0.068066359 10391681
-0.032432914 0.78570062 0.068060197 10522497
-0.032501474 0.78603315 0.068054043 10522497
-0.031803131 0.78676432 0.067484483 10522497
-0.031872019 0.78709847 0.067478299 10522497
-0.031940907 0.78743267 0.067472108 10456704
-0.032009795 0.78776681 0.067465924 10588290
-0.032078683 0.78810096 0.067459732 10522497
-0.032147571 0.7884351 0.067453548 10456704
-0.03221646 0.78876925 0.067447357 10456704
-0.032285348 0.78910339 0.067441173 10456704
-0.032354236 0.78943753 0.067434981 10456704
-0.031659186 0.79018468 0.066865131 10456704
-0.031728402 0.79052043 0.066858917 10456704
-0.031797618 0.79085618 0.066852696 10522497
-0.031866834 0.79119194 0.066846475 10456704
-0.031936049 0.79152769 0.066840261 10456704
-0.032005265 0.79186344 0.066834047 10260095
-0.032074481 0.79219913 0.066827826 10194302
-0.032143697 0.79253489 0.066821605 10260095
-0.032212913 0.79287064 0.066815391 10391681
-0.032282129 0.79320639 0.066809177 10391681
-0.032351345 0.79354215 0.066802956 10325888
-0.031660244 0.79430848 0.066232748 10260095
-0.031729802 0.79464585 0.066226505 10391681
-0.031799346 0.79498315 0.066220254 10325888
-0.03186889 0.79532051 0.06621401 10260095
-0.031938434 0.79565787 0.066207759 10325888
-0.032007977 0.79599524 0.066201515 10391681
-0.031319201 0.79677278 0.065631099 10391681
-0.031389073 0.79711169 0.065624818 10325888
-0.031458944 0.79745066 0.065618545 10391681
-0.031528816 0.79778957 0.065612271 10391681
-0.031598702 0.79812855 0.065605991 10522497
-0.031668574 0.79846746 0.065599717 10588290
-0.031738445 0.79880643 0.065593436 10522497
-0.031808332 0.79914534 0.065587163 10522497
-0.031878203 0.79948431 0.065580882 10457474
-0.031948075 0.79982322 0.065574609 10457474
-0.032017961 0.8001622 0.065568328 10457474
-0.031333134 0.80095893 0.064997561 10457474
-0.031403348 0.80129945 0.064991258 10457474
-0.031473547 0.80164003 0.064984947 10457474
-0.031543747 0.80198056 0.064978644 10457474
-0.031613961 0.80232108 0.064972334 10589060
-0.03168416 0.80266166 0.06496603 10588806
-0.031754375 0.80300218 0.06495972 10654599
-0.031824574 0.8033427 0.064953417 10588806
-0.031894788 0.80368328 0.064947113 10654599
-0.031964988 0.8040238 0.064940803 10654599
-0.032035187 0.80436432 0.0649345 10654599
-0.031354323 0.80518025 0.064363375 10654599
-0.03142485 0.80552238 0.064357035 10654599
-0.031495377 0.80586451 0.064350702 10654599
-0.03156592 0.8062067 0.064344361 10720392
-0.031636462 0.80654883 0.064338028 10786185
-0.031706989 0.80689096 0.064331695 10720392
-0.031028435 0.80771804 0.06376037 10720392
-0.031099305 0.80806184 0.063754007 10851978
-0.03117016 0.80840552 0.063747637 10851978
-0.03124103 0.80874926 0.063741274 10786185
-0.031311885 0.809093 0.063734904 10786698
-0.031382754 0.80943674 0.063728541 10720905
-0.031453624 0.80978048 0.063722178 10720905
-0.031524479 0.81012422 0.063715808 10720905
-0.030848905 0.81096572 0.063144214 10852745
-0.030920088 0.81131107 0.063137814 10852745
-0.030991286 0.81165642 0.063131422 10918538
-0.031062484 0.81200171 0.063125029 10852745
-0.031133667 0.81234705 0.063118629 10852745
-0.031204864 0.8126924 0.063112237 10852745
-0.031276062 0.81303775 0.063105844 10918538
-0.03134726 0.8133831 0.063099444 10852745
-0.031418458 0.81372845 0.063093051 10721159
-0.030746147 0.81458592 0.06252116 10852745
-0.030817673 0.81493288 0.06251473 10721675
-0.030889198 0.81527978 0.062508307 10655882
-0.030960709 0.81562674 0.062501885 10590089
-0.031032234 0.81597364 0.062495455 10524296
-0.030361906 0.81684077 0.061923385 10590089
-0.030433759 0.81718928 0.061916932 10590089
-0.030505612 0.81753784 0.06191048 10590089
-0.030577466 0.81788635 0.061904021 10590089
-0.030649319 0.81823492 0.061897568 10655112
-0.030721173 0.81858343 0.061891116 10655112
-0.030053154 0.8194617 0.061318845 10523526
-0.030125335 0.81981182 0.061312355 10589319
-0.030197516 0.82016194 0.061305873 10523526
-0.030269697 0.82051212 0.061299391 10589319
-0.030341879 0.82086223 0.061292902 10655114
-0.030414075 0.82121235 0.06128642 10128770
-0.030486256 0.82156253 0.061279938 9800575
-0.030558437 0.82191265 0.061273456 9537403
-0.029893398 0.82280529 0.060700908 9801087
-0.029965907 0.82315707 0.060694396 10787982
-0.030038416 0.82350874 0.060687877 11118480
-0.03011094 0.82386053 0.060681365 11776410
-0.030183449 0.82421225 0.060674854 12040872
-0.030255958 0.82456398 0.060668342 12633009
-0.030328467 0.82491571 0.060661823 12964547
-0.030400977 0.82526743 0.060655311 13161926
-0.0304735 0.82561916 0.060648799 13689299
-0.03054601 0.82597089 0.060642287 14610401
-0.030618519 0.82632262 0.060635775 14743016
-0.030691028 0.82667434 0.060629256 15071981
-0.030763552 0.82702613 0.060622744 15269874
-0.030836061 0.82737786 0.060616232 15663096
-0.030175939 0.82829446 0.060043246 15663096
-0.030248791 0.82864785 0.060036704 15466485
-0.030321628 0.82900113 0.060030147 14678257
-0.03039448 0.82935447 0.060023606 13691362
-0.030467317 0.8297078 0.060017064 12900563
-0.030540153 0.83006114 0.060010523 11058359
-0.028346553 0.74611402 0.07186047 8748139
-0.02841346 0.74643862 0.071854457 8879725
-0.028480366 0.74676317 0.071848452 9339504
-0.028547272 0.74708772 0.071842439 9800055
-0.028614178 0.74741226 0.071836427 10063227
-0.028681099 0.74773681 0.071830422 10392192
-0.029552624 0.7478416 0.072383076 10589571
-0.029619202 0.74816453 0.072377101 10655364
-0.02968578 0.74848753 0.072371118 10787202
-0.029752359 0.74881047 0.072365135 10852995
-0.029818937 0.74913341 0.07235916 10984068
-0.029885516 0.74945635 0.072353177 10984068
-0.029952094 0.74977934 0.072347194 10984068
-0.030018687 0.75010228 0.072341211 11115654
-0.030085266 0.75042522 0.072335236 10984066
-0.030151844 0.75074822 0.072329253 11181445
-0.030218422 0.75107116 0.07232327 11181445
-0.030285001 0.75139409 0.072317287 11247238
-0.030351579 0.75171703 0.072311312 11313031
-0.030418158 0.75204003 0.072305329 11313031
-0.030484736 0.75236297 0.072299346 11444619
-0.030551314 0.7526859 0.072293371 11641998
-0.030617893 0.75300884 0.072287388 11575951
-0.030684471 0.75333184 0.072281405 11575951
-0.030751064 0.75365478 0.07227543 11575951
-0.030817643 0.75397772 0.072269447 11575951
-0.030884221 0.75430071 0.072263464 11444365
-0.0309508 0.75462365 0.072257482 11641744
-0.031017378 0.75494659 0.072251506 11707537
-0.031083956 0.75526953 0.072245523 11707537
-0.031150535 0.75559253 0.072239541 11576464
-0.031217113 0.75591546 0.072233558 11642257
-0.031283692 0.7562384 0.072227582 11773843
-0.03135027 0.7565614 0.0722216 11773843
-0.031416848 0.75688434 0.072215617 11839636
-0.031483427 0.75720727 0.072209641 11839636
-0.031550005 0.75753021 0.072203659 11643027
-0.031616598 0.75785321 0.072197676 11708820
-0.031683177 0.75817615 0.0721917 11577752
-0.031749755 0.75849909 0.072185718 11511959
-0.031816334 0.75882208 0.072179735 11446425
-0.031882912 0.75914502 0.072173752 11380632
-0.03194949 0.75946796 0.072167777 11380119
-0.032016069 0.7597909 0.072161794 11314326
-0.032082647 0.76011389 0.072155811 11445912
-0.032149225 0.76043683 0.072149828 11380119
-0.032215804 0.76075977 0.072143853 10985615
-0.032282382 0.76108277 0.07213787 10854029
-0.032348976 0.76140571 0.072131887 10655882
-0.032415554 0.76172864 0.072125912 11116433
-0.032482132 0.76205158 0.072119929 10590603
-0.032548711 0.76237458 0.072113946 10130052
-0.032615289 0.76269752 0.072107971 9998720
-0.032681867 0.76302046 0.072101988 10130306
-0.032748446 0.76334345 0.072096005 10195585
-0.032815024 0.76366639 0.072090022 10129792
-0.032093465 0.76428902 0.071523897 10063999
-0.032160372 0.76461363 0.071517885 9998206
-0.032227293 0.76493818 0.071511872 9998206
-0.032294199 0.76526272 0.071505867 10063999
-0.032361105 0.76558727 0.071499854 10194815
-0.032428011 0.76591182 0.071493842 10129022
-0.032494918 0.76623636 0.071487829 10129022
-0.032561824 0.76656091 0.071481824 10129022
-0.032628745 0.76688546 0.071475811 10129022
-0.032695651 0.76721001 0.071469799 10129022
-0.032762557 0.76753461 0.071463794 10129022
-0.032829463 0.7678591 0.071457781 10129022
-0.032896385 0.76818371 0.071451768 10129022
-0.032963291 0.76850826 0.071445763 10129022
-0.032246664 0.76915491 0.070879184 10129022
-0.032313913 0.76948106 0.070873141 10129022
-0.032381147 0.76980722 0.070867106 10129022
-0.032448396 0.77013338 0.070861064 10194815
-0.03251563 0.77045947 0.070855021 10260608
-0.032582864 0.77078563 0.070848987 10260608
-0.032650098 0.77111179 0.070842944 10194815
-0.032717347 0.77143794 0.070836902 10194815
-0.032784581 0.7717641 0.070830867 10194815
-0.032851815 0.77209026 0.070824824 10129022
-0.032919064 0.77241641 0.070818782 10129022
-0.032986298 0.77274257 0.070812747 10194815
-0.033053532 0.77306873 0.070806704 10194815
-0.033120781 0.77339488 0.070800662 10260608
-0.032409117 0.77406549 0.070233643 10194815
-0.032476693 0.7743932 0.070227578 10129022
-0.032544255 0.77472097 0.070221506 10260095
-0.032611832 0.77504873 0.070215434 10325888
-0.032679394 0.7753765 0.070209369 10260095
-0.032746956 0.77570426 0.070203297 10260095
-0.032814533 0.77603197 0.070197232 10260095
-0.032882094 0.77635974 0.07019116 10325888
-0.032949671 0.7766875 0.070185088 10260095
-0.0322413 0.77737409 0.069617778 10325888
-0.032309189 0.77770346 0.069611676 10325888
-0.032377094 0.77803278 0.069605574 10260095
-0.032444984 0.77836215 0.069599479 10325888
-0.032512888 0.77869153 0.069593377 10391681
-0.032580778 0.77902085 0.069587275 10325888
-0.032648683 0.77935022 0.069581181 10325888
-0.032716587 0.77967954 0.069575079 10325888
-0.032011166 0.78038055 0.069007501 10391681
-0.032079399 0.78071153 0.069001369 10391681
-0.032147631 0.78104246 0.068995245 10391681
-0.032215849 0.78137338 0.068989113 10457474
-0.032284081 0.78170437 0.068982981 10325888
-0.032352313 0.78203529 0.068976857 10325888
-0.032420531 0.78236628 0.068970725 10391681
-0.032488763 0.7826972 0.068964601 10457474
-0.032556996 0.78302813 0.068958469 10391681
-0.031854898 0.78374511 0.0683906 10391681
-0.031923458 0.78407764 0.068384439 10457474
-0.031992003 0.78441024 0.068378285 10325888
-0.032060564 0.78474277 0.068372123 10325888
-0.032129124 0.78507531 0.068365969 10522497
-0.032197684 0.78540784 0.068359807 10522497
-0.032266244 0.78574038 0.068353653 10522497
-0.03233479 0.78607297 0.068347491 10456704
-0.031635657 0.78680432 0.067779347 10522497
-0.031704545 0.78713846 0.067773156 10456704
-0.031773433 0.78747261 0.067766972 10456704
-0.031842321 0.78780675 0.06776078 10588290
-0.031911209 0.78814089 0.067754596 10522497
-0.031980097 0.78847504 0.067748405 10456704
-0.032048985 0.78880918 0.067742221 10456704
-0.032117873 0.78914332 0.06773603 10522497
-0.032186761 0.78947747 0.067729846 10456704
-0.031490907 0.79022485 0.067161404 10456704
-0.031560123 0.7905606 0.067155182 10456704
-0.031629339 0.79089636 0.067148969 10522497
-0.031698555 0.79123211 0.067142747 10522497
-0.031767771 0.79156786 0.067136534 10390911
-0.031836987 0.79190361 0.067130312 10390911
-0.031906202 0.79223931 0.067124099 10325118
-0.031975418 0.79257506 0.067117877 10260095
-0.032044634 0.79291081 0.067111664 10325888
-0.03211385 0.79324657 0.067105442 10325888
-0.032183066 0.79358232 0.067099229 10260095
-0.031491175 0.79434884 0.066530429 10260095
-0.031560719 0.7946862 0.066524185 10325888
-0.031630263 0.79502356 0.066517934 10260095
-0.031699821 0.79536092 0.066511691 10260095
-0.031769365 0.79569823 0.06650544 10325888
-0.031838909 0.79603559 0.066499196 10325888
-0.031149313 0.79681331 0.065930188 10325888
-0.031219199 0.79715228 0.065923914 10325888
-0.031289071 0.79749119 0.065917641 10456704
-0.031358942 0.79783016 0.06591136 10456704
-0.031428829 0.79816908 0.065905087 10456704
-0.0314987 0.79850805 0.065898806 10522497
-0.031568572 0.79884696 0.065892532 10456704
-0.031638443 0.79918593 0.065886252 10522497
-0.03170833 0.79952484 0.065879978 10588290
-0.031778201 0.79986382 0.065873697 10522497
-0.031848073 0.80020273 0.065867424 10391681
-0.031162456 0.80099964 0.065298066 10391681
-0.03123267 0.80134022 0.065291762 10391681
-0.031302869 0.80168074 0.065285452 10391681
-0.031373069 0.80202132 0.065279149 10391681
-0.031443283 0.80236185 0.065272838 10457474
-0.031513482 0.80270237 0.065266535 10457474
-0.031583697 0.80304295 0.065260224 10457474
-0.031653896 0.80338347 0.065253921 10588806
-0.03172411 0.80372405 0.06524761 10588806
-0.03179431 0.80406457 0.065241307 10654599
-0.031864509 0.80440509 0.065235004 10457220
-0.03118284 0.8052212 0.064665288 10588806
-0.031253368 0.80556333 0.064658955 10588806
-0.03132391 0.80590546 0.064652614 10588806
-0.031394437 0.80624759 0.064646281 10720392
-0.031464979 0.80658972 0.064639941 10720392
-0.031535506 0.80693191 0.064633608 10720392
-0.030856147 0.80775917 0.064063698 10720392
-0.030927017 0.80810297 0.064057328 10786185
-0.030997887 0.80844665 0.064050965 10786185
-0.031068742 0.80879045 0.064044595 10654599
-0.031139612 0.80913413 0.064038232 10720905
-0.031210482 0.80947793 0.064031869 10720905
-0.031281337 0.80982161 0.064025499 10655112
-0.031352207 0.81016535 0.064019136 10655112
-0.030675814 0.81100708 0.063448951 10786698
-0.030747011 0.81135237 0.063442551 10786698
-0.030818209 0.81169772 0.063436158 10852491
-0.030889392 0.81204307 0.063429765 10786698
-0.03096059 0.81238842 0.063423365 10786698
-0.031031787 0.81273377 0.063416973 10852491
-0.031102985 0.81307912 0.06341058 10852491
-0.031174168 0.81342441 0.06340418 10852491
-0.031245366 0.81376976 0.063397788 10720905
-0.030572265 0.81462747 0.062827304 10852491
-0.030643791 0.81497437 0.062820882 10852491
-0.030715302 0.81532133 0.062814452 10786698
-0.030786827 0.81566823 0.062808029 10655882
-0.030858353 0.81601518 0.062801607 10590089
-0.030187234 0.81688249 0.062230945 10852491
-0.030259088 0.817231 0.062224492 10786698
-0.030330941 0.81757951 0.062218033 10786698
-0.030402794 0.81792808 0.062211581 10786698
-0.030474648 0.81827658 0.062205128 10786698
-0.030546501 0.81862515 0.062198669 10786698
-0.029877678 0.81950361 0.061627813 10720905
-0.029949859 0.81985372 0.061621323 10655112
-0.03002204 0.8202039 0.061614841 10655112
-0.030094221 0.82055402 0.061608359 10786698
-0.030166402 0.82090414 0.061601877 10786698
-0.030238584 0.82125425 0.061595388 10589319
-0.030310765 0.82160443 0.061588906 10589319
-0.030382946 0.82195455 0.061582424 10391940
-0.029717103 0.82284737 0.061011285 10261378
-0.029789612 0.82319915 0.061004773 10392964
-0.029862136 0.82355088 0.060998261 10392190
-0.029934645 0.82390261 0.060991749 10392190
-0.030007154 0.82425433 0.06098523 10261374
-0.030079678 0.82460606 0.060978718 10195581
-0.030152187 0.82495779 0.060972206 10327946
-0.030224696 0.82530951 0.060965687 10459532
-0.030297205 0.82566124 0.060959175 10527381
-0.030369714 0.82601297 0.060952663 11382690
-0.030442238 0.82636476 0.060946152 11778990
-0.030514747 0.82671642 0.06093964 12107955
-0.030587256 0.82706821 0.060933121 12437435
-0.03065978 0.82741994 0.060926609 12963779
-0.029998854 0.82833678 0.06035503 13162955
-0.030071706 0.82869011 0.060348488 13360334
-0.030144542 0.82904339 0.060341947 13492951
-0.030217379 0.82939672 0.060335398 13953502
-0.030290231 0.82975006 0.060328856 14612462
-0.030363068 0.8301034 0.060322315 15138806
-0.028183877 0.74615288 0.072146863 9208690
-0.028250799 0.74647743 0.072140858 9669241
-0.028317705 0.74680197 0.072134845 10326399
-0.028384611 0.74712652 0.072128832 10392192
-0.028451517 0.74745107 0.072122827 10589571
-0.028518423 0.74777567 0.072116815 10852743
-0.029390767 0.74788022 0.072668061 10918536
-0.029457346 0.74820322 0.072662085 11115915
-0.029523924 0.74852616 0.072656102 11115913
-0.029590502 0.74884909 0.07265012 11050120
-0.029657081 0.74917209 0.072644144 11050374
-0.029723659 0.74949503 0.072638161 11050374
-0.029790238 0.74981797 0.072632179 11181447
-0.029856816 0.75014091 0.072626196 11181447
-0.029923394 0.7504639 0.07262022 11181447
-0.029989973 0.75078684 0.072614238 11181447
-0.030056551 0.75110978 0.072608255 11247240
-0.030123129 0.75143278 0.072602272 11313033
-0.030189708 0.75175571 0.072596297 11313033
-0.030256301 0.75207865 0.072590314 11378826
-0.03032288 0.75240159 0.072584331 11576205
-0.030389458 0.75272459 0.072578356 11576205
-0.030456036 0.75304753 0.072572373 11576205
-0.030522615 0.75337046 0.07256639 11576205
-0.030589193 0.75369346 0.072560415 11575951
-0.030655771 0.7540164 0.072554432 11641744
-0.03072235 0.75433934 0.072548449 11575951
-0.030788928 0.75466228 0.072542466 11641744
-0.030855507 0.75498527 0.072536491 11707537
-0.030922085 0.75530821 0.072530508 11707537
-0.030988678 0.75563115 0.072524525 11641744
-0.031055257 0.75595415 0.072518542 11641744
-0.031121835 0.75627708 0.072512567 11773330
-0.031188414 0.75660002 0.072506584 11773330
-0.031254992 0.75692296 0.072500601 11708050
-0.03132157 0.75724596 0.072494626 11708050
-0.031388149 0.7575689 0.072488643 11708050
-0.031454727 0.75789183 0.07248266 11773843
-0.031521305 0.75821483 0.072476685 11643029
-0.031587884 0.75853777 0.072470702 11643029
-0.031654462 0.75886071 0.072464719 11577752
-0.031721041 0.75918365 0.072458737 11511959
-0.031787619 0.75950664 0.072452761 11446166
-0.031854212 0.75982958 0.072446778 11511959
-0.031920791 0.76015252 0.072440796 11577752
-0.031987369 0.76047552 0.072434813 11511959
-0.032053947 0.76079845 0.072428837 11248787
-0.032120526 0.76112139 0.072422855 11314580
-0.032187104 0.76144433 0.072416872 11116947
-0.032253683 0.76176733 0.072410896 11380119
-0.032320261 0.76209027 0.072404914 11248533
-0.032386839 0.7624132 0.072398931 10985361
-0.032453418 0.76273614 0.072392955 10919568
-0.032519996 0.76305914 0.072386973 10985361
-0.032586589 0.76338208 0.07238099 10787982
-0.032653168 0.76370502 0.072375007 10524810
-0.031930804 0.76432788 0.07181029 10327685
-0.03199771 0.76465243 0.071804278 10261892
-0.032064617 0.76497698 0.071798272 10063999
-0.032131538 0.76530153 0.07179226 10195585
-0.032198444 0.76562607 0.071786247 10129792
-0.03226535 0.76595068 0.071780242 9998206
-0.032332256 0.76627523 0.071774229 10129022
-0.032399163 0.76659977 0.071768217 10129022
-0.032466069 0.76692432 0.071762204 10129022
-0.03253299 0.76724887 0.071756199 10129022
-0.032599896 0.76757342 0.071750186 10129022
-0.032666802 0.76789796 0.071744174 10129022
-0.032733709 0.76822251 0.071738169 10129022
-0.03280063 0.76854706 0.071732156 10129022
-0.032867536 0.76887167 0.071726143 10129022
-0.032934442 0.76919621 0.071720138 10129022
-0.033001348 0.76952076 0.071714126 10129022
-0.033068255 0.76984531 0.071708113 10194815
-0.033135161 0.77016985 0.071702108 10260608
-0.033202082 0.7704944 0.071696095 10194815
-0.032486632 0.77115083 0.071130753 10194815
-0.032553881 0.77147698 0.07112471 10129022
-0.032621115 0.77180314 0.071118675 10129022
-0.032688349 0.7721293 0.071112633 10194815
-0.032755598 0.77245545 0.07110659 10129022
-0.032822832 0.77278161 0.071100555 10129022
-0.032890067 0.77310777 0.071094513 10194815
-0.032957315 0.77343392 0.071088471 10194815
-0.033024549 0.77376008 0.071082436 10194815
-0.033091784 0.77408618 0.071076393 10194815
-0.033159032 0.77441233 0.071070351 10260095
-0.032447562 0.77508795 0.070504658 10260095
-0.032515123 0.77541572 0.070498586 10260095
-0.0325827 0.77574348 0.070492513 10260095
-0.032650262 0.77607119 0.070486449 10260095
-0.032717839 0.77639896 0.070480376 10260095
-0.032785401 0.77672672 0.070474312 10260095
-0.032852963 0.77705449 0.070468239 10260095
-0.032920539 0.77738219 0.070462167 10325888
-0.032988101 0.77770996 0.070456102 10260095
-0.032279924 0.77840155 0.069890104 10325888
-0.032347813 0.77873093 0.069884002 10391681
-0.032415718 0.77906024 0.069877908 10325888
-0.032483608 0.77938962 0.069871806 10325888
-0.032551512 0.779719 0.069865711 10325888
-0.032619402 0.78004831 0.069859609 10391681
-0.032687306 0.78037769 0.069853514 10391681
-0.032755211 0.780707 0.069847412 10391681
-0.032049984 0.78141302 0.069281153 10391681
-0.032118216 0.78174394 0.069275022 10325888
-0.032186434 0.78207493 0.069268897 10260095
-0.032254666 0.78240585 0.069262765 10325888
-0.032322899 0.78273678 0.069256634 10391681
-0.032391116 0.78306776 0.069250509 10391681
-0.032459348 0.78339869 0.069244377 10391681
-0.032527581 0.78372967 0.069238253 10391681
-0.032595798 0.7840606 0.069232121 10391681
-0.031893894 0.78478253 0.068665572 10260095
-0.031962454 0.78511512 0.068659417 10456704
-0.032031015 0.78544766 0.068653256 10522497
-0.03209956 0.78578019 0.068647102 10522497
-0.03216812 0.78611273 0.06864094 10522497
-0.03223668 0.78644526 0.068634786 10522497
-0.032305241 0.78677785 0.068628624 10456704
-0.032373801 0.78711039 0.06862247 10456704
-0.032442346 0.78744292 0.068616308 10522497
-0.032510906 0.78777552 0.068610147 10522497
-0.032579467 0.78810805 0.068603992 10456704
-0.031881511 0.78884917 0.068037078 10390911
-0.031950399 0.78918332 0.068030894 10456704
-0.032019287 0.78951752 0.068024702 10456704
-0.032088175 0.78985167 0.068018518 10456704
-0.032157063 0.79018581 0.068012327 10456704
-0.032225952 0.79051995 0.068006143 10456704
-0.032294825 0.7908541 0.067999952 10522497
-0.032363728 0.79118824 0.06799376 10390911
-0.032432601 0.79152238 0.067987576 10390911
-0.032501489 0.79185653 0.067981392 10390911
-0.032570377 0.79219067 0.067975201 10390911
-0.03187637 0.79295099 0.067407936 10456704
-0.031945586 0.79328674 0.067401715 10456704
-0.032014802 0.79362249 0.067395501 10390911
-0.032084018 0.79395825 0.06738928 10390911
-0.032153234 0.794294 0.067383066 10456704
-0.03222245 0.79462969 0.067376845 10260095
-0.032291666 0.79496551 0.067370623 10260095
-0.032360882 0.7953012 0.06736441 10325888
-0.032430097 0.79563695 0.067358196 10260095
-0.031739384 0.7964133 0.066790633 10260095
-0.031808928 0.79675066 0.066784382 10325888
-0.031878471 0.79708797 0.066778138 10325888
-0.031948015 0.79742533 0.066771887 10325888
-0.032017559 0.79776269 0.066765644 10456704
-0.032087103 0.79809999 0.066759393 10522497
-0.032156661 0.79843736 0.066753149 10456704
-0.032226205 0.79877472 0.066746898 10456704
-0.031538442 0.79956543 0.066179067 10522497
-0.031608328 0.79990435 0.066172794 10522497
-0.0316782 0.80024332 0.06616652 10391681
-0.031748071 0.80058223 0.066160239 10325888
-0.031817958 0.8009212 0.066153966 10391681
-0.031887829 0.80126011 0.066147685 10391681
-0.031957701 0.80159909 0.066141412 10391681
-0.032027587 0.80193806 0.066135131 10457474
-0.032097459 0.80227697 0.066128857 10588290
-0.03216733 0.80261588 0.066122577 10522497
-0.032237202 0.80295485 0.066116303 10719622
-0.031553432 0.80376476 0.065548122 10588036
-0.031623632 0.80410528 0.065541811 10588806
-0.031693831 0.80444586 0.065535508 10457220
-0.031764045 0.80478638 0.065529197 10457220
-0.031834245 0.80512691 0.065522894 10588806
-0.031904444 0.80546749 0.065516591 10588806
-0.031974658 0.80580801 0.06551028 10654599
-0.032044858 0.80614853 0.065503977 10720392
-0.032115072 0.80648911 0.065497667 10654599
-0.031434566 0.80731499 0.064929187 10588806
-0.031505093 0.80765712 0.064922854 10720392
-0.031575635 0.80799925 0.064916514 10720392
-0.031646177 0.80834138 0.064910181 10654599
-0.031716704 0.80868351 0.06490384 10720392
-0.031038195 0.80951905 0.06433519 10786185
-0.031109065 0.80986273 0.064328827 10720392
-0.03117992 0.81020647 0.064322464 10720392
-0.03125079 0.81055021 0.064316094 10786185
-0.03132166 0.81089401 0.064309731 10786185
-0.031392515 0.81123769 0.064303368 10720905
-0.031463385 0.81158149 0.064296998 10720905
-0.03153424 0.81192517 0.064290635 10786698
-0.03160511 0.81226891 0.064284265 10786698
-0.030929893 0.81312042 0.063715316 10786698
-0.031001091 0.81346571 0.063708916 10786698
-0.031072289 0.81381106 0.063702524 10786698
-0.031143486 0.81415641 0.063696131 10786698
-0.031214669 0.81450176 0.063689731 10852491
-0.031285867 0.81484711 0.063683338 10852491
-0.030612946 0.81570977 0.063114174 10786698
-0.030684471 0.81605673 0.063107751 10720905
-0.030755997 0.81640363 0.063101329 10852491
-0.030827522 0.81675059 0.063094899 10852491
-0.030899048 0.81709754 0.063088477 10786698
-0.030970573 0.81744444 0.063082054 10786698
-0.031042084 0.8177914 0.063075632 10786698
-0.03111361 0.8181383 0.063069202 10852491
-0.030443653 0.81901538 0.062499776 10786698
-0.030515507 0.81936395 0.062493317 10786698
-0.03058736 0.81971246 0.062486865 10786698
-0.030659214 0.82006097 0.062480412 10852491
-0.030731067 0.82040954 0.062473953 10852491
-0.03080292 0.82075804 0.062467501 10720905
-0.030135289 0.82164633 0.061897874 10590089
-0.03020747 0.82199645 0.061891392 10524296
-0.030279651 0.82234657 0.06188491 10590089
-0.030351833 0.82269669 0.06187842 10524296
-0.030424014 0.82304686 0.061871938 10721157
-0.030496195 0.82339698 0.061865456 10655364
-0.030568376 0.8237471 0.061858967 10655362
-0.030640557 0.82409728 0.061852485 10655362
-0.030712739 0.82444739 0.061846003 10589319
-0.03078492 0.82479751 0.061839521 10523526
-0.030857116 0.82514763 0.061833031 10458503
-0.030193433 0.82605505 0.06126304 10261124
-0.030265942 0.82640684 0.061256528 9603708
-0.030338451 0.82675856 0.061250016 9801087
-0.030410975 0.82711029 0.061243504 9604223
-0.030483484 0.82746202 0.061236992 9998981
-0.030555993 0.82781374 0.061230473 10196876
-0.030628517 0.82816547 0.061223961 11052185
-0.030701026 0.8285172 0.06121745 11514021
-0.030040294 0.82943904 0.06064719 12040365
-0.030113146 0.82979238 0.060640648 11911607
-0.030185983 0.83014572 0.060634106 11977400
-0.02822195 0.74716538 0.072415233 10786950
-0.028288856 0.74748993 0.07240922 10852743
-0.028355762 0.74781448 0.072403207 11115915
-0.028422669 0.74813902 0.072397202 11115915
-0.02848959 0.74846357 0.07239119 11115915
-0.028556496 0.74878812 0.072385177 11115913
-0.029428631 0.74888778 0.072935104 11115913
-0.029495209 0.74921072 0.072929129 11115913
-0.029561788 0.74953365 0.072923146 11115913
-0.029628381 0.74985659 0.072917163 11247240
-0.02969496 0.75017959 0.072911188 11247240
-0.029761538 0.75050253 0.072905205 11313033
-0.029828116 0.75082546 0.072899222 11313033
-0.029894695 0.75114846 0.07289324 11247240
-0.029961273 0.7514714 0.072887264 11378826
-0.030027851 0.75179434 0.072881281 11378826
-0.03009443 0.75211728 0.072875299 11444619
-0.030161008 0.75244027 0.072869316 11576205
-0.030227587 0.75276321 0.07286334 11576205
-0.030294165 0.75308615 0.072857358 11576205
-0.030360743 0.75340915 0.072851375 11576205
-0.030427337 0.75373209 0.072845399 11576205
-0.030493915 0.75405502 0.072839417 11576205
-0.030560493 0.75437796 0.072833434 11641998
-0.030627072 0.75470096 0.072827458 11707791
-0.03069365 0.7550239 0.072821476 11707791
-0.030760229 0.75534683 0.072815493 11707791
-0.030826807 0.75566983 0.07280951 11641998
-0.030893385 0.75599277 0.072803535 11641998
-0.030959964 0.75631571 0.072797552 11707791
-0.031026542 0.75663865 0.072791569 11707791
-0.031093121 0.75696164 0.072785586 11707791
-0.031159714 0.75728458 0.072779611 11707791
-0.031226292 0.75760752 0.072773628 11576718
-0.031292871 0.75793052 0.072767645 11708304
-0.031359449 0.75825346 0.07276167 11708050
-0.031426027 0.75857639 0.072755687 11642257
-0.031492606 0.75889933 0.072749704 11643029
-0.031559184 0.75922233 0.072743729 11577236
-0.031625763 0.75954527 0.072737746 11577236
-0.031692341 0.7598682 0.072731763 11643029
-0.031758919 0.7601912 0.07272578 11840408
-0.031825498 0.76051414 0.072719805 11708822
-0.031892076 0.76083708 0.072713822 11511443
-0.031958655 0.76116002 0.072707839 11511443
-0.032025248 0.76148301 0.072701856 11511445
-0.032091826 0.76180595 0.072695881 11577238
-0.032158405 0.76212889 0.072689898 11380119
-0.032224983 0.76245189 0.072683915 11380119
-0.032291561 0.76277483 0.07267794 11380119
-0.03235814 0.76309776 0.072671957 11380119
-0.032424718 0.7634207 0.072665974 11445912
-0.032491297 0.7637437 0.072659999 11314326
-0.031768128 0.76436675 0.072096683 11249046
-0.031835049 0.76469129 0.072090678 10985874
-0.031901956 0.76501584 0.072084665 10920335
-0.031968862 0.76534039 0.072078653 10459784
-0.032035768 0.76566494 0.072072648 10788236
-0.032102689 0.76598948 0.072066635 10064513
-0.032169595 0.76631403 0.072060622 10129792
-0.032236502 0.76663858 0.072054617 10063999
-0.032303408 0.76696312 0.072048604 10129792
-0.032370314 0.76728773 0.072042592 10063999
-0.032437235 0.76761228 0.072036579 10129022
-0.032504141 0.76793683 0.072030574 10129022
-0.032571048 0.76826137 0.072024561 10129022
-0.032637954 0.76858592 0.072018549 10129022
-0.03270486 0.76891047 0.072012544 10194815
-0.032771781 0.76923501 0.072006531 10194815
-0.032838687 0.76955956 0.072000518 10194815
-0.032905594 0.76988411 0.071994513 10194815
-0.0329725 0.77020872 0.071988501 10194815
-0.033039406 0.77053326 0.071982488 10194815
-0.032323167 0.77118987 0.071418561 10129022
-0.032390416 0.77151603 0.071412519 10194815
-0.03245765 0.77184218 0.071406476 10128768
-0.032524884 0.77216834 0.071400441 10194561
-0.032592133 0.77249444 0.071394399 10194561
-0.032659367 0.77282059 0.071388356 10128768
-0.032726601 0.77314675 0.071382321 10194815
-0.03279385 0.77347291 0.071376279 10194815
-0.032861084 0.77379906 0.071370237 10194815
-0.032928318 0.77412522 0.071364202 10194815
-0.032995567 0.77445138 0.071358159 10260095
-0.032283291 0.77512717 0.070793875 10325888
-0.032350853 0.77545494 0.070787802 10260095
-0.03241843 0.7757827 0.070781738 10260095
-0.032485992 0.77611041 0.070775665 10260608
-0.032553568 0.77643818 0.070769593 10194815
-0.03262113 0.77676594 0.070763528 10194815
-0.032688707 0.77709371 0.070757456 10260608
-0.032756269 0.77742147 0.070751384 10260608
-0.032823846 0.77774918 0.070745319 10260608
-0.032114848 0.77844095 0.070180736 10260608
-0.032182753 0.77877033 0.070174634 10326401
-0.032250643 0.7790997 0.070168532 10260608
-0.032318547 0.77942902 0.070162438 10260608
-0.032386437 0.77975839 0.070156336 10260608
-0.032454342 0.78008771 0.070150241 10326401
-0.032522231 0.78041708 0.070144139 10326401
-0.032590136 0.78074646 0.070138037 10326401
-0.031884119 0.7814526 0.069573194 10326401
-0.031952336 0.78178358 0.069567062 10260608
-0.032020569 0.78211451 0.06956093 10260095
-0.032088801 0.78244543 0.069554806 10325888
-0.032157019 0.78277642 0.069548674 10391681
-0.032225251 0.78310734 0.06954255 10391681
-0.032293484 0.78343832 0.069536418 10391681
-0.032361701 0.78376925 0.069530293 10325888
-0.032429934 0.78410017 0.069524162 10391681
-0.031727225 0.78482234 0.068959028 10325888
-0.031795785 0.78515488 0.068952866 10456704
-0.03186433 0.78548747 0.068946704 10522497
-0.03193289 0.78582001 0.06894055 10522497
-0.032001451 0.78615254 0.068934388 10522497
-0.032070011 0.78648508 0.068928234 10522497
-0.032138571 0.78681767 0.068922073 10522497
-0.032207116 0.7871502 0.068915918 10456704
-0.032275677 0.78748274 0.068909757 10522497
-0.032344237 0.78781527 0.068903603 10456704
-0.032412797 0.78814781 0.068897441 10456704
-0.031714037 0.78888917 0.068331942 10390657
-0.031782925 0.78922331 0.068325751 10456450
-0.031851813 0.78955746 0.068319567 10456704
-0.031920701 0.7898916 0.068313375 10456704
-0.031989589 0.79022574 0.068307191 10456704
-0.032058477 0.79055989 0.068301 10456704
-0.032127365 0.79089403 0.068294808 10522497
-0.032196254 0.79122818 0.068288624 10390911
-0.032265142 0.79156232 0.06828244 10390911
-0.032334015 0.79189652 0.068276249 10456704
-0.032402903 0.79223067 0.068270057 10390911
-0.031708091 0.79299116 0.067704208 10390911
-0.031777307 0.79332691 0.067697987 10390911
-0.031846523 0.79366267 0.067691773 10390911
-0.031915739 0.79399842 0.067685552 10390911
-0.031984955 0.79433417 0.067679331 10390911
-0.032054171 0.79466987 0.067673117 10260095
-0.032123387 0.79500568 0.067666903 10260095
-0.032192603 0.79534137 0.067660682 10260095
-0.032261819 0.79567713 0.067654461 10260095
-0.0315703 0.79645365 0.067088313 10260095
-0.031639844 0.79679102 0.067082062 10325888
-0.031709403 0.79712832 0.067075819 10390911
-0.031778947 0.79746568 0.067069568 10456704
-0.03184849 0.79780304 0.067063324 10456704
-0.031918034 0.79814041 0.067057073 10456704
-0.031987578 0.79847771 0.06705083 10456704
-0.032057121 0.79881507 0.067044586 10456704
-0.031368569 0.79960597 0.066478163 10522497
-0.031438455 0.79994494 0.06647189 10588290
-0.031508327 0.80028391 0.066465609 10391681
-0.031578198 0.80062282 0.066459335 10325888
-0.03164807 0.80096173 0.066453055 10391681
-0.031717956 0.8013007 0.066446781 10391681
-0.031787828 0.80163962 0.0664405 10391681
-0.031857699 0.80197859 0.066434227 10457474
-0.031927571 0.8023175 0.066427946 10391681
-0.031997457 0.80265647 0.066421673 10391681
-0.032067329 0.80299544 0.066415399 10588290
-0.031382754 0.80380553 0.065848619 10588290
-0.031452954 0.80414605 0.065842316 10589060
-0.031523153 0.80448663 0.065836012 10457474
-0.031593367 0.80482715 0.065829702 10589060
-0.031663567 0.80516768 0.065823399 10589060
-0.031733766 0.8055082 0.065817088 10391681
-0.03180398 0.80584878 0.065810785 10589060
-0.03187418 0.8061893 0.065804482 10654853
-0.031944394 0.80652988 0.065798171 10720646
-0.031263083 0.80735594 0.0652311 10654853
-0.031333625 0.80769807 0.065224767 10654853
-0.031404153 0.8080402 0.065218434 10654853
-0.031474695 0.80838233 0.065212093 10589060
-0.031545222 0.80872452 0.06520576 10654599
-0.030865923 0.80956018 0.064638518 10654599
-0.030936778 0.80990386 0.064632155 10654599
-0.031007648 0.81024766 0.064625785 10654599
-0.031078503 0.8105914 0.064619422 10654599
-0.031149372 0.81093514 0.064613059 10786185
-0.031220242 0.81127882 0.064606689 10720392
-0.031291097 0.81162262 0.064600326 10720392
-0.031361967 0.8119663 0.064593956 10851978
-0.031432822 0.8123101 0.064587593 10786185
-0.030756816 0.81316173 0.064020053 10655112
-0.030828014 0.81350708 0.06401366 10655112
-0.030899212 0.81385243 0.06400726 10720905
-0.030970395 0.81419778 0.064000867 10786698
-0.031041592 0.81454313 0.063994467 10852491
-0.03111279 0.81488842 0.063988075 10852491
-0.030439064 0.81575125 0.063420326 10851978
-0.030510589 0.81609821 0.063413896 10786185
-0.030582115 0.81644517 0.063407473 10851978
-0.030653641 0.81679207 0.063401051 10851978
-0.030725166 0.81713903 0.063394621 10786185
-0.030796692 0.81748599 0.063388199 10851978
-0.030868217 0.81783289 0.063381776 10786698
-0.030939728 0.81817985 0.063375354 10852491
-0.030268982 0.81905711 0.062807336 10786698
-0.030340835 0.81940562 0.062800877 10786698
-0.030412689 0.81975418 0.062794425 10852491
-0.030484542 0.82010269 0.062787965 10852491
-0.030556396 0.82045126 0.062781513 10852491
-0.030628249 0.82079977 0.062775061 10786698
-0.029959798 0.82168818 0.062206842 10720905
-0.030031979 0.82203835 0.06220036 10786698
-0.03010416 0.82238847 0.062193878 10721675
-0.030176342 0.82273859 0.062187389 10590089
-0.030248523 0.82308877 0.062180907 10656136
-0.030320704 0.82343888 0.062174425 10656136
-0.0303929 0.823789 0.062167943 10721159
-0.030465081 0.82413912 0.062161453 10721159
-0.030537263 0.8244893 0.062154971 10655366
-0.030609444 0.82483941 0.062148489 10589573
-0.030681625 0.82518953 0.062142 10590343
-0.030017152 0.82609719 0.061573423 10392964
-0.030089661 0.82644892 0.061566912 10261378
-0.030162171 0.82680064 0.0615604 10261378
-0.03023468 0.82715237 0.061553881 10195331
-0.030307204 0.8275041 0.061547369 10129538
-0.030379713 0.82785583 0.061540857 10391940
-0.030452222 0.82820761 0.061534345 10523526
-0.030524731 0.82855928 0.061527826 10391942
-0.029863209 0.8294813 0.060958982 9931391
-0.029936045 0.82983464 0.06095244 9866628
-0.030008897 0.83018798 0.060945898 10129800
-0.028059289 0.74720418 0.072701626 11050122
-0.028126195 0.74752879 0.072695613 11050122
-0.028193101 0.74785334 0.072689608 11115915
-0.028260008 0.74817789 0.072683595 11181706
-0.028326914 0.74850243 0.072677583 11115913
-0.028393835 0.74882698 0.072671577 11115913
-0.029266775 0.7489264 0.073220089 11115913
-0.029333353 0.74924934 0.073214114 11115913
-0.029399931 0.74957234 0.073208131 11181706
-0.02946651 0.74989527 0.073202148 11378572
-0.029533088 0.75021821 0.073196173 11312779
-0.029599667 0.75054115 0.07319019 11313033
-0.029666245 0.75086415 0.073184207 11378826
-0.029732823 0.75118709 0.073178224 11313033
-0.029799417 0.75151002 0.073172249 11378826
-0.029865995 0.75183302 0.073166266 11378826
-0.029932573 0.75215596 0.073160283 11576205
-0.029999152 0.7524789 0.0731543 11576205
-0.03006573 0.75280184 0.073148325 11576205
-0.030132309 0.75312483 0.073142342 11641998
-0.030198887 0.75344777 0.073136359 11641998
-0.030265465 0.75377071 0.073130384 11641998
