# .PCD v0.7 - Point Cloud Data file format
VERSION 0.7
FIELDS x y z rgb
SIZE 4 4 4 4
TYPE F F F U
COUNT 1 1 1 1
WIDTH 1071
HEIGHT 1
VIEWPOINT 0 0 0 1 0 0 0
POINTS 1071
DATA ascii
-0.030865774 0.79519749 0.029709131 10123874
-0.030783519 0.79555547 0.029705197 10123874
-0.030701265 0.79591352 0.029701263 10189669
-0.030619025 0.7962715 0.029697329 10189669
-0.030536771 0.79662949 0.02969338 10189669
-0.031229123 0.79700965 0.030376017 10123876
-0.031147242 0.79736608 0.030372083 10189669
-0.03106536 0.79772246 0.030368179 10189669
-0.030983463 0.79807889 0.030364245 10058853
-0.030901581 0.79843533 0.030360326 10124646
-0.030819699 0.79879171 0.030356407 10124646
-0.030737817 0.79914814 0.030352488 10058853
-0.030655935 0.79950452 0.030348569 10124646
-0.030574054 0.79986095 0.03034465 10058853
-0.030492172 0.80021739 0.030340731 10189669
-0.03041029 0.80057377 0.030336812 10255462
-0.030328408 0.8009302 0.030332893 10255462
-0.030246526 0.80128664 0.030328959 10255462
-0.030164644 0.80164301 0.030325055 10255462
-0.030082762 0.80199945 0.030321121 10255462
-0.030780941 0.8023541 0.031004041 10255462
-0.030699417 0.80270892 0.031000137 10189669
-0.030617908 0.80306375 0.030996233 10255462
-0.030536383 0.80341858 0.030992329 10189669
-0.030454874 0.8037734 0.030988425 10255462
-0.03037335 0.80412823 0.030984521 10255462
-0.030291826 0.80448306 0.030980617 10255462
-0.030210316 0.80483788 0.030976713 10255462
-0.030128792 0.80519271 0.030972809 10387048
-0.030047283 0.80554748 0.030968904 10321255
-0.029965758 0.80590236 0.030965015 10255462
-0.029884249 0.80625713 0.030961111 10255462
-0.030587181 0.80659115 0.03164424 10255464
-0.03050603 0.80694437 0.031640351 10321257
-0.030424878 0.80729759 0.031636477 10321257
-0.030343726 0.8076508 0.031632587 10255464
-0.030262575 0.80800408 0.031628698 10255464
-0.030181423 0.8083573 0.031624824 10255464
-0.030100271 0.80871052 0.031620935 10255464
-0.030019119 0.80906373 0.031617045 10255464
-0.029937968 0.80941701 0.031613156 10255462
-0.029856816 0.80977023 0.031609267 10255462
-0.029775664 0.81012344 0.031605393 10387048
-0.029694512 0.81047666 0.031601503 10321255
-0.029613361 0.81082994 0.031597614 10321255
-0.029532194 0.81118315 0.03159374 10321255
-0.03024061 0.81149328 0.032277137 10321255
-0.030159831 0.81184489 0.032273263 10387048
-0.030079037 0.81219655 0.032269403 10321255
-0.029998258 0.81254816 0.032265529 10321255
-0.029917464 0.81289983 0.03226167 10321253
-0.029836684 0.81325144 0.032257795 10518632
-0.029755905 0.8136031 0.032253921 10387046
-0.029675111 0.81395477 0.032250062 10387046
-0.029594332 0.81430638 0.032246202 10387048
-0.029513538 0.81465805 0.032242328 10518634
-0.029432759 0.81500965 0.032238454 10518634
-0.029351965 0.81536132 0.032234594 10518634
-0.029271185 0.81571293 0.03223072 10518120
-0.029190391 0.8160646 0.032226861 10649706
-0.029109612 0.8164162 0.032222986 10715499
-0.029823884 0.81670088 0.032906681 10649706
-0.029743463 0.81705093 0.032902822 10649706
-0.029663041 0.81740099 0.032898977 10715499
-0.02958262 0.81775105 0.032895118 10650222
-0.029502198 0.81810111 0.032891273 10584429
-0.029421777 0.81845111 0.032887429 10584429
-0.029341355 0.81880116 0.03288357 10650222
-0.029260948 0.81915122 0.032879725 10781294
-0.029180527 0.81950128 0.032875866 10781294
-0.029100105 0.81985134 0.032872021 10650222
-0.029019684 0.8202014 0.032868177 10716015
-0.029738322 0.82046694 0.033552065 10519406
-0.029658273 0.82081538 0.033548236 10585199
-0.029578224 0.82116383 0.033544391 10519406
-0.02949816 0.82151234 0.033540562 10519406
-0.029418111 0.82186079 0.033536732 10650222
-0.029338047 0.82220924 0.033532903 10650222
-0.029257998 0.82255769 0.033529073 10781808
-0.029177949 0.82290614 0.033525229 10781808
-0.029097885 0.82325459 0.033521399 10716015
-0.029017836 0.82360303 0.033517569 10781808
-0.028937772 0.82395148 0.03351374 10716015
-0.028857723 0.82429999 0.03350991 10781808
-0.028777659 0.82464844 0.033506066 10979187
-0.02869761 0.82499689 0.033502236 10979187
-0.028617561 0.82534534 0.033498406 11110259
-0.028537497 0.82569379 0.033494577 11110259
-0.028457448 0.82604229 0.033490747 11176052
-0.028377384 0.82639074 0.033486903 11176052
-0.028297335 0.82673919 0.033483073 11307638
-0.028217286 0.82708764 0.033479244 11307638
-0.028137222 0.82743609 0.033475399 11308152
-0.028057173 0.82778454 0.033471569 11308152
-0.027977109 0.82813299 0.03346774 11505531
-0.02789706 0.82848144 0.03346391 11571324
-0.027816996 0.82882994 0.033460081 11637117
-0.027736947 0.82917839 0.033456236 11702910
-0.027656898 0.82952684 0.033452407 11834496
-0.027576834 0.82987529 0.033448577 12031875
-0.027496785 0.83022374 0.033444747 12097668
-0.027416721 0.83057225 0.033440918 12229254
-0.02652663 0.8310529 0.032748818 12426633
-0.026446208 0.83140296 0.032744959 12558219
-0.026365787 0.83175302 0.0327411 12558989
-0.03202188 0.75877213 0.024259552 9926495
-0.031936347 0.75914443 0.024255455 10058081
-0.0318508 0.75951678 0.024251372 10058081
-0.031765267 0.75988913 0.024247274 10123874
-0.031679735 0.76026142 0.024243176 10058081
-0.031594187 0.76063377 0.024239078 10058083
-0.031508654 0.76100606 0.02423498 10058083
-0.031423107 0.76137841 0.024230897 10058083
-0.031337574 0.7617507 0.0242268 9926497
-0.031993419 0.76229334 0.024906233 9926497
-0.031908244 0.76266402 0.02490215 10058083
-0.031823069 0.76303476 0.024898067 10123876
-0.031737894 0.7634055 0.024893999 10123876
-0.031801924 0.76652414 0.02554509 10123876
-0.031717122 0.76689327 0.025541037 10123876
-0.031632319 0.76726246 0.025536969 10189669
-0.031547502 0.76763159 0.025532916 10123876
-0.031462699 0.76800072 0.025528848 10123876
-0.031377897 0.76836985 0.025524795 10189669
-0.031293079 0.76873899 0.025520727 10189669
-0.031534031 0.77108753 0.026180297 10189669
-0.031449586 0.77145505 0.026176244 10124646
-0.031365141 0.77182263 0.026172206 10058853
-0.031280696 0.77219021 0.026168168 10124646
-0.031196252 0.77255774 0.026164114 10058853
-0.031111822 0.77292526 0.026160076 10058853
-0.031027377 0.77329284 0.026156038 10058853
-0.030942932 0.77366036 0.026152 10058853
-0.030858487 0.77402794 0.026147947 10058853
-0.030774042 0.77439547 0.026143909 10190439
-0.030689612 0.77476305 0.02613987 10124646
-0.030605167 0.77513057 0.026135832 10124646
-0.031274915 0.77561271 0.026815921 10124646
-0.031190842 0.77597868 0.026811898 10124646
-0.031106755 0.77634466 0.026807874 10124646
-0.031022683 0.77671063 0.026803836 10058853
-0.03093861 0.77707654 0.026799813 10058853
-0.030854538 0.77744251 0.02679579 10189669
-0.030770451 0.77780849 0.026791766 10255462
-0.030686378 0.77817446 0.026787743 10255462
-0.031359389 0.77864224 0.027467981 10189669
-0.031275675 0.7790066 0.027463973 10189669
-0.03119196 0.77937096 0.027459964 10189669
-0.03110826 0.77973533 0.027455956 10058853
-0.031024545 0.78009975 0.027451962 10058853
-0.030940831 0.78046411 0.027447939 10124646
-0.030857116 0.78082848 0.027443945 10124646
-0.030773416 0.78119284 0.027439922 10058853
-0.030689701 0.7815572 0.027435929 10058853
-0.031366393 0.78200912 0.028116345 10058853
-0.031283051 0.78237188 0.028112367 10058853
-0.031199709 0.78273463 0.028108373 10255462
-0.031116351 0.78309745 0.02810438 10255462
-0.031033009 0.7834602 0.028100386 10452327
-0.030949667 0.78382301 0.028096408 10452327
-0.030866325 0.78418577 0.028092414 10386534
-0.030782983 0.78454852 0.028088421 10320741
-0.030699626 0.78491133 0.028084427 10189669
-0.030616283 0.78527409 0.028080434 10189669
-0.030532941 0.7856369 0.02807644 10255462
-0.030449599 0.78599966 0.028072461 10255462
-0.031131029 0.7864309 0.028753117 10320741
-0.031048045 0.78679204 0.028749138 10386534
-0.03096506 0.78715324 0.028745174 10386534
-0.03088209 0.78751445 0.028741196 10386534
-0.030799106 0.78787559 0.028737217 10386534
-0.030716121 0.7882368 0.028733253 10320741
-0.030633152 0.788598 0.028729275 10320741
-0.030550167 0.78895921 0.028725311 10254948
-0.030467182 0.78932035 0.028721333 10320741
-0.030384213 0.78968155 0.028717369 10386534
-0.030301228 0.79004276 0.02871339 10320741
-0.030218244 0.7904039 0.028709412 10320741
-0.030904442 0.79081446 0.029390305 10254948
-0.03082183 0.79117405 0.029386342 10254948
-0.030739218 0.79153365 0.029382393 10254948
-0.030656606 0.79189324 0.029378444 10254948
-0.030573994 0.79225284 0.02937448 10320741
-0.030491382 0.79261243 0.029370517 10320741
-0.030408755 0.79297203 0.029366568 10320741
-0.030326143 0.79333162 0.029362619 10386534
-0.03101562 0.79372782 0.030043662 10386534
-0.030933365 0.79408586 0.030039713 10320741
-0.030851126 0.79444385 0.030035779 10320741
-0.030768871 0.79480183 0.03003183 10254948
-0.030686632 0.79515988 0.030027896 10123874
-0.030604377 0.79551786 0.030023962 10123874
-0.030522123 0.79587585 0.030020028 10189669
-0.030439883 0.79623389 0.030016094 10189669
-0.030357629 0.79659188 0.030012146 10189669
-0.031050771 0.79697216 0.030693367 10189669
-0.03096889 0.79732859 0.030689448 10189669
-0.030887008 0.79768497 0.030685529 10189669
-0.030805126 0.7980414 0.03068161 10058853
-0.030723244 0.79839784 0.030677676 10124646
-0.030641362 0.79875422 0.030673757 10058853
-0.03055948 0.79911065 0.030669838 10058853
-0.030477598 0.79946709 0.030665919 10058853
-0.030395716 0.79982346 0.030662 10058853
-0.030313835 0.8001799 0.030658081 10189669
-0.030231938 0.80053627 0.030654162 10189669
-0.030150056 0.80089271 0.030650243 10255462
-0.030068174 0.80124915 0.030646324 10255462
-0.029986292 0.80160552 0.030642405 10255462
-0.02990441 0.80196196 0.030638486 10255462
-0.030603394 0.80231678 0.031319976 10189669
-0.03052187 0.80267161 0.031316072 10255462
-0.03044036 0.80302644 0.031312168 10255462
-0.030358836 0.80338126 0.031308264 10189669
-0.030277327 0.80373609 0.031304359 10255462
-0.030195802 0.80409092 0.031300455 10255462
-0.030114278 0.80444574 0.031296551 10255462
-0.030032769 0.80480057 0.031292647 10321255
-0.029951245 0.8051554 0.031288743 10387048
-0.029869735 0.80551016 0.031284839 10321255
-0.029788211 0.80586499 0.03128095 10255462
-0.029706702 0.80621982 0.031277046 10321255
-0.030410424 0.80655396 0.031958759 10255464
-0.030329272 0.80690724 0.031954885 10255464
-0.03024812 0.80726045 0.031950995 10321257
-0.030166969 0.80761367 0.031947106 10321257
-0.030085817 0.80796689 0.031943217 10255464
-0.030004665 0.80832016 0.031939328 10255464
-0.029923514 0.80867338 0.031935453 10255464
-0.029842362 0.8090266 0.031931564 10255464
-0.02976121 0.80937982 0.031927675 10255462
-0.029680058 0.80973309 0.031923801 10321255
-0.029598907 0.81008631 0.031919912 10321255
-0.029517755 0.81043953 0.031916022 10321255
-0.029436603 0.81079274 0.031912133 10321255
-0.029355451 0.81114602 0.031908244 10321255
-0.030064657 0.81145626 0.03259024 10321255
-0.029983878 0.81180793 0.032586366 10387048
-0.029903084 0.81215954 0.032582507 10387048
-0.029822305 0.81251121 0.032578632 10387048
-0.029741511 0.81286287 0.032574773 10321255
-0.029660732 0.81321448 0.032570899 10387048
-0.029579937 0.81356615 0.032567024 10387048
-0.029499158 0.81391776 0.032563165 10387048
-0.029418364 0.81426942 0.032559305 10387048
-0.029337585 0.81462103 0.032555431 10518634
-0.029256806 0.8149727 0.032551557 10649706
-0.029176012 0.81532431 0.032547697 10649706
-0.029095232 0.81567597 0.032543823 10518120
-0.029014438 0.81602758 0.032539964 10649706
-0.028933659 0.81637925 0.032536089 10715499
-0.029648736 0.8166641 0.033218354 10649706
-0.029568315 0.8170141 0.033214509 10715499
-0.029487893 0.81736416 0.033210665 10715499
-0.029407471 0.81771421 0.033206806 10781294
-0.02932705 0.81806427 0.033202961 10715501
-0.029246628 0.81841433 0.033199102 10584429
-0.029166207 0.81876439 0.033195257 10650222
-0.029085785 0.81911445 0.033191413 10781294
-0.029005364 0.81946445 0.033187553 10781294
-0.028924942 0.8198145 0.033183709 10650222
-0.02884452 0.82016456 0.033179849 10781808
-0.029563963 0.82043028 0.033862323 10519406
-0.029483914 0.82077873 0.033858493 10585199
-0.02940385 0.82112724 0.033854663 10519406
-0.029323801 0.82147568 0.033850834 10519406
-0.029243752 0.82182413 0.033847004 10650222
-0.029163688 0.82217258 0.03384316 10650222
-0.029083639 0.82252103 0.03383933 10781808
-0.029003575 0.82286948 0.0338355 10781808
-0.028923526 0.82321799 0.033831671 10716015
-0.028843477 0.82356644 0.033827841 10781808
-0.028763413 0.82391489 0.033823997 10716015
-0.028683364 0.82426333 0.033820167 10781808
-0.0286033 0.82461178 0.033816338 10979187
-0.028523251 0.82496023 0.033812493 10979187
-0.028443187 0.82530868 0.033808663 11110259
-0.028363138 0.82565713 0.033804834 11110259
-0.028283089 0.82600564 0.033801004 11176052
-0.028203025 0.82635409 0.033797175 11176052
-0.028122976 0.82670254 0.03379333 11307638
-0.028042912 0.82705098 0.033789501 11307638
-0.027962863 0.82739943 0.033785671 11308152
-0.0278828 0.82774794 0.033781841 11308152
-0.02780275 0.82809639 0.033778012 11505531
-0.027722701 0.82844484 0.033774167 11571324
-0.027642637 0.82879329 0.033770338 11637117
-0.027562588 0.82914174 0.033766508 11702910
-0.027482525 0.82949018 0.033762679 11834496
-0.027402475 0.82983863 0.033758849 12031875
-0.027322426 0.83018708 0.033755004 12097668
-0.027242362 0.83053559 0.033751175 12229254
-0.026351482 0.83101606 0.033060491 12426633
-0.02627106 0.83136612 0.033056647 12558219
-0.026190639 0.83171618 0.033052787 12493709
-0.031835571 0.75873297 0.024591073 9926495
-0.031750038 0.75910527 0.024586976 10058081
-0.031664506 0.75947762 0.024582893 10058081
-0.031578958 0.75984997 0.02457878 10123874
-0.031493425 0.76022226 0.024574697 10058081
-0.031407878 0.76059461 0.024570599 10058083
-0.031322345 0.7609669 0.024566501 10058083
-0.031236812 0.76133925 0.024562404 10058083
-0.031151265 0.7617116 0.024558306 9926497
-0.031807899 0.7622543 0.025236338 9926497
-0.031722739 0.76262504 0.025232255 9926497
-0.031637564 0.76299578 0.025228173 9993060
-0.031552389 0.76336652 0.02522409 9993060
-0.031617209 0.76648533 0.02587378 10189669
-0.031532407 0.76685447 0.025869727 10189669
-0.031447604 0.7672236 0.025865659 10189669
-0.031362787 0.76759273 0.025861591 10189669
-0.031277984 0.76796192 0.025857538 10189669
-0.031193182 0.76833105 0.025853485 10189669
-0.031108364 0.76870018 0.025849417 10189669
-0.031350106 0.7710489 0.026507571 10189669
-0.031265661 0.77141643 0.026503533 10058853
-0.031181231 0.77178395 0.02649948 10124646
-0.031096786 0.77215153 0.026495442 10124648
-0.031012341 0.77251905 0.026491404 10124648
-0.030927896 0.77288663 0.02648735 10124648
-0.030843452 0.77325416 0.026483312 10124648
-0.030759022 0.77362174 0.026479274 10124648
-0.030674577 0.77398926 0.026475221 10190441
-0.030590132 0.77435684 0.026471183 10256234
-0.030505687 0.77472436 0.026467144 10124648
-0.030421242 0.77509195 0.026463091 10124648
-0.031091794 0.77557421 0.027141765 10124648
-0.031007722 0.77594018 0.027137741 10124648
-0.030923635 0.77630615 0.027133718 10124648
-0.030839562 0.77667212 0.027129695 10058853
-0.03075549 0.7770381 0.027125672 10058853
-0.030671403 0.77740401 0.027121633 10189669
-0.03058733 0.77776998 0.02711761 10255462
-0.030503258 0.77813596 0.027113587 10255462
-0.031177059 0.77860391 0.027792424 10189669
-0.031093359 0.77896827 0.027788416 10189669
-0.031009644 0.77933264 0.027784407 10189669
-0.03092593 0.77969706 0.027780399 10189669
-0.030842215 0.78006142 0.02777639 10189669
-0.030758515 0.78042579 0.027772382 10255462
-0.0306748 0.78079015 0.027768373 10255462
-0.030591086 0.78115451 0.027764365 10255462
-0.030507371 0.78151888 0.027760357 10255462
-0.031184867 0.78197098 0.028439373 10189669
-0.031101525 0.78233373 0.028435379 10255462
-0.031018183 0.78269649 0.028431386 10320741
-0.030934826 0.7830593 0.028427392 10386534
-0.030851483 0.78342205 0.028423414 10452327
-0.030768141 0.78378487 0.02841942 10386534
-0.030684799 0.78414762 0.028415427 10320741
-0.030601457 0.78451037 0.028411448 10320741
-0.0305181 0.78487319 0.028407454 10386534
-0.030434757 0.78523594 0.028403461 10320741
-0.030351415 0.78559875 0.028399467 10386534
-0.030268073 0.78596151 0.028395474 10386534
-0.030950293 0.78639287 0.029074728 10386534
-0.030867308 0.78675407 0.02907075 10386534
-0.030784339 0.78711528 0.029066771 10386534
-0.030701354 0.78747642 0.029062808 10386534
-0.03061837 0.78783762 0.029058829 10386534
-0.0305354 0.78819883 0.02905485 10320741
-0.030452415 0.78856003 0.029050887 10386534
-0.030369431 0.78892118 0.029046908 10320741
-0.030286461 0.78928238 0.029042929 10320741
-0.030203477 0.78964359 0.029038966 10386534
-0.030120492 0.79000473 0.029034987 10386534
-0.030037522 0.79036593 0.029031023 10386534
-0.030724511 0.79077661 0.029710487 10254948
-0.030641899 0.79113621 0.029706538 10254948
-0.030559286 0.7914958 0.029702574 10189155
-0.030476674 0.79185545 0.029698625 10189155
-0.030394062 0.79221499 0.029694661 10254948
-0.030311435 0.79257464 0.029690713 10320741
-0.030228823 0.79293418 0.029686749 10386534
-0.030146211 0.79329383 0.0296828 10386534
-0.030836478 0.7936902 0.030362427 10386534
-0.030754223 0.79404819 0.030358493 10320741
-0.030671984 0.79440618 0.030354545 10254948
-0.03058973 0.79476422 0.030350611 10320741
-0.03050749 0.79512221 0.030346677 10189667
-0.030425236 0.79548019 0.030342728 10189667
-0.030342981 0.79583824 0.030338794 10123874
-0.030260742 0.79619622 0.03033486 10189667
-0.030178487 0.79655421 0.030330926 10255462
-0.030872434 0.79693466 0.031010717 10189669
-0.030790552 0.7972911 0.031006798 10189669
-0.030708671 0.79764754 0.031002879 10189669
-0.030626789 0.79800391 0.03099896 9993060
-0.030544892 0.79836035 0.030995041 10058853
-0.03046301 0.79871672 0.030991107 10124646
-0.030381128 0.79907316 0.030987203 10058853
-0.030299246 0.7994296 0.030983269 10124646
-0.030217364 0.79978597 0.03097935 10124646
-0.030135483 0.80014241 0.030975431 10255462
-0.030053601 0.80049884 0.030971512 10189669
-0.029971719 0.80085522 0.030967593 10255462
-0.029889837 0.80121166 0.030963674 10255462
-0.029807955 0.80156803 0.030959755 10255462
-0.029726073 0.80192447 0.030955836 10255462
-0.030425847 0.80227947 0.03163591 10255462
-0.030344322 0.8026343 0.031632006 10255462
-0.030262813 0.80298913 0.031628102 10255462
-0.030181289 0.80334395 0.031624198 10189669
-0.030099764 0.80369878 0.031620294 10255462
-0.030018255 0.8040536 0.03161639 10255462
-0.029936731 0.80440843 0.031612486 10255462
-0.029855222 0.80476326 0.031608596 10255462
-0.029773697 0.80511808 0.031604692 10321255
-0.029692188 0.80547285 0.031600788 10321255
-0.029610664 0.80582768 0.031596884 10255462
-0.029529154 0.8061825 0.03159298 10255462
-0.030233666 0.80651683 0.032273278 10255462
-0.030152515 0.8068701 0.032269388 10255462
-0.030071363 0.80722332 0.032265514 10321255
-0.029990211 0.80757654 0.032261625 10387048
-0.029909059 0.80792975 0.032257736 10321257
-0.029827908 0.80828297 0.032253861 10255464
-0.029746756 0.80863625 0.032249972 10321255
-0.029665604 0.80898947 0.032246083 10321255
-0.029584453 0.80934268 0.032242194 10255462
-0.029503301 0.8096959 0.032238305 10321255
-0.029422149 0.81004918 0.03223443 10387048
-0.029340997 0.81040239 0.032230541 10321255
-0.029259846 0.81075561 0.032226652 10387048
-0.029178694 0.81110883 0.032222778 10321255
-0.029888704 0.81141931 0.032903343 10255462
-0.029807925 0.81177092 0.032899469 10321255
-0.029727131 0.81212258 0.03289561 10321255
-0.029646352 0.81247425 0.032891735 10387048
-0.029565558 0.81282586 0.032887876 10387048
-0.029484779 0.81317753 0.032884002 10387048
-0.029403985 0.81352913 0.032880127 10387048
-0.029323205 0.8138808 0.032876268 10518634
-0.029242411 0.81423241 0.032872409 10387048
-0.029161632 0.81458408 0.032868534 10518634
-0.029080838 0.81493568 0.03286466 10715501
-0.029000059 0.81528735 0.032860801 10649708
-0.028919265 0.81563896 0.032856926 10715501
-0.028838485 0.81599063 0.032853067 10715501
-0.028757691 0.81634223 0.032849193 10649706
-0.029473573 0.81662726 0.033530042 10649706
-0.029393151 0.81697732 0.033526182 10715499
-0.02931273 0.81732738 0.033522338 10715499
-0.029232308 0.81767738 0.033518493 10781294
-0.029151887 0.81802744 0.033514649 10715501
-0.029071465 0.81837749 0.033510789 10584429
-0.028991044 0.81872755 0.033506945 10650222
-0.028910622 0.81907761 0.033503085 10781294
-0.0288302 0.81942767 0.033499241 10781294
-0.028749779 0.81977773 0.033495396 10650222
-0.028669357 0.82012773 0.033491537 10781808
-0.029389605 0.82039368 0.034172595 10716013
-0.029309556 0.82074213 0.034168765 10716013
-0.029229492 0.82109058 0.034164935 10585197
-0.029149443 0.82143903 0.034161106 10519404
-0.029069379 0.82178748 0.034157276 10781806
-0.02898933 0.82213593 0.034153432 10716013
-0.028909281 0.82248437 0.034149602 10781806
-0.028829217 0.82283282 0.034145772 10781806
-0.028749168 0.82318133 0.034141943 10781806
-0.028669104 0.82352978 0.034138113 10781806
-0.028589055 0.82387823 0.034134269 10781808
-0.028508991 0.82422668 0.034130439 10781808
-0.028428942 0.82457513 0.03412661 10847601
-0.028348893 0.82492363 0.034122765 10847601
-0.028268829 0.82527208 0.034118935 10847601
-0.02818878 0.82562053 0.034115106 10979187
-0.028108716 0.82596898 0.034111276 10979187
-0.028028667 0.82631743 0.034107447 11044980
-0.027948603 0.82666588 0.034103602 11110773
-0.027868554 0.82701433 0.034099773 11110773
-0.027788505 0.82736278 0.034095943 11242359
-0.027708441 0.82771128 0.034092113 11308152
-0.027628392 0.82805973 0.034088284 11439738
-0.027548328 0.82840818 0.034084439 11439738
-0.027468279 0.82875663 0.03408061 11505531
-0.02738823 0.82910508 0.03407678 11637117
-0.027308166 0.82945359 0.03407295 11834496
-0.027228117 0.82980204 0.034069121 11966082
-0.027148053 0.83015049 0.034065276 12097668
-0.027068004 0.83049893 0.034061447 12229254
-0.026176319 0.83097929 0.033372179 12426633
-0.026095897 0.83132935 0.033368319 12558219
-0.026015475 0.83167934 0.033364475 12493709
-0.032899991 0.75665432 0.025627598 9926495
-0.032814816 0.75702506 0.02562353 9860702
-0.032729641 0.7573958 0.025619447 9926495
-0.032644466 0.75776654 0.025615364 10058081
-0.032559291 0.75813729 0.025611296 10058081
-0.03247413 0.75850797 0.025607213 9860702
-0.032388955 0.75887871 0.02560313 9926495
-0.03230378 0.75924945 0.025599062 10058081
-0.032218605 0.75962019 0.02559498 10058081
-0.03213343 0.75999093 0.025590897 10058081
-0.032048255 0.76036167 0.025586829 10058081
-0.03196308 0.76073241 0.025582746 10058081
-0.03187792 0.76110315 0.025578678 10058081
-0.031792745 0.76147389 0.025574595 10058081
-0.03170757 0.76184458 0.025570512 10058081
-0.032365382 0.76238596 0.026247129 9795679
-0.032280579 0.7627551 0.026243061 9927265
-0.032195762 0.76312423 0.026239008 9927780
-0.032110959 0.76349336 0.026234955 9927780
-0.032026157 0.76386249 0.026230887 9927780
-0.031941339 0.76423162 0.026226819 9927780
-0.031856537 0.76460081 0.026222765 9993060
-0.031432495 0.76644653 0.02620247 10058853
-0.031347692 0.76681566 0.026198402 10058853
-0.03126289 0.76718479 0.026194349 10058853
-0.031178072 0.76755393 0.026190281 10189669
-0.03109327 0.76792306 0.026186228 10189669
-0.031008467 0.76829219 0.02618216 10189669
-0.03167285 0.76880491 0.026859105 10189669
-0.031588405 0.76917249 0.026855052 10189669
-0.03150396 0.76954001 0.026851013 10189669
-0.031419516 0.76990759 0.026846975 10255462
-0.031335071 0.77027512 0.026842922 10255462
-0.031250641 0.77064264 0.026838884 10189669
-0.031917587 0.77114421 0.027515933 10189669
-0.031833515 0.77151018 0.027511895 10058853
-0.031749442 0.77187616 0.027507871 10124646
-0.031665355 0.77224213 0.027503848 10124648
-0.031581283 0.77260804 0.027499825 10124648
-0.03149721 0.77297401 0.027495801 10124648
-0.031413123 0.77333999 0.027491778 10190441
-0.031329051 0.77370596 0.027487755 10124648
-0.031244978 0.77407193 0.027483732 10190441
-0.031160906 0.77443784 0.027479708 10256234
-0.031076819 0.77480382 0.02747567 10124648
-0.030992746 0.77516979 0.027471647 10124648
-0.031664416 0.77565068 0.028148919 10058855
-0.031580716 0.77601504 0.028144911 10124646
-0.031497002 0.77637941 0.028140903 10124646
-0.031413287 0.77674377 0.028136894 10058853
-0.031329587 0.77710813 0.028132886 10058853
-0.031245872 0.7774725 0.028128877 10189669
-0.031162158 0.77783686 0.028124869 10255462
-0.031078443 0.77820122 0.02812086 10255462
-0.030994743 0.77856559 0.028116852 10255462
-0.031670094 0.77903056 0.028794318 10255462
-0.031586751 0.77939337 0.028790325 10189669
-0.031503409 0.77975613 0.028786331 10189669
-0.031420067 0.78011888 0.028782338 10255462
-0.03133671 0.7804817 0.028778344 10255462
-0.031253368 0.78084445 0.028774366 10255462
-0.031170025 0.78120726 0.028770372 10255462
-0.031086683 0.78157002 0.028766379 10255462
-0.031003341 0.78193277 0.0287624 10189669
-0.030919984 0.78229558 0.028758407 10255462
-0.030836642 0.78265834 0.028754413 10189671
-0.031516388 0.78310424 0.029432073 10255464
-0.031433403 0.78346539 0.02942811 10386534
-0.031350419 0.78382659 0.029424131 10386534
-0.031267449 0.78418779 0.029420167 10320741
-0.031184465 0.784549 0.029416189 10386534
-0.03110148 0.78491014 0.02941221 10386534
-0.03101851 0.78527135 0.029408246 10386534
-0.030935526 0.78563255 0.029404268 10386534
-0.030852541 0.7859937 0.029400289 10320741
-0.030769557 0.7863549 0.029396325 10386534
-0.030686587 0.7867161 0.029392347 10386534
-0.030603603 0.78707731 0.029388368 10386534
-0.031288102 0.78750247 0.030066282 10320741
-0.03120549 0.78786206 0.030062318 10386534
-0.031122878 0.78822166 0.030058354 10320741
-0.031040266 0.78858125 0.030054405 10320741
-0.030957639 0.78894085 0.030050457 10320741
-0.030875027 0.78930044 0.030046493 10386534
-0.030792415 0.78966004 0.030042544 10386534
-0.030709803 0.79001963 0.03003858 10320741
-0.030627191 0.79037923 0.030034631 10320741
-0.030544579 0.79073882 0.030030668 10254948
-0.030461952 0.79109842 0.030026719 10254948
-0.03037934 0.79145801 0.03002277 10254948
-0.031068578 0.79186249 0.030700892 10189155
-0.030986339 0.79222053 0.030696943 10189155
-0.030904084 0.79257852 0.030693009 10320741
-0.030821845 0.7929365 0.030689076 10320741
-0.030739591 0.79329455 0.030685127 10386534
-0.030657336 0.79365253 0.030681193 10386534
-0.030575097 0.79401052 0.030677259 10320741
-0.030492842 0.79436857 0.030673325 10320741
-0.031185389 0.79475874 0.031351596 10320741
-0.031103507 0.79511511 0.031347662 10320741
-0.031021625 0.79547155 0.031343758 10386534
-0.030939743 0.79582798 0.031339824 10189669
-0.030857846 0.79618436 0.031335905 10189669
-0.030775964 0.7965408 0.031331986 10189669
-0.030694082 0.79689717 0.031328067 10255462
-0.0306122 0.79725361 0.031324148 10189669
-0.030530319 0.79761004 0.031320229 10189669
-0.030448437 0.79796642 0.03131631 10058853
-0.030366555 0.79832286 0.031312391 9993060
-0.030284673 0.79867929 0.031308472 10124646
-0.030981943 0.79904878 0.031986982 10124646
-0.030900434 0.79940355 0.031983078 10124646
-0.030818909 0.79975843 0.031979173 10124646
-0.0307374 0.8001132 0.031975269 10255462
-0.030655876 0.80046803 0.031971365 10255462
-0.030574366 0.80082285 0.031967461 10255462
-0.030492842 0.80117768 0.031963557 10321255
-0.030411333 0.80153251 0.031959653 10255462
-0.030329809 0.80188733 0.031955749 10255462
-0.030248299 0.80224216 0.031951845 10189669
-0.030166775 0.80259699 0.031947941 10321255
-0.030085251 0.80295181 0.031944036 10255462
-0.030787289 0.80330062 0.032622769 10189669
-0.030706137 0.80365384 0.03261888 10255462
-0.030624986 0.80400705 0.032614991 10255462
-0.030543834 0.80436033 0.032611102 10321255
-0.030462682 0.80471355 0.032607228 10255462
-0.030381531 0.80506676 0.032603338 10321255
-0.030300379 0.80541998 0.032599449 10321255
-0.030219227 0.80577326 0.032595575 10321255
-0.030138075 0.80612648 0.032591686 10321255
-0.030056924 0.80647969 0.032587796 10386534
-0.029975772 0.80683291 0.032583922 10320741
-0.02989462 0.80718613 0.032580033 10452327
-0.029813468 0.8075394 0.032576144 10452327
-0.029732317 0.80789262 0.032572255 10321257
-0.030439824 0.80821759 0.033251256 10255464
-0.030359045 0.80856919 0.033247381 10321255
-0.030278251 0.80892086 0.033243522 10321255
-0.030197471 0.80927247 0.033239648 10255462
-0.030116677 0.80962414 0.033235788 10387048
-0.030035898 0.80997574 0.033231914 10387048
-0.029955104 0.81032741 0.033228055 10321255
-0.029874325 0.81067902 0.03322418 10387048
-0.029793531 0.81103069 0.033220321 10321255
-0.029712752 0.81138229 0.033216447 10321255
-0.029631957 0.81173396 0.033212572 10321255
-0.029551178 0.81208563 0.033208713 10387048
-0.029470399 0.81243724 0.033204839 10387048
-0.029389605 0.8127889 0.033200979 10387048
-0.029308826 0.81314051 0.033197105 10387048
-0.029228032 0.81349218 0.033193231 10387048
-0.029147252 0.81384379 0.033189371 10387048
-0.029066458 0.81419545 0.033185512 10518122
-0.029780939 0.81449014 0.033864826 10649708
-0.029700518 0.8148402 0.033860981 10715501
-0.029620096 0.81519026 0.033857137 10649708
-0.029539675 0.81554031 0.033853278 10847087
-0.029459253 0.81589037 0.033849433 10715501
-0.029378831 0.81624043 0.033845574 10715501
-0.02929841 0.81659043 0.033841729 10715501
-0.029217988 0.81694049 0.033837885 10781292
-0.029137567 0.81729054 0.033834025 10781292
-0.029855683 0.81756938 0.034513533 10781292
-0.029775634 0.81791782 0.034509704 10715499
-0.02969557 0.81826627 0.034505874 10715499
-0.029615521 0.81861472 0.034502029 10847085
-0.029535457 0.81896317 0.0344982 10781292
-0.029455408 0.81931162 0.03449437 10781292
-0.029375359 0.81966007 0.034490526 10781292
-0.029295295 0.82000852 0.034486711 10912878
-0.029215246 0.82035702 0.034482867 10716013
-0.029135182 0.82070547 0.034479037 10716013
-0.029055133 0.82105392 0.034475207 10650220
-0.029777646 0.82131362 0.035154909 10650220
-0.029697955 0.82166052 0.035151094 10781806
-0.029618263 0.82200736 0.03514728 10781806
-0.029538572 0.8223542 0.035143465 10781806
-0.02945888 0.8227011 0.03513965 10781806
-0.029379204 0.82304794 0.035135835 10847599
-0.029299513 0.82339483 0.035132021 10979185
-0.029219821 0.82374167 0.035128206 10847599
-0.02914013 0.82408857 0.035124391 10781806
-0.029060438 0.82443541 0.035120577 10847601
-0.028980747 0.82478231 0.035116762 10847601
-0.028901055 0.82512915 0.035112947 10847601
-0.028821364 0.82547605 0.035109133 10979187
-0.028741673 0.82582289 0.035105318 10979187
-0.028661996 0.82616973 0.035101503 11044980
-0.028582305 0.82651663 0.035097688 11044980
-0.028502613 0.82686347 0.035093874 11110773
-0.028422922 0.82721037 0.035090059 11242359
-0.02834323 0.82755721 0.035086244 11242359
-0.028263539 0.82790411 0.03508243 11439738
-0.028183848 0.82825094 0.035078615 11439738
-0.028104156 0.82859784 0.035074785 11505531
-0.02802448 0.82894468 0.035070971 11702910
-0.027944788 0.82929158 0.035067156 11768703
-0.027865097 0.82963842 0.035063341 11966082
-0.027785406 0.82998532 0.035059527 11966082
-0.027705714 0.83033216 0.035055712 12229254
-0.026813582 0.83081073 0.034367889 12164231
-0.026733533 0.83115923 0.034364045 12295817
-0.026653469 0.83150768 0.034360215 12493196
-0.032714471 0.75661534 0.025957704 9926495
-0.032629311 0.75698608 0.025953636 9860702
-0.032544136 0.75735682 0.025949553 9926495
-0.032458961 0.75772756 0.02594547 10058081
-0.032373786 0.75809824 0.025941402 10058081
-0.032288611 0.75846899 0.025937319 9860702
-0.032203436 0.75883973 0.025933236 9926495
-0.032118276 0.75921047 0.025929168 9926495
-0.032033101 0.75958121 0.025925085 10058081
-0.031947926 0.75995195 0.025921017 10058081
-0.031862751 0.76032269 0.025916934 10058081
-0.031777576 0.76069343 0.025912851 10058081
-0.031692401 0.76106417 0.025908768 10123874
-0.031607226 0.76143485 0.0259047 10058081
-0.03152205 0.76180559 0.025900617 10058081
-0.032180667 0.7623471 0.026575819 10058081
-0.032095864 0.76271623 0.026571751 10123874
-0.032011047 0.76308542 0.026567698 10058851
-0.031926244 0.76345456 0.026563644 9993058
-0.031841442 0.76382369 0.026559576 9993060
-0.031756625 0.76419282 0.026555508 9993060
-0.031671822 0.76456195 0.026551455 9993060
-0.031488925 0.76876628 0.027186364 10058853
-0.03140448 0.76913381 0.027182326 10189669
-0.031320035 0.76950139 0.027178288 10189669
-0.031235605 0.76986891 0.027174234 10255462
-0.031151161 0.77023649 0.027170196 10255462
-0.031066716 0.77060401 0.027166158 10189669
-0.031734467 0.77110577 0.027841777 10189669
-0.031650379 0.77147168 0.027837753 10189671
-0.031566307 0.77183765 0.02783373 10189671
-0.031482235 0.77220362 0.027829707 10124648
-0.031398162 0.7725696 0.027825683 10124648
-0.03131409 0.77293551 0.02782166 10124648
-0.031230003 0.77330148 0.027817637 10190441
-0.03114593 0.77366745 0.027813613 10124648
-0.031061858 0.77403343 0.027809575 10124648
-0.030977771 0.7743994 0.027805552 10190441
-0.030893698 0.77476531 0.027801529 10124648
-0.030809626 0.77513129 0.027797505 10124648
-0.0314821 0.77561235 0.028473362 10058855
-0.031398386 0.77597672 0.028469354 10124646
-0.031314671 0.77634108 0.028465346 10124646
-0.031230971 0.77670544 0.028461337 10058853
-0.031147256 0.77706981 0.028457329 10124646
-0.031063542 0.77743417 0.02845332 10255462
-0.030979827 0.77779853 0.028449312 10255462
-0.030896127 0.7781629 0.028445303 10255462
-0.030812413 0.77852732 0.028441295 10321255
-0.031488568 0.77899241 0.029117346 10321255
-0.031405225 0.77935517 0.029113352 10189669
-0.031321868 0.77971798 0.029109359 10255462
-0.031238526 0.78008074 0.029105365 10255462
-0.031155184 0.78044355 0.029101372 10255462
-0.031071842 0.7808063 0.029097378 10255462
-0.0309885 0.78116906 0.0290934 10255462
-0.030905142 0.78153187 0.029089406 10255462
-0.0308218 0.78189462 0.029085413 10189669
-0.030738458 0.78225744 0.029081434 10189669
-0.030655116 0.78262019 0.029077441 10189671
-0.031335652 0.78306621 0.029753685 10255464
-0.031252667 0.78342742 0.029749706 10255464
-0.031169683 0.78378862 0.029745728 10255464
-0.031086698 0.78414983 0.029741764 10255464
-0.031003729 0.78451097 0.029737785 10255464
-0.030920744 0.78487217 0.029733822 10255462
-0.030837759 0.78523338 0.029729843 10189669
-0.03075479 0.78559452 0.029725879 10255462
-0.030671805 0.78595573 0.029721901 10189669
-0.030588821 0.78631693 0.029717922 10189669
-0.030505851 0.78667808 0.029713959 10255462
-0.030422866 0.78703928 0.02970998 10255462
-0.031108171 0.78746462 0.030386463 10255462
-0.031025544 0.78782421 0.030382499 10255462
-0.030942932 0.78818381 0.03037855 10189669
-0.03086032 0.7885434 0.030374587 10189669
-0.030777708 0.788903 0.030370638 10189669
-0.030695096 0.78926259 0.030366689 10189669
-0.030612484 0.78962219 0.030362725 10189669
-0.030529872 0.78998184 0.030358762 10189669
-0.03044726 0.79034138 0.030354813 10189669
-0.030364633 0.79070103 0.030350864 10189669
-0.030282021 0.79106057 0.0303469 10123876
-0.030199409 0.79142022 0.030342951 10058083
-0.030889437 0.79182488 0.031019658 10058083
-0.030807197 0.79218286 0.031015724 10058083
-0.030724943 0.79254085 0.031011775 10189669
-0.030642703 0.79289889 0.031007841 10189669
-0.030560449 0.79325688 0.031003907 10255462
-0.030478194 0.79361486 0.030999959 10255462
-0.030395955 0.79397291 0.030996025 10255462
-0.0303137 0.79433089 0.030992091 10189669
-0.031007037 0.79472125 0.031668946 10189669
-0.030925155 0.79507768 0.031665027 10386534
-0.030843273 0.79543406 0.031661108 10386534
-0.030761391 0.79579049 0.031657189 10189669
-0.030679509 0.79614687 0.03165327 10189669
-0.030597627 0.79650331 0.031649351 10189669
-0.030515745 0.79685974 0.031645417 10255462
-0.030433863 0.79721612 0.031641513 10189669
-0.030351982 0.79757255 0.031637579 10189669
-0.030270085 0.79792893 0.03163366 10189669
-0.030188203 0.79828537 0.031629741 10189669
-0.030106321 0.7986418 0.031625822 10124646
-0.030804396 0.79901147 0.032302916 10058853
-0.030722886 0.79936624 0.032299012 10255462
-0.030641362 0.79972106 0.032295108 10255462
-0.030559853 0.80007589 0.032291204 10255462
-0.030478328 0.80043072 0.0322873 10255462
-0.030396819 0.80078554 0.032283396 10255462
-0.030315295 0.80114037 0.032279491 10255462
-0.030233786 0.80149519 0.032275587 10255462
-0.030152261 0.80185002 0.032271683 10255462
-0.030070737 0.80220485 0.032267779 10189669
-0.029989228 0.80255967 0.03226389 10321255
-0.029907703 0.8029145 0.032259986 10255462
-0.030610532 0.80326349 0.032937288 10189669
-0.03052938 0.8036167 0.032933399 10321255
-0.030448228 0.80396992 0.03292951 10321255
-0.030367076 0.80432314 0.032925636 10321255
-0.030285925 0.80467641 0.032921746 10321255
-0.030204773 0.80502963 0.032917857 10321255
-0.030123621 0.80538285 0.032913983 10321255
-0.03004247 0.80573606 0.032910094 10321255
-0.029961318 0.80608934 0.032906204 10387048
-0.029880166 0.80644256 0.032902315 10386534
-0.029799014 0.80679578 0.032898441 10386534
-0.029717863 0.80714899 0.032894552 10452329
-0.029636711 0.80750227 0.032890663 10452329
-0.029555559 0.80785549 0.032886773 10321257
-0.030263871 0.80818057 0.033564359 10255464
-0.030183092 0.80853224 0.033560485 10321255
-0.030102298 0.80888385 0.033556625 10321255
-0.030021518 0.80923551 0.033552751 10255462
-0.029940724 0.80958712 0.033548892 10387048
-0.029859945 0.80993879 0.033545017 10518634
-0.029779151 0.8102904 0.033541143 10321255
-0.029698372 0.81064206 0.033537284 10387048
-0.029617578 0.81099367 0.033533409 10321255
-0.029536799 0.81134534 0.03352955 10321255
-0.029456005 0.81169701 0.033525676 10387048
-0.029375225 0.81204861 0.033521801 10387048
-0.029294431 0.81240028 0.033517942 10387048
-0.029213652 0.81275189 0.033514082 10387048
-0.029132858 0.81310356 0.033510208 10518634
-0.029052079 0.81345516 0.033506334 10387048
-0.028971285 0.81380683 0.033502474 10518634
-0.028890505 0.81415844 0.0334986 10649706
-0.029605776 0.81445336 0.034176514 10715499
-0.029525355 0.81480336 0.034172669 10781292
-0.029444933 0.81515342 0.03416881 10715499
-0.029364511 0.81550348 0.034164965 10847087
-0.02928409 0.81585354 0.034161121 10715501
-0.029203668 0.81620359 0.034157276 10715501
-0.029123247 0.81655365 0.034153417 10715501
-0.029042825 0.81690371 0.034149557 10781292
-0.028962404 0.81725371 0.034145713 10781292
-0.029681325 0.81753272 0.034823805 10781292
-0.029601261 0.81788117 0.034819975 10715499
-0.029521212 0.81822962 0.034816146 10715499
-0.029441148 0.81857806 0.034812301 10847085
-0.029361099 0.81892651 0.034808472 10781292
-0.029281035 0.81927496 0.034804642 10847085
-0.029200986 0.81962347 0.034800798 10781292
-0.029120937 0.81997192 0.034796983 10847085
-0.029040873 0.82032037 0.034793139 10716013
-0.028960824 0.82066882 0.034789309 10650220
-0.02888076 0.82101727 0.034785479 10650220
-0.029604077 0.82127714 0.035463765 10650220
-0.029524386 0.82162404 0.035459951 10781806
-0.029444695 0.82197088 0.035456136 10847599
-0.029365018 0.82231772 0.035452321 10781806
-0.029285327 0.82266462 0.035448506 10781806
-0.029205635 0.82301146 0.035444692 10847599
-0.029125944 0.82335836 0.035440877 10979185
-0.029046252 0.8237052 0.035437062 10847599
-0.028966561 0.8240521 0.035433248 10781806
-0.02888687 0.82439893 0.035429433 10847599
-0.028807178 0.82474583 0.035425603 10847599
-0.028727487 0.82509267 0.035421789 10847601
-0.02864781 0.82543957 0.035417974 10979187
-0.028568119 0.82578641 0.035414159 10979187
-0.028488427 0.82613325 0.035410345 11110773
-0.028408736 0.82648015 0.03540653 11044980
-0.028329045 0.82682699 0.035402715 11110773
-0.028249353 0.82717389 0.035398901 11242359
-0.028169662 0.82752073 0.035395086 11242359
-0.02808997 0.82786763 0.035391271 11308152
-0.028010279 0.82821447 0.035387456 11505531
-0.027930602 0.82856137 0.035383642 11571324
-0.027850911 0.82890821 0.035379827 11637117
-0.02777122 0.8292551 0.035376012 11768703
-0.027691528 0.82960194 0.035372198 11966082
-0.027611837 0.82994884 0.035368383 11834496
-0.027532145 0.83029568 0.035364568 12163461
-0.026639223 0.83077407 0.034678161 12098436
-0.026559159 0.83112258 0.034674317 12295815
-0.02647911 0.83147103 0.034670487 12427403
-0.032528967 0.75657636 0.026287809 9926495
-0.032443792 0.7569471 0.026283741 9860702
-0.032358617 0.75731784 0.026279658 9926495
-0.032273456 0.75768852 0.026275575 10058081
-0.032188281 0.75805926 0.026271492 10058081
-0.032103106 0.75843 0.026267424 9860702
-0.032017931 0.75880075 0.026263341 9926495
-0.031932756 0.75917149 0.026259273 9926495
-0.031847581 0.75954223 0.02625519 10058081
-0.031762406 0.75991297 0.026251107 10058081
-0.031677231 0.76028371 0.026247025 10058081
-0.031592071 0.76065445 0.026242957 10058081
-0.031506896 0.76102513 0.026238874 10123874
-0.031421721 0.76139587 0.026234806 10058081
-0.031336546 0.76176661 0.026230723 10058081
-0.031995952 0.7623083 0.026904508 10058081
-0.03191115 0.76267743 0.02690044 10123874
-0.031826332 0.76304656 0.026896387 10058851
-0.03174153 0.76341569 0.026892319 9993058
-0.031656727 0.76378489 0.026888266 9993060
-0.03157191 0.76415402 0.026884198 9993060
-0.031487107 0.76452315 0.026880145 9993060
-0.031305 0.7687276 0.027513638 10058853
-0.03122057 0.76909518 0.0275096 10189669
-0.031136125 0.7694627 0.027505547 10189669
-0.03105168 0.76983029 0.027501509 10255462
-0.030967236 0.77019781 0.02749747 10255462
-0.030882791 0.77056539 0.027493417 10189669
-0.031551346 0.77106726 0.028167635 10189669
-0.031467274 0.77143323 0.028163612 10189671
-0.031383187 0.77179915 0.028159589 10189671
-0.031299114 0.77216512 0.028155565 10124648
-0.031215042 0.77253109 0.028151542 10124648
-0.031130955 0.77289706 0.028147519 10124648
-0.031046882 0.77326304 0.02814348 10190441
-0.03096281 0.77362895 0.028139457 10124648
-0.030878738 0.77399492 0.028135434 10124648
-0.03079465 0.7743609 0.02813141 10190441
-0.030710578 0.77472687 0.028127387 10124648
-0.030626506 0.77509284 0.028123364 10124648
-0.03129977 0.77557403 0.02879779 10058855
-0.03121607 0.77593839 0.028793782 10124646
-0.031132355 0.77630275 0.028789774 10124646
-0.031048641 0.77666712 0.028785765 10058853
-0.030964926 0.77703148 0.028781757 10124646
-0.030881211 0.77739584 0.028777748 10255462
-0.030797511 0.77776021 0.028773755 10255462
-0.030713797 0.77812463 0.028769732 10255462
-0.030630082 0.77848899 0.028765738 10321255
-0.031307042 0.77895427 0.029440358 10321255
-0.031223699 0.77931702 0.029436365 10189669
-0.031140342 0.77967983 0.029432371 10255462
-0.031057 0.78004259 0.029428393 10255462
-0.030973658 0.7804054 0.029424399 10255462
-0.030890316 0.78076816 0.029420406 10255462
-0.030806974 0.78113091 0.029416412 10255462
-0.030723616 0.78149372 0.029412419 10255462
-0.030640274 0.78185648 0.029408425 10189669
-0.030556932 0.78221929 0.029404446 10189669
-0.03047359 0.78258204 0.029400453 10189671
-0.031154916 0.78302824 0.030075282 10255464
-0.031071931 0.78338945 0.030071318 10255464
-0.030988947 0.78375065 0.03006734 10255464
-0.030905977 0.7841118 0.030063361 10255464
-0.030822992 0.784473 0.030059397 10255464
-0.030740008 0.78483421 0.030055419 10255462
-0.030657038 0.78519535 0.03005144 10189669
-0.030574054 0.78555655 0.030047476 10255462
-0.030491069 0.78591776 0.030043498 10189669
-0.030408099 0.78627896 0.030039534 10189669
-0.030325115 0.78664011 0.030035555 10255462
-0.03024213 0.78700131 0.030031592 10255462
-0.030928224 0.78742683 0.030706644 10255462
-0.030845612 0.78778642 0.030702695 10255462
-0.030763 0.78814602 0.030698732 10189669
-0.030680388 0.78850561 0.030694783 10189669
-0.030597776 0.78886521 0.030690819 10189669
-0.030515149 0.7892248 0.03068687 10189669
-0.030432537 0.7895844 0.030682921 10189669
-0.030349925 0.78994399 0.030678958 10189669
-0.030267313 0.79030359 0.030675009 10189669
-0.030184701 0.79066318 0.030671045 10189669
-0.030102089 0.79102278 0.030667096 10123876
-0.030019477 0.79138237 0.030663133 10058083
-0.030710295 0.79178721 0.031338423 10058083
-0.030628055 0.79214519 0.03133449 10058083
-0.030545801 0.79250324 0.031330556 10189669
-0.030463561 0.79286122 0.031326607 10189669
-0.030381307 0.79321921 0.031322673 10255462
-0.030299053 0.79357725 0.031318739 10255462
-0.030216813 0.79393524 0.03131479 10255462
-0.030134559 0.79429322 0.031310856 10189669
-0.030828699 0.79468375 0.031986296 10189669
-0.030746818 0.79504019 0.031982377 10386534
-0.030664936 0.79539657 0.031978458 10386534
-0.030583054 0.795753 0.031974539 10189669
-0.030501172 0.79610944 0.03197062 10189669
-0.030419275 0.79646581 0.031966701 10189669
-0.030337393 0.79682225 0.031962782 10255462
-0.030255511 0.79717863 0.031958848 10189669
-0.03017363 0.79753506 0.031954944 10189669
-0.030091748 0.7978915 0.03195101 10189669
-0.030009866 0.79824787 0.031947091 10189669
-0.029927984 0.79860431 0.031943172 10124646
-0.030626848 0.79897416 0.03261885 10058853
-0.030545339 0.79932892 0.032614946 10255462
-0.030463815 0.79968375 0.032611042 10255462
-0.030382305 0.80003858 0.032607138 10255462
-0.030300781 0.8003934 0.032603234 10255462
-0.030219272 0.80074823 0.03259933 10255462
-0.030137748 0.80110306 0.032595426 10255462
-0.030056238 0.80145788 0.032591522 10255462
-0.029974714 0.80181271 0.032587618 10255462
-0.029893205 0.80216753 0.032583714 10189669
-0.02981168 0.80252236 0.032579824 10321255
-0.029730156 0.80287719 0.03257592 10255462
-0.030433789 0.80322629 0.033251807 10189669
-0.030352637 0.80357957 0.033247918 10321255
-0.030271485 0.80393279 0.033244044 10321255
-0.030190334 0.804286 0.033240154 10321255
-0.030109182 0.80463922 0.033236265 10321255
-0.03002803 0.8049925 0.033232376 10321255
-0.029946879 0.80534571 0.033228487 10321255
-0.029865727 0.80569893 0.033224612 10321255
-0.029784575 0.80605215 0.033220723 10387048
-0.029703423 0.80640543 0.033216834 10386534
-0.029622272 0.80675864 0.03321296 10386534
-0.02954112 0.80711186 0.033209071 10452329
-0.029459968 0.80746508 0.033205181 10452329
-0.029378816 0.80781829 0.033201307 10321257
-0.030087918 0.80814362 0.033877462 10255464
-0.030007124 0.80849522 0.033873588 10321255
-0.029926345 0.80884689 0.033869728 10321255
-0.029845551 0.8091985 0.033865854 10255462
-0.029764771 0.80955017 0.033861995 10387048
-0.029683992 0.80990177 0.03385812 10518634
-0.029603198 0.81025344 0.033854246 10321255
-0.029522404 0.81060511 0.033850387 10387048
-0.029441625 0.81095672 0.033846512 10321255
-0.029360846 0.81130838 0.033842653 10321255
-0.029280052 0.81165999 0.033838779 10387048
-0.029199272 0.81201166 0.033834904 10387048
-0.029118478 0.81236327 0.033831045 10387048
-0.029037699 0.81271493 0.033827186 10387048
-0.028956905 0.81306654 0.033823311 10518634
-0.028876126 0.81341821 0.033819437 10387048
-0.028795332 0.81376982 0.033815578 10518634
-0.028714553 0.81412148 0.033811703 10649706
-0.029430613 0.81441653 0.034488201 10715499
-0.029350191 0.81476659 0.034484357 10781292
-0.02926977 0.81511664 0.034480512 10715499
-0.029189348 0.8154667 0.034476653 10847087
-0.029108927 0.8158167 0.034472808 10715501
-0.029028505 0.81616676 0.034468949 10715501
-0.028948084 0.81651682 0.034465104 10715501
-0.028867662 0.81686687 0.03446126 10781292
-0.028787255 0.81721693 0.0344574 10781292
-0.029506952 0.81749606 0.035134077 10781292
-0.029426903 0.81784451 0.035130233 10715499
-0.029346853 0.81819296 0.035126403 10715499
-0.02926679 0.81854141 0.035122573 10847085
-0.029186741 0.81888986 0.035118744 10781292
-0.029106677 0.81923836 0.035114914 10847085
-0.029026628 0.81958681 0.03511107 10781292
-0.028946564 0.81993526 0.03510724 10847085
-0.028866515 0.82028371 0.03510341 10716013
-0.028786466 0.82063216 0.035099581 10650220
-0.028706402 0.82098061 0.035095751 10650220
-0.029430509 0.82124066 0.035772622 10650220
-0.029350817 0.82158756 0.035768807 10781806
-0.029271126 0.8219344 0.035764992 10847599
-0.029191449 0.82228124 0.035761178 10781806
-0.029111758 0.82262814 0.035757363 10781806
-0.029032066 0.82297498 0.035753548 10847599
-0.028952375 0.82332188 0.035749733 10979185
-0.028872684 0.82366872 0.035745919 10847599
-0.028792992 0.82401562 0.035742104 10781806
-0.028713301 0.82436246 0.035738289 10847599
-0.028633609 0.82470936 0.03573446 10847599
-0.028553918 0.8250562 0.035730645 10847601
-0.028474241 0.82540309 0.03572683 10979187
-0.02839455 0.82574993 0.035723016 10979187
-0.028314859 0.82609677 0.035719201 11110773
-0.028235167 0.82644367 0.035715386 11044980
