# .PCD v0.7 - Point Cloud Data file format
VERSION 0.7
FIELDS x y z rgb
SIZE 4 4 4 4
TYPE F F F U
COUNT 1 1 1 1
WIDTH 1080
HEIGHT 1
VIEWPOINT 0 0 0 1 0 0 0
POINTS 1080
DATA ascii
0.026927607 0.83211178 0.067922696 12829883
0.027277039 0.83214509 0.067920208 12764090
0.027626472 0.83217835 0.067917727 12764090
0.027975911 0.83221167 0.067915246 12764090
0.028325344 0.83224493 0.067912765 12764090
0.028674776 0.83227825 0.067910284 12764090
0.029024208 0.83231151 0.067907795 12829883
0.02937364 0.83234483 0.067905314 12764090
0.02972308 0.83237815 0.067902833 12698297
0.030072512 0.83241141 0.067900352 12764090
0.030421944 0.83244467 0.067897871 12764090
0.030771384 0.83247799 0.067895383 12764088
0.031120816 0.83251131 0.067892902 12829881
0.031470247 0.83254457 0.067890421 12829881
0.031819686 0.83257788 0.06788794 12829881
0.032169119 0.83261114 0.067885458 12829881
0.032518551 0.83264446 0.06788297 12829881
0.032867983 0.83267772 0.067880489 12895674
0.033217423 0.83271104 0.067878008 12829881
0.033849873 0.83191288 0.067353651 12829881
0.034200937 0.83194637 0.067351155 12698295
0.034551993 0.83197981 0.067348666 12698295
0.034903057 0.83201325 0.067346171 12829881
0.035254113 0.83204669 0.067343675 12829881
0.03560517 0.83208013 0.067341179 12829881
0.035956234 0.83211362 0.06733869 12829881
0.036307298 0.832147 0.067336194 12829881
0.036658354 0.8321805 0.067333698 12895674
0.037009411 0.83221394 0.067331202 12764088
0.037360467 0.83224738 0.067328714 12829881
0.037711531 0.83228081 0.067326218 12829881
0.038062595 0.83231425 0.067323722 12895674
0.038413651 0.83234775 0.067321226 12895674
0.038764708 0.83238119 0.067318738 12895674
0.039115772 0.83241463 0.067316242 12895674
0.039466828 0.83244807 0.067313746 13092283
0.040128537 0.8316527 0.06678918 13026490
0.040481225 0.83168632 0.066786677 13026492
0.040833913 0.83171988 0.066784173 13026492
0.041186593 0.83175349 0.066781662 13026492
0.041539274 0.83178711 0.066779159 13092285
0.041891962 0.83182073 0.066776656 13026492
0.04224465 0.83185434 0.066774152 13026492
0.042597331 0.8318879 0.066771641 13092285
0.042950019 0.83192152 0.066769138 13092285
0.043302707 0.83195513 0.066766635 13092285
0.043655388 0.83198869 0.066764124 13026492
0.044008069 0.83202231 0.06676162 13026492
0.044360749 0.83205593 0.066759117 13026492
0.044713445 0.83208954 0.066756606 13026492
0.045399532 0.8312965 0.066231877 13092285
0.045753844 0.83133024 0.066229358 13026492
0.046108156 0.83136404 0.066226847 12960699
0.046462461 0.83139777 0.066224329 13026492
0.046816774 0.83143151 0.066221811 13026492
0.047171086 0.83146524 0.066219293 13026492
0.047525398 0.83149904 0.066216774 13026492
0.047879703 0.83153278 0.066214263 12960699
0.048234016 0.83156657 0.066211745 12960699
0.048588321 0.83160031 0.066209227 12829883
0.048942633 0.83163404 0.066206709 12895676
0.049648218 0.83084285 0.06568183 12895676
0.050004162 0.83087677 0.065679304 12829883
0.050360091 0.83091068 0.065676771 12829883
0.050716035 0.8309446 0.065674245 12829883
0.051071964 0.83097851 0.06567172 12895676
0.051427908 0.83101243 0.065669186 12895676
0.051783837 0.83104634 0.065666661 12895422
0.052139774 0.83108026 0.065664127 12829629
0.052495711 0.83111417 0.065661602 12829629
0.052851647 0.83114809 0.065659076 12698043
0.053207591 0.831182 0.065656543 12500664
0.053563513 0.83121592 0.065654017 12500664
0.053919457 0.83124983 0.065651484 12369078
0.054275386 0.83128375 0.065648958 12237492
0.05463133 0.83131766 0.065646432 12237492
0.055362917 0.83052891 0.065121368 12040113
0.055720478 0.83056301 0.065118827 11908781
0.056078039 0.83059704 0.065116286 11777195
0.0564356 0.83063114 0.065113746 11448230
0.056793161 0.83066523 0.065111205 11448230
-0.028924257 0.83091295 0.071217589 12762287
-0.028582951 0.83094549 0.07121516 12827826
-0.028241642 0.83097798 0.071212739 13025205
-0.027900333 0.83101052 0.07121031 12894389
-0.02755771 0.83190238 0.071726307 12960182
-0.027218029 0.83193469 0.071723901 13026490
-0.026878346 0.83196706 0.071721487 13158076
-0.026538661 0.83199942 0.071719073 13552834
-0.026198979 0.83203179 0.071716659 13487041
-0.025859296 0.83206415 0.071714245 13487813
-0.025519615 0.83209652 0.071711831 13750985
-0.025179934 0.83212888 0.071709417 13751760
-0.024840251 0.83216125 0.071707003 13949139
-0.024500567 0.83219361 0.071704596 13818585
-0.024160884 0.83222598 0.071702182 14015964
-0.023821201 0.83225834 0.071699768 14016736
-0.02348152 0.83229071 0.071697354 13885150
-0.023141835 0.83232307 0.07169494 13556958
-0.022802154 0.83235544 0.071692526 13227993
-0.022462472 0.8323878 0.071690112 13293274
-0.022122789 0.83242017 0.071687698 13095895
-0.021809418 0.83330923 0.072203912 13095380
-0.021471363 0.83334148 0.072201513 12963794
-0.021133304 0.83337367 0.072199114 12898001
-0.020795245 0.83340585 0.072196707 12700622
-0.02045719 0.83343804 0.072194308 12634311
-0.020119132 0.83347028 0.072191909 12634311
-0.019781075 0.83350247 0.072189502 12699589
-0.019443016 0.83353472 0.072187103 12568003
-0.019104961 0.8335669 0.072184704 12829888
-0.018766902 0.83359909 0.072182298 12829888
-0.018386278 0.83277619 0.071661152 12829886
-0.018046595 0.83280849 0.071658745 12764093
-0.017706914 0.83284092 0.071656331 12764090
-0.017367231 0.83287323 0.071653917 12764090
-0.017027549 0.83290559 0.071651503 12829883
-0.016687866 0.83293796 0.071649089 12764090
-0.016348183 0.83297032 0.071646675 12764090
-0.0160085 0.83300269 0.071644261 12829883
-0.015668817 0.83303505 0.071641847 12829883
-0.015329136 0.83306742 0.071639434 12829883
-0.014989452 0.83309978 0.07163702 12829883
-0.01464977 0.83313215 0.071634613 12829883
-0.014310088 0.83316451 0.071632199 12829883
-0.013970405 0.83319688 0.071629785 12829883
-0.013630722 0.83322924 0.071627371 12829883
-0.01329104 0.83326161 0.071624957 12829883
-0.012951357 0.83329397 0.071622543 12895676
-0.012611674 0.83332634 0.071620129 12829883
-0.012271991 0.83335871 0.071617715 12764347
-0.011932309 0.83339107 0.071615301 12764347
-0.011592627 0.83342344 0.071612895 12830140
-0.011252943 0.8334558 0.071610481 12830140
-0.01091326 0.83348817 0.071608067 12830140
-0.010573579 0.83352053 0.071605653 12830140
-0.010233896 0.8335529 0.071603239 12830140
-0.0098110139 0.83273399 0.071081802 12830140
-0.0094697066 0.83276647 0.071079373 12830140
-0.0091283992 0.83279902 0.071076952 12895933
-0.00878709 0.8328315 0.07107453 12830140
-0.0084457826 0.83286405 0.071072102 12764347
-0.0081044752 0.83289659 0.07106968 12764347
-0.0077631678 0.83292907 0.071067251 12830140
-0.0074218586 0.83296156 0.07106483 12830140
-0.0070805512 0.8329941 0.071062401 12830140
-0.0067392439 0.83302665 0.071059979 12764347
-0.0063979346 0.83305913 0.071057551 12764347
-0.0060566273 0.83309168 0.071055129 12764347
-0.0056126155 0.83227473 0.070533536 12764347
-0.005269682 0.83230746 0.0705311 12764347
-0.0049267504 0.83234012 0.070528664 12830140
-0.004583817 0.83237278 0.070526227 12764347
-0.0042408835 0.83240545 0.070523791 12764347
-0.0038979501 0.83243811 0.070521355 12829883
-0.0035550166 0.83247077 0.070518918 12829883
-0.0032120831 0.83250344 0.070516482 12895676
-0.0028691497 0.83253616 0.070514046 12895676
-0.0025262181 0.83256882 0.070511609 12895676
-0.0021832827 0.83260149 0.070509173 12829883
-0.0018403511 0.83263415 0.070506737 12895676
-0.0014974177 0.83266681 0.0705043 12895676
-0.0011544842 0.83269954 0.070501864 12895676
-0.00081155077 0.8327322 0.070499428 12829883
-0.00046861731 0.83276486 0.070496991 12764090
-0.00012568571 0.83279753 0.070494555 12764090
0.00021724962 0.83283019 0.070492119 12764090
0.00056018122 0.83286285 0.070489682 12829883
0.00090311468 0.83289552 0.070487246 12895674
0.0012460481 0.83292818 0.07048481 12829881
0.0015889816 0.8329609 0.070482373 12829881
0.0019319151 0.83299357 0.070479937 12829881
0.0022748467 0.83302623 0.070477501 12764088
0.002617782 0.83305889 0.070475064 12764088
0.0029607136 0.83309162 0.070472628 12764088
0.003303647 0.83312428 0.070470192 12764088
0.0036465805 0.83315694 0.070467755 12764086
0.0039895121 0.83318961 0.070465319 12698293
0.0043324474 0.83322227 0.070462883 12698293
0.004675379 0.83325493 0.070460446 12764086
0.0050183106 0.8332876 0.07045801 12829879
0.0053612459 0.83332026 0.070455573 12829879
0.0057041813 0.83335298 0.070453137 12764088
0.0060471091 0.83338565 0.070450701 12764088
0.0063900445 0.83341831 0.070448264 12698295
0.0067329798 0.83345097 0.070445828 12764088
0.0070759151 0.83348364 0.070443392 12698295
0.007418843 0.83351636 0.070440955 12764088
0.0077617783 0.83354902 0.070438519 12764088
0.0081047136 0.83358169 0.070436083 12764088
0.008447649 0.83361435 0.070433646 12764088
0.0089615416 0.83280408 0.069911554 12698295
0.0093061011 0.83283693 0.069909103 12764088
0.009650657 0.83286977 0.069906659 12764088
0.0099952165 0.83290255 0.069904208 12764088
0.010339776 0.83293539 0.069901764 12764088
0.010684336 0.83296824 0.069899313 12960697
0.011028895 0.83300108 0.069896869 12829111
0.011373455 0.83303392 0.069894418 12894904
0.011718007 0.8330667 0.069891974 12829111
0.012062566 0.83309954 0.069889523 12894904
0.012407126 0.83313239 0.069887079 12894904
0.012751685 0.83316517 0.069884628 12894904
0.013286712 0.83235693 0.069362395 12829111
0.013632895 0.83238995 0.069359936 12894904
0.013979079 0.83242291 0.069357477 12829111
0.014325263 0.83245587 0.069355018 12829111
0.014671447 0.83248889 0.069352552 12829111
0.015017631 0.83252186 0.069350094 12829111
0.015363814 0.83255488 0.069347635 12829111
0.015709998 0.83258784 0.069345176 12829111
0.016056182 0.83262086 0.069342718 12829111
0.016402366 0.83265382 0.069340259 12566709
0.016748549 0.83268678 0.0693378 12566709
0.017094733 0.8327198 0.069335341 12698295
0.017440917 0.83275276 0.069332883 12698295
0.017787101 0.83278573 0.069330424 12698295
0.018133285 0.83281875 0.069327965 12698295
0.018479468 0.83285171 0.069325499 12698295
0.018825652 0.83288467 0.069323041 12698295
0.019171836 0.83291769 0.069320582 12764088
0.019518016 0.83295065 0.069318123 12764088
0.019864203 0.83298361 0.069315664 12764088
0.020433357 0.83217865 0.068793178 12698295
0.020781169 0.83221179 0.068790711 12698295
0.02112898 0.83224493 0.068788238 12764088
0.021476788 0.83227807 0.068785772 12764088
0.021824596 0.83231121 0.068783298 12764088
0.022172404 0.83234429 0.068780825 12764088
0.022520212 0.83237743 0.068778358 12764088
0.02286802 0.83241057 0.068775885 12698295
0.023215832 0.83244371 0.068773411 12764088
0.02356364 0.83247685 0.068770945 12764088
0.023911448 0.83250999 0.068768471 12764088
0.02425926 0.83254313 0.068765998 12764088
0.024607064 0.83257627 0.068763532 12764088
0.024954876 0.83260942 0.068761058 12764088
0.025548408 0.83180678 0.068238415 12764088
0.02589784 0.83184004 0.068235934 12764088
0.02624728 0.83187336 0.068233453 12764088
0.026596712 0.83190668 0.068230972 12764088
0.026946144 0.83193994 0.068228483 12829881
0.027295584 0.83197325 0.068226002 12764088
0.027645016 0.83200651 0.068223521 12764088
0.027994448 0.83203983 0.06822104 12764090
0.028343888 0.83207309 0.068218559 12764090
0.028693313 0.83210641 0.068216071 12764090
0.029042752 0.83213973 0.068213589 12698297
0.029392185 0.83217299 0.068211108 12698297
0.029741617 0.83220631 0.068208627 12698297
0.030091057 0.83223957 0.068206146 12764090
0.030440489 0.83227289 0.068203658 12764090
0.030789921 0.83230615 0.068201177 12829883
0.031139361 0.83233947 0.068198696 12829883
0.031488784 0.83237278 0.068196215 12829881
0.031838223 0.83240604 0.068193734 12829881
0.032187656 0.8324393 0.068191253 12764088
0.032537095 0.83247262 0.068188764 12829881
0.032886527 0.83250594 0.068186283 12829881
0.03323596 0.8325392 0.068183802 12829881
0.033868507 0.83174026 0.067660868 12764088
0.034219563 0.83177376 0.067658372 12829881
0.034570627 0.83180714 0.067655876 12829881
0.034921683 0.83184063 0.067653388 12829881
0.03527274 0.83187407 0.067650892 12829881
0.035623804 0.83190751 0.067648396 12829881
0.035974868 0.83194095 0.0676459 12829881
0.036325924 0.83197439 0.067643411 12829881
0.036676981 0.83200788 0.067640916 12829881
0.037028037 0.83204132 0.06763842 12829881
0.037379101 0.83207476 0.067635924 12829881
0.037730165 0.8321082 0.067633435 12829881
0.038081221 0.83214164 0.067630939 12829881
0.038432278 0.83217508 0.067628443 12895674
0.038783342 0.83220851 0.067625955 12895674
0.039134406 0.83224201 0.067623459 12895674
0.039485462 0.83227545 0.067620963 12895674
0.040147252 0.83147925 0.06709782 12961467
0.040499941 0.83151287 0.067095317 12829883
0.040852629 0.83154649 0.067092806 12895676
0.041205309 0.83158004 0.067090303 12895676
0.04155799 0.83161366 0.067087799 12895676
0.041910678 0.83164728 0.067085296 13026492
0.042263366 0.83168089 0.067082785 13092285
0.042616047 0.83171451 0.067080282 13092285
0.042968735 0.83174807 0.067077778 13092285
0.043321423 0.83178169 0.067075267 13092285
0.043674104 0.8318153 0.067072764 13026492
0.044026785 0.83184886 0.067070261 12960699
0.044379465 0.83188248 0.067067757 13026492
0.044732161 0.83191609 0.067065246 13026492
0.04541833 0.83112228 0.06654194 13026492
0.045772642 0.83115602 0.066539422 13026492
0.046126954 0.83118975 0.066536903 13026492
0.046481267 0.83122355 0.066534385 13092285
0.046835579 0.83125728 0.066531874 13092285
0.047189884 0.83129108 0.066529356 13092285
0.047544196 0.83132482 0.066526838 13026492
0.047898509 0.83135855 0.066524319 12960699
0.048252814 0.83139229 0.066521801 12960699
0.048607126 0.83142608 0.066519283 12829883
0.048961438 0.83145982 0.066516772 12895676
0.049667113 0.83066785 0.065993316 12895676
0.050023057 0.83070177 0.065990783 12829883
0.050378986 0.83073568 0.065988258 12829883
0.050734922 0.8307696 0.065985724 12829883
0.051090859 0.83080351 0.065983199 12895676
0.051446795 0.83083737 0.065980673 12961469
0.051802725 0.83087134 0.06597814 12829883
0.052158661 0.8309052 0.065975614 12829883
0.052514605 0.83093917 0.065973088 12829629
0.052870534 0.83097303 0.065970555 12763836
0.053226478 0.83100694 0.065968029 12698043
0.0535824 0.83104086 0.065965496 12500664
0.053938344 0.83107477 0.06596297 12369078
0.054294273 0.83110869 0.065960445 12303285
0.054650217 0.8311426 0.065957911 12303285
0.055381894 0.83035314 0.065434277 12040113
0.055739455 0.83038718 0.065431736 11908527
0.056097016 0.83042121 0.065429196 11842734
0.056454577 0.8304553 0.065426655 11514023
0.056812137 0.8304894 0.065424114 11382437
-0.028906144 0.8307451 0.071516268 12696494
-0.028564839 0.83077765 0.071513847 12697010
-0.028223529 0.83081019 0.071511418 12960182
-0.02788222 0.83084267 0.071508996 12960697
-0.027539684 0.83173531 0.072023571 13158076
-0.027200002 0.83176768 0.072021157 13224898
-0.026860319 0.83180004 0.072018743 13422277
-0.026520636 0.83183241 0.072016329 13553863
-0.026180953 0.83186477 0.072013915 13619656
-0.025841272 0.83189714 0.072011508 13685195
-0.02550159 0.8319295 0.072009094 13750988
-0.025161907 0.83196187 0.07200668 13685965
-0.024822224 0.83199424 0.072004266 13685965
-0.024482541 0.8320266 0.072001852 13883346
-0.02414286 0.83205897 0.071999438 14014932
-0.023803176 0.83209133 0.071997024 13949909
-0.023463495 0.8321237 0.07199461 13818323
-0.02312381 0.83215606 0.071992196 13753560
-0.022784129 0.83218837 0.07198979 13293009
-0.022444446 0.83222079 0.071987376 13556183
-0.022104762 0.8322531 0.071984962 13293011
-0.02179148 0.833143 0.072499752 13293013
-0.021453422 0.83317518 0.072497353 13293013
-0.021115365 0.83320743 0.072494946 13161427
-0.020777307 0.83323961 0.072492547 12964048
-0.020439249 0.83327186 0.072490148 12964048
-0.020101193 0.83330405 0.072487742 12832462
-0.019763136 0.83333623 0.072485343 12832462
-0.019425079 0.83336842 0.072482944 12832462
-0.01908702 0.83340067 0.072480537 12700874
-0.018748963 0.83343285 0.072478138 12635081
-0.018368253 0.83260912 0.071958415 12634309
-0.01802857 0.83264148 0.071956001 12765895
-0.017688887 0.83267385 0.071953587 12699589
-0.017349206 0.83270621 0.071951173 12568003
-0.017009523 0.83273858 0.071948759 12699072
-0.01666984 0.83277094 0.071946345 12699072
-0.016330156 0.83280331 0.071943939 12699070
-0.015990475 0.83283567 0.071941525 12633277
-0.015650792 0.83286804 0.071939111 12764093
-0.015311109 0.8329004 0.071936697 12698300
-0.014971427 0.83293277 0.071934283 12698300
-0.014631744 0.83296514 0.071931869 12698300
-0.014292061 0.8329975 0.071929455 12764093
-0.013952379 0.83302987 0.071927041 12764093
-0.013612696 0.83306223 0.071924627 12764347
-0.013273014 0.8330946 0.07192222 12764347
-0.012933331 0.8331269 0.071919806 12764347
-0.012593648 0.83315933 0.071917392 12698554
-0.012253965 0.83319163 0.071914978 12830140
-0.011914283 0.83322406 0.071912564 12698554
-0.0115746 0.83325636 0.07191015 12764347
-0.011234917 0.83328879 0.071907736 12764347
-0.010895235 0.83332109 0.071905322 12830140
-0.010555552 0.83335346 0.071902908 12830140
-0.010215869 0.83338583 0.071900502 12830140
-0.0097929016 0.83256614 0.071380481 12830140
-0.0094515942 0.83259869 0.07137806 12830140
-0.0091102868 0.83263117 0.071375631 12895933
-0.0087689795 0.83266366 0.071373209 12830140
-0.0084276702 0.8326962 0.07137078 12764347
-0.0080863629 0.83272874 0.071368359 12830140
-0.0077450555 0.83276123 0.071365938 12830140
-0.0074037462 0.83279377 0.071363509 12830140
-0.0070624389 0.83282626 0.071361087 12895933
-0.0067211315 0.8328588 0.071358658 12830140
-0.0063798223 0.83289135 0.071356237 12764347
-0.0060385149 0.83292383 0.071353808 12830140
-0.0055944175 0.83210611 0.070833638 12830140
-0.005251484 0.83213878 0.070831202 12764347
-0.0049085505 0.83217144 0.070828766 12830140
-0.0045656171 0.83220416 0.070826329 12830140
-0.0042226836 0.83223683 0.070823893 12764347
-0.003879752 0.83226949 0.070821457 12764347
-0.0035368185 0.83230215 0.07081902 12764347
-0.0031938851 0.83233482 0.070816584 12830140
-0.0028509516 0.83236754 0.070814148 12830140
-0.0025080182 0.8324002 0.070811711 12830140
-0.0021650847 0.83243287 0.070809275 12764347
-0.0018221512 0.83246553 0.070806839 12698554
-0.0014792196 0.83249819 0.070804402 12764347
-0.0011362862 0.83253086 0.070801966 12829883
-0.00079335272 0.83256352 0.07079953 12829883
-0.00045041926 0.83259618 0.070797093 12764090
-0.0001074858 0.83262891 0.070794657 12764090
0.00023544766 0.83266157 0.070792221 12829881
0.00057838112 0.83269423 0.070789784 12829881
0.00092131272 0.8327269 0.070787348 12829881
0.001264248 0.83275962 0.070784912 12829881
0.0016071796 0.83279228 0.070782475 12764088
0.0019501131 0.83282495 0.070780039 12829881
0.0022930447 0.83285761 0.070777602 12829881
0.00263598 0.83289027 0.070775166 12764088
0.0029789135 0.83292294 0.07077273 12764086
0.0033218451 0.8329556 0.070770293 12764086
0.0036647804 0.83298826 0.070767857 12764086
0.0040077139 0.83302099 0.070765421 12764086
0.0043506455 0.83305365 0.070762984 12764086
0.0046935771 0.83308631 0.070760548 12764086
0.0050365124 0.83311898 0.070758112 12829879
0.0053794477 0.83315164 0.070755675 12764086
0.0057223793 0.83318436 0.070753239 12829879
0.0060653109 0.83321702 0.070750803 12764086
0.0064082462 0.83324969 0.070748366 12764086
0.0067511816 0.83328235 0.07074593 12829879
0.0070941094 0.83331501 0.070743494 12764086
0.0074370448 0.83334768 0.070741057 12764086
0.0077799801 0.83338034 0.070738621 12764088
0.0081229117 0.833413 0.070736185 12764088
0.0084658433 0.83344573 0.070733748 12764088
0.008979829 0.83263469 0.070213079 12698295
0.0093243886 0.83266747 0.070210636 12698295
0.0096689444 0.83270031 0.070208184 12698295
0.0100135 0.83273315 0.070205733 12764088
0.01035806 0.83276594 0.070203289 12764088
0.010702619 0.83279884 0.070200838 12829881
0.011047179 0.83283162 0.070198394 12698295
0.011391738 0.83286446 0.070195943 12764088
0.011736294 0.83289731 0.070193499 12698295
0.012080854 0.83293009 0.070191048 12764088
0.012425413 0.83296293 0.070188604 12764088
0.012769969 0.83299577 0.070186153 12698295
0.013305081 0.8321867 0.069665343 12764088
0.013651269 0.83221972 0.069662884 12764088
0.013997452 0.83225268 0.069660425 12698295
0.014343636 0.83228564 0.069657966 12698295
0.01468982 0.83231866 0.069655508 12698295
0.015036 0.83235162 0.069653042 12698295
0.015382184 0.83238465 0.069650583 12698295
0.015728371 0.83241761 0.069648124 12566709
0.016074555 0.83245063 0.069645666 12698295
0.016420739 0.83248359 0.069643207 12566709
0.016766923 0.83251655 0.069640748 12698295
0.017113106 0.83254957 0.06963829 12698295
0.017459286 0.83258253 0.069635831 12698295
0.01780547 0.83261549 0.069633372 12566709
0.018151658 0.83264852 0.069630913 12566709
0.018497838 0.83268148 0.069628447 12698295
0.018844021 0.83271444 0.069625989 12698295
0.019190205 0.83274746 0.06962353 12764088
0.019536385 0.83278042 0.069621071 12698295
0.019882573 0.83281338 0.069618613 12698295
0.020451816 0.83200765 0.069097549 12698295
0.020799624 0.83204079 0.069095083 12698295
0.021147436 0.83207387 0.069092609 12764088
0.021495244 0.83210701 0.069090135 12698295
0.021843052 0.83214015 0.069087669 12698295
0.02219086 0.83217329 0.069085196 12764090
0.022538668 0.83220643 0.069082722 12764090
0.022886476 0.83223957 0.069080256 12698297
0.023234287 0.83227271 0.069077782 12764090
0.023582095 0.83230585 0.069075316 12764090
0.023929903 0.83233899 0.069072843 12764090
0.024277715 0.83237213 0.069070369 12764090
0.024625519 0.83240527 0.069067903 12829883
0.024973331 0.83243841 0.069065429 12764090
0.025566952 0.83163494 0.068544209 12764090
0.025916385 0.83166826 0.068541728 12764090
0.026265824 0.83170152 0.068539247 12764090
0.026615256 0.83173484 0.068536758 12829881
0.026964689 0.83176816 0.068534277 12829881
0.027314128 0.83180141 0.068531796 12764088
0.027663561 0.83183467 0.068529315 12698295
0.028012993 0.83186799 0.068526834 12764088
0.028362432 0.83190131 0.068524346 12764088
0.028711857 0.83193457 0.068521865 12698295
0.029061297 0.83196789 0.068519384 12698295
0.029410729 0.83200115 0.068516903 12698295
0.029760161 0.83203447 0.068514422 12698295
0.030109601 0.83206773 0.068511941 12764088
0.030459033 0.83210105 0.068509452 12764088
0.030808466 0.83213437 0.068506971 12829881
0.031157905 0.83216763 0.06850449 12829881
0.031507328 0.83220088 0.068502009 12829881
0.031856768 0.8322342 0.068499528 12829881
0.0322062 0.83226752 0.068497039 12764088
0.03255564 0.83230078 0.068494558 12764088
0.032905072 0.8323341 0.068492077 12829881
0.033254504 0.83236736 0.068489596 12829881
0.033887133 0.83156765 0.067968085 12829881
0.034238197 0.83160108 0.067965589 12895674
0.034589253 0.83163452 0.067963094 12829881
0.034940317 0.83166802 0.067960598 12829881
0.035291366 0.83170146 0.067958109 12764088
0.035642438 0.8317349 0.067955613 12764088
0.035993494 0.83176833 0.067953117 12829881
0.036344551 0.83180177 0.067950621 12829881
0.036695607 0.83183521 0.067948133 12764088
0.037046663 0.83186865 0.067945637 12829881
0.037397735 0.83190215 0.067943141 12829881
0.037748791 0.83193558 0.067940645 12764088
0.038099848 0.83196902 0.067938156 12895674
0.038450904 0.83200246 0.06793566 12895674
0.038801976 0.8320359 0.067933165 12895674
0.039153032 0.83206934 0.067930669 12895674
0.039504088 0.83210278 0.06792818 12829883
0.040165968 0.83130586 0.067406461 13027262
0.040518656 0.83133948 0.06740395 12829883
0.040871345 0.83137304 0.067401446 12895676
0.041224025 0.83140665 0.067398943 12961469
0.041576706 0.83144027 0.067396432 12895676
0.041929394 0.83147383 0.067393929 12829883
0.042282082 0.83150744 0.067391425 12829883
0.042634763 0.83154106 0.067388922 12961469
0.042987451 0.83157468 0.067386411 12961469
0.043340139 0.8316083 0.067383908 12961469
0.04369282 0.83164185 0.067381404 12895676
0.0440455 0.83167547 0.067378893 12829883
0.044398181 0.83170909 0.06737639 12895676
0.044750877 0.83174264 0.067373887 12895676
0.045437135 0.830948 0.066852003 12895676
0.045791447 0.83098179 0.066849485 12895676
0.04614576 0.83101553 0.066846967 12895676
0.046500072 0.83104932 0.066844448 12895676
0.046854384 0.83108306 0.06684193 12961469
0.047208689 0.8311168 0.066839412 13092285
0.047563002 0.83115059 0.066836894 13026492
0.047917314 0.83118433 0.066834383 12895676
0.048271619 0.83121812 0.066831864 12895676
0.048625931 0.83125186 0.066829346 12895676
0.048980244 0.8312856 0.066826828 12961469
0.049686 0.83049285 0.066304795 12961469
0.050041936 0.83052671 0.06630227 12895676
0.050397873 0.83056062 0.066299736 12895676
0.05075381 0.83059454 0.066297211 12895676
0.051109739 0.83062845 0.066294685 12895676
0.051465683 0.83066237 0.066292152 12961469
0.051821612 0.83069628 0.066289626 12829883
0.052177556 0.8307302 0.066287093 12764090
0.052533492 0.83076411 0.066284567 12764090
0.052889422 0.83079803 0.066282041 12829883
0.053245366 0.83083194 0.066279508 12698297
0.053601287 0.83086586 0.066276982 12500918
0.053957231 0.83089978 0.066274449 12434871
0.05431316 0.83093369 0.066271923 12434871
0.054669105 0.83096761 0.066269398 12303285
0.055400871 0.83017731 0.065747179 12040113
0.055758432 0.83021134 0.065744638 11908527
0.056115992 0.83024544 0.065742098 11842734
0.056473553 0.83027947 0.065739557 11579562
0.056831114 0.83031356 0.065737016 11447976
-0.028888032 0.83057725 0.071814947 12697264
-0.028546726 0.8306098 0.071812525 12894904
-0.028205417 0.83064234 0.071810104 13092283
-0.027864108 0.83067483 0.071807675 13027262
-0.027521659 0.8315683 0.072320834 13224641
-0.027181977 0.83160067 0.07231842 13159105
-0.026842294 0.83163297 0.072316006 13224898
-0.026502609 0.8316654 0.072313592 13093312
-0.026162926 0.8316977 0.072311178 13159105
-0.025823245 0.83173013 0.072308764 12895933
-0.025483564 0.83176243 0.07230635 12895933
-0.02514388 0.83179486 0.072303936 13158848
-0.024804197 0.83182716 0.072301522 13027262
-0.024464514 0.83185953 0.072299115 12764090
-0.024124833 0.83189189 0.072296701 12829883
-0.02378515 0.83192426 0.072294287 12829629
-0.023445468 0.83195662 0.072291873 12961215
-0.023105783 0.83198899 0.072289459 12961472
-0.022766102 0.83202136 0.072287045 12698300
-0.022426419 0.83205372 0.072284631 12699070
-0.022086736 0.83208609 0.072282217 12764863
-0.021773539 0.83297676 0.072795592 12962244
-0.021435482 0.833009 0.072793186 13028037
-0.021097425 0.83304119 0.072790787 12962244
-0.020759366 0.83307338 0.072788388 13028037
-0.020421309 0.83310556 0.072785981 13028807
-0.020083252 0.83313781 0.072783582 12963014
-0.019745197 0.83317 0.072781183 12963274
-0.019407138 0.83320224 0.072778776 13094860
-0.019069081 0.83323443 0.072776377 13095632
-0.018731024 0.83326662 0.072773978 13095632
-0.018350227 0.8324421 0.072255671 12898253
-0.018010544 0.83247447 0.072253264 12898253
-0.017670862 0.83250684 0.07225085 12964046
-0.017331179 0.8325392 0.072248437 12832460
-0.016991496 0.83257151 0.072246023 12832460
-0.016651815 0.83260393 0.072243609 12766667
-0.016312132 0.83263624 0.072241195 12897481
-0.015972449 0.83266866 0.072238781 12897481
-0.015632765 0.83270097 0.072236367 12765895
-0.015293084 0.83273339 0.072233953 12634309
-0.014953401 0.8327657 0.072231546 12699842
-0.014613718 0.83279806 0.072229132 12634049
-0.014274036 0.83283043 0.072226718 12634049
-0.013934353 0.83286279 0.072224304 12568256
-0.01359467 0.83289516 0.07222189 12699070
-0.013254987 0.83292753 0.072219476 12633277
-0.012915305 0.83295989 0.072217062 12633531
-0.012575623 0.83299226 0.072214648 12633531
-0.01223594 0.83302462 0.072212234 12699324
-0.011896256 0.83305699 0.07220982 12633531
-0.011556575 0.83308935 0.072207414 12764347
-0.011216892 0.83312172 0.072205 12830140
-0.010877209 0.83315408 0.072202586 12830140
-0.010537526 0.83318645 0.072200172 12830140
-0.010197844 0.83321881 0.072197758 12830140
-0.0097747892 0.8323983 0.071679167 12830140
-0.0094334818 0.83243084 0.071676739 12830140
-0.0090921745 0.83246332 0.071674317 12895933
-0.0087508671 0.83249587 0.071671888 12830140
-0.0084095579 0.83252835 0.071669467 12764347
-0.0080682505 0.8325609 0.071667038 12830140
-0.0077269431 0.83259344 0.071664616 12830140
-0.0073856339 0.83262593 0.071662195 12895933
-0.0070443265 0.83265841 0.071659766 12830140
-0.0067030191 0.83269095 0.071657345 12830140
-0.0063617099 0.8327235 0.071654916 12830140
-0.0060204025 0.83275598 0.071652494 12830140
-0.0056790952 0.83278853 0.071650065 12830140
-0.0053377878 0.83282101 0.071647644 12830140
-0.0049964786 0.83285356 0.071645215 12830140
-0.0046551712 0.8328861 0.071642794 12830140
-0.004313862 0.83291858 0.071640372 12764347
-0.0038615521 0.83210087 0.071121559 12764347
-0.0035186205 0.83213353 0.071119122 12764347
-0.0031756852 0.83216619 0.071116686 12764347
-0.0028327536 0.83219886 0.07111425 12830140
-0.0024898201 0.83223152 0.071111813 12764347
-0.0021468867 0.83226418 0.071109377 12764347
-0.0018039532 0.83229691 0.071106941 12764347
-0.0014610197 0.83232957 0.071104504 12698554
-0.0011180881 0.83236223 0.071102068 12764347
-0.00077515282 0.8323949 0.071099631 12764347
-0.00043222122 0.83242762 0.071097195 12698554
-8.9287758e-05 0.83246028 0.071094759 12698554
0.0002536457 0.83249295 0.071092322 12764347
0.00059657916 0.83252561 0.071089886 12764347
0.00093951263 0.83255827 0.07108745 12764345
0.0012824461 0.83259094 0.071085013 12764345
0.0016253795 0.8326236 0.071082577 12764088
0.0019683111 0.83265626 0.071080141 12829881
0.0023112427 0.83268899 0.071077704 12829881
0.0026541781 0.83272165 0.071075268 12764088
0.0029971115 0.83275431 0.071072832 12764088
0.003340045 0.83278698 0.071070395 12829881
0.0036829785 0.83281964 0.071067959 12829879
0.0040259119 0.83285236 0.071065523 12829879
0.0043688435 0.83288503 0.071063086 12698293
0.0047117751 0.83291769 0.07106065 12829879
0.0050547067 0.83295035 0.071058214 12829879
0.005397642 0.83298302 0.071055777 12764086
0.0057405774 0.83301568 0.071053341 12829879
0.006083509 0.83304834 0.071050912 12829879
0.0064264443 0.83308101 0.071048468 12764086
0.0067693759 0.83311373 0.071046039 12764086
0.0071123112 0.83314639 0.071043596 12764086
0.0074552428 0.83317906 0.071041167 12764086
0.0077981744 0.83321172 0.071038723 12764088
0.0081411097 0.83324444 0.071036294 12829881
0.008484045 0.83327711 0.071033858 12764088
0.0088269766 0.83330977 0.071031421 12698295
0.0091699082 0.83334243 0.071028985 12698295
0.0095128436 0.8333751 0.071026549 12698295
0.010031784 0.8325637 0.070507266 12764088
0.010376344 0.83259654 0.070504814 12698295
0.010720903 0.83262938 0.070502371 12764088
0.011065463 0.83266222 0.070499919 12698295
0.011410022 0.83269501 0.070497476 12764088
0.011754578 0.83272785 0.070495024 12764088
0.012099138 0.83276069 0.070492573 12764088
0.012443697 0.83279347 0.070490129 12764088
0.012788253 0.83282632 0.070487678 12698295
0.013132812 0.83285916 0.070485234 12698295
0.013477372 0.832892 0.070482783 12698295
0.013821932 0.83292484 0.070480339 12698295
0.014166491 0.83295763 0.070477888 12698295
0.014511047 0.83299047 0.070475444 12698295
0.014855603 0.83302331 0.070472993 12698295
0.015200162 0.83305615 0.070470549 12566709
0.015544722 0.83308899 0.070468098 12566709
0.016092924 0.83228034 0.069948614 12698295
0.016439108 0.83231336 0.069946155 12566709
0.016785292 0.83234632 0.069943696 12698295
0.017131476 0.83237934 0.069941238 12698295
0.017477656 0.8324123 0.069938779 12566709
0.01782384 0.83244526 0.06993632 12566709
0.018170027 0.83247828 0.069933861 12566709
0.018516207 0.83251125 0.069931403 12698295
0.018862391 0.83254421 0.069928944 12698295
0.019208575 0.83257723 0.069926485 12698295
0.019554758 0.83261019 0.069924019 12698295
0.019900942 0.83264315 0.069921561 12698297
0.020247126 0.83267617 0.069919102 12698297
0.020593314 0.83270913 0.069916643 12698297
0.020939494 0.83274209 0.069914185 12764090
0.021285677 0.83277512 0.069911726 12764090
0.021631861 0.83280808 0.069909267 12764090
0.021978045 0.83284104 0.069906808 12698297
0.022324229 0.83287406 0.06990435 12764090
0.022670412 0.83290702 0.069901891 12698297
0.023252746 0.8321017 0.069382153 12764090
0.023600554 0.83213484 0.069379687 12764090
0.023948362 0.83216798 0.069377214 12698297
0.024296174 0.83220112 0.06937474 12764090
0.024643978 0.83223426 0.069372274 12764090
0.02499179 0.8322674 0.0693698 12764090
0.025339598 0.83230054 0.069367327 12764090
0.025687406 0.83233362 0.069364861 12764090
0.026035221 0.83236676 0.069362387 12764090
0.026383029 0.8323999 0.069359913 12764090
0.026730837 0.83243304 0.069357447 12764090
0.027078649 0.83246619 0.069354974 12829881
0.027426453 0.83249933 0.069352508 12698295
0.027774261 0.83253247 0.069350034 12764090
0.028122073 0.83256561 0.06934756 12829883
0.028469881 0.83259875 0.069345094 12764090
0.028817689 0.83263189 0.069342621 12698297
0.029165501 0.83266503 0.069340147 12698297
0.029513309 0.83269817 0.069337681 12698297
0.029861113 0.83273131 0.069335207 12764090
0.030477578 0.83192921 0.068815246 12764090
0.03082701 0.83196253 0.068812765 12764090
0.03117645 0.83199579 0.068810284 12829883
0.031525873 0.8320291 0.068807803 12829881
0.031875312 0.83206236 0.068805322 12829881
0.032224745 0.83209568 0.068802834 12764088
0.032574184 0.832129 0.068800353 12829881
0.032923616 0.83216226 0.068797871 12829881
0.033273049 0.83219552 0.06879539 12829881
0.033622488 0.83222884 0.068792909 12764088
0.033971921 0.83226216 0.068790421 12829881
0.034321353 0.83229542 0.06878794 12829881
0.034670785 0.83232874 0.068785459 12829881
0.035020217 0.832362 0.068782978 12764088
0.035369657 0.83239532 0.068780497 12764088
0.035719089 0.83242857 0.068778008 12829881
0.036068521 0.83246189 0.068775527 12829881
0.036417961 0.83249521 0.068773046 12829881
0.036767393 0.83252847 0.068770565 12829881
0.037116826 0.83256173 0.068768084 12895674
0.037767418 0.83176291 0.068247862 12829881
0.038118474 0.83179641 0.068245366 12895674
0.038469538 0.83182985 0.068242878 12895674
0.038820602 0.83186328 0.068240382 12895674
0.039171658 0.83189672 0.068237886 12895674
0.039522715 0.83193016 0.068235397 12829883
0.039873771 0.83196366 0.068232901 12895676
0.040224828 0.83199704 0.068230405 12895676
0.040575892 0.83203053 0.06822791 12895676
0.040926956 0.83206397 0.068225421 12895676
0.041278012 0.83209741 0.068222925 12895676
0.041629069 0.83213085 0.068220429 12961469
0.041980132 0.83216429 0.068217933 12829883
0.042331196 0.83219779 0.068215445 12895676
0.042682253 0.83223116 0.068212949 12895676
0.043033309 0.83226466 0.068210453 12961469
0.043384366 0.8322981 0.068207957 12895676
0.044064216 0.83150202 0.067687534 12829883
0.044416897 0.83153564 0.06768503 12895676
0.044769593 0.83156925 0.06768252 12895676
0.045122273 0.83160281 0.067680016 12895676
0.045474961 0.83163643 0.067677513 12895676
0.04582765 0.83167005 0.067675009 12895676
0.04618033 0.83170366 0.067672499 12829883
0.046533018 0.83173728 0.067669995 12895676
0.046885699 0.83177084 0.067667492 12961469
0.047238387 0.83180445 0.067664981 12895676
0.047591068 0.83183807 0.067662477 12895676
0.047943756 0.83187163 0.067659974 12961469
0.048644729 0.83107764 0.067139402 12961469
0.048999041 0.83111137 0.067136891 12895676
0.049353346 0.83114517 0.067134373 12961469
0.049707666 0.8311789 0.067131855 12895676
0.050061971 0.83121264 0.067129336 12961469
0.050416283 0.83124638 0.067126818 12895676
0.050770588 0.83128017 0.0671243 12895676
0.051124901 0.83131391 0.067121789 12961469
0.051479213 0.8313477 0.067119271 12829883
0.051833525 0.83138144 0.067116752 12764090
0.05218783 0.83141518 0.067114234 12763836
0.052908309 0.83062303 0.06659352 12895422
0.053264253 0.83065689 0.066590995 12698297
0.053620175 0.8306908 0.066588461 12500918
0.053976119 0.83072472 0.066585936 12435125
0.054332048 0.83075863 0.06658341 12435125
0.054687992 0.83079255 0.066580877 12369078
0.055043921 0.83082646 0.066578351 12105906
0.055399865 0.83086038 0.066575818 11908527
0.055755794 0.83089429 0.066573292 11776941
0.056111731 0.83092821 0.066570766 11514023
0.05646766 0.83096212 0.066568233 11448230
-0.028869919 0.83040947 0.072113633 12829363
-0.028528614 0.83044195 0.072111204 12894904
-0.028187305 0.8304745 0.072108783 12960697
-0.027845996 0.83050704 0.072106361 12829881
-0.02750469 0.83053952 0.072103932 12829881
-0.027163381 0.83057201 0.072101511 12895674
-0.026822075 0.83060455 0.072099082 12698295
-0.026480766 0.8306371 0.072096661 12435123
-0.026139459 0.83066958 0.072094232 12303537
-0.02580522 0.83156306 0.072606027 12171181
-0.025465537 0.83159542 0.072603613 12171181
-0.025125854 0.83162779 0.072601199 12171181
-0.024786171 0.83166015 0.072598785 12171181
-0.024446489 0.83169252 0.072596371 11908009
-0.024106808 0.83172488 0.072593957 11973802
-0.023767125 0.83175725 0.072591543 12105388
-0.023427442 0.83178961 0.072589129 11973802
-0.023087759 0.83182198 0.072586715 12171181
-0.022748075 0.83185434 0.072584309 11644837
-0.022408392 0.83188671 0.072581895 12368560
-0.022068709 0.83191907 0.072579481 12368560
-0.021729028 0.83195144 0.072577067 12368560
-0.021389345 0.8319838 0.072574653 12105388
-0.021049663 0.83201617 0.072572239 12434353
-0.02070998 0.83204854 0.072569825 12500146
-0.020370297 0.83208084 0.072567411 12697525
-0.020030614 0.83211327 0.072564997 12829111
-0.019690931 0.83214557 0.07256259 12895674
-0.019351248 0.832178 0.072560176 12961467
-0.019011566 0.8322103 0.072557762 12895933
-0.018671885 0.83224273 0.072555348 12895933
-0.018332202 0.83227503 0.072552934 13028035
-0.017992519 0.8323074 0.07255052 13159621
-0.017652836 0.83233976 0.072548106 12962761
-0.017313153 0.83237213 0.072545692 13028554
-0.016973469 0.83240449 0.072543278 13028554
-0.016633788 0.83243686 0.072540864 13094347
-0.016294105 0.83246922 0.072538458 13094860
-0.015954424 0.83250159 0.072536044 13094860
-0.01561474 0.83253396 0.07253363 13029067
-0.015275057 0.83256632 0.072531216 13029067
-0.014935374 0.83259869 0.072528802 12963274
-0.014595692 0.83263105 0.072526388 12963274
-0.01425601 0.83266342 0.072523974 12897481
-0.013916327 0.83269578 0.07252156 12831688
-0.013576644 0.83272815 0.072519146 12765895
-0.013236961 0.83276051 0.072516739 12634309
-0.012897279 0.83279288 0.072514325 12568769
-0.012557596 0.83282524 0.072511911 12568769
-0.012217914 0.83285761 0.072509497 12634049
-0.011878231 0.83288997 0.072507083 12568256
-0.011538548 0.83292234 0.072504669 12568256
-0.011198865 0.8329547 0.072502255 12568256
-0.010859182 0.83298707 0.072499841 12634049
-0.010519501 0.83301938 0.072497427 12634049
-0.010179818 0.8330518 0.072495013 12699070
-0.0097566787 0.83223045 0.071977846 12633277
-0.0094153695 0.83226299 0.071975425 12699070
-0.0090740621 0.83229554 0.071972996 12764863
-0.0087327547 0.83232802 0.071970575 12829886
-0.0083914455 0.83236051 0.071968146 12829886
-0.0080501381 0.83239305 0.071965724 12830140
-0.0077088308 0.83242559 0.071963295 12830140
-0.0073675215 0.83245808 0.071960874 12830140
-0.0070262142 0.83249062 0.071958452 12830140
-0.0066849068 0.83252311 0.071956024 12830140
-0.0063435975 0.83255565 0.071953602 12830140
-0.0060022902 0.8325882 0.071951173 12830140
-0.0056609828 0.83262068 0.071948752 12830140
-0.0053196754 0.83265322 0.071946323 12830140
-0.0049783662 0.83268571 0.071943901 12895933
-0.0046370588 0.83271825 0.071941473 12830140
-0.0042957515 0.83275074 0.071939051 12830140
-0.0038433541 0.83193219 0.071421668 12764347
-0.0035004225 0.83196491 0.071419224 12764347
-0.0031574871 0.83199757 0.071416795 12830140
-0.0028145555 0.83203024 0.071414351 12830140
-0.0024716202 0.8320629 0.071411923 12764347
-0.0021286886 0.83209562 0.071409486 12764347
-0.0017857533 0.83212829 0.07140705 12764347
-0.0014428217 0.83216095 0.071404614 12698554
-0.0010998901 0.83219361 0.071402177 12698554
-0.00075695477 0.83222628 0.071399741 12698554
-0.00041402131 0.83225894 0.071397305 12698554
-7.1087852e-05 0.8322916 0.071394868 12698554
0.00027184375 0.83232427 0.071392432 12764347
0.00061477907 0.83235699 0.071389996 12764347
0.00095771067 0.83238965 0.071387559 12764347
0.001300646 0.83242232 0.071385123 12698554
0.0016435776 0.83245498 0.071382686 12764090
0.0019865111 0.83248764 0.07138025 12829883
0.0023294427 0.83252037 0.071377814 12829881
0.002672378 0.83255303 0.071375377 12829881
0.0030153114 0.83258569 0.071372941 12764088
0.003358243 0.83261836 0.071370505 12829881
0.0037011784 0.83265102 0.071368068 12829881
0.00404411 0.83268368 0.071365632 12764088
0.0043870416 0.83271635 0.071363196 12698293
0.0047299732 0.83274901 0.071360759 12829879
0.0050729085 0.83278173 0.071358323 12829879
0.0054158438 0.8328144 0.071355887 12829879
0.0057587754 0.83284706 0.07135345 12829879
0.006101707 0.83287972 0.071351014 12829879
0.0064446423 0.83291245 0.071348578 12894902
0.0067875776 0.83294511 0.071346141 12894902
0.0071305055 0.83297777 0.071343705 12894902
0.0074734408 0.83301044 0.071341269 12894902
0.0078163762 0.8330431 0.071338832 12894904
0.0081593078 0.83307576 0.071336396 12894904
0.0085022394 0.83310843 0.07133396 12894904
0.0088451747 0.83314109 0.071331523 12829111
0.0091881063 0.83317381 0.071329087 12894904
0.0095310379 0.83320647 0.071326651 12829111
0.010050071 0.8323943 0.070808791 12894904
0.010394631 0.83242714 0.070806339 12829111
0.010739187 0.83245993 0.070803896 12894904
0.011083746 0.83249277 0.070801444 12829111
0.011428306 0.83252561 0.070799001 12829111
0.011772865 0.83255839 0.070796549 12829111
0.012117425 0.83259124 0.070794106 12829111
0.012461985 0.83262408 0.070791654 12894904
0.012806537 0.83265692 0.070789203 12698295
0.013151096 0.83268976 0.070786759 12566709
0.013495656 0.83272254 0.070784308 12698295
0.013840215 0.83275539 0.070781864 12698295
0.014184775 0.83278823 0.070779413 12698295
0.014529334 0.83282101 0.070776969 12698295
0.01487389 0.83285385 0.070774518 12698295
0.01521845 0.8328867 0.070772074 12566709
0.015563006 0.83291954 0.070769623 12698295
0.016111294 0.83211011 0.070251562 12698295
0.016457478 0.83214313 0.070249103 12698295
0.016803661 0.83217609 0.070246644 12698295
0.017149845 0.83220911 0.070244186 12698295
0.017496029 0.83224207 0.070241727 12698295
0.017842213 0.83227503 0.070239268 12698295
0.018188396 0.83230805 0.07023681 12698295
0.01853458 0.83234102 0.070234351 12764088
0.018880764 0.83237398 0.070231892 12698295
0.019226948 0.832407 0.070229426 12698295
0.019573132 0.83243996 0.070226967 12764088
0.019919315 0.83247292 0.070224509 12698297
0.020265499 0.83250594 0.07022205 12698297
0.020611683 0.8325389 0.070219591 12764090
0.020957867 0.83257186 0.070217133 12764090
0.02130405 0.83260489 0.070214674 12698297
0.021650234 0.83263785 0.070212215 12566711
0.021996418 0.83267081 0.070209756 12764090
0.022342602 0.83270383 0.070207298 12698297
0.022688786 0.83273679 0.070204839 12698297
0.023271205 0.83193064 0.069686525 12698297
0.023619013 0.83196378 0.069684058 12764090
0.023966821 0.83199692 0.069681585 12764090
0.024314633 0.83203006 0.069679111 12764090
0.024662437 0.8320632 0.069676645 12764090
0.025010249 0.83209634 0.069674172 12764090
0.025358057 0.83212948 0.069671698 12698297
0.025705865 0.83216262 0.069669232 12764090
0.02605368 0.83219576 0.069666758 12764090
0.026401488 0.8322289 0.069664285 12764090
0.026749296 0.83226204 0.069661818 12829883
0.027097108 0.83229518 0.069659345 12829883
0.027444912 0.83232832 0.069656879 12698297
0.02779272 0.83236146 0.069654405 12764090
0.028140532 0.8323946 0.069651932 12764090
0.02848834 0.83242774 0.069649465 12764090
0.028836148 0.83246088 0.069646992 12764090
0.02918396 0.83249402 0.069644518 12764090
0.029531768 0.83252716 0.069642052 12764090
0.029879572 0.8325603 0.069639578 12764090
0.030496115 0.83175737 0.06912104 12764090
0.030845555 0.83179069 0.069118559 12764090
0.031194987 0.83182395 0.069116078 12764090
0.031544417 0.83185726 0.069113597 12829883
0.031893857 0.83189058 0.069111109 12764090
0.032243289 0.83192384 0.069108628 12764088
0.032592721 0.8319571 0.069106147 12829881
0.032942154 0.83199042 0.069103666 12829881
0.033291593 0.83202374 0.069101185 12829881
0.033641025 0.832057 0.069098696 12829881
0.033990458 0.83209032 0.069096215 12829881
0.03433989 0.83212358 0.069093734 12829881
0.03468933 0.8321569 0.069091253 12895674
0.035038762 0.83219016 0.069088772 12764088
0.035388194 0.83222347 0.069086283 12764088
0.035737626 0.83225679 0.069083802 12764088
0.036087066 0.83229005 0.069081321 12829881
0.036436498 0.83232337 0.06907884 12829881
0.03678593 0.83235663 0.069076359 12829881
0.03713537 0.83238995 0.069073871 12829881
0.037786044 0.83159029 0.068555079 12829881
0.038137108 0.83162379 0.068552583 12895674
0.038488172 0.83165717 0.068550095 12895674
0.038839228 0.83169067 0.068547599 12895674
0.039190285 0.83172411 0.068545103 12829881
0.039541341 0.83175755 0.068542607 12829881
0.039892405 0.83179098 0.068540119 12829881
0.040243462 0.83182442 0.068537623 12895676
0.040594526 0.83185792 0.068535127 12895676
0.040945582 0.8318913 0.068532631 12895676
0.041296639 0.8319248 0.068530142 12895676
0.041647702 0.83195823 0.068527646 12895676
0.041998766 0.83199167 0.06852515 12829883
0.042349823 0.83202511 0.068522654 12895676
0.042700879 0.83205855 0.068520166 12895676
0.043051943 0.83209205 0.06851767 12895676
0.043402992 0.83212548 0.068515174 12895676
0.044082932 0.83132863 0.067996174 12895676
0.044435613 0.83136225 0.067993671 13027262
0.044788308 0.8313958 0.06799116 12961469
0.045140989 0.83142942 0.067988656 12895676
0.045493677 0.83146304 0.067986153 12895676
0.045846365 0.8314966 0.067983642 12895676
0.046199046 0.83153021 0.067981139 12895676
0.046551734 0.83156383 0.067978635 12895676
0.046904415 0.83159745 0.067976132 12961469
0.047257103 0.83163106 0.067973621 12895676
0.047609784 0.83166462 0.067971118 12895676
0.047962472 0.83169824 0.067968614 12895676
0.048663534 0.83090341 0.067449465 12895676
0.049017847 0.83093715 0.067446947 12829883
0.049372151 0.83097088 0.067444429 12961469
0.049726464 0.83100468 0.067441918 12895676
0.050080769 0.83103842 0.0674394 12961469
0.050435089 0.83107215 0.067436881 12961469
0.050789393 0.83110595 0.067434363 12895676
0.051143706 0.83113968 0.067431845 12895676
0.051498011 0.83117342 0.067429326 12829883
0.051852323 0.83120722 0.067426816 12764090
0.052206635 0.83124095 0.067424297 12829629
0.052927196 0.83044797 0.066905007 12829629
0.05328314 0.83048189 0.066902474 12698043
0.053639062 0.8305158 0.066899948 12566457
0.053995006 0.83054972 0.066897415 12566711
0.054350935 0.83058363 0.066894889 12435125
0.054706879 0.83061755 0.066892363 12369332
0.055062808 0.83065146 0.06688983 12106160
0.055418752 0.83068538 0.066887304 11908781
0.055774681 0.83071923 0.066884771 11777195
0.056130618 0.83075321 0.066882245 11514023
0.056486547 0.83078706 0.066879719 11448230
-0.028851807 0.83024162 0.072412312 12697523
-0.028510502 0.83027411 0.072409891 12500916
-0.028169192 0.83030665 0.072407462 12435123
-0.027827883 0.83033919 0.07240504 12762805
-0.027486578 0.83037168 0.072402611 11973289
-0.027145268 0.83040422 0.07240019 12169896
-0.026803963 0.83043671 0.072397768 11906724
-0.026462654 0.83046925 0.07239534 11775138
-0.026121346 0.83050179 0.072392918 11643552
-0.025787193 0.83139604 0.072903283 11643552
-0.02544751 0.83142841 0.072900869 11248794
-0.025107829 0.83146077 0.072898455 11511453
-0.024768146 0.83149314 0.072896041 11379867
-0.024428464 0.83152544 0.072893634 11446173
-0.024088781 0.83155787 0.07289122 11248794
-0.023749098 0.83159018 0.072888806 11116949
-0.023409415 0.8316226 0.072886392 11248535
-0.023069732 0.83165491 0.072883978 11577500
-0.022730049 0.83168733 0.072881564 11577500
-0.022390367 0.83171964 0.072879151 11511707
-0.022050684 0.83175206 0.072876737 11314328
-0.021711003 0.83178437 0.072874323 11314074
-0.02137132 0.83181673 0.072871909 11445660
-0.021031637 0.8318491 0.072869502 11577246
-0.020691954 0.83188146 0.072867088 11577246
-0.02035227 0.83191383 0.072864674 11577246
-0.020012589 0.83194619 0.07286226 12169383
-0.019672906 0.83197856 0.072859846 11840931
-0.019333223 0.83201092 0.072857432 12301482
-0.018993542 0.83204329 0.072855018 12433838
-0.018653858 0.83207566 0.072852604 12433838
-0.018314175 0.83210802 0.07285019 12500144
-0.017974492 0.83214039 0.072847784 12631730
-0.017634809 0.83217275 0.07284537 12697525
-0.017295128 0.83220512 0.072842956 12829111
