# .PCD v0.7 - Point Cloud Data file format
VERSION 0.7
FIELDS x y z rgb
SIZE 4 4 4 4
TYPE F F F U
COUNT 1 1 1 1
WIDTH 1071
HEIGHT 1
VIEWPOINT 0 0 0 1 0 0 0
POINTS 1071
DATA ascii
-0.0055408776 0.74430794 0.02165477 4599326
-0.0062003359 0.74300796 0.023117393 4665119
-0.0061013699 0.74318182 0.023450524 4534303
-0.0060024038 0.74335563 0.023783669 4534303
-0.006284304 0.74278963 0.024675936 4600096
-0.0061857477 0.74296278 0.025007665 4600096
-0.0060871914 0.74313587 0.025339395 4600096
-0.0059886426 0.74330896 0.025671139 4600096
-0.005873315 0.74315733 0.035265326 4994854
-0.0057768375 0.74332678 0.03559006 4929061
-0.0056803674 0.74349624 0.035914801 4994854
-0.0059759989 0.74290615 0.036760882 4994854
-0.0058799461 0.74307489 0.037084222 4994854
-0.0057838857 0.74324358 0.037407562 5060647
-0.0056878254 0.74341232 0.037730895 4994854
-0.005591765 0.743581 0.038054235 5060647
-0.0054957122 0.74374974 0.038377576 4994854
-0.0057942495 0.74315453 0.039213859 5060647
-0.0056986064 0.74332249 0.039535798 4994854
-0.0056029633 0.74349052 0.039857738 5060647
-0.0055073202 0.74365848 0.040179677 5060901
-0.0056342185 0.74258554 0.06184686 6575694
-0.0055435672 0.7427448 0.062151998 6644306
-0.0054529086 0.74290401 0.062457144 4802102
-0.0057805702 0.74225765 0.063195452 5259053
-0.0056903288 0.74241614 0.06349919 5588018
-0.0056000948 0.74257463 0.063802928 5850163
-0.0055098608 0.74273312 0.064106673 5784370
-0.0054196194 0.74289161 0.064410418 5783600
-0.0053293854 0.7430501 0.064714156 5783600
-0.0052391514 0.74320865 0.065017894 5783600
-0.00514891 0.74336708 0.065321639 5717807
-0.005058676 0.74352562 0.065625384 5652784
-0.0053904802 0.742872 0.066349685 5652784
-0.0053006634 0.74302971 0.066652022 5586991
-0.0052108392 0.74318749 0.066954359 5586991
-0.0051210225 0.74334526 0.067256704 5652784
-0.0050311983 0.74350303 0.067559049 5652784
-0.0049413815 0.74366081 0.067861393 5586991
-0.0052760988 0.74300206 0.068575904 5586991
-0.0051866919 0.74315906 0.068876848 5586991
-0.0050972849 0.74331611 0.069177784 5652784
-0.0054336637 0.74265444 0.069886692 5652784
-0.0053446814 0.74281073 0.070186235 5652784
-0.0052556917 0.74296701 0.070485778 5652784
-0.005166702 0.74312335 0.070785321 5652784
-0.0050777122 0.74327964 0.071084864 5652786
-0.0049887225 0.74343598 0.0713844 5784372
-0.0048997328 0.74359226 0.071683943 5653300
-0.004810743 0.74374855 0.071983486 5719093
-0.0047217533 0.74390483 0.07228303 5784886
-0.0046327636 0.74406117 0.072582573 5850679
-0.0045437738 0.74421746 0.072882116 6245185
-0.0044547915 0.7443738 0.073181659 6837322
-0.0043658018 0.74453008 0.073481202 7232593
-0.0042768121 0.74468637 0.073780745 7627351
-0.0041878223 0.74484265 0.074080288 8417891
-0.0040988326 0.74499899 0.074379832 11904920
-0.0040098429 0.74515527 0.074679375 11905951
-0.0039208531 0.74531162 0.07497891 11971744
-0.0076975077 0.73972756 0.013259202 527114
-0.0075977072 0.73990285 0.013595134 527114
-0.0074978992 0.74007815 0.013931081 527114
-0.0073981062 0.74025345 0.014267012 527114
-0.0069264099 0.74114949 0.01400882 527114
-0.0068261996 0.7413255 0.014346153 527114
-0.0067259818 0.74150157 0.014683485 527114
-0.0066257641 0.74167752 0.015020832 592137
-0.0065255463 0.74185359 0.015358165 592137
-0.0064253286 0.74202961 0.015695497 657930
-0.0063251182 0.74220562 0.01603283 723723
-0.0062249005 0.74238163 0.016370162 1445641
-0.0061246827 0.74255764 0.016707495 1840399
-0.006024465 0.74273372 0.017044842 3417369
-0.0059242472 0.74290973 0.017382175 3812127
-0.0058240294 0.74308574 0.017719507 4271133
-0.0057238117 0.74326175 0.01805684 4402719
-0.0056236014 0.74343777 0.018394187 4468510
-0.0055233836 0.74361384 0.01873152 4468510
-0.0054231659 0.74378985 0.019068852 4468510
-0.0057014897 0.74323344 0.019977912 4468510
-0.0056016892 0.74340874 0.020313844 4468510
-0.0055018887 0.74358404 0.020649776 4468510
-0.0054020882 0.74375933 0.020985723 4665119
-0.0053022876 0.74393463 0.021321654 4599326
-0.0052024871 0.74410987 0.021657586 4665119
-0.0058647692 0.74281156 0.02312018 4730912
-0.0057658032 0.74298543 0.02345331 4534303
-0.0056668296 0.74315923 0.023786455 4600096
-0.005950138 0.74259406 0.024678707 4600096
-0.0058515891 0.74276721 0.025010452 4600096
-0.0057530329 0.74294031 0.025342181 4665889
-0.0056544766 0.7431134 0.025673911 4600096
-0.0055462047 0.74296588 0.035268046 4929061
-0.0054497272 0.74313533 0.03559278 4929061
-0.0053532496 0.74330479 0.035917521 4994854
-0.0056503043 0.74271554 0.036763594 4929061
-0.0055542439 0.74288422 0.037086934 4994854
-0.0054581836 0.74305296 0.037410267 5060647
-0.0053621233 0.74322164 0.037733607 5060647
-0.0052660704 0.74339038 0.038056947 5060647
-0.00517001 0.74355912 0.03838028 5060647
-0.0054699555 0.74296474 0.039216556 5060647
-0.0053743199 0.74313271 0.039538495 5060647
-0.0052786767 0.74330068 0.039860435 5126440
-0.0051830336 0.7434687 0.040182374 5060901
-0.0053268448 0.74240565 0.061849415 6115143
-0.0052361935 0.74256486 0.062154561 6776405
-0.0051455423 0.74272406 0.0624597 5263166
-0.0054746047 0.7420786 0.063197993 4996651
-0.0053843707 0.74223709 0.063501731 5325616
-0.0052941367 0.74239558 0.063805476 5784370
-0.0052038953 0.74255407 0.064109214 5784370
-0.0051136613 0.74271256 0.064412959 5783600
-0.0050234273 0.74287105 0.064716697 5783600
-0.0049331859 0.74302953 0.065020442 5783600
-0.0048429519 0.74318802 0.065324187 5717807
-0.0047527179 0.74334657 0.065627925 5783600
-0.0050859302 0.74269372 0.066352218 5717807
-0.0049961135 0.7428515 0.066654555 5586991
-0.0049062893 0.74300921 0.066956893 5586991
-0.0048164651 0.74316704 0.067259237 5652784
-0.0047266483 0.74332476 0.067561582 5652784
-0.0046368241 0.74348253 0.067863926 5586991
-0.0049729571 0.74282461 0.068578422 5586991
-0.0048835501 0.74298167 0.068879366 5652784
-0.0047941431 0.74313867 0.06918031 5652784
-0.0051319376 0.74247783 0.069889203 5521712
-0.0050429478 0.74263418 0.070188746 5521712
-0.0049539581 0.74279046 0.070488289 5521712
-0.0048649684 0.74294674 0.070787832 5521712
-0.0047759786 0.74310303 0.071087375 5521712
-0.0046869889 0.74325937 0.071386911 5521712
-0.0045979992 0.74341565 0.071686454 5653298
-0.0045090094 0.743572 0.071985997 5719091
-0.0044200197 0.74372828 0.07228554 5719093
-0.0043310374 0.74388456 0.072585084 5850679
-0.0042420477 0.74404085 0.072884627 6179132
-0.0041530579 0.74419719 0.073184162 6771269
-0.0040640682 0.74435347 0.073483706 7166800
-0.0039750785 0.74450982 0.073783249 7627351
-0.0038860887 0.7446661 0.074082792 8286305
-0.003797099 0.74482238 0.074382335 11115404
-0.0037081093 0.74497867 0.074681878 11709086
-0.0036191195 0.74513501 0.074981421 11840672
-0.0073591173 0.73952949 0.013262019 527114
-0.0072593167 0.73970485 0.01359795 527114
-0.0071595162 0.73988008 0.013933882 527114
-0.0070597157 0.74005544 0.014269814 527114
-0.0065866113 0.74095058 0.014011651 527114
-0.0064863935 0.74112666 0.014348984 527114
-0.0063861832 0.74130267 0.014686316 527114
-0.0062859654 0.74147868 0.015023649 592137
-0.0061857477 0.74165469 0.015360981 592137
-0.0060855299 0.74183071 0.015698329 657930
-0.0056095123 0.74273103 0.015449941 723723
-0.0055088773 0.74290776 0.015788674 1248778
-0.0057848766 0.7423588 0.016710326 1577743
-0.0056846663 0.74253482 0.017047659 3219992
-0.0055844486 0.74271083 0.017384991 3746336
-0.0054842308 0.7428869 0.017722338 4140061
-0.0053840131 0.74306291 0.018059671 4271647
-0.0052837953 0.74323893 0.018397003 4468512
-0.005183585 0.74341494 0.018734336 4468512
-0.0050833672 0.74359095 0.019071668 4468512
-0.0053630993 0.74303538 0.019980729 4468512
-0.0052632987 0.74321067 0.02031666 4468512
-0.0051634982 0.74338597 0.020652592 4468512
-0.0050636977 0.74356127 0.020988524 4534303
-0.0049638972 0.74373657 0.021324471 4468510
-0.0048640966 0.74391186 0.021660402 4468510
-0.0055292025 0.74261516 0.023122966 4600096
-0.005430229 0.74278903 0.023456112 4534303
-0.0053312629 0.74296284 0.023789242 4534303
-0.0056159794 0.7423985 0.024681494 4600096
-0.0055174306 0.74257159 0.025013223 4600096
-0.0054188743 0.74274468 0.025344953 4665889
-0.005320318 0.74291784 0.025676697 4665889
-0.0048364177 0.74383199 0.025454924 4600096
-0.0047374442 0.7440058 0.025788054 4600096
-0.0054108575 0.74269456 0.027222618 4731682
-0.0053127185 0.74286693 0.027552962 4665889
-0.0052145794 0.74303931 0.027883291 4665889
-0.0051164478 0.74321169 0.028213635 4731682
-0.0052190945 0.74277443 0.035270765 4929061
-0.0051226169 0.74294388 0.035595499 4929061
-0.0050261393 0.74311334 0.03592024 4994854
-0.0053246021 0.74252486 0.036766298 4929061
-0.0052285418 0.7426936 0.037089638 4929061
-0.0051324815 0.74286234 0.037412979 4994854
-0.0050364211 0.74303102 0.037736312 4994854
-0.0049403682 0.74319977 0.038059652 5060647
-0.0048443079 0.74336851 0.038382992 5060647
-0.005145669 0.74277496 0.039219253 5060647
-0.0050500259 0.74294293 0.039541192 5060647
-0.0049543828 0.7431109 0.039863132 5126440
-0.0048587397 0.74327892 0.040185072 5060901
-0.0048728064 0.74254763 0.060495004 4732198
-0.0047817379 0.74270755 0.060801551 4403233
-0.0046906695 0.74286753 0.06110809 3614750
-0.005019471 0.74222577 0.061851971 4996403
-0.0049288198 0.74238497 0.062157109 6842968
-0.0048381686 0.74254417 0.062462255 6316624
-0.0051686466 0.74189949 0.063200533 4799272
-0.0050784051 0.74205804 0.063504279 5259823
-0.0049881712 0.74221647 0.063808016 5850163
-0.0048979372 0.74237502 0.064111762 5784370
-0.0048076957 0.7425335 0.0644155 5783600
-0.0047174618 0.74269199 0.064719245 5783600
-0.0046272278 0.74285048 0.065022983 5783600
-0.0045369864 0.74300897 0.065326728 5717807
-0.0044467524 0.74316746 0.065630466 5783600
-0.0047813803 0.74251544 0.066354744 5717807
-0.0046915561 0.74267322 0.066657089 5586991
-0.0046017393 0.74283099 0.066959426 5586991
-0.0045119151 0.74298877 0.06726177 5652784
-0.0044220984 0.74314654 0.067564115 5652784
-0.0043322742 0.74330431 0.067866459 5586991
-0.0046698153 0.74264717 0.06858094 5586991
-0.0045804083 0.74280423 0.068881884 5652784
-0.0044910014 0.74296129 0.069182828 5652784
-0.004830204 0.74230123 0.069891706 5652784
-0.0047412142 0.74245757 0.070191249 5586991
-0.0046522245 0.74261385 0.070490792 5652784
-0.0045632347 0.7427702 0.070790336 5586991
-0.004474245 0.74292648 0.071089879 5652784
-0.0043852553 0.74308276 0.071389422 5652784
-0.004296273 0.74323905 0.071688965 5784370
-0.0042072833 0.74339539 0.071988508 5850163
-0.0041182935 0.74355167 0.072288051 5850165
-0.0040293038 0.74370795 0.072587594 5981751
-0.0039403141 0.7438643 0.072887138 6113339
-0.0038513243 0.74402058 0.073186673 6573890
-0.0037623346 0.74417686 0.073486216 7035214
-0.0036733449 0.74433315 0.07378576 7561558
-0.0035843551 0.74448949 0.074085303 7957340
-0.0034953654 0.74464577 0.074384846 9996923
-0.0034063831 0.74480212 0.074684389 12300707
-0.0033173934 0.7449584 0.074983932 11971742
-0.0027923137 0.74594486 0.074900731 12103330
-0.0027029067 0.74610192 0.075201668 12300709
-0.0026134998 0.74625897 0.075502612 12432295
-0.0070207268 0.73933148 0.013264835 527114
-0.0069209263 0.73950678 0.013600767 527114
-0.0068211257 0.73968208 0.013936698 527114
-0.0067213252 0.73985738 0.01427263 527114
-0.0062468126 0.74075174 0.014014468 527114
-0.0061465949 0.74092776 0.0143518 461321
-0.0060463771 0.74110377 0.014689147 527114
-0.0059461668 0.74127984 0.01502648 592137
-0.0058459491 0.74145585 0.015363812 592137
-0.0057457313 0.74163187 0.015701145 657930
-0.0052683055 0.74253136 0.015452787 657930
-0.0051676705 0.74270809 0.01579152 1051914
-0.0050670356 0.74288487 0.016130254 1380879
-0.004966408 0.7430616 0.016468987 2824980
-0.004865773 0.74323833 0.01680772 3680289
-0.004765138 0.74341512 0.017146453 4140061
-0.0046645105 0.74359185 0.017485186 4271647
-0.0045638755 0.74376863 0.017823935 4402719
-0.004463248 0.74394536 0.018162668 4402719
-0.004362613 0.74412215 0.018501401 4468512
-0.004261978 0.74429888 0.018840134 4468512
-0.0041613504 0.7444756 0.019178867 4468512
-0.0040607154 0.74465239 0.019517601 4468512
-0.0043426976 0.74409616 0.020423844 4468512
-0.0042424798 0.74427223 0.020761177 4534305
-0.004142262 0.74444824 0.021098509 4468512
-0.0040420517 0.74462426 0.021435842 4534305
-0.0048967227 0.74294031 0.024125174 4600096
-0.0047977492 0.74311411 0.024458304 4665889
-0.0046987832 0.74328792 0.024791434 4665889
-0.0045998171 0.74346179 0.02512458 4665889
-0.0045008436 0.74363559 0.02545771 4600096
-0.0044018775 0.74380946 0.02579084 4665889
-0.0050781071 0.74249983 0.02722539 4665889
-0.0049799681 0.7426722 0.027555719 4665889
-0.0048818365 0.74284458 0.027886063 4665889
-0.0047836974 0.74301696 0.028216392 4731682
-0.0048919842 0.74258298 0.035273485 4994854
-0.0047955066 0.74275243 0.035598218 4929061
-0.004699029 0.74292189 0.035922959 4994854
-0.0046025589 0.74309134 0.0362477 4994854
-0.0045060813 0.7432608 0.036572434 4994854
-0.0044096112 0.74343026 0.036897175 4994854
-0.0047107264 0.74284041 0.037739024 4994854
-0.0046146661 0.74300915 0.038062364 5060647
-0.0045186058 0.74317789 0.038385697 5060647
-0.0044225529 0.74334657 0.038709037 5060647
-0.0043264925 0.74351531 0.039032377 5060647
-0.0042304322 0.74368405 0.03935571 5126440
-0.0041343719 0.74385273 0.03967905 5060901
-0.0045640245 0.74236691 0.060497575 4797991
-0.0044729561 0.74252683 0.060804114 4403233
-0.0043818876 0.74268681 0.06111066 3877920
-0.0047121048 0.74204588 0.061854526 3943713
-0.0046214536 0.74220508 0.062159672 7303519
-0.0045307949 0.74236429 0.062464811 6974554
-0.0044401437 0.74252355 0.062769949 4799785
-0.0043494925 0.74268275 0.063075095 5194543
-0.0042588413 0.74284196 0.063380234 5850163
-0.0041681901 0.74300122 0.063685372 5784370
-0.0040775388 0.74316043 0.063990518 5652784
-0.0039868876 0.74331963 0.064295657 5652784
-0.0043212622 0.74267137 0.065025531 5783600
-0.0042310283 0.74282992 0.065329269 5717807
-0.0041407943 0.74298841 0.065633014 5586991
-0.0040505528 0.7431469 0.065936752 5586991
-0.0039603189 0.74330539 0.066240497 5586991
-0.0038700849 0.74346387 0.066544235 5586991
-0.0042073652 0.74281049 0.067264304 5652784
-0.0041175485 0.74296832 0.067566648 5652784
-0.0040277243 0.74312603 0.067868993 5586991
-0.0043666735 0.74246979 0.068583466 5586991
-0.0042772666 0.74262679 0.068884403 5652784
-0.0041878596 0.74278384 0.069185346 5652784
-0.0040984601 0.7429409 0.06948629 5586991
-0.0040090531 0.7430979 0.069787234 5586991
-0.0039196461 0.7432549 0.070088178 5652784
-0.0038302392 0.74341196 0.070389122 5652784
-0.0037408397 0.74356902 0.070690058 5652784
-0.0036514327 0.74372602 0.070991002 5652784
-0.0039945394 0.7430625 0.071691468 5850163
-0.0039055496 0.74321878 0.071991012 5850163
-0.0038165599 0.74337506 0.072290555 5850165
-0.0037275702 0.74353135 0.072590098 5981751
-0.0036385804 0.74368769 0.072889641 5916474
-0.0035495907 0.74384397 0.073189184 6311232
-0.0034606084 0.74400032 0.073488727 6903628
-0.0033716187 0.7441566 0.07378827 7495765
-0.003282629 0.74431288 0.074087813 7628121
-0.0031936392 0.74446917 0.074387357 9470325
-0.0031046495 0.74462551 0.0746869 12300709
-0.0030156597 0.74478179 0.074986435 12037537
-0.0024891719 0.74576747 0.07490325 12103330
-0.002399765 0.74592447 0.075204194 12300709
-0.002310358 0.74608153 0.07550513 12366502
-0.0066823363 0.73913342 0.013267651 527114
-0.0065825358 0.73930871 0.013603583 527114
-0.0064827353 0.73948401 0.013939515 527114
-0.0063829347 0.73965931 0.014275447 527114
-0.005907014 0.74055284 0.014017299 527114
-0.0058067963 0.74072886 0.014354631 527114
-0.0057065785 0.74090493 0.014691964 527114
-0.0056063607 0.74108094 0.015029296 461321
-0.0055061504 0.74125695 0.015366644 461321
-0.0054059327 0.74143296 0.015703976 592137
-0.0049270913 0.74233162 0.015455619 657930
-0.0048264638 0.74250841 0.015794352 986121
-0.0047258288 0.74268514 0.016133085 1249293
-0.0046251938 0.74286187 0.016471818 2364942
-0.0045245662 0.74303865 0.016810551 3615009
-0.0044239312 0.74321544 0.017149299 4074268
-0.0043232962 0.74339217 0.017488033 4140061
-0.0042226687 0.7435689 0.017826766 4271647
-0.0041220337 0.74374568 0.018165499 4271647
-0.0040213987 0.74392241 0.018504232 4468512
-0.0039207712 0.74409914 0.018842965 4468512
-0.0038201362 0.74427593 0.019181699 4468512
-0.0037195012 0.74445271 0.019520447 4468512
-0.0040028989 0.74389732 0.020426661 4468512
-0.0039026812 0.74407333 0.020764008 4534305
-0.0038024634 0.74424934 0.021101341 4534305
-0.0040875152 0.74369103 0.022001967 4534305
-0.0039877146 0.74386632 0.022337899 4534303
-0.0038879141 0.74404162 0.02267383 4534303
-0.0045611486 0.74274385 0.02412796 4534303
-0.0044621825 0.74291772 0.024461091 4665889
-0.0043632165 0.74309152 0.024794236 4600096
-0.0042642429 0.74326539 0.025127366 4665889
-0.0041652769 0.7434392 0.025460497 4600096
-0.0040663034 0.743613 0.025793642 4600096
-0.0047453567 0.74230504 0.027228162 4665889
-0.0046472177 0.74247742 0.027558491 4665889
-0.0045490786 0.74264979 0.027888834 4665889
-0.004450947 0.74282217 0.028219163 4731682
-0.0039621219 0.74373841 0.028004408 4731682
-0.0038635731 0.7439115 0.028336138 4731682
-0.0037650168 0.7440846 0.028667882 4731682
-0.0045648739 0.74239153 0.035276204 4994854
-0.0044683963 0.74256098 0.035600938 4929061
-0.0043719187 0.74273044 0.035925679 4994854
-0.0042754486 0.74289989 0.03625042 4994854
-0.0041789711 0.74306935 0.036575153 4994854
-0.0040825009 0.74323881 0.036899894 4994854
-0.0043850243 0.74264979 0.037741728 4994854
-0.004288964 0.74281853 0.038065068 5060647
-0.0041929036 0.74298728 0.038388409 5060647
-0.0040968508 0.74315596 0.038711742 5060647
-0.0040007904 0.7433247 0.039035082 5060647
-0.0039047301 0.74349344 0.039358422 5126440
-0.0038086697 0.74366212 0.039681755 5126440
-0.0036880448 0.7432977 0.058689088 5192487
-0.0035961494 0.74345911 0.058998428 5126440
-0.0035042465 0.74362051 0.059307769 5060647
-0.0042552426 0.74218619 0.060500145 4863784
-0.0041641742 0.74234611 0.060806684 4469026
-0.0040731058 0.74250609 0.061113223 4206115
-0.0044047311 0.74186599 0.061857082 3811357
-0.0043140799 0.7420252 0.06216222 6907991
-0.0042234287 0.7421844 0.062467366 7368542
-0.0041327775 0.74234366 0.062772505 4733992
-0.0040421262 0.74250287 0.063077644 5128750
-0.0039514676 0.74266207 0.063382789 5784370
-0.0038608164 0.74282134 0.063687928 5784370
-0.0037701651 0.74298054 0.063993074 5915186
-0.0036795139 0.74313974 0.064298213 5915186
-0.0040153041 0.74249232 0.065028071 5652784
-0.0039250627 0.74265087 0.065331817 5652784
-0.0038348287 0.7428093 0.065635562 5586991
-0.0037445948 0.74296784 0.0659393 5586991
-0.0036543533 0.74312633 0.066243038 5586991
-0.0035641193 0.74328482 0.066546783 5586991
-0.0039028153 0.74263227 0.067266837 5652784
-0.0038129911 0.74279004 0.067569181 5652784
-0.0037231743 0.74294782 0.067871518 5652784
-0.0040635318 0.74229234 0.068585984 5652784
-0.0039741248 0.7424494 0.068886928 5652784
-0.0038847178 0.7426064 0.069187865 5652784
-0.0037953183 0.74276346 0.069488809 5586991
-0.0037059113 0.74292052 0.069789752 5586991
-0.0036165044 0.74307752 0.070090696 5652784
-0.0035270974 0.74323452 0.07039164 5586991
-0.0034376979 0.74339157 0.070692576 5652784
-0.0033482909 0.74354863 0.07099352 5652784
-0.0036928058 0.74288589 0.071693979 5850163
-0.003603816 0.74304217 0.071993522 5850163
-0.0035148263 0.74319851 0.072293065 5850165
-0.003425844 0.7433548 0.072592609 5981751
-0.0033368543 0.74351108 0.072892152 5916474
-0.0032478645 0.74366736 0.073191687 6245439
-0.0031588748 0.74382371 0.073491231 6707019
-0.0030698851 0.74397999 0.073790774 7233363
-0.0029808953 0.74413633 0.074090317 7430744
-0.0028919056 0.74429262 0.07438986 8812397
-0.0028029159 0.7444489 0.074689403 12103330
-0.0027139261 0.74460518 0.074988946 12037537
-0.0021860301 0.74559003 0.074905768 12103330
-0.0020966232 0.74574709 0.075206712 12300709
-0.0020072162 0.74590409 0.075507656 12366502
-0.0063439459 0.73893535 0.013270453 461321
-0.0062441453 0.73911065 0.013606384 527114
-0.0061443448 0.73928595 0.013942331 527114
-0.0060445443 0.73946124 0.014278263 527114
-0.0055672154 0.740354 0.01402013 527114
-0.0054669976 0.74053001 0.014357463 527114
-0.0053667799 0.74070603 0.014694795 527114
-0.0052665621 0.74088204 0.015032127 461321
-0.0051663443 0.74105811 0.01536946 461321
-0.0050661266 0.74123412 0.015706792 592137
-0.0045858845 0.74213195 0.015458465 657930
-0.0044852495 0.74230868 0.015797198 789512
-0.0043846145 0.74248546 0.016135931 1052684
-0.004283987 0.74266219 0.016474664 2233358
-0.004183352 0.74283898 0.016813397 3286046
-0.004082717 0.74301571 0.017152131 3943197
-0.0039820895 0.74319243 0.017490864 4074783
-0.0038814545 0.74336922 0.017829597 4271647
-0.0037808195 0.74354595 0.01816833 4271647
-0.0036801919 0.74372274 0.018507078 4337440
-0.0035795569 0.74389946 0.018845811 4337440
-0.0034789219 0.74407625 0.019184545 4468512
-0.0033782944 0.74425298 0.019523278 4534305
-0.0036631003 0.74369842 0.020429492 4534305
-0.0035628825 0.74387443 0.020766824 4534305
-0.0034626648 0.7440505 0.021104157 4534303
-0.0037491247 0.74349296 0.022004783 4534303
-0.0036493242 0.74366832 0.022340715 4534303
-0.0035495237 0.74384356 0.022676647 4534303
-0.0038376525 0.74328315 0.02357167 4534303
-0.0037382692 0.74345773 0.023906201 4665889
-0.0036388859 0.74363232 0.024240732 4665889
-0.0039286688 0.74306893 0.025130153 4600096
-0.0038297027 0.7432428 0.025463298 4600096
-0.0037307367 0.74341667 0.025796428 4600096
-0.0036317632 0.74359047 0.026129559 4665889
-0.0035327971 0.74376428 0.026462704 4665889
-0.0034338236 0.74393815 0.026795834 4665889
-0.0037265196 0.7433697 0.02767545 4731682
-0.0036279634 0.74354279 0.028007179 4731682
-0.0035294145 0.74371588 0.028338924 4731682
-0.0034308583 0.74388897 0.028670654 4731682
-0.0033764467 0.74311531 0.05869168 5192487
-0.0032845438 0.74327672 0.059001021 5126440
-0.0031926408 0.74343812 0.059310362 5126440
-0.0035236031 0.7428025 0.060061209 5060649
-0.0034321174 0.74296319 0.060369149 4731684
-0.0033406317 0.74312389 0.060677089 4272162
-0.0036732554 0.74248528 0.061422333 3745818
-0.003582187 0.74264526 0.061728872 5460032
-0.0034911186 0.74280524 0.062035412 7499615
-0.0034000501 0.74296516 0.062341958 5524278
-0.0033089817 0.74312514 0.062648498 4932141
-0.0032179132 0.74328506 0.062955037 5652784
-0.0035534427 0.74264139 0.063690484 5850163
-0.0034627914 0.74280065 0.06399563 5784370
-0.0033721402 0.74295986 0.064300768 5784370
-0.003281489 0.74311912 0.064605907 5652784
-0.0031908378 0.74327832 0.064911053 5652784
-0.0031001866 0.74343753 0.065216191 5652784
-0.0034386292 0.74278873 0.06594184 5586991
-0.0033483952 0.74294722 0.066245586 5586991
-0.0032581612 0.74310577 0.066549323 5586991
-0.0031679198 0.7432642 0.066853069 5586991
-0.0030776858 0.74342275 0.067156807 5652784
-0.0029874519 0.74358124 0.067460552 5586991
-0.0033288002 0.74292731 0.068176396 5652784
-0.0032389835 0.74308509 0.068478733 5586991
-0.0031491593 0.74324286 0.068781078 5652784
-0.0034921765 0.74258602 0.069491327 5586991
-0.0034027696 0.74274307 0.069792271 5652784
-0.0033133626 0.74290013 0.070093215 5652784
-0.0032239631 0.74305713 0.070394158 5586991
-0.0031345561 0.74321413 0.070695102 5652784
-0.0030451491 0.74337119 0.070996039 5652784
-0.0029557422 0.74352825 0.071296982 5850163
-0.0028663427 0.74368525 0.071597926 5850163
-0.0027769357 0.7438423 0.071898863 5850163
-0.0031241104 0.74317819 0.072595119 5915956
-0.0030351207 0.74333453 0.072894663 5981753
-0.0029461309 0.74349082 0.073194198 6310718
-0.0028571412 0.7436471 0.073493741 6443847
-0.0027681515 0.74380338 0.073793285 7101777
-0.0026791617 0.74395972 0.074092828 7430744
-0.002590172 0.74411601 0.074392371 8154467
-0.0025011823 0.74427229 0.074691914 11445400
-0.0024122 0.74442863 0.074991457 12103330
-0.0018828884 0.74541265 0.074908286 12103330
-0.0017934814 0.74556965 0.07520923 12300709
-0.0017040744 0.7457267 0.075510174 12366502
-0.0060055554 0.73873734 0.013273269 527114
-0.0059057549 0.73891258 0.013609201 527114
-0.0058059543 0.73908794 0.013945147 527114
-0.0057061538 0.73926318 0.014281079 527114
-0.0052274093 0.7401551 0.014022946 527114
-0.005127199 0.74033117 0.014360279 461321
-0.0050269812 0.74050713 0.014697626 527114
-0.0049267635 0.7406832 0.015034959 461321
-0.0048265457 0.74085921 0.015372291 461321
-0.004726328 0.74103522 0.015709624 461321
-0.0042446703 0.74193227 0.015461296 527114
-0.0041440353 0.742109 0.015800029 723976
-0.0040434077 0.74228573 0.016138762 855562
-0.0039427727 0.74246252 0.016477495 1905165
-0.0038421378 0.74263924 0.016816229 2760474
-0.0037415102 0.74281597 0.017154977 3746334
-0.0036408752 0.74299276 0.01749371 3943713
-0.0035402402 0.74316955 0.017832443 4271647
-0.0034396127 0.74334627 0.018171176 4271647
-0.0033389777 0.743523 0.01850991 4337440
-0.0032383502 0.74369979 0.018848643 4337440
-0.0031377152 0.74387652 0.019187376 4468512
-0.0030370802 0.7440533 0.019526109 4468512
-0.0033232942 0.74349958 0.020432323 4665121
-0.0032230839 0.74367559 0.020769656 4665121
-0.0031228662 0.7438516 0.021106988 4665119
-0.0034107342 0.74329495 0.022007585 4665119
-0.0033109337 0.74347025 0.022343531 4534303
-0.0032111332 0.74364555 0.022679463 4534303
-0.0035006776 0.74308598 0.023574471 4534303
-0.0034012869 0.7432605 0.023909003 4665889
-0.0033019036 0.74343508 0.024243534 4600096
-0.0035931021 0.7428726 0.025132939 4600096
-0.003494136 0.7430464 0.025466084 4600096
-0.0033951625 0.74322021 0.025799215 4665889
-0.0032961965 0.74339408 0.02613236 4665889
-0.0031972229 0.74356788 0.02646549 4665889
-0.0030982569 0.74374175 0.026798621 4665889
-0.0033923611 0.74317414 0.027678221 4665889
-0.0032938048 0.74334723 0.028009966 4731682
-0.0031952485 0.74352032 0.028341696 4863268
-0.0030966997 0.74369341 0.02867344 4731682
-0.003064841 0.74293292 0.058694273 5324073
-0.0029729456 0.74309433 0.059003614 5192233
-0.0028810427 0.74325573 0.059312955 5192233
-0.0032134056 0.74262094 0.060063787 5060647
-0.0031219274 0.74278164 0.060371727 4731682
-0.0030304417 0.74294233 0.060679667 4469026
-0.0033644736 0.74230456 0.061424904 4074268
-0.0032734051 0.74246454 0.061731443 5261883
-0.0031823441 0.74262452 0.062037982 7696224
-0.0030912682 0.74278444 0.062344521 5985345
-0.0030002072 0.74294442 0.062651068 4669485
-0.0029091388 0.74310434 0.062957607 5455919
-0.0032460764 0.7424615 0.063693039 5719091
-0.0031554252 0.74262071 0.063998185 5784370
-0.003064774 0.74277997 0.064303324 5784370
-0.0029741153 0.74293917 0.06460847 5652784
-0.0028834641 0.74309838 0.064913608 5652784
-0.0027928129 0.74325764 0.065218747 5653038
-0.0031326711 0.74260968 0.065944389 5587245
-0.0030424371 0.74276817 0.066248126 5653038
-0.0029521957 0.74292666 0.066551872 5587245
-0.0028619617 0.74308515 0.066855609 5587245
-0.0027717277 0.74324363 0.067159355 5653038
-0.0026814863 0.74340212 0.067463093 5587245
-0.0030242503 0.74274909 0.068178922 5653038
-0.0029344261 0.74290681 0.068481266 5587245
-0.0028446093 0.74306464 0.068783611 5587245
-0.0031890348 0.74240863 0.069493845 5586991
-0.0030996278 0.74256563 0.069794789 5586991
-0.0030102208 0.74272269 0.070095733 5521712
-0.0029208213 0.74287975 0.070396677 5455919
-0.0028314143 0.74303675 0.070697621 5521712
-0.0027420074 0.74319375 0.070998564 5521712
-0.0026526004 0.7433508 0.071299508 5719091
-0.0025632009 0.74350786 0.071600445 5719091
-0.0024737939 0.74366486 0.071901388 5784370
-0.002384387 0.74382192 0.072202325 5915956
-0.0022949874 0.74397898 0.072503269 5981751
-0.0022055805 0.74413598 0.072804213 6179130
-0.0021161735 0.74429297 0.073105156 6443079
-0.002026774 0.74445003 0.0734061 7166802
-0.001937367 0.74460709 0.073707044 7495767
-0.0018479601 0.74476409 0.074007988 7956318
-0.0017585531 0.74492115 0.074308924 10589321
-0.0016691536 0.74507821 0.074609868 12431525
-0.0015797466 0.7452352 0.074910812 12169123
-0.0014903396 0.74539226 0.075211748 12300709
-0.0014009401 0.74554926 0.075512692 12366502
-0.0056671649 0.73853928 0.013276085 527114
-0.0055673644 0.73871458 0.013612017 527114
-0.0054675639 0.73888987 0.013947949 527114
-0.0053677633 0.73906517 0.014283895 461321
-0.0048876107 0.73995626 0.014025778 527114
-0.0047873929 0.74013227 0.01436311 461321
-0.0046871826 0.74030828 0.014700443 527114
-0.0045869574 0.7404843 0.015037775 461321
-0.0044867471 0.74066031 0.015375108 461321
-0.0043865293 0.74083638 0.015712455 461321
-0.0039034635 0.74173254 0.015464127 527114
-0.0038028285 0.74190927 0.01580286 723723
-0.0037021935 0.74208605 0.016141608 723723
-0.003601566 0.74226278 0.016480342 1510921
-0.003500931 0.74243957 0.016819075 2366230
-0.003400296 0.7426163 0.017157808 3680541
-0.0032996684 0.74279308 0.017496541 3943713
-0.0031990334 0.74296981 0.017835274 4074781
-0.0030984059 0.74314654 0.018174008 4206367
-0.0029977709 0.74332333 0.018512741 4337440
-0.0028971359 0.74350005 0.018851474 4337440
-0.0027965084 0.74367684 0.019190222 4468512
-0.0026958734 0.74385357 0.019528955 4468512
-0.0029834956 0.74330068 0.02043514 4665121
-0.0028832778 0.74347669 0.020772472 4665121
-0.0027830601 0.7436527 0.021109819 4665121
-0.0030723438 0.74309689 0.022010401 4665121
-0.0029725432 0.74327219 0.022346333 4665119
-0.0028727427 0.74344748 0.022682279 4665119
-0.0031636953 0.74288869 0.023577273 4534303
-0.003064312 0.74306327 0.023911804 4600096
-0.0029649213 0.74323785 0.024246335 4600096
-0.0032575354 0.74267614 0.025135741 4600096
-0.0031585619 0.74285001 0.025468871 4600096
-0.0030595958 0.74302381 0.025802001 4665889
-0.0029606223 0.74319768 0.026135147 4665889
-0.0028616562 0.74337149 0.026468277 4665889
-0.0027626827 0.74354529 0.026801422 4665889
-0.0030581951 0.74297857 0.027681008 4665889
-0.0029596463 0.74315166 0.028012738 4731682
-0.00286109 0.74332476 0.028344482 4731682
-0.0027625337 0.74349785 0.028676212 4731682
-0.002267845 0.74441451 0.028467089 4863268
-0.0021688715 0.74458832 0.028800234 4863268
-0.0020699054 0.74476218 0.029133365 4863268
-0.0027532429 0.74275053 0.058696866 5324073
-0.0026613399 0.74291193 0.059006199 5323819
-0.0025694445 0.74307334 0.059315547 5192233
-0.0029032156 0.74243939 0.060066365 5060647
-0.0028117374 0.74260008 0.060374305 4863268
-0.0027202517 0.74276078 0.060682245 4469026
-0.0030556917 0.74212384 0.061427474 4074268
-0.0029646233 0.74228382 0.061734006 4406061
-0.0028735623 0.7424438 0.062040552 7366746
-0.0027824938 0.74260372 0.062347092 6643786
-0.0026914254 0.7427637 0.062653631 4735789
-0.0026003569 0.74292362 0.062960178 5455919
-0.0029387027 0.74228162 0.063695595 5719091
-0.0028480515 0.74244082 0.064000741 5784370
-0.0027574003 0.74260008 0.064305879 5850163
-0.0026667491 0.74275929 0.064611018 5915186
-0.0025760904 0.74291849 0.064916164 5783600
-0.0024854392 0.74307775 0.065221302 5653038
-0.002826713 0.74243063 0.065946929 5587245
-0.0027364716 0.74258912 0.066250674 5653038
-0.0026462376 0.7427476 0.066554412 5653038
-0.0025560036 0.74290609 0.066858158 5587245
-0.0024657622 0.74306458 0.067161895 5653038
-0.0023755282 0.74322307 0.067465641 5586991
-0.0027197003 0.74257082 0.068181455 5652784
-0.0026298761 0.74272859 0.0684838 5586991
-0.0025400594 0.74288636 0.068786144 5586991
-0.002885893 0.74223119 0.069496371 5586991
-0.002796486 0.74238825 0.069797315 5586991
-0.0027070791 0.74254525 0.070098259 5455919
-0.0026176795 0.74270231 0.070399195 5455919
-0.0025282726 0.7428593 0.070700139 5455919
-0.0024388656 0.74301636 0.071001083 5521712
-0.0023494586 0.74317336 0.071302027 5719091
-0.0022600591 0.74333042 0.07160297 5719091
-0.0021706522 0.74348748 0.071903907 5653298
-0.0020812452 0.74364448 0.072204851 5719091
-0.0019918457 0.74380153 0.072505794 5850679
-0.0019024387 0.74395859 0.072806731 5982265
-0.0018130317 0.74411559 0.073107675 6442566
-0.0017236322 0.74427259 0.073408619 7100496
-0.0016342252 0.74442965 0.073709562 7561560
-0.0015448183 0.74458671 0.074010506 7693146
-0.0014554113 0.7447437 0.07431145 9339254
-0.0013660118 0.74490076 0.074612387 12497318
-0.0012766048 0.74505782 0.07491333 12168869
-0.0011871979 0.74521482 0.075214274 12300455
-0.0010977983 0.74537182 0.075515211 12366248
-0.0053287745 0.73834121 0.013278902 527114
-0.0052289739 0.73851651 0.013614833 527114
-0.0051291734 0.73869181 0.013950765 527114
-0.0050293729 0.7388671 0.014286712 527114
-0.004547812 0.73975736 0.014028594 527114
-0.0044475943 0.73993337 0.014365926 461321
-0.0043473765 0.74010944 0.014703274 461321
-0.0038641468 0.74100256 0.014450759 461321
-0.0037635192 0.74117935 0.014789507 461321
-0.0036628842 0.74135607 0.01512824 461321
-0.0035622492 0.7415328 0.015466973 461321
-0.0034616217 0.74170959 0.015805706 657930
-0.0029759035 0.74260712 0.015561596 723723
-0.0028748512 0.74278462 0.015901729 1248778
-0.002773799 0.74296212 0.016241878 1775122
-0.0026727542 0.74313962 0.016582012 3285783
-0.0025717095 0.74331707 0.016922146 3812127
-0.0024706572 0.74349457 0.01726228 4074783
-0.0023696125 0.74367207 0.017602414 4206369
-0.0022685602 0.74384952 0.017942548 4337440
-0.0025559291 0.74330038 0.01885432 4337440
-0.0024552941 0.74347711 0.019193053 4468512
-0.0023546591 0.74365389 0.019531786 4468512
-0.0022540316 0.74383062 0.01987052 4534305
-0.0021533966 0.74400741 0.020209253 4534305
-0.0020527616 0.74418414 0.020548001 4534305
-0.0023430437 0.74362987 0.021449968 4534305
-0.0022428259 0.74380589 0.021787316 4534305
-0.0021426156 0.74398196 0.022124648 4534305
-0.0024345517 0.74342471 0.023021027 4534305
-0.0023347512 0.74360001 0.023356959 4600098
-0.0022349507 0.74377531 0.023692891 4600098
-0.0025285557 0.7432152 0.024583682 4600098
-0.0024291724 0.74338973 0.024918213 4600096
-0.0023297891 0.74356431 0.025252745 4665889
-0.0022304058 0.74373889 0.025587291 4665889
-0.0021310225 0.74391341 0.025921822 4665889
-0.0020316318 0.74408799 0.026256353 4665889
-0.00232815 0.74352276 0.027137339 4665889
-0.0022291765 0.74369657 0.027470484 4731682
-0.0021302104 0.74387044 0.027803615 4731682
-0.0020312369 0.74404424 0.028136745 4731682
-0.0019322708 0.74421811 0.02846989 4863268
-0.0018332973 0.74439192 0.028803021 4863268
-0.0017343313 0.74456573 0.029136151 4863268
-0.0024416372 0.74256819 0.058699451 5324073
-0.0023497418 0.7427296 0.059008792 5389612
-0.0022578388 0.74289101 0.059318133 5126440
-0.0021659434 0.74305242 0.059627473 5126440
-0.0020740405 0.74321383 0.059936814 4929061
-0.001982145 0.74337524 0.060246155 4534817
-0.002318576 0.74273992 0.06099277 4140059
-0.0022270903 0.74290061 0.06130071 3418652
-0.0021356046 0.7430613 0.06160865 7497818
-0.0020441189 0.743222 0.06191659 6973523
-0.0019526407 0.74338269 0.06222453 4539182
-0.001861155 0.74354333 0.06253247 5390126
-0.0022005066 0.74290287 0.06326928 5719091
-0.0021094382 0.74306285 0.063575819 5850163
-0.0020183697 0.74322277 0.063882366 5850163
-0.0019273013 0.74338275 0.064188905 5915186
-0.0018362328 0.74354267 0.064495444 5915186
-0.0017451644 0.74370265 0.064801991 5653038
-0.0020874217 0.74305707 0.065529004 5587245
-0.0019967631 0.74321628 0.065834142 5653038
-0.0019061118 0.74337554 0.066139281 5653038
-0.0022500381 0.74272704 0.066860698 5653038
-0.0021598041 0.74288553 0.067164443 5653038
-0.0020695627 0.74304402 0.067468181 5586991
-0.002415143 0.7423926 0.068183988 5652784
-0.0023253262 0.74255037 0.068486333 5586991
-0.002235502 0.74270809 0.068788677 5652784
-0.0021456853 0.74286586 0.069091015 5586991
-0.0020558611 0.74302363 0.069393359 5586991
-0.0019660443 0.74318141 0.069695696 5455919
-0.0018762201 0.74333918 0.069998041 5455919
-0.0017864034 0.74349695 0.070300385 5455919
-0.0016965792 0.74365473 0.07060273 5521712
-0.0020463243 0.74299598 0.071304545 5719091
-0.0019569173 0.74315298 0.071605489 5653298
-0.0018675104 0.74331003 0.071906433 5653298
-0.0017781034 0.74346709 0.072207369 5719091
-0.0016887039 0.74362409 0.072508313 5850679
-0.0015992969 0.74378115 0.072809257 5916472
-0.00150989 0.74393821 0.073110193 6310978
-0.0014204904 0.74409521 0.073411137 6968908
-0.0013310835 0.7442522 0.073712081 7429459
-0.0012416765 0.74440926 0.074013025 7824217
-0.0011522695 0.74456632 0.074313968 8812397
-0.00106287 0.74472332 0.074614912 12299426
-0.00052890927 0.7457056 0.074533172 12103076
-0.00043909252 0.74586338 0.074835509 12300455
-0.00034926832 0.74602115 0.075137854 12432041
-0.004990384 0.73814321 0.013281718 461321
-0.0048905835 0.73831844 0.01361765 527114
-0.0047907829 0.73849374 0.013953581 527114
-0.0046909824 0.73866904 0.014289513 527114
-0.004208006 0.73955846 0.014031425 527114
-0.0041077957 0.73973453 0.014368758 461321
-0.0040075779 0.73991054 0.01470609 461321
-0.00352294 0.74080288 0.014453605 461321
-0.003422305 0.74097961 0.014792338 461321
-0.00332167 0.7411564 0.015131071 527114
-0.0032210425 0.74133313 0.015469804 461321
-0.0031204075 0.74150991 0.015808538 657930
-0.0026332811 0.74240661 0.015564457 657930
-0.0025322288 0.74258411 0.01590459 1117192
-0.0024311841 0.74276161 0.016244724 1577743
-0.0023301318 0.74293911 0.016584858 3154712
-0.0022290871 0.74311656 0.016924992 3681056
-0.0021280423 0.74329406 0.017265126 3878174
-0.0020269901 0.7434715 0.01760526 4075553
-0.0019259378 0.74364901 0.017945394 4271647
-0.0022147149 0.74310064 0.018857151 4337440
-0.0021140799 0.74327743 0.019195884 4271647
-0.0020134524 0.74345416 0.019534618 4337440
-0.0019128174 0.74363095 0.019873366 4468512
-0.0018121824 0.74380767 0.020212099 4534305
-0.0017115548 0.74398446 0.020550832 4468512
-0.0020032451 0.74343097 0.021452799 4534305
-0.0019030273 0.74360704 0.021790132 4534305
-0.0018028095 0.74378306 0.022127464 4534305
-0.0020961612 0.74322665 0.023023844 4534305
-0.0019963607 0.74340194 0.023359776 4600098
-0.0018965602 0.74357724 0.023695707 4600098
-0.0021915808 0.74301797 0.024586484 4665891
-0.0020921901 0.74319255 0.024921015 4600098
-0.0019928068 0.74336708 0.025255546 4665891
-0.0018934235 0.74354166 0.025590092 4665889
-0.0017940402 0.74371624 0.025924623 4665889
-0.0016946569 0.74389076 0.026259154 4665889
-0.0019925758 0.74332637 0.027140126 4665889
-0.0018936023 0.74350017 0.027473271 4731682
-0.0017946362 0.74367404 0.027806401 4863268
-0.0016956702 0.74384785 0.028139547 4731682
-0.0015966967 0.74402165 0.028472677 4863268
-0.0014977306 0.74419552 0.028805807 4863268
-0.0013987646 0.74436939 0.029138952 4863268
-0.002130039 0.7423858 0.058702044 5389866
-0.0020381361 0.74254721 0.059011385 5389612
-0.0019462407 0.74270862 0.059320726 5192233
-0.0018543378 0.74287003 0.059630066 5126440
-0.0017624423 0.7430315 0.059939407 4994854
-0.0016705394 0.74319291 0.060248747 4863268
-0.002008386 0.74255836 0.060995348 4402717
-0.0019169003 0.74271905 0.061303288 3352089
-0.0018254146 0.74287975 0.061611228 7168083
-0.0017339289 0.74304044 0.061919168 7237210
-0.0016424432 0.74320114 0.062227108 4868662
-0.001550965 0.74336183 0.062535048 5324846
-0.0018917248 0.74272215 0.06327185 5653811
-0.0018006563 0.74288213 0.06357839 5850163
-0.0017095879 0.74304205 0.063884929 5850163
-0.0016185194 0.74320203 0.064191476 5915186
-0.001527451 0.74336195 0.064498015 5915186
-0.0014363825 0.74352193 0.064804554 5653038
-0.001780048 0.74287719 0.065531559 5653038
-0.0016893968 0.74303639 0.065836698 5653038
-0.0015987456 0.74319565 0.066141836 5653038
-0.00194408 0.74254793 0.066863239 5653038
-0.0018538386 0.74270642 0.067166984 5653038
-0.0017636046 0.74286497 0.067470729 5653038
-0.002110593 0.74221432 0.068186522 5653038
-0.0020207763 0.7423721 0.068488866 5586991
-0.0019309521 0.74252987 0.068791211 5652784
-0.0018411353 0.74268764 0.069093548 5586991
-0.0017513111 0.74284542 0.069395892 5652784
-0.0016614944 0.74300313 0.069698229 5455919
-0.0015716702 0.7431609 0.070000574 5455919
-0.0014818534 0.74331868 0.070302919 5521712
-0.0013920292 0.74347645 0.070605263 5521712
-0.0017431751 0.74281853 0.071307063 5653298
-0.0016537756 0.74297559 0.071608007 5653298
-0.0015643686 0.74313259 0.071908951 5653298
-0.0014749616 0.74328965 0.072209895 5719091
-0.0013855621 0.74344671 0.072510839 5784886
-0.0012961552 0.74360371 0.072811775 5916472
-0.0012067482 0.74376076 0.073112719 6179646
-0.0011173487 0.74391776 0.073413655 6705990
-0.0010279417 0.74407482 0.073714606 7363666
-0.00093853474 0.74423182 0.074015543 7561045
-0.00084912777 0.74438888 0.074316487 8680041
-0.00075972825 0.74454594 0.074617431 12035484
-0.00022435933 0.74552739 0.074535705 12103076
-0.00013454258 0.74568516 0.074838042 12300455
-4.4718385e-05 0.74584293 0.075140387 12432041
-0.0046519935 0.73794514 0.013284519 527114
-0.004552193 0.73812044 0.013620466 527114
-0.0044523925 0.73829567 0.013956398 527114
-0.0043525919 0.73847103 0.01429233 527114
-0.0038682073 0.73935962 0.014034256 527114
-0.0037679896 0.73953563 0.014371589 461321
-0.0036677793 0.73971164 0.014708921 461321
-0.0031817257 0.74060321 0.014456436 461321
-0.0030810907 0.74077994 0.014795169 461321
-0.0029804632 0.74095666 0.015133902 527114
-0.0028798282 0.74113345 0.015472636 461321
-0.0027792007 0.74131018 0.015811369 657930
-0.0022906587 0.7422061 0.015567303 657930
-0.0021896139 0.7423836 0.015907437 855303
-0.0020885617 0.7425611 0.016247571 1250061
-0.0019875169 0.74273854 0.016587704 2759700
-0.0018864647 0.74291605 0.016927838 3549216
-0.0017854199 0.74309349 0.017267972 3878174
-0.0016843677 0.74327099 0.017608106 3943967
-0.0015833229 0.7434485 0.01794824 4272160
-0.0018735081 0.74290097 0.018859997 4272160
-0.0017728731 0.74307775 0.019198731 4271647
-0.0016722381 0.74325448 0.019537464 4337440
-0.0015716106 0.74343121 0.019876197 4468512
-0.0014709756 0.743608 0.02021493 4534305
-0.001370348 0.74378473 0.020553663 4468512
-0.0016634464 0.74323213 0.021455631 4534305
-0.0015632287 0.74340814 0.021792963 4534305
-0.0014630109 0.74358416 0.022130296 4534305
-0.0017577708 0.74302864 0.023026645 4534305
-0.0016579702 0.74320388 0.023362592 4600098
-0.0015581697 0.74337924 0.023698524 4600098
-0.0018545985 0.74282074 0.024589285 4665891
-0.0017552152 0.74299526 0.024923816 4600098
-0.0016558245 0.74316984 0.025258347 4665891
-0.0015564412 0.74334443 0.025592893 4665889
-0.0014570579 0.74351901 0.025927424 4665889
-0.0013576746 0.74369353 0.026261955 4665889
-0.0016570017 0.74312997 0.027142927 4665889
-0.0015580356 0.74330378 0.027476057 4731682
-0.0014590696 0.74347764 0.027809188 4863268
-0.001360096 0.74365145 0.028142333 4863268
-0.00126113 0.74382532 0.028475463 4863268
-0.0011621639 0.74399912 0.028808609 4863268
-0.0010631904 0.74417293 0.029141739 4863268
-0.0018184409 0.74220341 0.058704637 5389866
-0.0017265379 0.74236488 0.059013978 5389612
-0.001634635 0.74252629 0.059323318 5192233
-0.0015427396 0.7426877 0.059632659 5126440
-0.0014508367 0.74284911 0.059941992 5060647
-0.0013589412 0.74301052 0.06025134 4863268
-0.0016981885 0.7423768 0.060997926 4468510
-0.0016067103 0.7425375 0.061305866 3615263
-0.0015152246 0.74269819 0.061613806 6049604
-0.0014237389 0.74285889 0.061921746 7500128
-0.0013322532 0.74301958 0.062229685 5592131
-0.001240775 0.74318027 0.062537625 5128239
-0.0015829429 0.74254143 0.063274413 5457204
-0.0014918745 0.74270141 0.06358096 5719091
-0.001400806 0.74286133 0.063887499 5719091
-0.0013097376 0.74302131 0.064194039 5784370
-0.0012186691 0.74318123 0.064500585 5784370
-0.0011276007 0.74334121 0.064807124 5653038
-0.0014726743 0.7426973 0.065534115 5587245
-0.0013820231 0.7428565 0.065839253 5653038
-0.0012913719 0.74301577 0.066144392 5653038
-0.0016381145 0.74236888 0.066865787 5653038
-0.0015478805 0.74252737 0.067169532 5653038
-0.001457639 0.74268585 0.06747327 5653038
-0.0018060431 0.7420361 0.068189055 5653038
-0.0017162263 0.74219388 0.068491399 5586991
-0.0016264021 0.74235165 0.068793736 5652784
-0.0015365854 0.74250937 0.069096081 5652784
-0.0014467612 0.74266714 0.069398426 5652784
-0.001356937 0.74282491 0.069700763 5455919
-0.0012671202 0.74298269 0.070003107 5521712
-0.001177296 0.74314046 0.070305452 5521712
-0.0010874793 0.74329817 0.070607789 5521712
-0.0014400408 0.74264115 0.071309589 5653298
-0.0013506338 0.74279815 0.071610525 5653298
-0.0012612268 0.74295521 0.071911469 5653298
-0.0011718273 0.74311221 0.072212413 5719091
-0.0010824203 0.74326926 0.072513357 5784886
-0.00099301338 0.74342632 0.072814301 5916472
-0.00090361387 0.74358332 0.073115237 6048060
-0.0008142069 0.74374038 0.073416181 6442818
-0.00072479993 0.74389738 0.073717125 7298127
-0.00063539296 0.74405444 0.074018069 7561299
-0.000545986 0.74421144 0.074319005 8416869
-0.00045658648 0.74436849 0.074619949 11443347
8.0190599e-05 0.74534917 0.074538231 12366248
0.00017000735 0.74550688 0.074840575 12300455
0.00025983155 0.74566466 0.07514292 12366248
-0.0042138025 0.73792237 0.013623267 527114
-0.004114002 0.73809767 0.013959214 527114
-0.0040142015 0.73827296 0.014295146 527114
-0.0035284087 0.73916072 0.014037073 527114
-0.0034281909 0.73933673 0.014374405 461321
-0.0033279732 0.7395128 0.014711753 461321
-0.002840519 0.74040347 0.014459267 461321
-0.002739884 0.7405802 0.014798015 461321
-0.0022511855 0.74147314 0.014549747 461321
-0.0021501333 0.74165058 0.014889881 461321
-0.0020490885 0.74182808 0.015230015 592137
-0.0019480363 0.74200559 0.015570149 657930
-0.0018469915 0.74218309 0.015910283 789512
-0.0017459467 0.74236053 0.016250417 1118477
-0.0016448945 0.74253803 0.016590551 2234126
-0.0015438423 0.74271548 0.016930684 3221021
-0.0014427975 0.74289298 0.017270818 3812381
-0.0013417527 0.74307048 0.017610952 3943967
-0.0012407005 0.74324799 0.017951086 4337440
-0.0011396557 0.74342543 0.01829122 4337440
-0.0010386035 0.74360293 0.018631369 4468512
-0.00093755871 0.74378043 0.018971503 4468512
-0.0012303963 0.74323153 0.019879028 4337440
-0.0011297688 0.74340832 0.020217761 4337440
-0.0010291338 0.74358505 0.020556509 4403233
-0.0009284988 0.74376178 0.020895243 4403233
-0.0015176162 0.74262351 0.024592087 4469026
-0.0014182329 0.74279809 0.024926618 4600098
-0.0013188496 0.74297261 0.025261149 4665891
-0.0012194589 0.74314719 0.025595695 4665891
-0.0011200756 0.74332178 0.025930226 4600098
-0.0010206923 0.7434963 0.026264757 4665891
-0.00092130899 0.74367088 0.026599303 4665891
-0.0008219257 0.74384546 0.026933834 4731682
-0.00072253495 0.74401999 0.027268365 4731682
-0.0010245293 0.74345505 0.02814512 4863268
-0.00092555583 0.74362886 0.02847825 4863268
-0.00082658976 0.74380273 0.028811395 4863268
-0.0007276237 0.74397659 0.029144526 4863268
-0.0012311339 0.74250531 0.059635252 5126440
-0.0011392385 0.74266672 0.059944585 5060647
-0.0010473356 0.74282813 0.060253926 4863268
-0.0009554401 0.74298954 0.060563266 4534303
-0.00086353719 0.74315095 0.060872607 3812642
-0.00077163428 0.74331236 0.061181948 5391674
-0.0011135489 0.74267733 0.061924323 7368542
-0.0010220632 0.74283803 0.062232263 6644819
-0.00093057752 0.74299872 0.062540203 4996653
-0.00083909929 0.74315941 0.062848151 5457204
-0.00074761361 0.74332011 0.063156091 5719091
-0.0010920241 0.74268061 0.06389007 5719091
-0.0010009557 0.74284059 0.064196609 5850163
-0.00090988725 0.74300051 0.064503148 5784370
-0.00081881881 0.74316049 0.064809687 5652784
-0.00072775036 0.74332047 0.065116227 5586991
-0.00063668191 0.74348038 0.065422773 5521966
-0.00054561347 0.74364036 0.065729313 5521966
-0.00045454502 0.74380028 0.066035852 5653038
-0.00036347657 0.74396026 0.066342399 5653038
-0.0011516809 0.7425068 0.067475811 5653038
-0.001061447 0.74266529 0.067779556 5653038
-0.00097120553 0.74282378 0.068083301 5586991
-0.00088097155 0.74298227 0.068387039 5652784
-0.00079073757 0.74314076 0.068690777 5652784
-0.00070049614 0.74329925 0.068994522 5652784
-0.0010523871 0.74264669 0.069703296 5455919
-0.00096257031 0.74280441 0.07000564 5521712
-0.00087274611 0.74296218 0.070307985 5521712
-0.00078292936 0.74311996 0.070610322 5521712
-0.00069310516 0.74327773 0.070912667 5521712
-0.00060328841 0.7434355 0.071215004 5521712
-0.00051346421 0.74359322 0.071517348 5521712
-0.00042364746 0.74375105 0.071819693 5719091
-0.00033382326 0.74390876 0.07212203 5784886
-0.00024400651 0.74406654 0.072424375 5850679
-0.00015418231 0.74422431 0.072726712 5851192
-6.4365566e-05 0.74438208 0.073029056 6245950
2.5458634e-05 0.74453986 0.073331401 7035214
0.00011528283 0.74469757 0.073633745 7561558
