# .PCD v0.7 - Point Cloud Data file format
VERSION 0.7
FIELDS x y z rgb
SIZE 4 4 4 4
TYPE F F F U
COUNT 1 1 1 1
WIDTH 1108
HEIGHT 1
VIEWPOINT 0 0 0 1 0 0 0
POINTS 1108
DATA ascii
0.044226885 0.74122149 0.068075806 3416338
0.044585899 0.74110591 0.068076633 3416338
0.044944912 0.7409904 0.06807746 3482131
0.045303926 0.74087489 0.068078287 3416338
0.04566294 0.74075931 0.068079114 3416338
0.046546176 0.74138159 0.067575119 3350547
0.046906739 0.74126554 0.067575954 3350547
0.047267303 0.74114949 0.067576781 3351060
0.047627874 0.74103343 0.067577615 3351060
0.04798843 0.74091738 0.067578442 3285267
0.048349008 0.74080133 0.067579277 3285267
0.048709571 0.74068534 0.067580104 3285267
0.04907015 0.74056923 0.067580938 3351060
0.049967363 0.74118698 0.067076974 3285267
0.050329491 0.74107045 0.067077808 3351060
0.050691605 0.74095392 0.067078643 3351060
0.051053718 0.74083734 0.067079477 3351060
0.051415846 0.74072081 0.067080311 3285267
0.051777974 0.74060428 0.067081146 3285267
-0.018096656 0.75292563 0.072175071 7627603
-0.01775163 0.75281459 0.07217586 7693396
-0.017406605 0.75270355 0.072176658 7692881
-0.01706158 0.75259256 0.072177455 7692881
-0.016453691 0.75330245 0.071671426 7758674
-0.016107112 0.75319093 0.071672224 7692881
-0.015760534 0.75307941 0.071673021 7692881
-0.015413955 0.75296783 0.071673825 7692881
-0.015067376 0.75285631 0.071674623 7692881
-0.014991429 0.7519263 0.072182231 7692881
-0.014646403 0.75181526 0.07218302 7692881
-0.014301378 0.75170422 0.072183818 7758674
-0.013956353 0.75159317 0.072184615 7758674
-0.013611328 0.75148213 0.072185412 7692881
-0.013266303 0.75137109 0.072186202 7758674
-0.012921277 0.75126004 0.072186999 7692881
-0.012576252 0.751149 0.072187796 7692881
-0.012231231 0.75103796 0.072188593 7692881
0.014444917 0.74426389 0.071235232 7560781
0.014793053 0.74415183 0.071236037 7560781
0.015141189 0.74403977 0.071236841 7560781
0.015489317 0.74392772 0.071237639 7560781
0.015837461 0.74381572 0.071238443 7560781
0.016185589 0.74370366 0.071239248 7758160
0.016533718 0.74359161 0.071240053 7561295
0.016881853 0.74347961 0.07124085 7232330
0.017229989 0.74336755 0.071241654 7298123
0.017991744 0.74402797 0.070735976 7166537
0.01834143 0.74391544 0.070736781 6837572
0.018691123 0.74380291 0.070737585 6311228
0.019040808 0.74369037 0.070738398 6508093
0.019390494 0.74357784 0.070739202 6639679
0.019740179 0.7434653 0.070740007 6113335
0.020089865 0.74335277 0.070740812 6047542
0.02043955 0.74324024 0.070741616 5784370
0.020789243 0.7431277 0.070742428 5521198
0.021138929 0.74301511 0.070743233 5521198
0.021488622 0.74290258 0.070744038 5455405
0.021838307 0.74279004 0.070744842 5389612
0.022187993 0.74267751 0.070745654 5323819
0.022537678 0.74256498 0.070746459 5126440
0.022887364 0.74245244 0.070747264 5126440
0.023237057 0.74233985 0.070748068 5060647
0.02358675 0.74222732 0.070748873 5126440
0.023936436 0.74211478 0.070749685 4863784
0.024286121 0.74200225 0.07075049 4732198
0.024635807 0.74188972 0.070751294 4600612
0.025430202 0.74253964 0.070245691 4600612
0.025781445 0.74242663 0.070246503 4469026
0.026132688 0.74231356 0.070247307 4403233
0.026483923 0.74220055 0.07024812 4403233
0.026835173 0.74208748 0.070248932 4337440
0.027186409 0.74197447 0.070249736 4337440
0.027537659 0.7418614 0.070250548 4337440
0.027888902 0.74174833 0.070251361 4271133
0.028240144 0.74163532 0.070252173 4205340
0.02859138 0.74152231 0.070252977 4074268
0.028942622 0.74140924 0.070253789 4074268
0.029755667 0.74205321 0.069748223 3943195
0.030108467 0.74193966 0.069749042 3943195
0.030461259 0.74182612 0.069749855 3943195
0.030814052 0.74171257 0.069750667 3877402
0.031166852 0.74159902 0.069751479 3877402
0.031519651 0.74148548 0.069752291 3877402
0.031872444 0.74137193 0.06975311 3811096
0.032225236 0.74125838 0.069753923 3811096
0.032578036 0.7411449 0.069754735 3811096
0.032930829 0.74103129 0.069755547 3811096
0.033283629 0.7409178 0.069756359 3679510
0.033636421 0.74080426 0.069757178 3613717
0.033989221 0.74069071 0.069757991 3679510
0.034342013 0.74057716 0.069758803 3613717
0.034694806 0.74046361 0.069759615 3547924
0.035532728 0.7410996 0.069254108 3547924
0.035887077 0.74098551 0.069254927 3482131
0.036241427 0.74087149 0.069255747 3482131
0.036595777 0.74075747 0.069256559 3482131
0.036950126 0.74064338 0.069257379 3547924
0.037797362 0.74127638 0.068751894 3482133
0.038153261 0.74116182 0.068752714 3416340
0.038509168 0.74104726 0.068753533 3482133
0.038865075 0.7409327 0.06875436 3482133
0.039220974 0.74081814 0.06875518 3482133
0.039576881 0.74070364 0.068755999 3482133
0.040434986 0.74133307 0.068250552 3482133
0.04079245 0.74121803 0.068251379 3416340
0.041149907 0.74110299 0.068252206 3350547
0.041507363 0.74098796 0.068253025 3416340
0.041864827 0.74087292 0.068253852 3416340
0.042732261 0.74149936 0.067748412 3416340
0.043091282 0.74138379 0.06774924 3350547
0.043450296 0.74126828 0.067750074 3350547
0.04380931 0.74115276 0.067750901 3350547
0.044168323 0.74103719 0.067751728 3350547
0.04452733 0.74092162 0.067752555 3350547
0.044886351 0.7408061 0.067753382 3350547
0.045245357 0.74069059 0.067754209 3350547
0.045604371 0.74057502 0.067755036 3350547
0.046487346 0.74119645 0.067249633 3153681
0.046847925 0.7410804 0.067250468 3285267
0.047208481 0.74096441 0.067251302 3285267
0.047569051 0.7408483 0.067252129 3285267
0.047929615 0.74073231 0.067252964 3285267
0.048290186 0.74061626 0.067253791 3153681
0.049184054 0.74123418 0.066748418 3153681
0.049546167 0.74111766 0.066749252 3285267
0.04990828 0.74100113 0.066750087 3285267
0.050270408 0.74088454 0.066750921 3285267
0.050632522 0.74076802 0.066751756 3285267
-0.028158668 0.75596869 0.07184054 8088156
-0.027813643 0.75585771 0.071841337 8022363
-0.027468618 0.7557466 0.071842134 8022363
-0.027123593 0.75563562 0.071842931 8022363
-0.026778568 0.75552458 0.071843728 8022363
-0.026433542 0.75541353 0.071844518 8021850
-0.026088517 0.75530249 0.071845315 8087643
-0.025743492 0.75519145 0.071846113 8021850
-0.025398467 0.7550804 0.07184691 8021850
-0.025053442 0.75496936 0.0718477 7956568
-0.024708416 0.75485831 0.071848497 7956568
-0.024363391 0.75474727 0.071849294 7956568
-0.02401837 0.75463623 0.071850091 7956568
-0.023673344 0.75452518 0.071850888 7956568
-0.023328319 0.75441414 0.071851678 7956568
-0.02298329 0.7543031 0.071852475 7956568
-0.018152941 0.75274855 0.071863614 7627603
-0.017807916 0.75263751 0.071864411 7693396
-0.017462891 0.75252646 0.071865208 7692881
-0.017117865 0.75241542 0.071865998 7692881
-0.01677284 0.75230438 0.071866795 7758674
-0.016427815 0.75219333 0.071867593 7692881
-0.01608279 0.75208229 0.07186839 7692881
-0.015737765 0.75197124 0.07186918 7692881
-0.015392739 0.7518602 0.071869977 7692881
-0.015047714 0.75174916 0.071870774 7692881
-0.014702689 0.75163811 0.071871571 7692881
-0.014357664 0.75152707 0.071872368 7758674
-0.014287692 0.7505998 0.072381362 7758674
-0.01394422 0.75048923 0.07238216 7692881
-0.013600748 0.75037873 0.072382949 7758674
-0.013257276 0.75026822 0.072383739 7692881
-0.012913808 0.75015765 0.072384536 7692881
-0.012570336 0.75004709 0.072385326 7692881
-0.012226865 0.74993658 0.072386116 7692881
-0.011883393 0.74982601 0.072386906 7692881
-0.011539921 0.74971551 0.072387703 7692881
0.0015119761 0.74551493 0.072417796 7758674
0.0018554404 0.74540436 0.072418585 7758674
0.0021989122 0.74529386 0.072419383 7758674
0.002542384 0.74518329 0.072420172 7758674
0.0028858557 0.74507278 0.072420962 7758674
0.0032293275 0.74496222 0.072421759 7758674
0.0035727993 0.74485171 0.072422549 7758674
0.003916271 0.74474114 0.072423339 7758674
0.0042597353 0.74463058 0.072424129 7758674
0.0046032071 0.74452007 0.072424926 7758674
0.0049466789 0.74440956 0.072425716 7758674
0.0052901506 0.74429899 0.072426505 7692881
0.0056336224 0.74418843 0.072427303 7692881
0.0059770942 0.74407792 0.072428092 7692881
0.0063205659 0.74396735 0.072428882 7692881
0.011909261 0.7439782 0.071424097 7560781
0.012255847 0.74386662 0.071424901 7560781
0.012602426 0.7437551 0.071425699 7560781
0.012949005 0.74364358 0.071426496 7494988
0.013295583 0.743532 0.071427293 7560781
0.013642162 0.74342048 0.071428098 7560781
0.013988741 0.7433089 0.071428895 7560781
0.014335319 0.74319738 0.071429692 7560781
0.014681898 0.74308586 0.071430489 7560781
0.015028477 0.74297428 0.071431294 7560781
0.015780658 0.74363697 0.070924185 7560781
0.016128793 0.74352491 0.07092499 7758160
0.016476929 0.74341291 0.070925795 7561295
0.016825058 0.74330086 0.070926592 7232330
0.017173193 0.7431888 0.070927396 7298123
0.017934695 0.7438485 0.07042031 7166537
0.01828438 0.74373591 0.070421122 6837572
0.018634073 0.74362338 0.070421927 6311228
0.018983759 0.74351084 0.070422731 6508093
0.019333452 0.74339831 0.070423536 6639679
0.019683138 0.74328578 0.070424348 6113335
0.020032823 0.74317324 0.070425153 6047542
0.020382509 0.74306071 0.070425957 5784370
0.020732194 0.74294817 0.070426762 5521198
0.02108188 0.74283564 0.070427567 5521198
0.02143158 0.74272311 0.070428379 5455405
0.021781266 0.74261051 0.070429184 5389612
0.022130951 0.74249798 0.070429988 5323819
0.022480637 0.74238545 0.070430793 5126440
0.022830322 0.74227291 0.070431605 5126440
0.023180008 0.74216038 0.07043241 5060647
0.023529701 0.74204779 0.070433214 5126440
0.023879386 0.74193525 0.070434019 4863784
0.024229072 0.74182272 0.070434824 4732198
0.024578765 0.74171019 0.070435636 4600612
0.025372908 0.74235934 0.069928624 4600612
0.025724143 0.74224627 0.069929436 4469026
0.026075386 0.74213326 0.069930248 4403233
0.026426628 0.74202025 0.069931053 4403233
0.026777864 0.74190718 0.069931865 4337440
0.027129114 0.74179411 0.069932677 4337440
0.027480349 0.7416811 0.069933482 4337440
0.027831599 0.74156809 0.069934294 4271133
0.028182834 0.74145502 0.069935106 4205340
0.028534085 0.74134195 0.06993591 4074268
0.02888532 0.74122894 0.069936723 4074268
0.029698119 0.74187207 0.069429755 3943195
0.030050911 0.74175858 0.069430575 3943195
0.030403703 0.74164498 0.069431387 3943195
0.030756503 0.74153149 0.069432199 3877402
0.031109303 0.74141794 0.069433011 3877402
0.031462096 0.7413044 0.069433823 3877402
0.031814888 0.74119085 0.069434643 3811096
0.032167688 0.7410773 0.069435455 3811096
0.03252048 0.74096376 0.069436267 3811096
0.032873273 0.74085021 0.069437079 3811096
0.033226073 0.74073666 0.069437891 3679510
0.033578873 0.74062312 0.069438703 3613717
0.033931673 0.74050957 0.069439523 3679510
0.034284458 0.74039602 0.069440335 3613717
0.034637257 0.74028254 0.069441147 3547924
0.035474911 0.74091768 0.068934239 3547924
0.035829261 0.7408036 0.068935059 3482131
0.036183611 0.74068958 0.068935871 3482131
0.03653796 0.74057555 0.068936691 3482131
0.03689231 0.74046147 0.06893751 3547924
0.037739292 0.74109364 0.068430617 3482133
0.038095206 0.74097908 0.068431444 3416340
0.038451105 0.74086457 0.068432264 3482133
0.038807012 0.74075001 0.068433084 3482133
0.039162919 0.74063545 0.068433903 3482133
0.039518818 0.74052095 0.068434723 3482133
0.040376678 0.74114954 0.067927875 3482133
0.040734135 0.74103451 0.067928702 3416340
0.041091591 0.74091947 0.067929529 3350547
0.041449055 0.74080443 0.067930348 3416340
0.041806512 0.7406894 0.067931175 3416340
0.042673692 0.74131507 0.067424335 3416340
0.043032706 0.74119949 0.067425162 3350547
0.043391727 0.74108398 0.067425989 3350547
0.043750733 0.74096847 0.067426816 3350547
0.044109747 0.74085289 0.06742765 3350547
0.04446876 0.74073732 0.067428477 3350547
0.044827774 0.74062181 0.067429304 3350547
0.045186788 0.74050629 0.067430131 3350547
0.045545802 0.74039072 0.067430958 3350547
0.046428531 0.74101138 0.066924155 3153681
0.046789102 0.74089533 0.066924982 3285267
0.047149658 0.74077928 0.066925816 3285267
0.047510237 0.74066323 0.066926651 3285267
0.047870792 0.74054718 0.066927478 3285267
0.048231363 0.74043119 0.066928312 3153681
0.049124971 0.74104828 0.066421531 3153681
0.049487099 0.74093175 0.066422366 3285267
0.049849212 0.74081522 0.0664232 3285267
0.05021134 0.7406987 0.066424035 3285267
0.050573453 0.74058211 0.066424869 3285267
-0.028214954 0.7557916 0.07152909 7956570
-0.027869932 0.75568056 0.071529888 7956570
-0.027524903 0.75556952 0.071530677 7824984
-0.027179882 0.75545847 0.071531475 7956570
-0.026834853 0.75534743 0.071532272 7956570
-0.026489832 0.75523639 0.071533069 7890264
-0.026144803 0.75512534 0.071533866 7890264
-0.025799781 0.7550143 0.071534656 7890264
-0.025454752 0.75490326 0.071535453 7890264
-0.025109731 0.75479221 0.07153625 7890262
-0.024764702 0.75468117 0.071537048 7890262
-0.02441968 0.75457013 0.071537837 7824469
-0.024074655 0.75445908 0.071538635 7890262
-0.02372963 0.75434804 0.071539432 7890262
-0.023384605 0.75423706 0.071540229 7824469
-0.023039579 0.75412595 0.071541026 7758676
-0.018209226 0.7525714 0.071552157 7692883
-0.017864201 0.75246036 0.071552955 7692883
-0.017519176 0.75234932 0.071553752 7627088
-0.017174151 0.75223827 0.071554549 7627088
-0.016829126 0.75212723 0.071555346 7627088
-0.0164841 0.75201619 0.071556136 7692881
-0.016139075 0.75190514 0.071556933 7627088
-0.01579405 0.7517941 0.07155773 7627088
-0.015449028 0.75168312 0.071558528 7627088
-0.015104003 0.75157201 0.071559317 7561295
-0.014758978 0.75146103 0.071560115 7429709
-0.014413953 0.75134993 0.071560912 7627088
-0.014343724 0.75042349 0.072071314 7627088
-0.014000252 0.75031292 0.072072104 7627088
-0.01365678 0.75020242 0.072072901 7627088
-0.013313308 0.75009185 0.072073691 7627088
-0.01296984 0.74998134 0.07207448 7627088
-0.012626369 0.74987078 0.072075278 7627088
-0.012282901 0.74976027 0.072076067 7627088
-0.011939429 0.7496497 0.072076857 7627088
-0.011595957 0.74953914 0.072077654 7627088
0.0014559403 0.74533862 0.072107747 7692881
0.0017994046 0.74522805 0.072108537 7627088
0.0021428764 0.74511755 0.072109327 7692881
0.0024863482 0.74500698 0.072110124 7692881
0.0028298199 0.74489641 0.072110914 7823953
0.0031732917 0.7447859 0.072111703 7823953
0.0035167634 0.7446754 0.072112501 7823953
0.0038602352 0.74456483 0.07211329 7823953
0.004203707 0.74445426 0.07211408 7823953
0.0045471787 0.74434376 0.07211487 7823953
0.0048906505 0.74423319 0.072115667 7823953
0.0052341223 0.74412262 0.072116457 7758160
0.005577594 0.74401212 0.072117247 7627088
0.0059210584 0.74390161 0.072118044 7627088
0.0062645301 0.74379104 0.072118834 7627088
0.011852726 0.74380028 0.071111239 6640193
0.012199305 0.7436887 0.071112044 6903365
0.012545884 0.74357718 0.071112841 6311482
0.012892462 0.74346566 0.071113639 6311482
0.013239041 0.74335408 0.071114436 5982517
0.013585627 0.74324256 0.07111524 5916724
0.013932198 0.74313104 0.071116038 5652784
0.014278777 0.74301946 0.071116835 5586991
0.014625356 0.74290794 0.071117632 5389612
0.014971942 0.74279642 0.071118437 5455405
0.015723869 0.74345827 0.070609927 5126440
0.016072005 0.74334621 0.070610732 5389612
0.016420133 0.74323416 0.070611529 5126694
0.016768262 0.74312216 0.070612334 5126694
0.017116398 0.7430101 0.070613138 5060901
0.017464533 0.74289805 0.070613943 5060901
0.017812669 0.74278605 0.07061474 4995108
0.018160798 0.74267399 0.070615545 4929315
0.01892671 0.74333131 0.070107073 4929315
0.019276403 0.74321878 0.070107877 4863522
0.019626096 0.74310625 0.070108682 4534817
0.019975781 0.74299371 0.070109487 4469024
0.020325467 0.74288118 0.070110299 4403231
0.020675153 0.74276865 0.070111103 4337438
0.021024838 0.74265611 0.070111908 4337438
0.021374531 0.74254358 0.070112713 4271645
0.021724217 0.74243104 0.070113517 4271647
0.02207391 0.74231845 0.070114329 4074268
0.022423595 0.74220592 0.070115134 4008475
0.022773281 0.74209338 0.070115939 4008475
0.023122966 0.74198085 0.070116743 3942682
0.023472652 0.74186832 0.070117556 3942682
0.023822337 0.74175578 0.07011836 3877402
0.024172023 0.74164319 0.070119165 3811609
0.024521716 0.74153066 0.07011997 3811611
0.025315605 0.74217904 0.069611557 3745818
0.025666848 0.74206603 0.069612369 3745818
0.026018083 0.74195296 0.069613181 3745818
0.026369326 0.74183989 0.069613993 3811098
0.026720569 0.74172688 0.069614798 3613719
0.027071811 0.74161381 0.06961561 3547926
0.027423054 0.74150079 0.069616422 3613719
0.027774304 0.74138772 0.069617227 3613719
0.028125539 0.74127471 0.069618039 3547926
0.028476782 0.74116164 0.069618851 3416853
0.028828025 0.74104863 0.069619656 3416853
0.029640555 0.74169099 0.069111288 3416853
0.029993355 0.74157745 0.069112107 3416853
0.030346155 0.7414639 0.069112919 3482646
0.030698948 0.74135035 0.069113731 3416853
0.03105174 0.74123681 0.069114543 3416853
0.03140454 0.74112326 0.069115356 3416853
0.03175734 0.74100971 0.069116175 3351060
0.032110125 0.74089617 0.069116987 3416853
0.032462925 0.74078262 0.069117799 3351060
0.032815725 0.74066913 0.069118612 3351060
0.033168525 0.74055552 0.069119424 3351060
0.033521317 0.74044204 0.069120236 3285267
0.033874109 0.74032849 0.069121055 3285267
0.034226909 0.74021494 0.069121867 3351060
0.034579702 0.7401014 0.06912268 3285265
0.03541711 0.74073577 0.068614371 3285265
0.035771459 0.74062169 0.068615183 3022863
0.036125809 0.74050766 0.068616003 3022863
0.036480159 0.74039364 0.068616822 3154451
0.036834508 0.74027956 0.068617634 3154451
0.037681237 0.74091095 0.068109348 3022865
0.038037144 0.74079639 0.068110168 3022865
0.03839305 0.74068183 0.068110988 3022865
0.03874895 0.74056733 0.068111807 3022865
0.039104857 0.74045277 0.068112627 3022865
0.039460763 0.74033821 0.068113454 3022865
0.040318362 0.74096608 0.067605205 3154451
0.040675819 0.74085104 0.067606024 3022865
0.041033283 0.74073601 0.067606851 3022865
0.041390732 0.74062097 0.067607671 3022865
0.041748196 0.74050587 0.067608498 3153681
0.042615131 0.74113077 0.067100257 3153681
0.042974144 0.7410152 0.067101084 3153681
0.043333158 0.74089968 0.067101911 3153681
0.043692172 0.74078411 0.067102738 3087888
0.044051185 0.74066859 0.067103565 3087888
0.044410199 0.74055302 0.067104392 3153681
0.044769213 0.74043751 0.067105219 3153681
0.045128226 0.74032193 0.067106053 3153681
0.04548724 0.74020642 0.06710688 3087888
0.046369709 0.74082625 0.066598669 3087888
0.04673028 0.74071026 0.066599503 3087888
0.047090843 0.74059415 0.066600338 3087888
0.047451407 0.74047816 0.066601165 3087888
0.04781197 0.74036211 0.066601999 3153681
0.048172548 0.74024606 0.066602826 3153681
0.049065903 0.74086237 0.066094644 3153681
0.049428016 0.74074584 0.066095479 3153681
0.049790144 0.74062932 0.066096313 3153681
0.050152272 0.74051273 0.066097148 3153681
0.050514385 0.7403962 0.06609799 3285267
-0.028271243 0.75561446 0.071217634 7956570
-0.027926218 0.75550342 0.071218431 7956570
-0.027581193 0.75539237 0.071219228 7824984
-0.027236167 0.75528133 0.071220025 7956570
-0.026891142 0.75517035 0.071220815 7956570
-0.026546117 0.75505924 0.071221612 7890264
-0.026201092 0.75494826 0.07122241 7890264
-0.025856066 0.75483716 0.071223207 7890264
-0.025511041 0.75472617 0.071224004 7890264
-0.025166016 0.75461507 0.071224794 7890262
-0.024820991 0.75450408 0.071225591 7890262
-0.024475966 0.75439304 0.071226388 7824469
-0.02413094 0.754282 0.071227185 7890262
-0.023785915 0.75417095 0.071227975 7890262
-0.02344089 0.75405991 0.071228772 7824469
-0.023095865 0.75394887 0.07122957 7758676
-0.018265512 0.75239432 0.071240708 7692883
-0.017920487 0.75228322 0.071241505 7692883
-0.017575465 0.75217223 0.071242295 7627088
-0.01723044 0.75206113 0.071243092 7627088
-0.016885415 0.75195014 0.07124389 7627088
-0.01654039 0.7518391 0.071244687 7692881
-0.016195364 0.75172806 0.071245484 7627088
-0.015850339 0.75161701 0.071246274 7627088
-0.015505314 0.75150597 0.071247071 7627088
-0.015160289 0.75139493 0.071247868 7561295
-0.014815263 0.75128388 0.071248665 7429709
-0.014470238 0.75117284 0.071249455 7627088
-0.014399756 0.75024718 0.071761265 7627088
-0.014056284 0.75013661 0.071762055 7627088
-0.013712812 0.75002611 0.071762852 7627088
-0.013369344 0.74991554 0.071763642 7627088
-0.013025872 0.74980497 0.071764432 7627088
-0.012682401 0.74969447 0.071765222 7627088
-0.012338929 0.7495839 0.071766019 7627088
-0.011995457 0.74947339 0.071766809 7627088
-0.011651985 0.74936283 0.071767598 7627088
0.0013999045 0.74516225 0.071797699 7692881
0.0017433763 0.74505174 0.071798488 7627088
0.002086848 0.74494123 0.071799278 7692881
0.0024303198 0.74483067 0.071800068 7692881
0.0027737916 0.7447201 0.071800865 7823953
0.0031172633 0.74460959 0.071801655 7823953
0.0034607351 0.74449903 0.071802445 7823953
0.0038042068 0.74438846 0.071803242 7823953
0.0041476712 0.74427795 0.071804032 7823953
0.0044911429 0.74416745 0.071804821 7823953
0.0048346147 0.74405688 0.071805619 7823953
0.0051780865 0.74394631 0.071806408 7758160
0.0055215582 0.74383581 0.071807198 7627088
0.00586503 0.74372524 0.071807988 7627088
0.0062085018 0.74361473 0.071808785 7627088
0.011796184 0.74362236 0.07079839 6640193
0.012142763 0.74351078 0.070799187 6903365
0.012489349 0.74339926 0.070799984 6311482
0.01283592 0.74328774 0.070800781 6311482
0.013182506 0.74317616 0.070801586 5982517
0.013529085 0.74306464 0.070802383 5916724
0.013875663 0.74295306 0.07080318 5652784
0.014222234 0.74284154 0.070803978 5586991
0.014568821 0.74273002 0.070804782 5389612
0.014915399 0.74261844 0.070805579 5455405
0.015667081 0.74327958 0.070295669 5126440
0.016015209 0.74316752 0.070296474 5389612
0.016363338 0.74305546 0.070297271 5126694
0.016711473 0.74294341 0.070298076 5126694
0.017059609 0.74283135 0.07029888 5060901
0.017407745 0.74271935 0.070299685 5060901
0.017755874 0.7426073 0.070300482 4995108
0.018104002 0.74249524 0.070301287 4929315
0.018869668 0.74315184 0.069791406 4929315
0.019219354 0.74303931 0.069792211 4863522
0.019569039 0.74292672 0.069793023 4534817
0.019918725 0.74281418 0.069793828 4469024
0.02026841 0.74270165 0.069794632 4403231
0.020618103 0.74258912 0.069795437 4337438
0.020967789 0.74247658 0.069796249 4337438
0.021317482 0.74236405 0.069797054 4271645
0.021667168 0.74225152 0.069797859 4271647
0.022016853 0.74213898 0.069798663 4074268
0.022366539 0.74202645 0.069799468 4008475
0.022716224 0.74191386 0.06980028 4008475
0.023065917 0.74180132 0.069801085 3942682
0.02341561 0.74168879 0.069801889 3942682
0.023765296 0.74157625 0.069802694 3877402
0.024114981 0.74146372 0.069803506 3811609
0.024464667 0.74135113 0.069804311 3811611
0.025258303 0.74199873 0.069294497 3745818
0.025609538 0.74188566 0.069295302 3745818
0.025960788 0.74177265 0.069296114 3745818
0.026312023 0.74165958 0.069296926 3811098
0.026663266 0.74154657 0.069297731 3613719
0.027014509 0.7414335 0.069298543 3547926
0.027365752 0.74132049 0.069299355 3613719
0.027716994 0.74120742 0.069300167 3613719
0.028068237 0.74109435 0.069300972 3547926
0.02841948 0.74098134 0.069301784 3416853
0.028770715 0.74086833 0.069302596 3416853
0.029583007 0.74150985 0.06879282 3416853
0.029935807 0.74139631 0.06879364 3416853
0.030288599 0.74128282 0.068794452 3482646
0.030641392 0.74116921 0.068795264 3416853
0.030994192 0.74105573 0.068796076 3416853
0.031346992 0.74094212 0.068796888 3416853
0.031699784 0.74082863 0.0687977 3351060
0.032052577 0.74071509 0.06879852 3416853
0.032405376 0.74060154 0.068799332 3351060
0.032758169 0.74048799 0.068800144 3351060
0.033110969 0.74037445 0.068800956 3351060
0.033463761 0.7402609 0.068801768 3285267
0.034296252 0.74089599 0.068292044 3285267
0.034650601 0.7407819 0.068292864 3351060
0.035004951 0.74066788 0.068293683 3285265
0.035359301 0.74055386 0.068294495 3285265
0.03571365 0.74043977 0.068295315 3022863
0.036555469 0.74107182 0.067785613 3022863
0.036911368 0.74095732 0.067786433 3154451
0.037267268 0.74084276 0.067787252 3154451
0.038115293 0.74147284 0.06727758 3022865
0.038472757 0.7413578 0.0672784 3022865
0.038830221 0.74124277 0.067279227 3022865
0.03918767 0.74112767 0.067280054 3022865
0.039545134 0.74101263 0.067280874 3022865
0.03990259 0.7408976 0.067281701 3022865
0.040260047 0.74078256 0.067282528 3154451
0.040617511 0.74066752 0.067283347 3022865
0.040974967 0.74055248 0.067284174 3022865
0.041838542 0.74117756 0.066774517 3022865
0.042197555 0.74106199 0.066775352 3153681
0.042556554 0.74094647 0.066776179 3153681
0.042915575 0.7408309 0.066777006 3153681
0.043274596 0.74071538 0.066777833 3153681
0.043633603 0.74059981 0.06677866 3087888
0.043992616 0.7404843 0.066779487 3087888
0.044351622 0.74036872 0.066780314 3153681
0.045229189 0.74098933 0.066270694 3153681
0.045589752 0.74087322 0.066271529 3153681
0.045950323 0.74075723 0.066272356 3087888
0.046310887 0.74064118 0.06627319 3087888
0.046671458 0.74052513 0.066274017 3087888
0.047032014 0.74040908 0.066274852 3087888
0.047920458 0.7410261 0.065765254 3087888
0.048282579 0.74090958 0.065766089 3153681
0.048644707 0.74079305 0.065766923 3153681
0.04900682 0.74067652 0.065767758 3153681
0.049368948 0.74055994 0.065768592 3153681
0.049731061 0.74044341 0.065769434 3153681
0.050093189 0.74032688 0.065770268 3153681
0.050455302 0.74021029 0.065771103 3285267
-0.028538097 0.75460303 0.071418747 7824984
-0.028194625 0.75449246 0.071419537 7824984
-0.027851153 0.7543819 0.071420327 7759191
-0.027507681 0.75427139 0.071421117 7759191
-0.027164213 0.75416088 0.071421914 7824984
-0.026820742 0.75405031 0.071422704 7890264
-0.02647727 0.75393975 0.071423493 7824471
-0.026133798 0.75382924 0.071424291 7824471
-0.025790326 0.75371867 0.07142508 7824471
-0.025446858 0.75360811 0.07142587 7824469
-0.025103386 0.7534976 0.071426667 7824469
-0.024759915 0.75338709 0.071427457 7824469
-0.024416443 0.75327653 0.071428247 7758676
-0.024072975 0.75316596 0.071429037 7824469
-0.023729503 0.75305545 0.071429834 7758676
-0.023386031 0.75294489 0.071430624 7692883
-0.02304256 0.75283438 0.071431413 7692883
-0.022699088 0.75272381 0.071432211 7692883
-0.02235562 0.75261331 0.071433 7692883
-0.01985883 0.7509076 0.071951807 7561295
-0.019516911 0.75079757 0.071952589 7561295
-0.019174997 0.75068754 0.071953379 7561295
-0.018833078 0.75057751 0.071954168 7561295
-0.018491164 0.75046742 0.071954958 7561295
-0.018149246 0.75035739 0.071955748 7561295
-0.017807327 0.75024736 0.07195653 7561295
-0.017465413 0.75013733 0.07195732 7561295
-0.017123494 0.7500273 0.07195811 7561295
-0.01678158 0.74991727 0.071958899 7561295
-0.016439661 0.74980724 0.071959689 7561295
-0.016097743 0.74969715 0.071960472 7429709
-0.015755828 0.74958712 0.071961261 7429709
-0.01541391 0.74947709 0.071962051 7429709
-0.015071996 0.74936706 0.071962841 7561295
-0.014730077 0.74925697 0.071963631 7561295
-0.014388163 0.74914694 0.07196442 7429709
-0.014046244 0.74903691 0.071965203 7561295
-0.013704326 0.74892688 0.071965992 7561295
-0.013362411 0.74881685 0.071966782 7561295
-0.013020493 0.74870682 0.071967572 7561295
-0.012678578 0.74859679 0.071968362 7429709
-0.012336656 0.74848676 0.071969144 7429709
-0.011994742 0.74837667 0.071969934 7561295
-0.011652827 0.74826664 0.071970724 7561295
-0.011310913 0.74815661 0.071971513 7429709
-0.010968991 0.74804658 0.071972303 7429709
-0.010627076 0.74793649 0.071973093 7561295
-0.010285161 0.74782646 0.071973875 7561295
-0.0099432468 0.74771643 0.071974665 7561295
-0.0096013248 0.7476064 0.071975455 7561295
-0.0092594102 0.74749637 0.071976244 7561295
-0.0089174956 0.74738634 0.071977034 7561295
-0.0034320354 0.74471879 0.072502725 7561549
-0.003091678 0.74460924 0.072503507 7627342
-0.0027513131 0.74449974 0.072504297 7627342
-0.0024109483 0.74439019 0.072505079 7627342
-0.0020705909 0.74428064 0.072505862 7627342
-0.001730226 0.74417114 0.072506651 7693135
-0.0013898611 0.74406159 0.072507434 7692881
-0.00071149319 0.74474537 0.071995951 7692881
-0.0003695786 0.74463528 0.071996741 7692881
-2.7656555e-05 0.74452525 0.071997531 7627088
0.00031425804 0.74441522 0.071998321 7627088
0.00065617263 0.74430519 0.071999103 7692881
0.00099809468 0.7441951 0.071999893 7692881
0.0013400093 0.74408507 0.072000682 7627088
0.0016819239 0.74397504 0.072001472 7692881
0.0020238459 0.74386501 0.072002262 7627088
0.0027177557 0.74454379 0.071490817 7758160
0.0030612275 0.74443328 0.071491607 7758160
0.0034046993 0.74432272 0.071492396 7692367
0.003748171 0.74421215 0.071493186 7758160
0.0040916428 0.74410164 0.071493983 7692367
0.0044351146 0.74399108 0.071494773 7560781
0.0047785863 0.74388057 0.071495563 7429709
0.0051220506 0.74377 0.07149636 7363916
0.0054655224 0.7436595 0.07149715 7232330
0.0058089942 0.74354893 0.07149794 7100744
0.0061524659 0.74343836 0.071498729 7232330
0.006865032 0.74411118 0.070987329 6771779
0.007210061 0.74400014 0.070988126 6771779
0.0075550824 0.74388909 0.070988923 6377021
0.0079001039 0.74377805 0.070989713 6245435
0.0082451329 0.74366701 0.07099051 5784884
0.0085901618 0.74355596 0.070991307 5850677
0.0089351833 0.74344492 0.070992105 5719091
0.0092802048 0.74333388 0.070992902 5258794
0.0096252337 0.74322283 0.070993692 5193001
0.0099702552 0.74311179 0.070994489 5193001
0.010315284 0.74300075 0.070995286 5193001
0.010660306 0.7428897 0.070996083 5061161
0.011005335 0.74277866 0.070996873 4929575
0.011350356 0.74266762 0.07099767 5060647
0.012086228 0.74333286 0.070486329 4994854
0.012432806 0.74322134 0.070487127 4732196
0.012779385 0.74310982 0.070487931 4732196
0.013125964 0.74299824 0.070488729 4534817
0.013472542 0.74288672 0.070489526 4469024
0.013819121 0.7427752 0.070490323 4469026
0.014165699 0.74266362 0.070491128 4403233
0.014512278 0.7425521 0.070491925 4337440
0.014858857 0.74244058 0.070492722 4337440
0.015205443 0.742329 0.070493519 4271133
0.015552014 0.74221748 0.070494324 4205340
0.016306549 0.74287677 0.069983013 4271133
0.016654685 0.74276471 0.069983818 4139547
0.017002821 0.74265265 0.069984622 4139547
0.017350949 0.7425406 0.06998542 4073754
0.017699078 0.7424286 0.069986224 3942682
0.018047214 0.74231654 0.069987029 3942682
0.018395349 0.74220449 0.069987833 3745814
0.018743485 0.74209249 0.069988631 3745814
0.019091614 0.74198043 0.069989435 3614230
0.019861683 0.74263465 0.069478162 3614230
0.020211369 0.74252212 0.069478974 3548437
0.020561054 0.74240959 0.069479778 3482644
0.02091074 0.74229705 0.069480583 3548437
0.02126044 0.74218452 0.069481388 3548437
0.021610126 0.74207199 0.0694822 3548437
0.021959811 0.74195945 0.069483005 3482644
0.022309497 0.74184692 0.069483809 3482644
0.022659183 0.74173439 0.069484614 3416851
0.023008868 0.74162179 0.069485418 3416851
0.023358561 0.74150926 0.069486231 3416851
0.023708247 0.74139673 0.069487035 3482644
0.024057932 0.74128419 0.06948784 3416851
0.024407625 0.74117166 0.069488645 3351060
0.025201008 0.74181843 0.06897743 3416853
0.025552243 0.74170536 0.068978243 3416853
0.025903486 0.74159229 0.068979047 3351060
0.026254728 0.74147928 0.068979859 3351060
0.026605964 0.74136627 0.068980671 3351060
0.026957214 0.7412532 0.068981476 3285013
0.027308449 0.74114013 0.068982288 3350806
0.027659699 0.74102712 0.0689831 3285013
0.028010935 0.74091411 0.068983912 3285013
0.028362185 0.74080104 0.068984717 3285267
0.02871342 0.74068797 0.068985529 3285267
0.029525451 0.74132878 0.068474352 3285267
0.029878244 0.74121523 0.068475172 3285267
0.030231044 0.74110168 0.068475984 3351060
0.030583844 0.74098814 0.068476796 3285267
0.030936636 0.74087459 0.068477608 3285267
0.031289428 0.74076104 0.06847842 3285267
0.031642228 0.74064749 0.068479232 3285267
0.031995021 0.74053395 0.068480052 3153681
0.032347813 0.7404204 0.068480864 3285267
0.032700613 0.74030685 0.068481676 3285267
0.033053413 0.74019337 0.068482488 3153681
0.033406213 0.74007976 0.068483301 3153681
0.034238443 0.74071407 0.067972176 3087888
0.034592792 0.74059999 0.067972995 3153681
0.034947142 0.74048597 0.067973807 3022865
0.035301492 0.74037194 0.067974627 3022865
0.035655841 0.74025786 0.067975447 2957072
0.036497407 0.74088913 0.067464337 2957072
0.036853313 0.74077463 0.067465156 2957072
0.037209213 0.74066007 0.067465976 3022865
0.038056985 0.74128932 0.066954903 3022865
0.038414441 0.74117428 0.06695573 3022865
0.038771898 0.74105924 0.06695655 2957072
0.039129362 0.74094415 0.066957377 3022865
0.039486818 0.74082911 0.066958196 2891279
0.039844275 0.74071407 0.066959023 2957072
0.040201738 0.74059904 0.06695985 2957072
0.040559188 0.740484 0.06696067 2957072
0.040916651 0.74036896 0.066961497 2957072
0.041779965 0.74099326 0.066450439 2957072
0.042138979 0.74087769 0.066451266 2957072
0.042497993 0.74076211 0.066452093 2957072
0.042857006 0.7406466 0.06645292 2957072
0.04321602 0.74053109 0.066453755 2957072
0.043575034 0.74041551 0.066454582 2891279
0.043934047 0.74029994 0.066455409 2891279
0.044293061 0.74018443 0.066456236 2957072
0.045170367 0.7408042 0.065945208 2957072
0.04553093 0.74068815 0.065946043 2957072
0.045891494 0.74057209 0.065946877 2957072
0.046252064 0.74045604 0.065947704 2957072
0.046612635 0.74033999 0.065948538 2957072
0.046973199 0.740224 0.065949365 2957072
0.047861382 0.7408402 0.065438367 2957072
0.048223503 0.74072367 0.065439202 2957072
0.048585631 0.74060714 0.065440044 2957072
0.048947752 0.74049062 0.065440878 2957072
0.049309865 0.74037409 0.065441713 2957072
0.049671993 0.7402575 0.065442547 2957072
0.050034121 0.74014097 0.065443382 3022865
0.050396234 0.74002445 0.065444216 3022865
-0.028594129 0.75442672 0.071108691 7824984
-0.028250657 0.75431615 0.071109489 7824984
-0.027907185 0.75420558 0.071110278 7759191
-0.027563713 0.75409508 0.071111068 7759191
-0.027220245 0.75398451 0.071111865 7824984
-0.026876774 0.753874 0.071112655 7890264
-0.026533302 0.75376344 0.071113445 7824471
-0.026189834 0.75365293 0.071114235 7824471
-0.025846362 0.75354236 0.071115032 7824471
-0.02550289 0.7534318 0.071115822 7824469
-0.025159419 0.75332129 0.071116611 7824469
-0.024815947 0.75321072 0.071117409 7824469
-0.024472475 0.75310022 0.071118198 7758676
-0.024129007 0.75298965 0.071118988 7824469
-0.023785535 0.75287914 0.071119778 7758676
-0.023442063 0.75276858 0.071120575 7692883
-0.023098595 0.75265801 0.071121365 7692883
-0.022755124 0.7525475 0.071122155 7692883
-0.022411652 0.75243694 0.071122952 7692883
-0.019914608 0.75073206 0.071643159 7561295
-0.01957269 0.75062203 0.071643941 7561295
-0.019230776 0.750512 0.071644731 7561295
-0.018888857 0.75040197 0.071645521 7561295
-0.018546943 0.75029194 0.07164631 7561295
-0.018205024 0.75018191 0.0716471 7561295
-0.017863106 0.75007182 0.071647882 7561295
-0.017521191 0.74996179 0.071648672 7561295
-0.017179273 0.74985176 0.071649462 7561295
-0.016837358 0.74974173 0.071650252 7561295
-0.01649544 0.7496317 0.071651042 7561295
-0.016153526 0.74952161 0.071651831 7429709
-0.015811607 0.74941158 0.071652614 7429709
-0.015469689 0.74930155 0.071653403 7429709
-0.015127774 0.74919152 0.071654193 7561295
-0.014785856 0.74908149 0.071654983 7561295
-0.014443941 0.74897146 0.071655773 7429709
-0.014102023 0.74886143 0.071656555 7561295
-0.013760105 0.74875134 0.071657345 7561295
-0.01341819 0.74864131 0.071658134 7561295
-0.013076272 0.74853128 0.071658924 7561295
-0.012734357 0.74842125 0.071659714 7429709
-0.012392439 0.74831116 0.071660504 7429709
-0.012050524 0.74820113 0.071661286 7561295
-0.011708602 0.7480911 0.071662076 7561295
-0.011366688 0.74798107 0.071662866 7429709
-0.011024773 0.74787104 0.071663655 7429709
-0.010682859 0.74776101 0.071664445 7561295
-0.010340936 0.74765098 0.071665227 7561295
-0.0099990219 0.74754089 0.071666017 7561295
-0.0096571073 0.74743086 0.071666807 7561295
-0.0093151852 0.74732083 0.071667597 7561295
-0.0089732707 0.7472108 0.071668386 7561295
-0.0034875646 0.74454409 0.072195478 7561549
-0.0031471997 0.74443454 0.072196268 7627342
-0.0028068423 0.74432498 0.07219705 7627342
-0.0024664775 0.74421549 0.072197832 7627342
-0.0021261126 0.74410594 0.072198622 7627342
-0.0017857552 0.74399638 0.072199404 7693135
-0.0014453903 0.74388683 0.072200187 7692881
-0.00076726824 0.74456978 0.071687303 7692881
-0.00042535365 0.74445975 0.071688093 7692881
-8.3439052e-05 0.74434972 0.071688883 7627088
0.00025847554 0.74423969 0.071689673 7627088
0.00060039759 0.74412966 0.071690455 7692881
0.00094231218 0.74401963 0.071691245 7692881
0.0012842268 0.7439096 0.071692035 7627088
0.0016261488 0.74379951 0.071692824 7692881
0.0019680634 0.74368948 0.071693614 7627088
0.0026617274 0.74436748 0.071180761 7758160
0.0030051991 0.74425691 0.071181558 7758160
0.0033486634 0.74414641 0.071182348 7692367
0.0036921352 0.74403584 0.071183138 7758160
0.004035607 0.74392533 0.071183927 7692367
0.0043790787 0.74381477 0.071184725 7560781
0.0047225505 0.7437042 0.071185514 7429709
0.0050660223 0.74359369 0.071186304 7363916
0.005409494 0.74348313 0.071187101 7232330
0.0057529658 0.74337262 0.071187891 7100744
0.0060964376 0.74326205 0.071188681 7232330
0.0068087429 0.74393404 0.07067588 6771779
0.0071537718 0.74382299 0.070676669 6771779
0.0074987933 0.74371195 0.070677467 6377021
0.0078438222 0.7436009 0.070678264 6245435
0.0081888437 0.74348986 0.070679061 5784884
0.0085338727 0.74337882 0.070679851 5850677
0.0088789016 0.74326777 0.070680648 5719091
0.0092239231 0.74315679 0.070681445 5258794
0.0095689446 0.74304569 0.070682243 5193001
0.0099139735 0.7429347 0.07068304 5193001
0.010259002 0.7428236 0.070683829 5193001
0.010604024 0.74271262 0.070684627 5061161
0.010949045 0.74260157 0.070685424 4929575
0.011294074 0.74249053 0.070686221 5060647
0.012029685 0.74315494 0.070173472 4994854
0.012376264 0.74304342 0.070174269 4732196
0.012722842 0.74293184 0.070175074 4732196
0.013069421 0.74282032 0.070175871 4534817
0.013416007 0.7427088 0.070176668 4469024
0.013762578 0.74259722 0.070177466 4469026
0.014109157 0.7424857 0.07017827 4403233
0.014455736 0.74237418 0.070179068 4337440
0.014802322 0.7422626 0.070179865 4337440
0.0151489 0.74215108 0.070180662 4271133
0.015495479 0.74203956 0.070181467 4205340
0.016249754 0.74269801 0.069668755 4271133
0.016597882 0.74258602 0.06966956 4139547
0.016946018 0.74247396 0.069670364 4139547
0.017294154 0.7423619 0.069671161 4073754
0.017642289 0.74224985 0.069671966 3942682
0.017990418 0.74213779 0.069672771 3942682
0.018338554 0.74202579 0.069673568 3745814
0.018686682 0.74191374 0.069674373 3745814
0.019034818 0.74180168 0.069675177 3614230
0.019804634 0.74245518 0.069162503 3614230
0.02015432 0.74234265 0.069163308 3548437
0.020504013 0.74223006 0.069164112 3482644
0.020853698 0.74211752 0.069164924 3548437
0.021203384 0.74200499 0.069165729 3548437
0.021553069 0.74189246 0.069166534 3548437
0.021902762 0.74177992 0.069167338 3482644
0.022252448 0.74166739 0.06916815 3482644
0.022602133 0.74155486 0.069168955 3416851
0.022951826 0.74144232 0.06916976 3416851
0.023301512 0.74132979 0.069170564 3416851
0.024089977 0.74197721 0.068657935 3482644
0.024441227 0.7418642 0.068658747 3416851
0.024792463 0.74175113 0.068659559 3351060
0.025143705 0.74163806 0.068660364 3416853
0.025494948 0.74152505 0.068661176 3416853
0.025846183 0.74141204 0.068661988 3351060
0.026197426 0.74129897 0.068662792 3351060
0.026548669 0.7411859 0.068663605 3351060
0.026899911 0.74107289 0.068664417 3285013
0.027703919 0.74171537 0.068151817 3350806
0.028056711 0.74160182 0.068152636 3285013
0.028409511 0.74148828 0.068153448 3285013
0.028762311 0.74137473 0.068154261 3285267
0.029115103 0.74126118 0.068155073 3285267
0.029467896 0.74114764 0.068155885 3285267
0.029820696 0.74103409 0.068156697 3285267
0.030173495 0.74092054 0.068157516 3351060
0.030526288 0.740807 0.068158329 3285267
0.03087908 0.74069345 0.068159141 3285267
0.03123188 0.74057996 0.068159953 3285267
0.032054536 0.74121642 0.067647405 3285267
0.032408886 0.74110234 0.067648217 3153681
0.032763235 0.74098831 0.067649037 3285267
0.033117585 0.74087429 0.067649856 3285267
0.033471942 0.74076021 0.067650668 3153681
0.033826292 0.74064618 0.067651488 3153681
0.034659818 0.74127913 0.067138962 3087888
0.035015732 0.74116462 0.067139782 3153681
0.035853922 0.74179608 0.066627279 3022865
0.036211371 0.74168098 0.066628106 3022865
0.036568835 0.74156594 0.066628926 2957072
0.036926299 0.74145091 0.066629753 2957072
0.037283748 0.74133587 0.06663058 2957072
0.037641212 0.74122083 0.066631399 3022865
0.037998661 0.74110579 0.066632226 3022865
0.038356125 0.74099076 0.066633053 3022865
0.038713589 0.74087572 0.066633873 2957072
0.039567322 0.74150217 0.066121392 3022865
0.039926335 0.74138665 0.066122219 2891279
0.040285349 0.74127108 0.066123053 2957072
0.040644363 0.74115556 0.06612388 2957072
0.041003376 0.74103999 0.066124707 2957072
0.04136239 0.74092448 0.066125534 2957072
0.041721404 0.74080896 0.066126361 2957072
0.042080417 0.74069339 0.066127189 2957072
0.042948142 0.74131536 0.065614738 2957072
0.043308713 0.74119931 0.065615572 2957072
0.043669283 0.74108326 0.065616407 2957072
0.044029847 0.74096721 0.065617234 2891279
0.04439041 0.74085116 0.065618068 2891279
0.044750974 0.74073511 0.065618895 2957072
0.045111552 0.74061906 0.065619729 2957072
0.045472115 0.74050307 0.065620564 2957072
0.045832679 0.74038702 0.065621391 2957072
0.046715945 0.74100399 0.065108977 2957072
0.047078073 0.7408874 0.065109812 2957072
0.047440186 0.74077088 0.065110646 2957072
0.047802314 0.74065435 0.065111488 2957072
0.048164427 0.74053776 0.065112323 2957072
0.048526555 0.74042124 0.065113157 2957072
0.048888676 0.74030471 0.065113991 2957072
0.049250796 0.74018812 0.065114826 2957072
-0.028650161 0.75425035 0.070798643 7824471
-0.028306689 0.75413984 0.070799433 7758678
-0.027963217 0.75402927 0.07080023 7758678
-0.027619749 0.75391877 0.07080102 7758678
-0.027276278 0.7538082 0.070801809 7758678
-0.026932806 0.75369763 0.070802607 7758678
-0.026589334 0.75358713 0.070803396 7758678
-0.026245862 0.75347656 0.070804186 7758678
-0.025902394 0.75336605 0.070804976 7758678
-0.025558922 0.75325549 0.070805773 7692883
-0.025215451 0.75314498 0.070806563 7758676
-0.024871983 0.75303441 0.070807353 7692883
-0.024528511 0.75292385 0.07080815 7692883
-0.024185039 0.75281334 0.07080894 7692883
-0.023841567 0.75270277 0.070809729 7692883
-0.023498096 0.75259227 0.070810527 7692883
-0.023154628 0.7524817 0.070811316 7627090
-0.022811156 0.75237119 0.070812106 7627090
-0.022467684 0.75226063 0.070812896 7627090
-0.019970387 0.75055659 0.071334511 7429709
-0.019628469 0.7504465 0.071335293 7429709
-0.019286554 0.75033647 0.071336083 7429709
-0.018944636 0.75022644 0.071336873 7429709
-0.018602721 0.75011641 0.071337663 7429709
-0.018260803 0.75000638 0.071338452 7363916
-0.017918885 0.74989629 0.071339242 7363916
-0.01757697 0.74978626 0.071340024 7363916
-0.017235052 0.74967623 0.071340814 7363916
-0.016893137 0.7495662 0.071341604 7429709
-0.016551219 0.74945617 0.071342394 7429709
-0.016209304 0.74934614 0.071343184 7363916
-0.015867386 0.74923611 0.071343966 7363916
-0.015525468 0.74912602 0.071344756 7363916
-0.015183553 0.74901599 0.071345545 7363916
-0.014841635 0.74890596 0.071346335 7429709
-0.01449972 0.74879593 0.071347125 7363916
-0.014157802 0.74868584 0.071347907 7363916
-0.013815887 0.74857581 0.071348697 7363916
-0.013473969 0.74846578 0.071349487 7363916
-0.013132051 0.74835575 0.071350276 7298123
-0.012790136 0.74824572 0.071351066 7363916
-0.012448221 0.74813569 0.071351856 7363916
-0.012106299 0.74802566 0.071352638 7363916
-0.011764385 0.74791557 0.071353428 7363916
-0.01142247 0.74780554 0.071354218 7363916
-0.011080548 0.74769551 0.071355008 7363916
-0.010738634 0.74758548 0.071355797 7363916
-0.010396719 0.74747539 0.07135658 7561295
-0.010054804 0.74736536 0.071357369 7429709
-0.0097128823 0.74725533 0.071358159 7429709
-0.0093709677 0.7471453 0.071358949 7429709
-0.0090290532 0.74703526 0.071359739 7363916
-0.0035430938 0.74436939 0.071888238 7429963
-0.0032027289 0.74425983 0.071889021 7561549
-0.0028623641 0.74415028 0.07188981 7561549
-0.0025220066 0.74404073 0.071890593 7561549
-0.0021816418 0.74393117 0.071891375 7561549
-0.0018412769 0.74382162 0.071892165 7627342
-0.0015009195 0.74371213 0.071892947 7561549
-0.00082305074 0.7443943 0.071378656 7561549
-0.00048112869 0.74428427 0.071379445 7429963
-0.0001392141 0.74417418 0.071380235 7429963
0.0002027005 0.74406415 0.071381025 7298123
0.00054461509 0.74395412 0.071381815 7298123
0.00088652968 0.74384409 0.071382597 7232330
0.0012284517 0.74373406 0.071383387 7298123
0.0015703663 0.74362397 0.071384177 6837572
0.0019122884 0.74351394 0.071384966 6705986
0.0026056916 0.74419117 0.070870712 6573886
0.0029491633 0.7440806 0.070871502 6376507
0.0032926351 0.74397004 0.070872299 6113335
0.0036361068 0.74385953 0.070873089 5521198
0.0039795786 0.74374896 0.070873879 5783600
0.0043230504 0.74363846 0.070874676 5717807
0.0046665221 0.74352789 0.070875466 5455405
0.0050099865 0.74341738 0.070876256 5323819
0.0053534582 0.74330682 0.070877045 5323049
0.00569693 0.74319625 0.070877843 5191463
0.0060404018 0.74308574 0.070878632 5257256
0.0067524612 0.74375689 0.070364423 5059877
0.0070974827 0.74364591 0.07036522 4863268
0.0074425116 0.7435348 0.070366018 4863268
0.0077875406 0.74342382 0.070366807 4731682
0.008132562 0.74331278 0.070367604 4863268
0.0084775835 0.74320173 0.070368402 4600098
0.0088226125 0.74309069 0.070369199 4600098
0.009167634 0.74297965 0.070369989 4468512
0.0095126629 0.7428686 0.070370786 4402719
0.0098576844 0.74275756 0.070371583 4140061
0.010202713 0.74264652 0.07037238 4140061
0.010547742 0.74253547 0.070373178 4074268
0.010892764 0.74242443 0.070373967 4008475
0.011237785 0.74231339 0.070374765 3942684
0.01197315 0.74297702 0.069860615 3876891
0.012319729 0.7428655 0.069861419 3876891
0.012666307 0.74275398 0.069862217 3811098
0.013012886 0.7426424 0.069863014 3679512
0.013359465 0.74253088 0.069863811 3811098
0.013706043 0.74241936 0.069864616 3613719
0.014052622 0.74230778 0.069865413 3613719
0.014399201 0.74219626 0.06986621 3613719
0.014745779 0.74208474 0.069867007 3547926
0.015092358 0.74197316 0.069867812 3547926
0.015438944 0.74186164 0.069868609 3547926
0.016192958 0.74251932 0.069354497 3547926
0.016541094 0.74240726 0.069355302 3547926
0.016889229 0.74229521 0.069356099 3547926
0.017237365 0.74218321 0.069356903 3482133
0.017585494 0.74207115 0.069357708 3482131
0.017933622 0.7419591 0.069358513 3416338
0.018281758 0.74184704 0.06935931 3416851
0.018629894 0.74173504 0.069360115 3351058
0.018978029 0.74162298 0.069360919 3351058
0.019747585 0.74227566 0.068846844 3351058
0.020097271 0.74216312 0.068847649 3351058
0.020446964 0.74205059 0.068848453 3285265
0.020796649 0.74193799 0.068849258 3351058
0.021146342 0.74182546 0.068850063 3351058
0.021496028 0.74171293 0.068850875 3351058
0.021845713 0.74160039 0.06885168 3351058
0.022195399 0.74148786 0.068852484 3351058
0.022545084 0.74137533 0.068853289 3285265
0.022894777 0.74126279 0.068854101 3285265
0.02324447 0.74115026 0.068854906 3285265
0.024032675 0.74179691 0.068340868 3285265
0.024383917 0.74168384 0.06834168 3285265
0.02473516 0.74157083 0.068342492 3285265
0.025086403 0.74145776 0.068343297 3285265
0.025437638 0.74134475 0.068344109 3285265
0.025788888 0.74123168 0.068344921 3285265
0.026140124 0.74111867 0.068345733 3153679
0.026491366 0.7410056 0.068346538 3153679
0.026842609 0.74089259 0.06834735 3153427
0.027646363 0.74153423 0.067833349 3153427
0.027999163 0.74142069 0.067834169 3153427
0.028351955 0.74130714 0.067834981 3153427
0.028704748 0.74119365 0.067835793 3153427
0.029057547 0.74108005 0.067836605 3153427
0.029410347 0.74096656 0.067837417 3153681
0.02976314 0.74085301 0.067838229 3153681
0.030115932 0.74073946 0.067839049 3153681
0.030468732 0.74062592 0.067839861 3087888
0.030821532 0.74051237 0.067840673 3153681
0.031174324 0.74039882 0.067841485 3087888
0.031996727 0.74103451 0.067327529 3087888
0.032351077 0.74092042 0.067328349 3153681
0.032705426 0.7408064 0.067329168 3153681
0.033059776 0.74069238 0.06732998 3087888
0.033414125 0.74057829 0.0673308 3087888
0.033768475 0.74046427 0.06733162 3087888
0.034601763 0.74109644 0.066817686 3087888
0.03495767 0.74098188 0.066818506 3153681
0.035795607 0.74161255 0.066304602 3022865
0.036153063 0.74149752 0.066305429 2957072
0.036510527 0.74138248 0.066306256 2957072
0.036867984 0.74126744 0.066307075 2957072
0.03722544 0.74115241 0.066307902 2957072
0.037582897 0.74103737 0.066308722 2957072
