# .PCD v0.7 - Point Cloud Data file format
VERSION 0.7
FIELDS x y z rgb
SIZE 4 4 4 4
TYPE F F F U
COUNT 1 1 1 1
WIDTH 1071
HEIGHT 1
VIEWPOINT 0 0 0 1 0 0 0
POINTS 1071
DATA ascii
-0.022016067 0.83405197 0.029943623 13352373
-0.021961503 0.83387965 0.030257814 13352373
-0.021906935 0.83370739 0.030572012 13352373
-0.02185237 0.83353513 0.030886203 13352373
-0.021797806 0.83336282 0.031200394 13352373
-0.021852024 0.83403802 0.032057442 13220787
-0.021797702 0.83386654 0.032370217 13352373
-0.021743383 0.83369505 0.032683 13352373
-0.021689065 0.83352351 0.032995775 13352373
-0.021634743 0.83335203 0.033308551 13352373
-0.021580424 0.83318055 0.033621326 13352373
-0.021636359 0.83386117 0.034468479 13352375
-0.021582283 0.83369046 0.034779839 13352375
-0.02152821 0.83351976 0.035091206 13418168
-0.021585133 0.83420348 0.035932682 13352375
-0.021531306 0.83403349 0.036242634 13418168
-0.021477476 0.83386356 0.036552578 13418168
-0.021535382 0.83455044 0.037388399 13287352
-0.021481797 0.83438122 0.037696928 13287352
-0.021428216 0.83421206 0.038005464 13221559
-0.021374632 0.83404291 0.038313992 13089973
-0.021321051 0.83387375 0.038622521 13220789
-0.02126747 0.83370459 0.038931057 13352375
-0.021327093 0.83439684 0.039756969 13418168
-0.021273755 0.83422846 0.040064082 13352375
-0.02122042 0.83406007 0.040371202 13352373
-0.021167081 0.83389163 0.040678315 13418166
-0.020919368 0.83411765 0.044443168 13418168
-0.020866523 0.83395076 0.044747449 13352375
-0.020813677 0.83378392 0.045051739 13418168
-0.020877725 0.83449018 0.045852169 13418168
-0.020825125 0.83432412 0.046155035 13418166
-0.020772526 0.83415806 0.046457909 13418166
-0.020719927 0.833992 0.046760775 13418166
-0.020667328 0.83382589 0.047063649 13352373
-0.020614728 0.83365983 0.047366515 13352373
-0.020680496 0.83437151 0.048157051 13352373
-0.020628143 0.83420622 0.048458502 13418166
-0.020575788 0.83404094 0.04875996 13352373
-0.020523435 0.83387566 0.049061418 13418166
-0.020471081 0.83371031 0.049362868 13418166
-0.020418728 0.83354509 0.049664326 13352373
-0.020366374 0.83337975 0.049965777 13418166
-0.019686289 0.83476079 0.062066413 12761520
-0.019635655 0.83460093 0.062357962 11314589
-0.019585023 0.83444107 0.062649511 8880248
-0.019662345 0.83518922 0.063373528 14740708
-0.019611957 0.83503014 0.063663661 11911609
-0.01956157 0.83487105 0.063953795 9671047
-0.019511182 0.83471197 0.064243928 11579044
-0.019460795 0.83455288 0.064534061 12893106
-0.019410409 0.8343938 0.064824194 13156278
-0.019360021 0.83423471 0.065114327 13287350
-0.019309634 0.83407563 0.06540446 13287350
-0.019259246 0.83391654 0.065694593 13352373
-0.019339029 0.83467245 0.066404454 13418166
-0.019288886 0.83451414 0.066693172 13483959
-0.019238746 0.83435583 0.066981889 13418166
-0.019188605 0.83419752 0.067270607 13352373
-0.019138463 0.83403921 0.067559317 13418166
-0.019088322 0.8338809 0.067848042 13418166
-0.01903818 0.83372259 0.068136752 13352373
-0.018988039 0.83356428 0.068425477 13418166
-0.018937897 0.83340597 0.068714187 13418166
-0.019020131 0.83416969 0.069409899 13287350
-0.018970236 0.83401215 0.069697201 13287350
-0.01892034 0.83385462 0.069984503 13287350
-0.018870445 0.83369708 0.070271805 13287350
-0.018820548 0.83353955 0.070559107 13287352
-0.018770654 0.83338201 0.070846409 13353145
-0.018854614 0.83415115 0.071532212 13353145
-0.018804964 0.83399439 0.071818098 13353145
-0.018755313 0.83383763 0.072103977 13287352
-0.018705664 0.83368087 0.072389871 13221559
-0.018656014 0.83352411 0.072675757 13221559
-0.018606365 0.83336735 0.072961643 13221559
-0.018556714 0.83321059 0.07324753 13221559
-0.018507065 0.83305383 0.073533416 13353145
-0.018457415 0.83289707 0.073819302 13748417
-0.018407766 0.83274031 0.074105188 14011589
-0.018358115 0.83258355 0.074391074 13746872
-0.018308466 0.83242679 0.074676961 13154735
-0.018258816 0.83227003 0.074962847 11903383
-0.018209167 0.83211327 0.075248733 11903383
-0.018159516 0.83195651 0.075534627 11968912
-0.023840789 0.83606464 0.015628934 2107431
-0.023784995 0.8358885 0.015950203 2107431
-0.023729201 0.83571231 0.016271472 2173224
-0.023673404 0.83553618 0.016592741 2107431
-0.023519482 0.83454072 0.016318783 2304810
-0.023463443 0.83436382 0.016641468 2892835
-0.023407403 0.83418691 0.016964152 5129797
-0.02335136 0.83401 0.017286837 11641755
-0.023394432 0.8346554 0.018199071 13220787
-0.023338638 0.83447921 0.01852034 13024180
-0.023282845 0.83430308 0.018841609 13221559
-0.023227047 0.83412695 0.019162878 13418170
-0.023171254 0.83395076 0.019484147 13418170
-0.02311546 0.83377463 0.019805416 13418168
-0.023160253 0.83442545 0.020707756 13483961
-0.023104701 0.83425009 0.02102761 13483448
-0.023049153 0.83407474 0.021347463 13549241
-0.022993606 0.83389932 0.021667317 13417655
-0.022938058 0.83372396 0.02198717 13417655
-0.022882506 0.83354855 0.022307023 13483446
-0.022929024 0.83420491 0.023199454 13417653
-0.022873718 0.83403027 0.023517892 13352373
-0.022818416 0.83385569 0.02383633 13352373
-0.02286591 0.83451509 0.024723113 13352373
-0.022810854 0.83434123 0.02504012 13352373
-0.022755798 0.83416742 0.025357157 13352373
-0.022804275 0.83482993 0.026238263 13352373
-0.022749465 0.83465683 0.026553869 13352373
-0.022694651 0.8344838 0.026869476 13352373
-0.022639841 0.83431077 0.027185082 13352373
-0.022585031 0.83413768 0.027500689 13418166
-0.022530217 0.83396465 0.027816296 13352373
-0.022580422 0.83463258 0.028687492 13418166
-0.022525854 0.83446032 0.029001683 13418166
-0.02247129 0.834288 0.029315874 13418166
-0.022416726 0.83411574 0.029630065 13352373
-0.022362158 0.83394349 0.029944256 13352373
-0.022307593 0.83377123 0.030258447 13352373
-0.022359516 0.83444452 0.031119741 13352373
-0.022305194 0.83427304 0.031432524 13352373
-0.022250876 0.83410156 0.0317453 13352373
-0.022196557 0.83393008 0.032058075 13352373
-0.022142235 0.83375859 0.03237085 13352373
-0.022087917 0.83358705 0.032683626 13352373
-0.022141557 0.83426589 0.033535026 13418166
-0.022087481 0.83409512 0.033846386 13352373
-0.022033408 0.83392441 0.034157746 13352373
-0.021979336 0.83375371 0.034469105 13418168
-0.021925259 0.833583 0.034780473 13418168
-0.021871187 0.83341223 0.035091832 13418168
-0.021926548 0.83409649 0.035933308 13418168
-0.021872718 0.83392656 0.03624326 13483961
-0.021818891 0.83375657 0.036553204 13418168
-0.021875236 0.83444393 0.037389018 13287352
-0.021821655 0.83427477 0.037697554 13353145
-0.021768071 0.83410561 0.038006082 13353145
-0.02171449 0.83393639 0.038314611 13287352
-0.021660909 0.83376724 0.038623147 13221559
-0.021607324 0.83359808 0.038931675 13221559
-0.021665387 0.83429086 0.039757587 13287352
-0.021612052 0.83412242 0.040064707 13287352
-0.021558713 0.83395404 0.04037182 13287352
-0.021505378 0.83378565 0.040678933 13287352
-0.021452039 0.83361727 0.040986054 13287350
-0.021398704 0.83344889 0.041293167 13353143
-0.021458492 0.83414704 0.042109177 13353143
-0.021405403 0.83397943 0.042414881 13418936
-0.02135231 0.83381182 0.042720579 13353143
-0.021299219 0.83364415 0.043026283 13353143
-0.021246128 0.83347654 0.043331981 13353143
-0.021193037 0.83330894 0.043637685 13287350
-0.021369141 0.83488381 0.044944167 13287352
-0.021316541 0.83471775 0.045247041 13287352
-0.021263942 0.83455169 0.045549907 13287352
-0.021211343 0.83438563 0.04585278 13287352
-0.021158744 0.83421957 0.046155646 13418166
-0.021106144 0.83405352 0.04645852 13483959
-0.021053545 0.83388746 0.046761386 13483959
-0.021000946 0.83372134 0.04706426 13418166
-0.020948347 0.83355528 0.047367126 13418166
-0.021012554 0.83426744 0.048157655 13352373
-0.020960201 0.83410215 0.048459113 13352373
-0.020907845 0.83393687 0.048760571 13418166
-0.020855492 0.83377159 0.049062021 13418166
-0.020803139 0.83360624 0.049363479 13418166
-0.020750785 0.83344102 0.04966493 13418166
-0.020816719 0.8341586 0.050445564 13483959
-0.020764612 0.83399409 0.050745599 13418166
-0.020712504 0.83382958 0.051045641 13418166
-0.020660395 0.83366501 0.051345684 13352373
-0.020007435 0.83466011 0.062067002 12695727
-0.019956801 0.83450025 0.062358551 10657431
-0.019906169 0.83434039 0.062650099 9670536
-0.019981932 0.83508909 0.063374117 14674143
-0.019931544 0.83492994 0.06366425 11252907
-0.019881157 0.83477092 0.063954383 9539463
-0.019830769 0.83461177 0.064244509 12236976
-0.019780383 0.83445275 0.064534642 12958899
-0.019729996 0.8342936 0.064824775 13156278
-0.019679608 0.83413458 0.065114908 13287350
-0.019629221 0.83397549 0.065405041 13287350
-0.019578833 0.83381641 0.065695174 13287350
-0.019657057 0.83457279 0.066405036 13287350
-0.019606914 0.83441448 0.066693753 13418166
-0.019556774 0.83425617 0.06698247 13418166
-0.019506633 0.83409786 0.067271188 13352373
-0.019456491 0.83393955 0.067559898 13418166
-0.01940635 0.83378124 0.067848623 13418166
-0.019486289 0.83454311 0.068548568 13352373
-0.019436393 0.83438551 0.068835869 13418166
-0.019386498 0.83422804 0.069123171 13418166
-0.019336602 0.8340705 0.069410473 13287350
-0.019286707 0.83391297 0.069697782 13287350
-0.019236811 0.83375543 0.069985077 13353145
-0.019318474 0.83452266 0.07067512 13287352
-0.019268826 0.83436596 0.070961013 13287352
-0.019219175 0.8342092 0.0712469 13353145
-0.019169524 0.83405244 0.071532786 13353145
-0.019119876 0.83389568 0.071818672 13353145
-0.019070227 0.83373892 0.072104558 13221559
-0.019020576 0.83358216 0.072390445 13221559
-0.018970925 0.8334254 0.072676331 13221559
-0.018921277 0.83326864 0.072962217 13089973
-0.018871626 0.83311188 0.073248103 13221559
-0.018821977 0.83295512 0.073533997 13550524
-0.018772326 0.83279836 0.073819876 13880003
-0.018722678 0.8326416 0.074105762 14011589
-0.018673027 0.83248484 0.074391648 13746870
-0.018623378 0.83232808 0.074677542 12759975
-0.018573727 0.83217132 0.074963421 11837844
-0.018524079 0.83201462 0.075249314 11837844
-0.018474428 0.83185786 0.075535201 11968912
-0.024194673 0.83595371 0.015629575 2107431
-0.024138879 0.83577758 0.015950844 2173224
-0.024083085 0.83560145 0.016272113 2239017
-0.024027288 0.83542526 0.016593382 2173224
-0.023874927 0.83442938 0.016319439 2370603
-0.023818888 0.83425242 0.016642123 2958115
-0.023762848 0.83407551 0.016964793 6116179
-0.023706805 0.83389854 0.017287478 11904414
-0.023748316 0.83454448 0.018199727 13483446
-0.023692522 0.83436835 0.018520996 13024180
-0.023636729 0.83419216 0.018842265 13287352
-0.023580931 0.83401603 0.019163534 13418168
-0.023525137 0.83383989 0.019484803 13483961
-0.023469344 0.8336637 0.019806072 13483961
-0.02351258 0.83431506 0.020708397 13549754
-0.023457028 0.8341397 0.02102825 13483448
-0.02340148 0.83396429 0.021348104 13549241
-0.023345932 0.83378893 0.021667957 13483448
-0.023290381 0.83361351 0.021987811 13483448
-0.023234833 0.83343816 0.022307664 13483448
-0.02327979 0.83409494 0.023200095 13417655
-0.023224484 0.83392036 0.023518533 13417655
-0.023169182 0.83374572 0.02383697 13417655
-0.023215119 0.8344056 0.024723738 13417655
-0.023160063 0.83423179 0.025040761 13417655
-0.023105007 0.83405799 0.025357783 13483448
-0.023151927 0.83472097 0.026238889 13483448
-0.023097117 0.83454788 0.02655451 13352375
-0.023042303 0.83437485 0.026870117 13352375
-0.022987492 0.83420181 0.027185716 13418168
-0.022932682 0.83402872 0.027501322 13418168
-0.022877868 0.83385569 0.027816936 13418168
-0.022926509 0.83452415 0.028688118 13418168
-0.022871941 0.83435184 0.029002316 13418168
-0.022817377 0.83417958 0.029316507 13418168
-0.022762813 0.83400726 0.029630698 13352375
-0.022708245 0.83383501 0.029944889 13418168
-0.02265368 0.83366275 0.03025908 13352373
-0.022704046 0.83433658 0.031120375 13418166
-0.022649724 0.8341651 0.03143315 13418166
-0.022595406 0.83399355 0.031745926 13352373
-0.022541087 0.83382207 0.032058708 13352373
-0.022486765 0.83365059 0.032371484 13352373
-0.022432446 0.83347911 0.032684259 13418166
-0.022484526 0.83415836 0.033535652 13418166
-0.02243045 0.83398765 0.033847012 13352373
-0.022376377 0.83381695 0.034158371 13418166
-0.022322305 0.83364618 0.034469739 13418168
-0.022268228 0.83347547 0.034781098 13418168
-0.022214156 0.83330476 0.035092458 13418168
-0.022267964 0.8339895 0.035933934 13418168
-0.022214133 0.83381951 0.036243878 13483961
-0.022160307 0.83364958 0.03655383 13418168
-0.022215091 0.83433741 0.037389643 13483961
-0.02216151 0.83416826 0.037698172 13483961
-0.022107925 0.83399904 0.038006708 13353145
-0.022054344 0.83382988 0.038315237 13287352
-0.022000764 0.83366072 0.038623765 13287352
-0.021947179 0.83349156 0.038932301 13287352
-0.022003684 0.83418483 0.039758205 13287352
-0.021950345 0.83401644 0.040065326 13287352
-0.021897011 0.833848 0.040372439 13287352
-0.021843672 0.83367962 0.040679552 13287352
-0.021790337 0.83351123 0.040986672 13353145
-0.021736998 0.83334285 0.041293785 13353145
-0.021795228 0.83404148 0.042109795 13353143
-0.021742135 0.83387387 0.0424155 13418936
-0.021689046 0.83370626 0.042721197 13287350
-0.021635953 0.83353865 0.043026894 13353143
-0.021582864 0.83337104 0.043332599 13353143
-0.021529771 0.83320343 0.043638296 13287350
-0.021702761 0.83477926 0.044944778 13353143
-0.021650162 0.8346132 0.045247652 13287350
-0.021597562 0.83444715 0.045550518 13287350
-0.021544963 0.83428109 0.045853391 13353143
-0.021492364 0.83411503 0.046156257 13483959
-0.021439765 0.83394897 0.046459131 13483959
-0.021387165 0.83378285 0.046761997 13483959
-0.021334566 0.83361679 0.047064871 13418166
-0.021281967 0.83345073 0.047367737 13418166
-0.021344615 0.83416337 0.048158266 13352373
-0.021292262 0.83399808 0.048459724 13352373
-0.021239907 0.8338328 0.048761174 13418166
-0.021187553 0.83366752 0.049062632 13418166
-0.0211352 0.83350223 0.049364083 13418166
-0.021082846 0.83333695 0.04966554 13418166
-0.021147219 0.83405501 0.050446168 13418166
-0.021095112 0.8338905 0.050746202 13483959
-0.021043004 0.83372599 0.051046245 13418166
-0.020990895 0.83356148 0.051346287 13418166
-0.020328581 0.8345595 0.062067591 12827313
-0.020277949 0.83439964 0.062359139 9604743
-0.020227317 0.83423978 0.062650681 10657431
-0.020301523 0.83498889 0.063374698 14279387
-0.020251134 0.83482981 0.063664831 10989737
-0.020200748 0.83467072 0.063954964 9736329
-0.02015036 0.83451164 0.064245097 12565428
-0.020099973 0.83435255 0.06453523 12958901
-0.020049587 0.83419347 0.064825363 13156280
-0.019999199 0.83403438 0.065115497 13353143
-0.019948812 0.8338753 0.06540563 13287350
-0.019898424 0.83371627 0.065695763 13287350
-0.019975087 0.83447313 0.066405617 13287350
-0.019924944 0.83431482 0.066694334 13418166
-0.019874804 0.83415651 0.066983052 13418166
-0.019824661 0.8339982 0.067271769 13418168
-0.019774521 0.83383989 0.067560486 13483961
-0.01972438 0.83368158 0.067849204 13418168
-0.01980276 0.83444393 0.068549149 13418168
-0.019752864 0.83428639 0.068836451 13418168
-0.019702969 0.83412886 0.069123752 13418168
-0.019653073 0.83397132 0.069411054 13287352
-0.019603178 0.83381379 0.069698356 13287352
-0.019553281 0.83365625 0.069985658 13353145
-0.019633384 0.83442402 0.070675701 13287352
-0.019583736 0.83426726 0.070961587 13353145
-0.019534085 0.8341105 0.071247473 13353145
-0.019484434 0.83395374 0.071533367 13353145
-0.019434785 0.83379698 0.071819246 13287352
-0.019385137 0.83364022 0.072105132 13221559
-0.019335486 0.83348346 0.072391018 13287352
-0.019285835 0.8333267 0.072676912 13089973
-0.019236187 0.83316994 0.072962791 13089973
-0.019186536 0.83301318 0.073248684 13221559
-0.019136887 0.83285642 0.073534571 13484731
-0.019087236 0.83269966 0.073820457 13880003
-0.019037588 0.8325429 0.074106343 13880003
-0.018987937 0.8323862 0.074392229 13746870
-0.018938288 0.83222944 0.074678116 12628389
-0.02454856 0.83584285 0.015630215 2107431
-0.024492767 0.83566666 0.015951484 2173224
-0.024436973 0.83549052 0.016272753 2239017
-0.024381176 0.83531439 0.016594023 2239017
-0.024230372 0.83431798 0.01632008 2370603
-0.024174333 0.83414102 0.016642764 3023392
-0.024118293 0.83396411 0.016965449 6707800
-0.02406225 0.8337872 0.017288134 12759725
-0.024102204 0.83443356 0.018200368 13154483
-0.02404641 0.83425742 0.018521637 13220789
-0.023990616 0.83408129 0.018842906 13483961
-0.023934819 0.8339051 0.019164175 13483961
-0.023879025 0.83372897 0.019485444 13483961
-0.023823231 0.83355284 0.019806713 13615034
-0.023864903 0.83420467 0.020709038 13615034
-0.023809351 0.83402926 0.021028906 13483448
-0.023753803 0.8338539 0.02134876 13483448
-0.023698255 0.83367848 0.021668613 13483448
-0.023642704 0.83350313 0.021988451 13483448
-0.023587156 0.83332777 0.02230832 13549241
-0.023630556 0.83398503 0.023200735 13483448
-0.02357525 0.83381045 0.023519173 13483448
-0.023519948 0.83363581 0.023837611 13549241
-0.023564328 0.83429617 0.024724379 13483448
-0.023509268 0.83412236 0.025041401 13483448
-0.023454212 0.83394849 0.025358424 13483448
-0.023499575 0.83461201 0.026239529 13483448
-0.023444764 0.83443898 0.026555136 13417655
-0.02338995 0.83426589 0.026870742 13483448
-0.02333514 0.83409286 0.027186356 13418168
-0.02328033 0.83391982 0.027501963 13418168
-0.023225516 0.83374673 0.02781757 13418168
-0.023272604 0.83441567 0.028688759 13483961
-0.023218036 0.83424336 0.02900295 13483961
-0.023163471 0.8340711 0.029317141 13418168
-0.023108907 0.83389884 0.029631332 13418168
-0.023054339 0.83372653 0.029945523 13418168
-0.022999775 0.83355427 0.030259714 13418168
-0.02304858 0.83422863 0.031121001 13483961
-0.022994258 0.83405709 0.031433783 13483961
-0.022939939 0.83388561 0.031746559 13352375
-0.022885621 0.83371413 0.032059334 13352375
-0.022831298 0.83354259 0.03237211 13418168
-0.02277698 0.8333711 0.032684892 13418168
-0.022827502 0.83405089 0.033536278 13418168
-0.022773426 0.83388019 0.033847637 13352375
-0.022719353 0.83370948 0.034159005 13418168
-0.022665281 0.83353871 0.034470364 13418168
-0.022611205 0.833368 0.034781724 13418168
-0.022557132 0.8331973 0.035093084 13418168
-0.022609372 0.83388245 0.03593456 13418168
-0.022555541 0.83371252 0.036244504 13418168
-0.022501715 0.83354259 0.036554456 13418168
-0.022554941 0.8342309 0.037390262 13483961
-0.022501361 0.83406174 0.037698798 13483961
-0.022447776 0.83389258 0.038007326 13483961
-0.022394195 0.83372337 0.038315862 13418168
-0.022340614 0.83355421 0.038624391 13287352
-0.02228703 0.83338505 0.03893292 13287352
-0.022341978 0.83407879 0.039758824 13353145
-0.022288639 0.83391041 0.040065944 13353145
-0.022235304 0.83374202 0.040373057 13287352
-0.022181965 0.83357358 0.040680178 13287352
-0.02212863 0.8334052 0.04098729 13353145
-0.022075292 0.83323681 0.041294403 13418938
-0.022131965 0.83393598 0.042110413 13418936
-0.022078872 0.83376837 0.042416111 13418936
-0.022025783 0.83360076 0.042721815 13287350
-0.02197269 0.83343315 0.043027513 13418936
-0.021919601 0.83326548 0.043333218 13353143
-0.021866508 0.83309788 0.043638915 13353143
-0.022036381 0.83467472 0.044945389 13353143
-0.02198378 0.83450866 0.045248263 13353143
-0.021931183 0.8343426 0.045551129 13287350
-0.021878581 0.83417654 0.045854002 13353143
-0.021825984 0.83401048 0.046156868 13483959
-0.021773385 0.83384436 0.046459742 13483959
-0.021720786 0.83367831 0.046762608 13418166
-0.021668186 0.83351225 0.047065482 13418166
-0.021615587 0.83334619 0.047368348 13418166
-0.021676676 0.8340593 0.048158877 13418166
-0.021624323 0.83389401 0.048460327 13352373
-0.021571968 0.83372873 0.048761785 13418166
-0.021519614 0.83356345 0.049063236 13483959
-0.021467261 0.83339816 0.049364693 13418166
-0.021414908 0.83323288 0.049666151 13418166
-0.021477723 0.83395141 0.050446771 13418166
-0.021425616 0.8337869 0.050746813 13418166
-0.021373508 0.8336224 0.051046848 13483959
-0.021321399 0.83345789 0.051346891 13483959
-0.020649731 0.83445883 0.062068179 13090487
-0.020599097 0.83429897 0.062359728 8881533
-0.020548465 0.83413911 0.062651277 11447460
-0.020621112 0.83488876 0.063375287 13753041
-0.020570723 0.83472967 0.06366542 10463391
-0.020520337 0.83457059 0.063955553 9867143
-0.020469949 0.8344115 0.064245686 12827828
-0.020419562 0.83425242 0.064535812 13090485
-0.020369176 0.83409333 0.064825952 13156278
-0.020318788 0.83393425 0.065116078 13353143
-0.020268401 0.83377516 0.065406211 13287350
-0.020218013 0.83361608 0.065696344 13287350
-0.020293113 0.83437347 0.066406198 13287350
-0.02024297 0.83421516 0.066694915 13418166
-0.02019283 0.83405685 0.066983633 13483959
-0.020142689 0.83389854 0.06727235 13418166
-0.020092547 0.83374023 0.067561068 13418166
-0.020042406 0.83358192 0.067849785 13418168
-0.020119229 0.83434474 0.06854973 13418168
-0.020069333 0.83418721 0.068837032 13418168
-0.020019438 0.83402967 0.069124334 13418168
-0.019969542 0.83387214 0.069411635 13287352
-0.019919647 0.8337146 0.069698937 13287352
-0.01986975 0.83355707 0.069986239 13287352
-0.019948296 0.83432531 0.070676275 13287352
-0.019898647 0.83416855 0.070962161 13418938
-0.019848997 0.83401179 0.071248055 13353145
-0.019799348 0.83385503 0.071533941 13353145
-0.019749697 0.83369827 0.071819827 13287352
-0.019700047 0.83354151 0.072105706 13221559
-0.019650398 0.83338475 0.072391599 13221559
-0.019600747 0.83322799 0.072677486 13221559
-0.019551098 0.83307123 0.072963372 13221559
-0.019501448 0.83291447 0.073249258 13287352
-0.019451799 0.83275771 0.073535144 13484731
-0.019402148 0.83260101 0.073821031 14077382
-0.019352499 0.83244425 0.074106917 13814210
-0.019302849 0.83228749 0.074392803 13417905
-0.0192532 0.83213073 0.074678689 12167838
-0.024902444 0.83573192 0.015630871 2173224
-0.024846651 0.83555579 0.01595214 2239017
-0.024790857 0.8353796 0.016273409 2239017
-0.02473506 0.83520347 0.016594678 2173224
-0.024679266 0.83502734 0.016915947 2304810
-0.024623472 0.83485115 0.017237216 3220771
-0.024567679 0.83467501 0.017558485 7168351
-0.024511885 0.83449882 0.017879754 12957106
-0.024456087 0.83432269 0.018201023 13154485
-0.024400294 0.8341465 0.018522292 13418168
-0.0243445 0.83397037 0.018843561 13549754
-0.024288703 0.83379424 0.01916483 13615034
-0.024232909 0.83361804 0.019486099 13615034
-0.024177115 0.83344191 0.019807369 13615034
-0.024217233 0.83409423 0.020709693 13615034
-0.024161682 0.83391881 0.021029547 13615034
-0.024106134 0.83374345 0.0213494 13483448
-0.024147235 0.83439887 0.022246063 13549241
-0.024091929 0.83422428 0.022564501 13549241
-0.024036627 0.8340497 0.022882938 13549241
-0.023981325 0.83387506 0.023201376 13483448
-0.02392602 0.83370048 0.023519814 13549241
-0.023870718 0.8335259 0.023838252 13549241
-0.023913536 0.83418673 0.02472502 13549241
-0.023858476 0.83401293 0.025042042 13483448
-0.02380342 0.83383906 0.025359064 13549241
-0.023847222 0.83450305 0.02624017 13483448
-0.023792412 0.83433002 0.026555777 13483448
-0.023737598 0.83415699 0.026871383 13483448
-0.023682788 0.8339839 0.02718699 13483448
-0.023627978 0.83381087 0.027502596 13549241
-0.023573164 0.83363783 0.027818203 13418168
-0.023618691 0.83430719 0.028689384 13483961
-0.023564123 0.83413494 0.029003583 13418168
-0.023509558 0.83396262 0.029317774 13418168
-0.023454994 0.83379036 0.029631965 13483961
-0.023400426 0.8336181 0.029946156 13483961
-0.023345862 0.83344579 0.030260347 13418168
-0.023393109 0.83412063 0.031121634 13483961
-0.023338787 0.83394915 0.031434409 13483961
-0.023284469 0.83377767 0.031747192 13418168
-0.02323015 0.83360612 0.032059968 13352375
-0.023175828 0.83343464 0.032372743 13483961
-0.02312151 0.83326316 0.032685518 13418168
-0.023170471 0.83394343 0.033536904 13483961
-0.023116395 0.83377266 0.033848271 13418168
-0.023062322 0.83360195 0.034159631 13418168
-0.023112271 0.83428532 0.035005346 13418168
-0.023058441 0.83411539 0.03531529 13483961
-0.023004614 0.83394539 0.035625242 13483961
-0.022950787 0.83377546 0.035935186 13418168
-0.022896957 0.83360553 0.03624513 13418168
-0.02284313 0.8334356 0.036555082 13483961
-0.0228948 0.83412439 0.037390888 13483961
-0.022841219 0.83395523 0.037699416 13483961
-0.022787634 0.83378601 0.038007952 13418168
-0.022734053 0.83361685 0.038316481 13483961
-0.022680473 0.83344769 0.038625009 13418168
-0.022626888 0.83327854 0.038933545 13418168
-0.022680275 0.83397275 0.039759442 13353145
-0.022626936 0.83380437 0.040066563 13287352
-0.022573601 0.83363599 0.040373676 13287352
-0.022520263 0.8334676 0.040680796 13287352
-0.022466928 0.83329916 0.040987909 13353145
-0.022413589 0.83313078 0.041295022 13418938
-0.022468701 0.83383048 0.042111032 13418938
-0.022415608 0.83366281 0.042416729 13353145
-0.022362519 0.8334952 0.042722426 13287352
-0.022309426 0.83332759 0.043028131 13353145
-0.022256337 0.83315998 0.043333828 13353145
-0.022203244 0.83299232 0.043639533 13353145
-0.022369999 0.83457017 0.044946 13353145
-0.022317398 0.83440411 0.045248874 13353145
-0.022264801 0.83423805 0.04555174 13353145
-0.0222122 0.83407199 0.045854613 13353145
-0.022159602 0.83390588 0.046157479 13418168
-0.022107001 0.83373982 0.046460353 13418168
-0.022165794 0.83445114 0.047255121 13418168
-0.022113442 0.83428586 0.047556572 13483961
-0.022061089 0.83412051 0.04785803 13418166
-0.022008736 0.83395523 0.04815948 13418166
-0.021956382 0.83378994 0.048460938 13418166
-0.021904027 0.83362466 0.048762389 13418166
-0.021964544 0.83434141 0.049547255 13483959
-0.021912437 0.8341769 0.049847297 13418166
-0.021860329 0.83401239 0.05014734 13483959
-0.021808222 0.83384788 0.050447375 13483959
-0.021756114 0.83368337 0.050747417 13483959
-0.021704007 0.83351886 0.051047459 13483959
-0.021766244 0.83424097 0.051822409 13483959
-0.021714382 0.83407724 0.052121036 13549752
-0.02166252 0.83391351 0.052419655 13483959
-0.021610657 0.83374977 0.052718282 13418166
-0.02109186 0.83526582 0.062505469 12958901
-0.021041472 0.83510673 0.062795609 8487545
-0.020991085 0.83494771 0.063085735 13290434
-0.020940699 0.83478856 0.063375868 13555662
-0.02089031 0.83462954 0.063666001 9608082
-0.020839924 0.83447039 0.063956134 10327694
-0.020789536 0.83431137 0.064246267 13025207
-0.020739149 0.83415222 0.0645364 13090485
-0.020688763 0.8339932 0.064826533 13156278
-0.020761568 0.83474869 0.065540627 13353143
-0.020711428 0.83459038 0.065829344 13287350
-0.020661285 0.83443207 0.066118062 13483959
-0.020611145 0.83427376 0.066406779 13483959
-0.020561002 0.83411551 0.066695496 13418166
-0.020510862 0.8339572 0.066984214 13483959
-0.020460721 0.83379889 0.067272931 13418166
-0.020410579 0.83364058 0.067561649 13418166
-0.020360438 0.83348227 0.067850366 13418168
-0.020435698 0.83424556 0.068550304 13418168
-0.020385802 0.83408803 0.068837613 13418168
-0.020335907 0.83393049 0.069124907 13483961
-0.020286011 0.83377296 0.069412217 13287352
-0.020236116 0.83361542 0.069699518 13287352
-0.020186219 0.83345789 0.06998682 13287352
-0.020263206 0.83422661 0.070676856 13287352
-0.020213557 0.83406985 0.070962742 13353145
-0.020163907 0.83391309 0.071248628 13353145
-0.020114258 0.83375633 0.071534514 13353145
-0.020064607 0.83359957 0.071820401 13287352
-0.020014957 0.83344281 0.072106287 13221559
-0.019965308 0.83328605 0.072392173 13221559
-0.019915657 0.83312929 0.072678059 13221559
-0.019866008 0.83297259 0.072963946 13287352
-0.019816358 0.83281583 0.073249832 13287352
-0.019766709 0.83265907 0.073535725 13682110
-0.019717058 0.83250231 0.073821604 14077382
-0.019667409 0.83234555 0.074107498 13616831
-0.019617759 0.83218879 0.074393377 13089453
-0.01956811 0.83203202 0.07467927 12036765
-0.025256332 0.835621 0.015631527 2107431
-0.025200538 0.83544487 0.015952781 2173224
-0.025144745 0.83526874 0.01627405 2173224
-0.025088947 0.83509254 0.016595319 2173224
-0.025033154 0.83491641 0.016916588 2239017
-0.02497736 0.83474028 0.017237857 3220255
-0.024921566 0.83456409 0.017559126 7431007
-0.024865773 0.8343879 0.017880395 13088692
-0.024809975 0.83421177 0.018201664 13154485
-0.024754182 0.83403563 0.018522933 13483448
-0.024698388 0.83385944 0.018844202 13615034
-0.02464259 0.83368331 0.019165471 13680827
-0.024586797 0.83350718 0.01948674 13680827
-0.024531003 0.83333099 0.019808009 13615034
-0.024569564 0.83398378 0.020710334 13615034
-0.024514012 0.83380842 0.021030188 13615034
-0.024458464 0.83363307 0.021350041 13549241
-0.024498008 0.83428895 0.022246704 13549241
-0.024442703 0.83411437 0.022565141 13615034
-0.024387401 0.83393979 0.022883579 13549241
-0.024332099 0.83376515 0.023202017 13483448
-0.024276793 0.83359057 0.023520455 13549241
-0.024221491 0.83341599 0.023838893 13615034
-0.024262745 0.8340773 0.024725661 13549241
-0.024207689 0.83390349 0.025042683 13549241
-0.024152633 0.83372962 0.025359705 13615034
-0.024194878 0.8343941 0.026240796 13549241
-0.024140067 0.83422107 0.026556417 13549241
-0.024085253 0.83404803 0.026872024 13483448
-0.024030443 0.83387494 0.027187631 13483448
-0.023975633 0.83370191 0.027503237 13549241
-0.023920819 0.83352888 0.027818844 13418168
-0.023964789 0.83419871 0.028690025 13483961
-0.023910221 0.83402646 0.029004216 13483961
-0.023855656 0.8338542 0.029318407 13483961
-0.023801092 0.83368188 0.029632598 13483961
-0.023746524 0.83350962 0.029946789 13483961
-0.02369196 0.83333737 0.03026098 13483961
-0.023737647 0.83401263 0.031122267 13549754
-0.023683324 0.83384115 0.031435043 13549754
-0.023629006 0.83366966 0.031747818 13483961
-0.023574688 0.83349818 0.032060601 13418168
-0.023520365 0.8333267 0.032373376 13483961
-0.023466047 0.83315516 0.032686152 13483961
-0.023513447 0.8338359 0.033537537 13549754
-0.023459371 0.83366519 0.033848897 13483959
-0.023405299 0.83349448 0.034160256 13483959
-0.02345369 0.83417833 0.035005972 13483959
-0.02339986 0.8340084 0.035315916 13483959
-0.023346033 0.83383846 0.03562586 13483961
-0.023292206 0.83366847 0.035935812 13418168
-0.023238376 0.83349854 0.036245756 13483961
-0.023184549 0.8333286 0.0365557 13483961
-0.023234658 0.83401787 0.037391514 13483961
-0.023181077 0.83384871 0.037700042 13483961
-0.023127493 0.83367956 0.038008571 13483961
-0.023073912 0.8335104 0.038317107 13483961
-0.023020331 0.83334118 0.038625635 13418168
-0.022966746 0.83317202 0.038934164 13418168
-0.023018576 0.83386672 0.039760068 13353145
-0.022965237 0.83369833 0.040067181 13287352
-0.022911903 0.83352995 0.040374294 13287352
-0.022858564 0.83336157 0.040681414 13287352
-0.022805229 0.83319318 0.040988527 13353145
-0.02275189 0.83302474 0.041295648 13418938
-0.022805445 0.83372492 0.042111643 13418938
-0.022752352 0.83355731 0.042417347 13353145
-0.022699263 0.83338964 0.042723045 13287352
-0.02264617 0.83322203 0.04302875 13353145
-0.022593081 0.83305442 0.043334447 13353145
-0.022539988 0.83288682 0.043640152 13353145
-0.022703618 0.83446562 0.044946611 13353145
-0.022651017 0.83429956 0.045249484 13353145
-0.022598419 0.83413351 0.045552351 13353145
-0.022545818 0.83396739 0.045855224 13353145
-0.022493221 0.83380133 0.04615809 13483961
-0.02244062 0.83363527 0.046460964 13418168
-0.022497855 0.83434707 0.047255725 13418168
-0.022445504 0.83418179 0.047557183 13483961
-0.022393148 0.83401644 0.047858633 13483961
-0.022340797 0.83385116 0.048160091 13483961
-0.022288442 0.83368587 0.048461542 13418168
-0.02223609 0.83352059 0.048762999 13483961
-0.022295048 0.83423781 0.049547866 13483961
-0.022242941 0.83407331 0.049847901 13418168
-0.022190833 0.8339088 0.050147943 13483961
-0.022138726 0.83374429 0.050447986 13549754
-0.022086618 0.83357978 0.05074802 13549754
-0.022034511 0.83341527 0.051048063 13483961
-0.02209519 0.83413792 0.051823013 13549754
-0.022043329 0.83397412 0.052121632 13549754
-0.021991467 0.83381045 0.052420259 13483961
-0.021939604 0.83364666 0.052718885 13418168
-0.021411451 0.83516568 0.062506057 12761522
-0.021361064 0.83500659 0.06279619 8487291
-0.021310676 0.83484751 0.063086323 14540247
-0.021260289 0.83468843 0.063376456 12897732
-0.021209901 0.83452934 0.06366659 9147531
-0.021159515 0.83437026 0.063956723 11446175
-0.021109127 0.83421117 0.064246856 13025207
-0.02105874 0.83405209 0.064536989 13156278
-0.021008354 0.833893 0.064827114 13287864
-0.021079598 0.83464903 0.065541208 13353143
-0.021029457 0.83449072 0.065829925 13287350
-0.020979315 0.83433241 0.066118643 13353143
-0.020929174 0.8341741 0.06640736 13353143
-0.020879032 0.83401579 0.066696078 13483959
-0.020828892 0.83385748 0.066984795 13483959
-0.020778749 0.83369917 0.067273512 13418166
-0.020728609 0.83354092 0.06756223 13418166
-0.020678468 0.83338261 0.067850947 13483961
-0.020752171 0.83414638 0.068550885 13483961
-0.020702275 0.83398885 0.068838194 13483961
-0.02065238 0.83383131 0.069125488 13483961
-0.020602483 0.83367378 0.069412798 13353145
-0.020552589 0.83351624 0.069700092 13287352
-0.020502692 0.83335871 0.069987401 13156280
-0.02057812 0.8341279 0.070677429 13222073
-0.020528471 0.83397114 0.070963316 13222073
-0.02047882 0.83381438 0.071249202 13222073
-0.020429172 0.83365762 0.071535096 13222073
-0.020379521 0.83350086 0.071820974 13156280
-0.02032987 0.8333441 0.072106861 13156280
-0.020280221 0.8331874 0.072392747 13156280
-0.020230571 0.83303064 0.07267864 13090487
-0.020180922 0.83287388 0.072964519 13156280
-0.020131271 0.83271712 0.073250413 13287352
-0.020081623 0.83256036 0.073536299 13813696
-0.020031972 0.8324036 0.073822185 13880003
-0.019982323 0.83224684 0.074108072 13551038
-0.019932672 0.83209008 0.074393958 13089453
-0.019883024 0.83193338 0.074679844 11970972
-0.025610216 0.83551013 0.015632167 2041638
-0.025554422 0.83533394 0.015953436 2107431
-0.025498629 0.83515781 0.016274706 2173224
-0.025442831 0.83498168 0.016595975 2238504
-0.025387038 0.83480549 0.016917244 2304297
-0.025331244 0.83462936 0.017238513 3154462
-0.02527545 0.83445317 0.017559782 7825765
-0.025219653 0.83427703 0.017881051 13022899
-0.025163859 0.83410084 0.01820232 13154485
-0.025108065 0.83392471 0.018523589 13483450
-0.025052272 0.83374858 0.018844858 13680829
-0.024996474 0.83357239 0.019166127 13746622
-0.024940681 0.83339626 0.019487396 13746622
-0.024884887 0.83322012 0.019808665 13680829
-0.02492189 0.83387339 0.020710975 13615036
-0.024866339 0.83369803 0.021030828 13615036
-0.024810791 0.83352262 0.021350682 13549243
-0.024848774 0.83417904 0.022247344 13549241
-0.024793468 0.83400446 0.022565782 13549241
-0.024738166 0.83382982 0.02288422 13549241
-0.024682865 0.83365524 0.023202658 13549241
-0.024627559 0.8334806 0.023521096 13549241
-0.024572257 0.83330601 0.023839533 13615034
-0.024611954 0.83396786 0.024726301 13549241
-0.024556898 0.833794 0.025043324 13549241
-0.024501842 0.83362019 0.025360346 13549241
-0.024542525 0.83428514 0.026241437 13549241
-0.024487715 0.83411211 0.026557043 13549241
-0.024432901 0.83393908 0.02687265 13549241
-0.024378091 0.83376598 0.027188264 13549241
-0.024323281 0.83359295 0.02750387 13549241
-0.024268467 0.83341992 0.027819477 13483448
-0.024310876 0.83409023 0.028690659 13549241
-0.024256308 0.83391798 0.029004849 13549754
-0.024201743 0.83374572 0.02931904 13549754
-0.024147179 0.83357346 0.029633231 13549754
-0.024092611 0.83340114 0.029947422 13483961
-0.024038047 0.83322889 0.030261621 13483961
-0.024082176 0.83390468 0.031122893 13549754
-0.024027854 0.8337332 0.031435676 13549754
-0.023973536 0.83356166 0.031748451 13483961
-0.023919217 0.83339018 0.032061227 13483961
-0.023864895 0.83321869 0.032374002 13483961
-0.023810577 0.83304715 0.032686785 13483961
-0.02385642 0.83372843 0.033538163 13549754
-0.023802344 0.83355772 0.033849522 13483959
-0.023748271 0.83338702 0.034160882 13483959
-0.023795102 0.83407134 0.035006598 13483959
-0.023741271 0.83390141 0.035316542 13549752
-0.023687445 0.83373141 0.035626486 13483959
-0.023633618 0.83356148 0.035936438 13483959
-0.023579787 0.83339155 0.036246382 13549752
-0.023525961 0.83322155 0.036556326 13549752
-0.023574509 0.83391136 0.037392132 13549752
-0.023520928 0.8337422 0.037700661 13483959
-0.023467343 0.83357304 0.038009197 13483961
-0.023413762 0.83340383 0.038317725 13483961
-0.023360182 0.83323467 0.038626254 13483961
-0.023306597 0.83306551 0.03893479 13483961
-0.02335687 0.83376074 0.039760686 13483961
-0.023303531 0.8335923 0.040067799 13483961
-0.023250196 0.83342397 0.04037492 13353145
-0.023196857 0.83325553 0.040682033 13353145
-0.023143522 0.83308715 0.040989146 13353145
-0.023090184 0.83291876 0.041296266 13418938
-0.023142178 0.83361936 0.042112261 13418938
-0.023089085 0.83345175 0.042417966 13353145
-0.023035996 0.83328414 0.042723663 13353145
-0.022982903 0.83311653 0.04302936 13353145
-0.022929814 0.83294892 0.043335065 13418938
-0.022876721 0.83278131 0.043640763 13353145
-0.023037236 0.83436108 0.044947222 13353145
-0.022984635 0.83419502 0.045250095 13353145
-0.022932038 0.8340289 0.045552962 13353145
-0.022879437 0.83386284 0.045855835 13353145
-0.022826839 0.83369678 0.046158701 13353145
-0.022774238 0.83353072 0.046461575 13353145
-0.022829916 0.834243 0.047256336 13353145
-0.022777565 0.83407772 0.047557786 13353145
-0.02272521 0.83391237 0.047859244 13353145
-0.022672858 0.83374715 0.048160695 13353145
-0.022620503 0.83358181 0.048462152 13483961
-0.022568151 0.83341652 0.04876361 13483961
-0.022625551 0.83413422 0.049548469 13483961
-0.022573441 0.83396971 0.049848512 13483961
-0.022521332 0.8338052 0.050148547 13483961
-0.022469226 0.83364069 0.050448589 13483961
-0.022417117 0.83347619 0.050748624 13353145
-0.022365011 0.83331168 0.051048666 13353145
-0.022424133 0.8340348 0.051823616 13353145
-0.022372272 0.83387107 0.052122235 13418938
-0.02232041 0.83370733 0.052420862 13353145
-0.022268547 0.8335436 0.052719489 13287352
-0.021731038 0.83506548 0.062506646 11445664
-0.021680649 0.83490646 0.062796772 8553090
-0.021630263 0.83474731 0.063086905 15132390
-0.021579877 0.83458829 0.063377038 11647667
-0.021529488 0.8344292 0.063667171 9015947
-0.021479102 0.83427012 0.063957304 12367279
-0.021428714 0.83411103 0.064247437 12893623
-0.021378327 0.83395195 0.06453757 13222071
-0.021327941 0.83379287 0.064827703 13222071
-0.021397628 0.83454937 0.065541789 13287864
-0.021347487 0.83439106 0.065830514 13222071
-0.021297345 0.83423275 0.066119224 13353143
-0.021247204 0.83407444 0.066407949 13287350
-0.021197062 0.83391613 0.066696659 13353143
-0.021146921 0.83375782 0.066985384 13353143
-0.021096781 0.83359951 0.067274094 13353143
-0.021046638 0.8334412 0.067562811 13353143
-0.020996498 0.83328289 0.067851529 13353143
-0.02106864 0.8340472 0.068551466 13353143
-0.021018744 0.83388966 0.068838768 13353145
-0.020968849 0.83373213 0.06912607 13418938
-0.020918952 0.83357459 0.069413371 13222073
-0.020869058 0.83341706 0.069700673 13222073
-0.020819161 0.83325952 0.069987975 13156280
-0.020893032 0.8340292 0.070678011 13222073
-0.020843383 0.83387244 0.070963889 13222073
-0.020793732 0.83371568 0.071249783 13222073
-0.020744082 0.83355898 0.071535669 13287866
-0.020694433 0.83340222 0.071821555 13222073
-0.020644784 0.83324546 0.072107442 13156280
-0.020595133 0.8330887 0.072393328 13090487
-0.020545483 0.83293194 0.072679214 13287352
-0.020495834 0.83277518 0.0729651 13287352
-0.020446183 0.83261842 0.073250987 13418938
-0.020396534 0.83246166 0.073536873 13879489
-0.020346884 0.83230495 0.073822759 13682624
-0.020297235 0.83214819 0.074108645 13353659
-0.020247584 0.83199143 0.074394532 12957608
-0.020197935 0.83183467 0.074680418 11839127
-0.025964104 0.83539921 0.015632808 2106918
-0.02590831 0.83522308 0.015954077 2106918
-0.025852516 0.83504689 0.016275346 2172711
-0.025796719 0.83487076 0.016596615 2238504
-0.025740925 0.83469456 0.016917884 2304297
-0.025685132 0.83451843 0.017239153 3088669
-0.025629338 0.83434224 0.017560422 7628386
-0.02557354 0.83416611 0.017881691 13088692
-0.025517747 0.83398998 0.01820296 13088692
-0.025461953 0.83381379 0.01852423 13549243
-0.025406159 0.83363765 0.018845499 13680829
-0.025350362 0.83346152 0.019166768 13746622
-0.025294568 0.83328533 0.019488037 13680829
-0.025238775 0.8331092 0.019809306 13615036
-0.025274213 0.833763 0.020711631 13615036
-0.025218662 0.83358759 0.021031484 13549243
-0.025163114 0.83341223 0.021351337 13549243
-0.02519954 0.83406913 0.022247985 13483450
-0.025144234 0.83389449 0.022566423 13549243
-0.025088932 0.83371991 0.022884876 13549243
-0.02503363 0.83354533 0.023203313 13549243
-0.024978325 0.83337069 0.023521751 13615036
-0.024923023 0.8331961 0.023840189 13549243
-0.024961162 0.83385843 0.024726942 13549241
-0.024906106 0.83368456 0.025043964 13549241
-0.02485105 0.83351076 0.025360987 13549241
-0.024890173 0.83417618 0.026242077 13549241
-0.024835363 0.83400315 0.026557684 13549241
-0.024780549 0.83383012 0.026873291 13549241
-0.024725739 0.83365703 0.027188897 13615034
-0.024670929 0.83348399 0.027504504 13549241
-0.024616115 0.83331096 0.027820118 13549241
-0.024656966 0.83398181 0.028691292 13549241
-0.024602398 0.83380949 0.029005483 13483961
-0.024547834 0.83363724 0.029319674 13615547
-0.02449327 0.83346498 0.029633865 13418168
-0.024438702 0.83329272 0.029948056 13483961
-0.024384137 0.83312041 0.030262247 13483961
-0.024426706 0.83379674 0.031123526 13483961
-0.024372384 0.8336252 0.031436302 13549754
-0.024318065 0.83345371 0.031749085 13483961
-0.024263747 0.83328223 0.03206186 13483961
-0.024209425 0.83311069 0.032374635 13483961
-0.024155106 0.83293921 0.032687411 13483961
-0.024199393 0.83362097 0.033538789 13549754
-0.024145316 0.8334502 0.033850148 13483959
-0.024091244 0.83327949 0.034161516 13549752
-0.024136517 0.83396435 0.035007223 13483959
-0.024082687 0.83379436 0.035317168 13483959
-0.02402886 0.83362442 0.035627112 13483959
-0.024075117 0.83431238 0.036467157 13483959
-0.024021532 0.83414322 0.036775693 13549752
-0.023967952 0.833974 0.037084222 13549752
-0.023914367 0.83380485 0.03739275 13549752
-0.023860786 0.83363569 0.037701286 13483959
-0.023807202 0.83346653 0.038009815 13483961
-0.023753621 0.83329737 0.038318351 13483961
-0.02370004 0.83312815 0.038626879 13483961
-0.023646455 0.832959 0.038935408 13549754
-0.023695163 0.8336547 0.039761305 13549754
-0.023641825 0.83348632 0.040068418 13549754
-0.02358849 0.83331794 0.040375538 13483961
-0.023535151 0.83314955 0.040682651 13483961
-0.023481816 0.83298111 0.040989764 13353145
-0.023428477 0.83281273 0.041296884 13418938
-0.023478914 0.83351386 0.042112879 13418938
-0.023425821 0.83334625 0.042418577 13353145
-0.023372732 0.83317864 0.042724282 13353145
-0.023319639 0.83301103 0.043029979 13353145
-0.02326655 0.83284336 0.043335684 13418938
-0.023213457 0.83267576 0.043641381 13353145
-0.023370855 0.83425653 0.044947833 13353145
-0.023318253 0.83409041 0.045250706 13353145
-0.023265656 0.83392435 0.045553572 13353145
-0.023213055 0.83375829 0.045856446 13353145
-0.023160458 0.83359224 0.046159312 13353145
-0.023107857 0.83342618 0.046462186 13418938
-0.023161974 0.83413893 0.047256939 13418938
-0.023109622 0.83397365 0.047558397 13418938
-0.023057267 0.8338083 0.047859848 13549754
-0.023004916 0.83364308 0.048161305 13549754
-0.02295256 0.83347774 0.048462763 13483961
-0.022900209 0.83331245 0.048764214 13418168
-0.022956051 0.83403069 0.049549073 13483961
-0.022903942 0.83386612 0.049849115 13483961
-0.022851832 0.83370161 0.05014915 13483961
-0.022799727 0.8335371 0.050449193 13483961
-0.022747617 0.83337259 0.050749235 13353145
-0.022695512 0.83320808 0.05104927 13353145
-0.022753071 0.83393168 0.051824212 13353145
-0.022701211 0.83376801 0.052122839 13353145
-0.022649348 0.83360422 0.052421466 13353145
-0.022597486 0.83344048 0.052720085 13353145
-0.022086216 0.83453584 0.061195888 13156280
-0.022035582 0.83437598 0.061487436 13090487
-0.02198495 0.83421612 0.061778978 13221821
-0.022050627 0.83496535 0.062507227 10590101
-0.022000238 0.83480626 0.06279736 9014664
-0.021949852 0.83464718 0.063087493 15396585
-0.021899465 0.83448809 0.063377626 10726312
-0.021849077 0.83432901 0.063667759 9015694
-0.021798691 0.83416992 0.063957892 12827317
-0.021866083 0.83492458 0.064676225 13090489
-0.021815941 0.83476627 0.064964943 13222071
-0.0217658 0.83460796 0.06525366 13222071
-0.021715658 0.83444971 0.06554237 13287864
-0.021665517 0.8342914 0.065831095 13222071
-0.021615375 0.83413309 0.066119805 13418936
-0.021565234 0.83397478 0.06640853 13353143
-0.021515092 0.83381647 0.066697247 13353143
-0.021464951 0.83365816 0.066985965 13353143
-0.021534797 0.83442056 0.067690141 13353143
-0.021484902 0.83426309 0.067977443 13287350
-0.021435006 0.83410555 0.068264745 13353143
-0.021385111 0.83394802 0.068552047 13353143
-0.021335214 0.83379048 0.068839349 13418938
-0.02128532 0.83363295 0.069126651 13418938
-0.021356892 0.83440077 0.069820926 13353145
-0.021307241 0.83424401 0.070106812 13353145
-0.021257592 0.83408725 0.070392698 13156280
-0.021207942 0.83393055 0.070678584 13222073
-0.021158293 0.83377379 0.070964471 13287866
-0.021108642 0.83361703 0.071250357 13222073
-0.021058992 0.83346027 0.071536243 13222073
-0.021009343 0.83330351 0.071822129 13222073
-0.020959694 0.83314675 0.072108015 13222073
-0.021033723 0.83392239 0.072788142 13156280
-0.020984318 0.8337664 0.073072612 13353145
-0.020934915 0.83361042 0.07335709 13287352
-0.02088551 0.83345449 0.073641554 13353661
-0.020836107 0.83329844 0.073926032 13814212
-0.020786703 0.83314252 0.074210502 13616833
-0.0207373 0.83298653 0.074494973 13287868
-0.020562494 0.83189273 0.074395105 12759975
-0.020512845 0.83173597 0.074680999 11904666
-0.020463195 0.83157921 0.074966885 11903635
-0.020413546 0.83142245 0.075252771 11903635
-0.020363895 0.83126569 0.075538658 12034705
-0.026317988 0.83528829 0.015633464 2106918
-0.026262194 0.83511215 0.015954733 2106918
-0.0262064 0.83493602 0.016276002 2172711
-0.026150603 0.83475983 0.016597271 2172711
-0.026094809 0.8345837 0.01691854 2304297
-0.026039016 0.83440751 0.017239809 3088669
-0.025983222 0.83423138 0.017561078 7496800
-0.025927428 0.83405519 0.017882347 13022899
-0.025871631 0.83387905 0.018203616 13286071
-0.025815837 0.83370292 0.018524885 13549243
-0.025760043 0.83352673 0.018846154 13680829
-0.025704246 0.8333506 0.019167423 13746622
-0.025648452 0.83317447 0.019488692 13680829
-0.025592659 0.83299828 0.019809961 13615549
-0.02562654 0.83365256 0.020712271 13549756
-0.025570989 0.83347714 0.021032125 13483963
-0.025515441 0.83330178 0.021351978 13483963
-0.025459893 0.83312643 0.021671832 13418170
-0.025404342 0.83295107 0.021991685 13418170
-0.025348794 0.83277565 0.022311538 13483963
-0.025384396 0.83343536 0.023203954 13483963
-0.025329091 0.83326077 0.023522392 13483963
-0.025273789 0.83308613 0.02384083 13483963
-0.025310371 0.833749 0.024727583 13483961
-0.025255311 0.83357513 0.025044605 13483961
-0.025200255 0.83340132 0.025361627 13483961
-0.025237825 0.83406723 0.026242718 13483961
-0.025183015 0.83389419 0.026558325 13483961
-0.025128201 0.83372116 0.026873931 13483961
-0.02507339 0.83354807 0.027189538 13549754
-0.02501858 0.83337504 0.027505144 13483961
-0.024963766 0.833202 0.027820751 13483961
-0.025003057 0.83387333 0.028691925 13549754
-0.024948489 0.83370107 0.029006116 13549754
-0.024893925 0.83352876 0.029320307 13615547
-0.02483936 0.8333565 0.029634498 13483961
-0.024784792 0.83318424 0.029948689 13483961
-0.024730228 0.83301198 0.030262887 13483961
-0.02477124 0.83368874 0.03112416 13483961
-0.024716917 0.83351725 0.031436935 13549754
-0.024662599 0.83334577 0.03174971 13483961
-0.024608281 0.83317423 0.032062486 13549754
-0.024553958 0.83300275 0.032375269 13483961
-0.02449964 0.83283126 0.032688044 13483961
-0.024542365 0.8335135 0.033539414 13549754
-0.024488289 0.83334273 0.033850782 13483959
-0.024434216 0.83317202 0.034162141 13549752
-0.024477929 0.8338573 0.035007842 13483959
-0.024424098 0.83368737 0.035317793 13549752
-0.024370272 0.83351743 0.035627738 13483959
-0.024414968 0.83420587 0.036467783 13483959
-0.024361383 0.83403671 0.036776312 13549752
-0.024307802 0.83386755 0.037084848 13549752
-0.024254218 0.83369833 0.037393376 13549752
-0.024200637 0.83352917 0.037701905 13483959
-0.024147052 0.83336002 0.038010441 13483961
-0.024093471 0.83319086 0.038318969 13549754
-0.024039891 0.83302164 0.038627498 13549754
-0.023986306 0.83285248 0.038936034 13549754
-0.024033461 0.83354867 0.039761923 13549754
-0.023980122 0.83338028 0.040069036 13483961
-0.023926787 0.8332119 0.040376157 13483961
