# .PCD v0.7 - Point Cloud Data file format
VERSION 0.7
FIELDS x y z rgb
SIZE 4 4 4 4
TYPE F F F U
COUNT 1 1 1 1
WIDTH 1070
HEIGHT 1
VIEWPOINT 0 0 0 1 0 0 0
POINTS 1070
DATA ascii
-0.027372688 0.83097029 0.047717601 12565941
-0.027121581 0.83119154 0.047713816 12631734
-0.026870474 0.83141279 0.047710046 12631734
-0.026619367 0.83163404 0.047706276 12828859
-0.02636826 0.8318553 0.047702491 12828859
-0.026117153 0.83207655 0.047698721 12894652
-0.025866047 0.8322978 0.047694951 12960445
-0.025614932 0.83251905 0.047691166 13026238
-0.025363825 0.83274031 0.047687396 13092031
-0.025112718 0.83296156 0.047683626 13158596
-0.024861611 0.83318281 0.047679842 13158596
-0.024610505 0.83340406 0.047676072 13027010
-0.024359398 0.83362532 0.047672302 13158596
-0.024108291 0.83384657 0.047668517 13290182
-0.023857176 0.83406782 0.047664747 13224389
-0.023606077 0.83428907 0.047660962 13355205
-0.022740796 0.83401334 0.047001004 13420998
-0.02248846 0.83423567 0.046997219 13355205
-0.022236124 0.83445799 0.04699342 13289412
-0.021983802 0.83468032 0.04698962 13289412
-0.021731466 0.83490264 0.046985835 13289412
-0.02147913 0.83512497 0.046982035 13289412
-0.021226794 0.83534735 0.04697825 13157826
-0.020974457 0.83556968 0.04697445 13157826
-0.028180398 0.82900017 0.047377646 11840931
-0.027928062 0.8292225 0.047373861 11972521
-0.027675733 0.82944483 0.047370061 12235693
-0.028014839 0.83018529 0.048020676 12302256
-0.027763724 0.83040655 0.048016906 12433842
-0.027512617 0.8306278 0.048013121 12565428
-0.02726151 0.83084905 0.048009351 12565428
-0.027010404 0.8310703 0.048005566 12697527
-0.026759297 0.83129156 0.048001796 12697527
-0.02650819 0.83151281 0.047998011 12828859
-0.026257083 0.83173406 0.047994241 12894652
-0.026005968 0.83195531 0.047990471 12894652
-0.025754862 0.83217657 0.047986686 12960445
-0.025503755 0.83239782 0.047982916 13026238
-0.025252648 0.83261907 0.047979146 13157824
-0.025001541 0.83284032 0.047975361 13158594
-0.024750434 0.83306158 0.047971591 13158594
-0.024499327 0.83328289 0.047967821 13158596
-0.024248213 0.83350414 0.047964036 13158596
-0.023997113 0.83372539 0.047960266 13224389
-0.023745999 0.83394665 0.047956496 13224389
-0.023494899 0.8341679 0.047952712 13224389
-0.022629067 0.83389151 0.047294185 13224389
-0.022376746 0.83411384 0.047290385 13355205
-0.02212441 0.83433622 0.0472866 13289412
-0.021872073 0.83455855 0.0472828 13289412
-0.021619737 0.83478087 0.047279 13289412
-0.021367401 0.8350032 0.047275215 13289412
-0.02111508 0.83522552 0.047271416 13355205
-0.020862743 0.83544791 0.047267616 13157826
-0.028068677 0.8288784 0.047670811 11906211
-0.02781634 0.82910073 0.047667027 11906726
-0.027564012 0.82932305 0.047663227 12169898
-0.027903654 0.83006412 0.048312426 12302256
-0.027652547 0.83028537 0.048308641 12433842
-0.02740144 0.83050662 0.048304871 12565428
-0.027150333 0.83072788 0.048301101 12565428
-0.026899226 0.83094913 0.048297316 12762807
-0.026648112 0.83117038 0.048293546 12894393
-0.026397005 0.83139163 0.048289776 12894139
-0.026145898 0.83161288 0.048285991 12959932
-0.025894791 0.83183414 0.048282221 12894652
-0.025643684 0.83205539 0.048278451 12960445
-0.025392577 0.83227664 0.048274666 13026238
-0.02514147 0.83249789 0.048270896 13092031
-0.024890356 0.83271915 0.048267111 13289410
-0.024639249 0.8329404 0.048263341 13289410
-0.024388142 0.83316165 0.048259556 13289410
-0.024137035 0.8333829 0.048255786 13289410
-0.023885921 0.83360416 0.048252016 13355203
-0.023634821 0.83382541 0.048248231 13355203
-0.023383707 0.83404666 0.048244461 13355203
-0.022517353 0.83376974 0.04758735 13355203
-0.022265017 0.83399206 0.04758355 13355203
-0.022012681 0.83421439 0.047579765 13355203
-0.021760345 0.83443677 0.047575966 13289410
-0.021508023 0.8346591 0.047572166 13289410
-0.021255687 0.83488142 0.047568381 13289410
-0.021003351 0.83510375 0.047564596 13289410
-0.020751014 0.83532608 0.047560796 13157824
-0.029048018 0.82883662 0.04862304 11445660
-0.028796911 0.82905787 0.04861927 11774625
-0.028545797 0.82927912 0.048615485 11906211
-0.02829469 0.82950038 0.048611715 11972519
-0.028043583 0.82972163 0.048607945 12169898
-0.027792476 0.82994288 0.048604161 12302256
-0.027541369 0.83016413 0.048600391 12433842
-0.027290262 0.83038539 0.048596621 12565428
-0.027039155 0.83060664 0.048592836 12565428
-0.027385466 0.83134288 0.049240708 12696760
-0.027135581 0.83156306 0.049236938 12894139
-0.026885703 0.83178324 0.049233183 12894652
-0.026635818 0.83200341 0.049229428 12894652
-0.026385933 0.83222359 0.049225673 12894652
-0.026136056 0.83244377 0.049221918 12960445
-0.025886171 0.83266389 0.049218163 12960445
-0.025636286 0.83288407 0.049214393 13092031
-0.025386401 0.83310425 0.049210638 13157824
-0.025136515 0.83332443 0.049206883 13289410
-0.024886638 0.83354461 0.049203128 13289412
-0.024636753 0.83376479 0.049199373 13355205
-0.024386868 0.83398497 0.049195617 13355205
-0.02413699 0.83420515 0.049191862 13420998
-0.023887098 0.83442533 0.049188107 13355205
-0.02302143 0.83414674 0.048532426 13355205
-0.022770315 0.83436799 0.048528656 13355205
-0.022519216 0.83458924 0.048524886 13355205
-0.022268102 0.8348105 0.048521101 13289412
-0.022016987 0.83503175 0.048517331 13355205
-0.021143958 0.83475959 0.047861546 13289412
-0.020891637 0.83498192 0.047857761 13355205
-0.0206393 0.8352043 0.047853962 13157826
-0.028936833 0.82871544 0.04891479 11445660
-0.028685726 0.8289367 0.04891102 11708832
-0.028434619 0.82915795 0.04890725 11906211
-0.028183512 0.8293792 0.048903465 11972519
-0.027932405 0.82960045 0.048899695 12235691
-0.027681291 0.82982171 0.048895925 12302256
-0.027430192 0.83004296 0.04889214 12433842
-0.027179077 0.83026421 0.04888837 12565428
-0.02692797 0.83048546 0.0488846 12565428
-0.027274825 0.8312223 0.049531028 12696760
-0.027024947 0.83144242 0.049527273 12894139
-0.026775062 0.8316626 0.049523517 12894652
-0.026525177 0.83188277 0.049519747 12894652
-0.026275292 0.83210295 0.049515992 12894652
-0.026025414 0.83232313 0.049512237 12960445
-0.025775529 0.83254331 0.049508482 12960445
-0.025525644 0.83276349 0.049504727 13092031
-0.025275759 0.83298367 0.049500972 13092033
-0.025025882 0.83320385 0.049497217 13092033
-0.024775997 0.83342403 0.049493462 13157826
-0.024526112 0.83364421 0.049489707 13355205
-0.024276234 0.83386439 0.049485937 13355205
-0.024026349 0.83408451 0.049482182 13420998
-0.023776472 0.83430469 0.049478427 13355205
-0.022910237 0.8340255 0.048824191 13355205
-0.022659138 0.83424675 0.048820406 13355205
-0.022408023 0.83446801 0.048816636 13355205
-0.022156924 0.83468926 0.048812866 13355205
-0.02190581 0.83491057 0.048809081 13355205
-0.021032244 0.83463782 0.048154727 13289412
-0.020779908 0.83486015 0.048150942 13289412
-0.020527571 0.83508247 0.048147142 13157826
-0.028825656 0.82859421 0.04920654 11445660
-0.028574549 0.82881546 0.04920277 11708832
-0.028323442 0.82903671 0.049198985 11972004
-0.028072335 0.82925797 0.049195215 11972519
-0.02782122 0.82947922 0.049191445 12235691
-0.027570114 0.82970047 0.04918766 12302256
-0.027319007 0.82992172 0.04918389 12499635
-0.0270679 0.83014297 0.04918012 12500148
-0.026816793 0.83036423 0.049176335 12500148
-0.027164191 0.83110166 0.049821347 12631480
-0.026914306 0.83132184 0.049817592 12828859
-0.026664421 0.83154202 0.049813837 12828859
-0.026414543 0.83176219 0.049810082 12894652
-0.026164658 0.83198237 0.049806327 12894652
-0.025914773 0.83220255 0.049802572 12894652
-0.025664896 0.83242273 0.049798816 12960445
-0.025415011 0.83264291 0.049795061 13026238
-0.025165126 0.83286303 0.049791291 13092033
-0.024915241 0.83308321 0.049787536 13092033
-0.024665363 0.83330339 0.049783781 13289412
-0.024415478 0.83352357 0.049780026 13355205
-0.024165601 0.83374375 0.049776271 13355205
-0.023915708 0.83396393 0.049772516 13355205
-0.02366583 0.83418411 0.049768746 13355205
-0.02279906 0.83390433 0.049115926 13355205
-0.02254796 0.83412558 0.049112156 13420998
-0.022296846 0.83434683 0.049108386 13420998
-0.022045746 0.83456808 0.049104601 13355205
-0.021794632 0.83478934 0.049100831 13355205
-0.020920515 0.83451605 0.048447907 13289412
-0.020668179 0.83473837 0.048444107 13289412
-0.020415857 0.8349607 0.048440307 13092033
-0.0293025 0.82899946 0.050145492 11445660
-0.029052615 0.82921964 0.050141737 11511966
-0.028802738 0.82943982 0.050137982 11906724
-0.028552853 0.82966 0.050134227 11841703
-0.028302968 0.82988018 0.050130457 12104875
-0.028053083 0.83010036 0.050126702 12236463
-0.027803205 0.83032048 0.050122947 12433842
-0.02755332 0.83054066 0.050119191 12500148
-0.027303435 0.83076084 0.050115436 12500148
-0.02705355 0.83098102 0.050111681 12565687
-0.026803672 0.8312012 0.050107926 12697273
-0.026553787 0.83142138 0.050104171 12828859
-0.026303902 0.83164155 0.050100416 12894652
-0.026054017 0.83186173 0.050096661 12894652
-0.02580414 0.83208191 0.050092891 12960445
-0.026160657 0.83281237 0.050736606 12960445
-0.025911994 0.83303148 0.050732881 13092031
-0.025663339 0.83325058 0.050729141 13092033
-0.025414683 0.83346963 0.0507254 13092033
-0.02516602 0.83368874 0.05072166 13289412
-0.024917364 0.83390784 0.05071792 13355205
-0.024054959 0.83362317 0.05006659 13420998
-0.023805067 0.83384335 0.050062835 13355205
-0.023555189 0.83406353 0.05005908 13355205
-0.023305312 0.83428365 0.050055325 13355205
-0.023055419 0.83450383 0.05005157 13420998
-0.022805542 0.83472401 0.050047815 13420998
-0.021934554 0.83444691 0.049396351 13355205
-0.021683455 0.83466816 0.049392581 13355205
-0.02143234 0.83488941 0.049388796 13289412
-0.021181241 0.83511066 0.049385026 13289412
-0.020930126 0.83533192 0.049381256 13157826
-0.029191867 0.82887888 0.050435811 11445660
-0.028941981 0.829099 0.050432056 11643554
-0.028692096 0.82931918 0.050428301 11840933
-0.028442211 0.82953936 0.050424546 11841703
-0.028192334 0.82975954 0.050420791 12104875
-0.027942449 0.82997972 0.050417036 12236461
-0.027692564 0.8301999 0.050413281 12302254
-0.027442679 0.83042008 0.050409526 12434355
-0.027192801 0.83064026 0.050405756 12500148
-0.026942916 0.83086044 0.050402001 12565687
-0.026693031 0.83108062 0.050398245 12631480
-0.026443146 0.8313008 0.05039449 12697273
-0.026193269 0.83152097 0.050390735 12828859
-0.025943384 0.83174109 0.05038698 12894652
-0.025693499 0.83196127 0.05038321 12960445
-0.02605056 0.83269233 0.05102551 12960445
-0.025801897 0.83291143 0.051021785 13026238
-0.025553241 0.83313054 0.051018029 13092033
-0.025304586 0.83334965 0.051014304 13157826
-0.025055923 0.83356875 0.051010564 13355205
-0.024807267 0.8337878 0.051006824 13355205
-0.023944318 0.83350253 0.050356925 13355205
-0.023694441 0.83372271 0.050353169 13355205
-0.023444548 0.83394289 0.050349399 13355205
-0.023194671 0.83416307 0.050345644 13355205
-0.022944793 0.83438325 0.050341889 13355205
-0.022694901 0.83460343 0.050338134 13420998
-0.021823376 0.83432567 0.049688101 13355205
-0.021572277 0.83454692 0.049684331 13355205
-0.021321163 0.83476818 0.049680561 13289412
-0.021070048 0.83498943 0.049676776 13289412
-0.020818949 0.83521068 0.049673006 13157826
-0.029081225 0.82875824 0.050726146 11445660
-0.02883134 0.82897842 0.05072239 11643554
-0.028581455 0.8291986 0.050718635 11840933
-0.028331578 0.82941878 0.05071488 11841703
-0.028081693 0.82963896 0.050711125 12039082
-0.027831808 0.82985914 0.050707355 12236461
-0.02758193 0.83007932 0.0507036 12302254
-0.027332045 0.8302995 0.050699845 12434355
-0.02708216 0.83051962 0.05069609 12500148
-0.026832275 0.8307398 0.050692335 12565941
-0.026582398 0.83095998 0.05068858 12631734
-0.026332512 0.83118016 0.05068481 12697273
-0.026082627 0.83140033 0.050681055 12828859
-0.025832742 0.83162051 0.050677299 12894652
-0.025582865 0.83184069 0.050673544 12960445
-0.025940463 0.83257234 0.051314414 12960445
-0.025691807 0.83279145 0.051310673 13026238
-0.025443144 0.83301049 0.051306933 13157826
-0.025194488 0.8332296 0.051303208 13157826
-0.024945833 0.83344871 0.051299468 13289412
-0.02469717 0.83366781 0.051295727 13355205
-0.023833677 0.83338189 0.050647244 13355205
-0.0235838 0.83360207 0.050643489 13355205
-0.023333907 0.83382225 0.050639734 13355205
-0.02308403 0.83404243 0.050635979 13355205
-0.022834152 0.83426261 0.050632223 13355205
-0.02258426 0.83448279 0.050628453 13355205
-0.021712199 0.83420449 0.049979851 13355205
-0.021461099 0.83442575 0.049976081 13355205
-0.021209985 0.834647 0.049972296 13355205
-0.020958871 0.83486825 0.049968526 13289412
-0.020707771 0.8350895 0.049964756 13157826
-0.028970592 0.8286376 0.05101648 11445660
-0.028720707 0.82885778 0.05101271 11643552
-0.028470822 0.82907796 0.051008955 11840931
-0.028220937 0.82929814 0.0510052 11841703
-0.027971059 0.82951832 0.051001444 12039082
-0.027721174 0.8297385 0.050997689 12236461
-0.028068289 0.83048046 0.051636964 12302254
-0.027819633 0.83069956 0.051633224 12368560
-0.027570978 0.83091861 0.051629484 12434353
-0.027322315 0.83113772 0.051625758 12565941
-0.027073659 0.83135682 0.051622018 12631734
-0.026825003 0.83157593 0.051618278 12697273
-0.02657634 0.83179504 0.051614538 12828859
-0.026327685 0.83201408 0.051610798 12894652
-0.026079029 0.83223319 0.051607057 12960445
-0.025830366 0.8324523 0.051603317 12960445
-0.02558171 0.8326714 0.051599577 13026238
-0.025333054 0.83289051 0.051595837 13157826
-0.025084391 0.83310962 0.051592097 13157826
-0.024835736 0.83332872 0.051588356 13289412
-0.02458708 0.83354777 0.051584631 13355205
-0.024338417 0.83376688 0.051580891 13355205
-0.024089769 0.83398598 0.051577151 13355205
-0.023841098 0.83420509 0.051573411 13355205
-0.023592442 0.83442414 0.05156967 13355205
-0.023343787 0.83464324 0.05156593 13355205
-0.023095131 0.83486235 0.05156219 13355205
-0.022223741 0.83458233 0.050915033 13355205
-0.021973863 0.83480251 0.050911278 13355205
-0.021723971 0.83502269 0.050907522 13355205
-0.021474093 0.83524287 0.050903767 13289412
-0.021224216 0.83546305 0.050899997 13289412
-0.020974323 0.83568323 0.050896242 13157826
-0.028859951 0.82851702 0.051306799 11380380
-0.028610066 0.8287372 0.051303044 11709345
-0.028360181 0.82895738 0.051299289 11840931
-0.028110303 0.82917756 0.051295534 11841703
-0.027860418 0.82939774 0.051291764 12039082
-0.027610533 0.82961786 0.051288009 12236461
-0.027958199 0.83036041 0.051925868 12302254
-0.027709536 0.83057952 0.051922128 12368560
-0.027460881 0.83079863 0.051918387 12434353
-0.027212217 0.83101773 0.051914662 12565939
-0.026963562 0.83123678 0.051910922 12631732
-0.026714906 0.83145589 0.051907182 12697527
-0.02646625 0.83167499 0.051903442 12829113
-0.026217587 0.8318941 0.051899701 12894652
-0.025968932 0.83211321 0.051895961 12960445
-0.025720268 0.83233225 0.051892221 13026238
-0.025471613 0.83255136 0.051888481 13092031
-0.025222957 0.83277047 0.051884741 13157824
-0.024974301 0.83298957 0.051881015 13157824
-0.024725638 0.83320868 0.051877275 13289412
-0.024476983 0.83342779 0.051873535 13355205
-0.02422832 0.83364689 0.051869795 13355205
-0.023979664 0.83386594 0.051866055 13355205
-0.023731008 0.83408505 0.051862314 13420998
-0.023482352 0.83430415 0.051858574 13420998
-0.023233697 0.83452326 0.051854834 13355205
-0.022985026 0.83474237 0.051851094 13355205
-0.022113115 0.83446175 0.051205352 13355205
-0.021863222 0.83468193 0.051201597 13355205
-0.021613345 0.83490211 0.051197842 13355205
-0.021363452 0.83512229 0.051194087 13289412
-0.021113575 0.83534247 0.051190332 13289412
-0.020863697 0.83556265 0.051186576 13157826
-0.028749309 0.82839638 0.051597118 11380380
-0.028499424 0.82861656 0.051593363 11709345
-0.028249547 0.82883674 0.051589608 11840931
-0.027999662 0.82905692 0.051585853 11775910
-0.027749777 0.8292771 0.051582098 12039082
-0.027499899 0.82949728 0.051578343 12170668
-0.027848102 0.83024037 0.052214772 12302254
-0.027599439 0.83045948 0.052211031 12433840
-0.027350783 0.83067858 0.052207291 12499633
-0.027102128 0.83089769 0.052203566 12565941
-0.026853465 0.8311168 0.052199826 12631734
-0.026604809 0.8313359 0.052196085 12697527
-0.026356153 0.83155501 0.052192345 12829113
-0.026107498 0.83177406 0.052188605 12828859
-0.025858834 0.83199316 0.052184865 12960445
-0.025610179 0.83221227 0.052181125 13026238
-0.025361516 0.83243138 0.052177384 13157824
-0.02511286 0.83265042 0.052173644 13157824
-0.024864204 0.83286953 0.052169904 13157824
-0.024615541 0.83308864 0.052166164 13157826
-0.024366885 0.83330774 0.052162439 13289412
-0.02411823 0.83352685 0.052158698 13355205
-0.023869574 0.83374596 0.052154958 13289412
-0.023620918 0.83396506 0.052151218 13420998
-0.023372248 0.83418411 0.052147478 13420998
-0.023123592 0.83440322 0.052143738 13355205
-0.022874936 0.83462232 0.052139997 13355205
-0.022002473 0.83434117 0.051495686 13355205
-0.021752581 0.83456135 0.051491931 13355205
-0.021502703 0.83478153 0.051488176 13355205
-0.021252811 0.83500165 0.051484406 13289412
-0.021002933 0.83522183 0.051480651 13289412
-0.020753056 0.83544201 0.051476896 13157826
-0.028638676 0.8282758 0.051887453 11380380
-0.028388791 0.82849598 0.051883698 11709347
-0.028138906 0.82871616 0.051879942 11840933
-0.028483979 0.82946306 0.052514896 11775910
-0.028235324 0.82968217 0.052511156 11973289
-0.027986661 0.82990128 0.052507415 12170668
-0.027738005 0.83012038 0.052503675 12302254
-0.027489349 0.83033949 0.052499935 12433840
-0.027240694 0.83055854 0.052496195 12499633
-0.027594335 0.83129793 0.053131282 12565941
-0.027346902 0.83151597 0.053127557 12631734
-0.027099468 0.831734 0.053123847 12697527
-0.026852034 0.83195198 0.053120121 12829113
-0.0266046 0.83217001 0.053116411 12894652
-0.026357166 0.83238804 0.053112686 12894652
-0.026109733 0.83260608 0.05310896 13026238
-0.025862299 0.83282405 0.053105235 13092031
-0.025614865 0.83304209 0.053101525 13157824
-0.025367439 0.83326012 0.053097799 13157824
-0.025120005 0.83347809 0.053094089 13157826
-0.024872571 0.83369613 0.053090364 13289412
-0.024008125 0.83340681 0.052447602 13355205
-0.023759469 0.83362591 0.052443862 13289412
-0.023510814 0.83384502 0.052440122 13420998
-0.023262158 0.83406413 0.052436382 13420998
-0.023013502 0.83428323 0.052432641 13355205
-0.022764847 0.83450228 0.052428901 13355205
-0.022516191 0.83472139 0.052425161 13355205
-0.02226752 0.83494049 0.052421421 13355205
-0.022018865 0.8351596 0.052417681 13355205
-0.021142185 0.83488107 0.05177474 13355205
-0.020892292 0.83510125 0.051770985 13289412
-0.020642415 0.83532143 0.05176723 13157826
-0.028528035 0.82815516 0.052177772 11380380
-0.028278157 0.82837534 0.052174017 11643554
-0.028028272 0.82859552 0.052170262 11775140
-0.028373882 0.82934308 0.0528038 11841703
-0.028125226 0.82956219 0.052800059 11973289
-0.027876571 0.82978129 0.052796319 12170668
-0.027627908 0.83000034 0.052792579 12236461
-0.027379252 0.83021945 0.052788839 12433842
-0.027130596 0.83043855 0.052785099 12499635
-0.027484782 0.83117855 0.05341877 12565941
-0.027237348 0.83139652 0.053415045 12631734
-0.026989914 0.83161455 0.053411335 12631734
-0.026742481 0.83183259 0.053407609 12829113
-0.026495047 0.83205056 0.053403884 12894652
-0.026247613 0.8322686 0.053400159 12894652
-0.026000179 0.83248663 0.053396448 12960445
-0.025752746 0.83270466 0.053392723 13092031
-0.025505312 0.83292264 0.053389013 13027008
-0.025257885 0.83314067 0.053385288 13027008
-0.025010452 0.83335871 0.053381562 13027010
-0.024763018 0.83357668 0.053377837 13158596
-0.023898035 0.83328682 0.052736491 13224389
-0.02364938 0.83350587 0.052732766 13158596
-0.023400724 0.83372498 0.052729025 13290182
-0.023152068 0.83394408 0.052725285 13290182
-0.022903413 0.83416319 0.052721545 13355205
-0.022654742 0.8343823 0.052717805 13355205
-0.022406086 0.8346014 0.052714065 13420998
-0.022157431 0.83482051 0.052710325 13420998
-0.021908775 0.83503956 0.052706584 13355205
-0.021031544 0.83476043 0.05206506 13355205
-0.020781666 0.83498061 0.052061304 13289412
-0.020531774 0.83520079 0.052057549 13157826
-0.028417401 0.82803458 0.052468091 11380380
-0.028167516 0.82825476 0.052464336 11643554
-0.027917631 0.82847494 0.052460581 11775140
-0.028263792 0.82922304 0.053092703 11775910
-0.028015129 0.82944214 0.053088963 11973289
-0.027766474 0.82966125 0.053085223 12170668
-0.027517818 0.82988036 0.053081483 12236461
-0.027269155 0.83009946 0.053077742 12433842
-0.027020499 0.83031851 0.053074002 12499635
-0.027375229 0.8310591 0.053706244 12565941
-0.027127795 0.83127713 0.053702518 12631734
-0.026880361 0.83149511 0.053698808 12631480
-0.026632927 0.83171314 0.053695083 12697273
-0.026385494 0.83193117 0.053691357 12894652
-0.026138067 0.83214915 0.053687647 12960445
-0.025890633 0.83236718 0.053683922 12895422
-0.0256432 0.83258522 0.053680196 12961215
-0.025395766 0.83280325 0.053676486 13027008
-0.025148332 0.83302122 0.053672761 13027008
-0.024900898 0.83323926 0.053669035 13158594
-0.024653465 0.83345729 0.053665325 13158594
-0.023787946 0.83316678 0.053025395 13224389
-0.02353929 0.83338588 0.053021669 13224389
-0.023290619 0.83360499 0.053017929 13224389
-0.023041964 0.83382404 0.053014189 13290182
-0.022793308 0.83404315 0.053010449 13224389
-0.022544652 0.83426225 0.053006709 13224389
-0.022295997 0.83448136 0.053002968 13290182
-0.022047341 0.83470047 0.052999228 13290182
-0.02179867 0.83491957 0.052995488 13355205
-0.020920902 0.83463985 0.052355379 13355205
-0.020671025 0.83486003 0.052351624 13289412
-0.020421147 0.83508021 0.052347869 13157826
-0.02889967 0.82844573 0.053392813 11380380
-0.028651007 0.82866484 0.053389072 11643554
-0.028402351 0.82888395 0.053385347 11775140
-0.028153695 0.82910299 0.053381607 11775910
-0.027905032 0.8293221 0.053377867 11973289
-0.027656376 0.82954121 0.053374127 12170668
-0.028007977 0.83028561 0.054004878 12302254
-0.027760543 0.83050364 0.054001167 12368562
-0.027513109 0.83072162 0.053997442 12434355
-0.027265675 0.83093965 0.053993732 12565941
-0.027018242 0.83115768 0.053990006 12631734
-0.026770808 0.83137572 0.053986281 12631480
-0.026523374 0.83159369 0.053982556 12697273
-0.02627594 0.83181173 0.053978845 12894652
-0.026028514 0.83202976 0.05397512 12960445
-0.02578108 0.83224773 0.05397141 12895422
-0.025533646 0.83246577 0.053967685 12961215
-0.025286213 0.8326838 0.053963959 13027008
-0.025038779 0.83290184 0.053960234 13027008
-0.024791345 0.83311981 0.053956524 13158594
-0.024543911 0.83333784 0.053952798 13158594
-0.024296477 0.83355588 0.053949088 13224389
-0.024049044 0.83377385 0.053945363 13224389
-0.02380161 0.83399189 0.053941637 13224389
-0.023554176 0.83420992 0.053937927 13224389
-0.023306742 0.83442795 0.053934202 13224389
-0.023059309 0.83464593 0.053930476 13224389
-0.022185892 0.83436131 0.053291872 13290182
-0.021937236 0.83458042 0.053288132 13290182
-0.021688581 0.83479953 0.053284392 13355205
-0.020810261 0.83451921 0.052645713 13355205
-0.020560384 0.83473939 0.052641958 13289412
-0.020310506 0.83495957 0.052638203 13157826
-0.028789572 0.82832575 0.053681716 11446173
-0.028540917 0.8285448 0.053677976 11643554
-0.028292254 0.8287639 0.053674251 11775140
-0.028043598 0.82898301 0.053670511 11775910
-0.027794942 0.82920212 0.05366677 11973289
-0.027546279 0.82942122 0.05366303 12170670
-0.027898423 0.83016616 0.054292366 12302256
-0.02765099 0.83038419 0.054288641 12368562
-0.027403556 0.83060223 0.05428493 12434355
-0.027156122 0.8308202 0.054281205 12565687
-0.026908688 0.83103824 0.05427748 12631480
-0.026661254 0.83125627 0.054273769 12631480
-0.026413821 0.8314743 0.054270044 12697273
-0.026166387 0.83169228 0.054266319 12894652
-0.025918961 0.83191031 0.054262608 12960445
-0.025671527 0.83212835 0.054258883 12895422
-0.025424093 0.83234632 0.054255158 12961215
-0.025176659 0.83256435 0.054251447 13027008
-0.024929225 0.83278239 0.054247722 13027008
-0.024681792 0.83300042 0.054243997 13158596
-0.024434358 0.83321846 0.054240286 13224389
-0.024186924 0.83343643 0.054236561 13224389
-0.02393949 0.83365446 0.054232836 13224389
-0.023692057 0.83387244 0.054229125 13224389
-0.023444623 0.83409047 0.0542254 13290182
-0.023197189 0.83430851 0.054221675 13224389
-0.022949755 0.83452654 0.054217964 13224389
-0.022075802 0.83424133 0.053580776 13290182
-0.021827146 0.83446044 0.053577036 13290182
-0.021578491 0.83467948 0.053573295 13224389
-0.020699635 0.83439863 0.052936047 13224389
-0.020449743 0.83461881 0.052932277 13289412
-0.020199865 0.83483899 0.052928522 13289412
-0.028679475 0.8282057 0.05397062 11446173
-0.02843082 0.82842481 0.05396688 11643554
-0.028182164 0.82864392 0.05396314 11775140
-0.027933501 0.82886297 0.053959399 11775910
-0.027684845 0.82908207 0.053955674 11973289
-0.027436189 0.82930118 0.053951934 12170670
-0.02778887 0.83004677 0.054579839 12302256
-0.027541436 0.83026475 0.054576129 12368562
-0.027294002 0.83048278 0.054572403 12434355
-0.027046569 0.83070081 0.054568678 12565687
-0.026799135 0.83091879 0.054564968 12631480
-0.026551701 0.83113682 0.054561242 12697273
-0.026304267 0.83135486 0.054557517 12697273
-0.026056834 0.83157289 0.054553807 12894652
-0.025809407 0.83179092 0.054550081 12960445
-0.025561973 0.8320089 0.054546356 12895422
-0.02531454 0.83222693 0.054542646 12961215
-0.025067106 0.83244497 0.054538921 13027008
-0.024819672 0.83266294 0.054535195 13158594
-0.024572238 0.83288097 0.054531485 13158596
-0.024324805 0.83309901 0.05452776 13224389
-0.024077371 0.83331704 0.054524034 13224389
-0.023829937 0.83353502 0.054520324 13290182
-0.023582503 0.83375305 0.054516599 13224389
-0.023335069 0.83397108 0.054512873 13224389
-0.023087636 0.83418906 0.054509163 13290182
-0.022840202 0.83440709 0.054505438 13290182
-0.021965712 0.83412129 0.05386968 13290182
-0.021717057 0.83434039 0.053865939 13224389
-0.021468386 0.8345595 0.053862199 13224389
-0.020588994 0.83427799 0.053226367 13224389
-0.020339116 0.83449817 0.053222612 13158596
-0.020089224 0.83471835 0.053218856 13158596
-0.028569385 0.82808566 0.054259524 11446173
-0.028320722 0.82830477 0.054255784 11643554
-0.028072067 0.82852387 0.054252043 11775140
-0.029019825 0.82980359 0.055508658 11906726
-0.028773613 0.83002055 0.055504963 12104105
-0.028527409 0.83023745 0.055501252 12170670
-0.028281197 0.83045441 0.055497557 12302256
-0.028034993 0.83067137 0.055493861 12433842
-0.027788781 0.83088827 0.055490151 12499635
-0.027542576 0.83110523 0.055486456 12565687
-0.027296364 0.83132219 0.055482745 12697273
-0.027050152 0.83153909 0.05547905 12697273
-0.026803948 0.83175606 0.055475339 12697273
-0.026557744 0.83197296 0.055471644 12894652
-0.026311532 0.83218992 0.055467933 12960445
-0.02606532 0.83240688 0.055464238 13026238
-0.025819115 0.83262378 0.055460542 13092031
-0.025572911 0.83284074 0.055456832 13027010
-0.025326699 0.83305764 0.055453137 13158596
-0.025080487 0.8332746 0.055449426 13158596
-0.024834283 0.83349156 0.055445731 13224389
-0.024588078 0.83370847 0.055442035 13224389
-0.024341866 0.83392543 0.055438325 13224389
-0.024095654 0.83414233 0.055434629 13290182
-0.023849443 0.83435929 0.055430919 13224389
-0.022978082 0.83406967 0.054796636 13224389
-0.022730649 0.83428764 0.054792911 13290182
-0.022483215 0.83450568 0.0547892 13290182
-0.022235781 0.83472371 0.054785475 13224389
-0.021988347 0.83494174 0.054781765 13224389
-0.020478353 0.83415741 0.053516686 13224389
-0.020228475 0.83437759 0.053512931 13224389
-0.019978583 0.83459771 0.053509176 13158596
-0.028910816 0.82968473 0.055794716 11906726
-0.028664604 0.8299017 0.05579102 11972519
-0.028418399 0.83011866 0.05578731 12104877
-0.028172188 0.83033556 0.055783615 12302256
-0.027925983 0.83055252 0.055779904 12433842
-0.027679771 0.83076942 0.055776209 12302256
-0.027433559 0.83098638 0.055772513 12499894
-0.027187355 0.83120334 0.055768803 12631480
-0.026941143 0.83142024 0.055765107 12697273
-0.026694939 0.8316372 0.055761397 12697273
-0.026448727 0.8318541 0.055757701 12828859
-0.026202522 0.83207107 0.055753991 12894652
-0.02595631 0.83228803 0.055750296 13026238
-0.025710106 0.83250493 0.0557466 13092031
-0.025463894 0.83272189 0.05574289 13027010
-0.02521769 0.83293879 0.055739194 13158596
-0.024971478 0.83315575 0.055735484 13158596
-0.024725273 0.83337271 0.055731788 13158596
-0.024479061 0.83358961 0.055728078 13290182
-0.024232849 0.83380657 0.055724382 13290182
-0.023986652 0.83402354 0.055720687 13290182
-0.023740441 0.83424044 0.055716977 13224389
-0.022868529 0.83395022 0.055084109 13290182
-0.022621095 0.83416826 0.055080399 13290182
-0.022373661 0.83438623 0.055076674 13290182
-0.022126228 0.83460426 0.055072963 13290182
-0.021878794 0.8348223 0.055069238 13224389
-0.028801806 0.82956594 0.056080773 11906726
-0.028555594 0.82978284 0.056077063 12104105
-0.02830939 0.8299998 0.056073368 12104875
-0.028063178 0.83021677 0.056069672 12236461
-0.027816974 0.83043367 0.056065962 12302256
-0.027570762 0.83065063 0.056062266 12302256
-0.02732455 0.83086753 0.056058556 12434101
-0.027078345 0.83108449 0.05605486 12631480
-0.026832134 0.83130145 0.056051165 12697273
-0.026585929 0.83151835 0.056047454 12697273
-0.026339717 0.83173531 0.056043759 12894652
-0.026093513 0.83195221 0.056040049 12894652
-0.025847301 0.83216918 0.056036353 12960447
-0.025601096 0.83238614 0.056032643 13026240
-0.025354885 0.83260304 0.056028947 13027010
-0.02510868 0.83282 0.056025237 13027010
-0.024862468 0.8330369 0.056021541 13158596
-0.024616264 0.83325386 0.056017846 13158596
-0.024370052 0.83347082 0.056014135 13224389
-0.024123847 0.83368772 0.05601044 13290182
-0.023877636 0.83390468 0.05600673 13290182
-0.023631424 0.83412158 0.056003034 13290182
-0.022758976 0.83383077 0.055371597 13224389
-0.022511542 0.83404881 0.055367872 13290182
-0.022264108 0.83426684 0.055364162 13290182
-0.022016674 0.83448482 0.055360436 13290182
-0.02176924 0.83470285 0.055356711 13290182
-0.028692789 0.82944709 0.056366831 11972519
-0.028446585 0.82966399 0.056363136 12104105
-0.028200373 0.82988095 0.056359425 12104877
-0.027954169 0.83009791 0.05635573 12236463
-0.027707957 0.83031482 0.056352019 12236976
-0.027461752 0.83053178 0.056348324 12236976
-0.02721554 0.83074868 0.056344613 12434101
-0.026969336 0.83096564 0.056340918 12565687
-0.026723124 0.8311826 0.056337222 12631480
-0.027087778 0.83192188 0.056959584 12631480
-0.026842795 0.83213776 0.056955904 12828859
-0.026597805 0.83235359 0.056952223 12894652
-0.026352823 0.83256948 0.056948543 12960447
-0.02610784 0.83278531 0.056944847 13092033
-0.025862858 0.8330012 0.056941167 13158596
-0.025617875 0.83321702 0.056937486 13027010
-0.025372893 0.83343291 0.056933805 13224389
-0.02512791 0.83364874 0.056930125 13224389
-0.024882928 0.83386463 0.056926429 13224389
-0.024014831 0.83356893 0.056296498 13224389
-0.023768619 0.83378583 0.056292802 13290182
-0.023522422 0.83400279 0.056289092 13290182
-0.02327621 0.83421969 0.056285396 13224389
-0.023029998 0.83443666 0.056281686 13290182
-0.022783786 0.83465362 0.05627799 13290182
-0.022537589 0.83487052 0.05627428 13290182
-0.022291377 0.83508748 0.056270584 13224389
-0.02858378 0.82932824 0.056652889 11906726
-0.028337575 0.8295452 0.056649178 11972519
-0.028091364 0.8297621 0.056645483 12039082
-0.027845159 0.82997906 0.056641787 12170668
-0.027598947 0.83019602 0.056638077 12302256
-0.027352743 0.83041292 0.056634381 12433842
-0.027106531 0.83062989 0.056630671 12434355
-0.026860327 0.83084679 0.056626976 12565941
-0.026614115 0.83106375 0.05662328 12631480
-0.026979312 0.83180362 0.057244219 12697273
-0.026734322 0.83201951 0.057240531 12828859
-0.02648934 0.83223534 0.05723685 12894652
-0.026244357 0.83245122 0.05723317 12829631
-0.025999375 0.83266705 0.057229482 12895424
-0.025754392 0.83288294 0.057225801 13027010
-0.02550941 0.83309877 0.057222113 13027010
-0.025264427 0.83331466 0.057218432 13158596
-0.025019437 0.83353049 0.057214752 13158596
-0.024774455 0.83374637 0.057211064 13224389
-0.023905829 0.83345008 0.056582555 13224389
-0.023659617 0.83366698 0.056578845 13224389
-0.023413405 0.83388394 0.056575149 13224389
-0.023167193 0.83410084 0.056571454 13290182
-0.022920996 0.8343178 0.056567743 13290182
-0.022674784 0.83453476 0.056564048 13290182
-0.022428572 0.83475167 0.056560338 13290182
-0.02218236 0.83496863 0.056556642 13290182
-0.02847477 0.82920939 0.056938946 11775910
-0.028830707 0.82995856 0.05755832 11841703
-0.028585725 0.83017439 0.057554632 12039082
-0.028340742 0.83039021 0.057550952 12104875
-0.028095759 0.8306061 0.057547271 12236463
-0.027850777 0.83082199 0.057543583 12302256
-0.027605787 0.83103782 0.057539903 12434355
-0.027360804 0.83125365 0.057536215 12565941
-0.027115822 0.83146954 0.057532534 12631480
-0.026870839 0.83168542 0.057528853 12697273
-0.026625857 0.83190125 0.057525173 12828859
-0.026380874 0.83211708 0.057521485 12828859
-0.026135892 0.83233297 0.057517804 12829631
-0.025890902 0.83254886 0.057514116 12895424
-0.025645927 0.83276469 0.057510436 13027010
-0.025400937 0.83298051 0.057506755 13027010
-0.025155954 0.8331964 0.057503067 13158596
-0.024910972 0.83341229 0.057499386 13158596
-0.024665989 0.83362812 0.057495698 13158596
-0.024421006 0.83384395 0.057492018 13224389
-0.024176031 0.83405983 0.057488337 13224389
-0.023931041 0.83427572 0.057484649 13224389
-0.023686051 0.83449155 0.057480969 13290182
-0.023441076 0.83470738 0.05747728 13290182
-0.023196086 0.83492327 0.0574736 13290182
-0.022319555 0.83463287 0.056846395 13290182
-0.022073358 0.83484977 0.0568427 13290182
-0.028722242 0.8298403 0.057842955 11841703
-0.028477259 0.83005613 0.057839267 12039084
-0.028232276 0.83027202 0.057835586 12104877
-0.027987286 0.83048785 0.057831898 12236463
-0.027742304 0.83070374 0.057828218 12302256
-0.027497321 0.83091956 0.057824537 12434101
-0.027252339 0.83113545 0.057820849 12565687
-0.027007356 0.83135128 0.057817169 12631480
-0.026762374 0.83156717 0.05781348 12697273
-0.026517391 0.831783 0.0578098 12697273
-0.026272401 0.83199888 0.057806119 12828859
-0.026027419 0.83221471 0.057802439 12829631
-0.025782436 0.8324306 0.057798751 12895424
-0.025537454 0.83264643 0.05779507 12961217
-0.025292471 0.83286232 0.057791382 13027010
-0.025047489 0.83307815 0.057787701 13158596
-0.024802506 0.83329403 0.057784021 13158596
-0.024557523 0.83350986 0.057780333 13158596
-0.024312541 0.83372575 0.057776652 13224389
-0.024067551 0.83394158 0.057772964 13290182
-0.023822576 0.83415747 0.057769284 13224389
-0.023577586 0.8343733 0.057765603 13355975
-0.023332611 0.83458918 0.057761915 13355975
-0.023087621 0.83480501 0.057758234 13290182
-0.022210553 0.83451402 0.057132453 13290182
-0.021964341 0.83473098 0.057128757 13290182
-0.028613769 0.82972205 0.058127582 11841705
-0.028368786 0.82993788 0.058123901 12039084
-0.028123803 0.83015376 0.058120221 12104877
-0.027878821 0.83036959 0.058116533 12236209
-0.027633838 0.83058548 0.058112852 12302002
-0.027388856 0.83080131 0.058109164 12434101
-0.027143866 0.8310172 0.058105484 12565687
-0.026898891 0.83123302 0.058101803 12631480
-0.026653901 0.83144891 0.058098115 12697273
-0.026408918 0.83166474 0.058094434 12698045
-0.026163936 0.83188063 0.058090746 12763838
-0.025918953 0.83209646 0.058087066 12829631
-0.025673971 0.83231235 0.058083385 12895424
-0.025428988 0.83252817 0.058079705 12961217
-0.025184005 0.83274406 0.058076017 13027010
-0.024939016 0.83295989 0.058072336 13027010
-0.024694033 0.83317578 0.058068648 13158596
-0.02444905 0.83339161 0.058064967 13158596
-0.024204075 0.83360749 0.058061287 13224389
-0.023959085 0.83382332 0.058057599 13224389
-0.023714095 0.83403921 0.058053918 13224389
-0.02346912 0.83425504 0.05805023 13355975
-0.02322413 0.83447093 0.05804655 13290182
-0.022979155 0.83468676 0.058042869 13290182
-0.022101536 0.83439517 0.05741851 13290182
-0.021855325 0.83461213 0.057414807 13290182
-0.029240251 0.82895625 0.058423266 11381152
-0.028995268 0.82917207 0.058419585 11578531
-0.028750286 0.8293879 0.058415905 11710119
-0.028505303 0.82960379 0.058412217 11841705
-0.02826032 0.82981968 0.058408536 12039084
-0.028015338 0.83003551 0.058404848 12170670
-0.027770355 0.83025134 0.058401167 12105136
-0.027525365 0.83046722 0.058397487 12170929
-0.027280383 0.83068311 0.058393806 12434101
-0.027646519 0.83142644 0.05900903 12499894
-0.027402759 0.8316412 0.059005365 12565687
-0.027158998 0.83185601 0.059001699 12631480
-0.026915237 0.83207077 0.058998033 12698045
-0.026671484 0.83228552 0.058994368 12763838
-0.026427723 0.83250034 0.058990702 12829631
-0.026183963 0.83271509 0.058987036 12895424
-0.025940202 0.83292985 0.058983371 12961217
-0.025696449 0.83314466 0.058979705 13027010
-0.025452688 0.83335942 0.058976039 13027010
-0.025208928 0.83357424 0.058972374 13158596
-0.024965174 0.83378899 0.058968708 13158596
-0.024095595 0.83348924 0.058345914 13224389
-0.02385062 0.83370507 0.058342233 13224389
-0.02360563 0.83392096 0.058338553 13290182
-0.023360655 0.83413684 0.058334865 13355975
-0.023115665 0.83435267 0.058331184 13290182
-0.02287069 0.8345685 0.058327496 13290182
-0.0226257 0.83478439 0.058323815 13290182
-0.02238071 0.83500028 0.058320135 13290182
-0.022135735 0.8352161 0.058316454 13290182
-0.029131785 0.82883799 0.058707908 11381152
-0.028886802 0.82905382 0.05870422 11578531
-0.02864182 0.82926971 0.058700539 11644326
-0.02839683 0.82948554 0.058696851 11775912
-0.028151855 0.82970142 0.058693171 12039084
-0.027906865 0.82991725 0.05868949 12170670
-0.027661882 0.83013308 0.058685802 12105136
-0.0274169 0.83034897 0.058682121 12236722
-0.027171917 0.83056486 0.058678433 12368308
-0.02753859 0.83130878 0.059292242 12434101
-0.027294829 0.83152354 0.059288576 12565687
-0.027051076 0.83173835 0.059284911 12631480
-0.026807316 0.83195311 0.059281245 12566459
-0.026563555 0.83216786 0.059277579 12698045
-0.026319802 0.83238268 0.059273914 12829631
-0.026076034 0.83259743 0.059270248 12895424
-0.025832281 0.83281219 0.059266582 12961217
-0.02558852 0.83302701 0.059262916 13027010
-0.025344759 0.83324176 0.059259251 13027010
-0.025101006 0.83345658 0.059255585 13158596
-0.024857245 0.83367133 0.059251919 13158596
-0.023987129 0.83337098 0.058630556 13224389
-0.023742154 0.83358687 0.058626868 13224389
-0.023497164 0.8338027 0.058623187 13224389
-0.023252189 0.83401859 0.058619499 13355975
-0.023007199 0.83423442 0.058615819 13290182
-0.022762209 0.8344503 0.058612138 13355975
-0.022517234 0.83466613 0.05860845 13290182
-0.022272244 0.83488202 0.058604769 13290182
-0.022027269 0.83509785 0.058601081 13224389
-0.029023319 0.82871974 0.058992535 11381154
-0.028778329 0.82893556 0.058988854 11578533
-0.028533347 0.82915145 0.058985174 11644326
-0.028288364 0.82936728 0.058981486 11775912
-0.028043382 0.82958317 0.058977805 11973291
-0.027798399 0.829799 0.058974117 12039084
-0.027553417 0.83001488 0.058970436 12105136
-0.027308434 0.83023071 0.058966756 12170929
-0.027063444 0.8304466 0.058963068 12368308
-0.027430661 0.83119112 0.059575446 12434101
-0.027186908 0.83140588 0.059571788 12565687
-0.026943147 0.83162069 0.059568122 12631480
-0.026699387 0.83183545 0.059564456 12566459
-0.026455626 0.8320502 0.059560791 12763838
-0.026211873 0.83226502 0.059557125 12829631
-0.025968112 0.83247977 0.059553459 12895424
-0.025724351 0.83269459 0.059549794 12961217
-0.025480598 0.83290935 0.059546128 12961217
-0.025236838 0.8331241 0.059542462 13027010
-0.024993077 0.83333892 0.059538797 13027010
-0.024749324 0.83355367 0.059535131 13158596
-0.023878664 0.83325273 0.058915183 13224389
-0.023633689 0.83346862 0.058911502 13224389
-0.023388699 0.83368444 0.058907822 13224389
-0.023143709 0.83390033 0.058904134 13290182
-0.022898734 0.83411616 0.058900453 13355975
-0.022653744 0.83433205 0.058896765 13290182
-0.022408769 0.83454788 0.058893085 13224389
-0.022163779 0.83476377 0.058889404 13290182
-0.021918803 0.83497959 0.058885716 13224389
-0.029649794 0.82795388 0.059288219 10919829
-0.029404812 0.82816976 0.059284538 11051417
-0.029159829 0.82838559 0.05928085 11380382
-0.029516563 0.82914042 0.059891641 11511968
-0.029272802 0.82935524 0.059887975 11709347
-0.029029042 0.82957 0.05988431 11644324
-0.028785288 0.82978475 0.059880644 11775910
-0.028541528 0.82999957 0.059876986 11973291
-0.028297767 0.83021432 0.05987332 12039084
-0.028054014 0.83042914 0.059869654 12170670
-0.027810253 0.83064389 0.059865989 12236463
-0.027566493 0.83085871 0.059862323 12236722
-0.027322739 0.83107346 0.059858657 12434101
-0.027078979 0.83128822 0.059854992 12499894
-0.026835218 0.83150303 0.059851326 12631480
-0.026591465 0.83171779 0.059847668 12566459
-0.026347704 0.83193254 0.059844002 12698045
-0.026103944 0.83214736 0.059840336 12829631
-0.025860183 0.83236212 0.059836671 12895424
-0.025616422 0.83257693 0.059833005 12961217
-0.025372669 0.83279169 0.059829339 12961217
-0.025128908 0.8330065 0.059825674 13027010
-0.024885148 0.83322126 0.059822008 13027010
-0.024641395 0.83343601 0.059818342 13158596
-0.024397634 0.83365083 0.059814677 13224389
-0.024153873 0.83386558 0.059811011 13224389
-0.02391012 0.83408034 0.059807345 13224389
-0.023666352 0.83429515 0.05980368 13290182
-0.023422599 0.83450991 0.059800014 13355975
-0.023178846 0.83472466 0.059796356 13290182
-0.022300303 0.83442962 0.059177719 13224389
-0.022055313 0.83464551 0.059174031 13224389
-0.021810323 0.8348614 0.05917035 13224389
-0.029541329 0.82783568 0.059572853 10919829
-0.029296346 0.82805151 0.059569165 11051417
-0.029051363 0.82826734 0.059565485 11314589
-0.029408641 0.82902277 0.060174853 11446175
-0.029164881 0.82923758 0.060171187 11709347
-0.02892112 0.82945234 0.060167521 11644326
-0.028677359 0.82966715 0.060163856 11775912
-0.028433606 0.82988191 0.06016019 11841705
-0.028189845 0.83009666 0.060156524 12039084
-0.027946085 0.83031148 0.060152858 12170670
-0.027702332 0.83052623 0.0601492 12170670
-0.027458571 0.83074105 0.060145535 12236722
-0.02721481 0.8309558 0.060141869 12434101
-0.026971057 0.83117056 0.060138203 12499894
-0.026727296 0.83138537 0.060134538 12565687
-0.026483536 0.83160013 0.060130872 12566459
-0.026239775 0.83181489 0.060127206 12566459
-0.025996022 0.8320297 0.06012354 12698045
-0.025752261 0.83224446 0.060119882 12829631
-0.025508501 0.83245927 0.060116217 12829888
-0.02526474 0.83267403 0.060112551 12895681
-0.025020987 0.83288884 0.060108885 12895681
-0.024777226 0.8331036 0.060105219 12961474
-0.024533466 0.83331835 0.060101554 12961474
-0.024289712 0.83353317 0.060097888 13093060
-0.024045944 0.83374792 0.060094222 13158853
-0.023802191 0.83396268 0.060090557 13158853
-0.023558438 0.83417749 0.060086891 13158853
-0.02331467 0.83439225 0.060083225 13158853
-0.023070917 0.83460706 0.06007956 13290182
-0.022191823 0.83431143 0.059462354 13224389
-0.021946847 0.83452725 0.059458666 13224389
-0.021701857 0.83474314 0.059454985 13224389
-0.029432863 0.82771742 0.059857488 10919831
-0.02918788 0.82793325 0.0598538 11051417
-0.028942898 0.82814914 0.059850119 11314589
-0.029300712 0.82890511 0.060458064 11446175
-0.029056951 0.82911992 0.060454398 11709347
-0.028813198 0.82933468 0.060450733 11578533
-0.028569438 0.82954949 0.060447067 11710119
-0.028325677 0.82976425 0.060443401 11775912
-0.028081924 0.82997906 0.060439736 11973291
-0.027838163 0.83019382 0.06043607 11973804
-0.027594402 0.83040857 0.060432404 12039597
-0.027350649 0.83062339 0.060428739 12040113
-0.027106889 0.83083814 0.060425073 12237492
-0.026863128 0.8310529 0.060421415 12303285
-0.026619367 0.83126771 0.060417749 12369078
-0.026375607 0.83148247 0.060414083 12369080
-0.026131853 0.83169729 0.060410418 12434873
-0.025888093 0.83191204 0.060406752 12500670
-0.025644332 0.83212686 0.060403086 12632256
-0.025400579 0.83234161 0.060399421 12567233
-0.025156818 0.83255637 0.060395755 12633026
-0.024913058 0.83277118 0.060392097 12698819
-0.024669304 0.83298594 0.060388431 12764612
-0.024425544 0.83320069 0.060384765 12764612
-0.024181783 0.83341551 0.0603811 12764612
-0.02393803 0.83363026 0.060377434 12962244
-0.023694262 0.83384502 0.060373768 12830658
-0.023450509 0.83405983 0.060370103 12962244
-0.023206756 0.83427459 0.060366437 12962244
-0.022962987 0.83448941 0.060362771 13158853
-0.022083357 0.83419317 0.059746981 13158853
-0.021838367 0.834409 0.0597433 13158853
-0.021593392 0.83462489 0.059739619 13158853
-0.030655339 0.82749879 0.060763262 10525071
-0.030411579 0.82771361 0.060759597 10590864
-0.030167818 0.82792836 0.060755938 10788243
-0.029924065 0.82814312 0.060752273 10919829
-0.029680304 0.82835793 0.060748607 11183003
-0.029436544 0.82857269 0.060744941 11314589
-0.029192783 0.82878745 0.060741276 11315361
-0.028949022 0.82900226 0.06073761 11381154
-0.028705269 0.82921702 0.060733944 11512740
-0.028461508 0.82943183 0.060730278 11512740
-0.028217748 0.82964659 0.060726613 11579046
-0.027973995 0.8298614 0.060722947 11579046
-0.027730234 0.83007616 0.060719281 11579562
-0.027486473 0.83029091 0.060715616 11645355
-0.02724272 0.83050573 0.06071195 11711405
-0.027613334 0.8312515 0.061318673 11579819
-0.027370803 0.83146524 0.061315022 11711407
-0.027128264 0.83167893 0.061311379 11908786
-0.026885733 0.83189261 0.061307728 11449005
-0.026643202 0.83210635 0.061304085 11580591
-0.02640067 0.83232003 0.061300442 11711924
-0.026158132 0.83253372 0.061296791 11843510
-0.0259156 0.83274746 0.06129314 11778487
-0.025673069 0.83296114 0.061289497 11778487
-0.02543053 0.83317482 0.061285853 11778487
-0.025187999 0.83338857 0.061282203 11975866
-0.024945468 0.83360225 0.061278559 12107452
-0.024702929 0.83381593 0.061274916 12173245
-0.024460398 0.83402961 0.061271265 12370624
-0.024217859 0.8342433 0.061267614 12436417
-0.023975328 0.83445704 0.061263971 12633796
-0.023732796 0.83467072 0.061260328 12699589
-0.023490265 0.83488441 0.061256677 12633796
-0.023247734 0.83509815 0.061253034 12896968
-0.023005202 0.83531183 0.061249383 12896968
-0.022762656 0.83552551 0.061245739 12896968
-0.03054741 0.82738113 0.061046474 10590351
-0.03030365 0.82759595 0.061042808 10656144
-0.030059896 0.8278107 0.06103915 10788243
-0.029816136 0.82802546 0.061035484 10919829
-0.029572375 0.82824028 0.061031818 11052187
-0.029328622 0.82845503 0.061028153 11117980
-0.029084861 0.82866985 0.061024487 11117982
-0.028841101 0.8288846 0.061020821 11117982
-0.02859734 0.82909936 0.061017156 11118241
-0.028353587 0.82931417 0.06101349 11118241
-0.028109826 0.82952893 0.061009824 10790305
-0.027866066 0.82974374 0.061006159 10921891
-0.027622312 0.8299585 0.061002493 10527903
-0.027378552 0.83017325 0.060998827 10527903
-0.027134791 0.83038807 0.060995162 10528673
-0.027505949 0.83113444 0.061600462 10528673
-0.027263418 0.83134818 0.061596811 10594726
-0.027020887 0.83156186 0.06159316 10792105
-0.026778348 0.83177555 0.061589517 10793392
-0.026535816 0.83198929 0.061585873 10924978
-0.026293285 0.83220297 0.061582223 10859699
-0.026050746 0.83241665 0.061578579 10925492
-0.025808215 0.8326304 0.061574928 10794422
-0.025565684 0.83284408 0.061571285 10926008
-0.025323153 0.83305776 0.061567634 10794422
-0.025080614 0.83327144 0.061563991 10794422
-0.024838082 0.83348519 0.061560348 11122871
-0.024595544 0.83369887 0.061556697 11122871
-0.024353012 0.83391255 0.061553054 10925492
-0.024110481 0.83412623 0.061549403 11122871
-0.02386795 0.83433998 0.061545759 11254457
-0.023625419 0.83455366 0.061542109 11188664
-0.023382872 0.83476734 0.061538465 11911360
-0.023140341 0.83498108 0.061534822 12174532
-0.02289781 0.83519477 0.061531171 12502725
-0.022655278 0.83540845 0.061527528 12568518
-0.030439481 0.82726347 0.061329685 10524558
-0.030195728 0.82747829 0.061326019 10590351
-0.029951967 0.82769305 0.061322354 10722452
-0.029708207 0.8279078 0.061318688 10788245
-0.029464453 0.82812262 0.061315022 10723224
-0.029220693 0.82833737 0.061311364 10657431
-0.028976932 0.82855219 0.061307698 10591899
-0.028733172 0.82876694 0.061304033 10394520
-0.028489418 0.82898176 0.061300367 9935513
-0.028245658 0.82919651 0.061296701 9869720
-0.028001897 0.82941127 0.061293036 9739417
-0.027758144 0.82962608 0.06128937 9871003
-0.027514383 0.82984084 0.061285704 9872288
-0.027270623 0.83005559 0.061282039 9938081
-0.027026869 0.83027041 0.061278373 9741734
-0.027398571 0.83101737 0.061882243 10004906
