# .PCD v0.7 - Point Cloud Data file format
VERSION 0.7
FIELDS x y z rgb
SIZE 4 4 4 4
TYPE F F F U
COUNT 1 1 1 1
WIDTH 1080
HEIGHT 1
VIEWPOINT 0 0 0 1 0 0 0
POINTS 1080
DATA ascii
0.006125398 0.7436744 0.063736275 11767406
0.0057515651 0.74363887 0.063735075 11635820
0.0053777322 0.74360347 0.063733876 11635820
0.0050038919 0.74356794 0.063732669 11635820
0.004630059 0.74353248 0.063731469 11635820
0.0042562261 0.74349701 0.06373027 11635820
0.0038823932 0.74346155 0.063729063 11635820
0.0035085455 0.74342608 0.063727863 11635820
0.00313472 0.74339062 0.063726664 11635820
0.0027608797 0.74335515 0.063725457 11635820
0.0023870468 0.74331969 0.063724257 11635820
0.0020132065 0.74328423 0.063723058 11767406
0.0016393811 0.74324876 0.063721851 11635820
0.0012655482 0.7432133 0.063720651 11504234
0.00089170039 0.74317783 0.063719451 11635820
0.00051787496 0.74314237 0.063718244 11767406
-0.00022494793 0.74392784 0.063192599 11767406
-0.00060040504 0.74389219 0.063191392 11833199
-0.0009758696 0.74385661 0.063190185 11832686
-0.0013513267 0.74382097 0.06318897 11832686
-0.0017267838 0.74378538 0.063187763 11898479
-0.0021022409 0.74374974 0.063186556 11898479
-0.0024777055 0.74371409 0.063185349 11832686
-0.0028531626 0.74367851 0.063184142 11964272
-0.0032286271 0.74364287 0.063182935 11898477
-0.0036040843 0.74360728 0.063181728 11898477
-0.0039795488 0.74357164 0.063180521 12029293
-0.0043550059 0.743536 0.063179314 11963500
-0.0047304705 0.74350041 0.063178107 11964270
-0.0051059276 0.74346477 0.0631769 11964270
-0.0058731288 0.74424791 0.062651172 12030063
-0.006250225 0.74421215 0.062649958 11898477
-0.0066272989 0.74417639 0.062648743 11898477
-0.0070043951 0.74414062 0.062647536 11964270
-0.0073814765 0.74410486 0.062646322 11964785
-0.0077585578 0.7440691 0.062645108 11833199
-0.0081356466 0.74403328 0.062643901 11833199
-0.0085127279 0.74399751 0.062642686 11767406
-0.0088898167 0.74396175 0.062641472 11832686
-0.0092669055 0.74392599 0.062640257 11898479
-0.0096439868 0.74389017 0.06263905 11898477
-0.010021076 0.7438544 0.062637836 11832684
-0.010398157 0.74381864 0.062636621 11898477
-0.010775246 0.74378288 0.062635407 11832684
-0.011152335 0.74374712 0.0626342 11898990
-0.011529416 0.74371129 0.062632985 11898990
-0.011906512 0.74367553 0.062631771 11833197
-0.012702957 0.74445593 0.062105939 11898990
-0.01308167 0.74441999 0.062104724 11964270
-0.013460383 0.74438405 0.06210351 11898477
-0.013839088 0.74434817 0.062102288 11898477
-0.014217801 0.74431223 0.062101074 11964270
-0.014596514 0.74427629 0.062099852 12030063
-0.014975227 0.74424034 0.062098637 11898477
-0.015353933 0.7442044 0.062097415 11964270
-0.015732646 0.74416852 0.062096201 12030063
-0.016545363 0.74494737 0.061570324 11964783
-0.0169257 0.74491131 0.061569102 11833197
-0.017306037 0.74487519 0.06156788 11767404
-0.017686374 0.74483907 0.061566658 11767404
-0.018066712 0.74480301 0.061565429 11636588
-0.018447049 0.74476695 0.061564207 11768174
-0.018827386 0.74473083 0.061562985 11767404
-0.019207723 0.74469477 0.061561763 11833197
-0.019588061 0.74465871 0.061560541 11898477
-0.019968398 0.74462259 0.061559319 11898477
-0.020348735 0.74458653 0.061558098 11701098
-0.020729057 0.74455047 0.061556876 11832684
-0.021109395 0.74451435 0.061555646 11832684
-0.021489732 0.74447829 0.061554424 11701098
-0.021870069 0.74444216 0.061553203 11569512
-0.022250406 0.7444061 0.061551981 11503719
-0.022630744 0.74436998 0.061550759 11437926
-0.023011081 0.74433392 0.061549537 11372133
-0.023391418 0.74429786 0.061548315 11438180
-0.023771755 0.74426174 0.061547093 11503973
-0.024152093 0.74422568 0.061545864 11109474
-0.02453243 0.74418962 0.061544642 11043681
-0.024912767 0.7441535 0.06154342 11240549
-0.025293104 0.74411744 0.061542198 11108963
-0.025673442 0.74408138 0.061540976 11108963
-0.026053764 0.74404526 0.061539754 11174756
-0.026434116 0.74400914 0.061538532 11175269
-0.026814453 0.74397308 0.06153731 10977890
-0.027194791 0.74393702 0.061536081 10977890
-0.027575128 0.7439009 0.061534859 10977890
-0.027955465 0.74386483 0.061533637 11109476
-0.028335802 0.74382877 0.061532415 11438441
-0.028716125 0.74379265 0.061531194 11305572
-0.029096462 0.74375659 0.061529972 11305572
0.053674951 0.74323761 0.067343399 11702896
0.053310871 0.74320304 0.067342229 11702898
0.052946787 0.74316847 0.067341052 11768691
0.052582704 0.74313396 0.067339882 11702898
0.052218623 0.74309945 0.067338713 11571312
0.05185454 0.74306488 0.067337543 11571058
0.051490456 0.74303031 0.067336373 11373679
0.051126376 0.7429958 0.067335203 11440240
0.050915185 0.74211895 0.067856394 11440240
0.050552726 0.74208456 0.067855224 11440240
0.05019027 0.74205017 0.067854062 11440240
0.04982781 0.74201578 0.067852892 11308654
0.049465355 0.74198139 0.06785173 11308654
0.049102895 0.74194705 0.06785056 11177068
0.048740439 0.7419126 0.067849398 11177068
0.048377983 0.74187827 0.067848235 11112045
0.048015527 0.74184382 0.067847066 11046252
0.047653068 0.74180949 0.067845903 10980459
0.047290608 0.7417751 0.067844734 10980459
0.046928152 0.7417407 0.067843571 11045998
0.046565697 0.74170631 0.067842409 11111791
0.046203241 0.74167192 0.067841239 11176814
0.045840781 0.74163753 0.067840077 11111021
0.045478322 0.74160314 0.067838907 11045228
0.045115866 0.74156874 0.067837745 11111021
0.04475341 0.74153435 0.067836583 11111275
0.044390954 0.74149996 0.067835413 11111275
0.044028491 0.74146557 0.067834251 11111275
0.043666035 0.74143124 0.067833081 11111275
0.043303579 0.74139678 0.067831919 11111275
0.042941123 0.74136245 0.067830756 11177068
0.042578667 0.74132806 0.067829587 11111275
0.042216204 0.74129367 0.067828424 11045482
0.041853748 0.74125928 0.067827255 11177066
0.041491292 0.74122488 0.067826092 11111273
0.041128837 0.74119049 0.067824923 11111273
0.040766377 0.7411561 0.06782376 11111273
0.040403921 0.74112171 0.067822598 11177066
0.039839812 0.741925 0.067298912 11111273
0.039475724 0.74189043 0.067297742 11111273
0.03911164 0.74185592 0.067296572 11111273
0.038747557 0.74182135 0.067295402 11111275
0.038383476 0.74178684 0.067294233 11111275
0.038019393 0.74175227 0.067293063 11045482
0.037655309 0.74171776 0.067291893 11045482
0.037291229 0.74168319 0.067290723 11111275
0.036927145 0.74164867 0.067289554 11177068
0.036563061 0.7416141 0.067288376 11176814
0.036198981 0.74157959 0.067287207 11176814
0.035834894 0.74154502 0.067286037 11111021
0.035470814 0.74151051 0.067284867 11045228
0.035106733 0.74147594 0.067283697 11111021
0.034518242 0.74227691 0.066759944 11176814
0.03415253 0.74224222 0.066758767 11111021
0.033786818 0.74220753 0.066757597 11111021
0.033421114 0.74217284 0.06675642 11111021
0.03305541 0.74213815 0.066755243 11111021
0.032689698 0.74210346 0.066754065 11242347
0.032323994 0.74206877 0.066752888 11308140
0.031958282 0.74203408 0.066751719 11308140
0.03159257 0.74199939 0.066750541 11308140
0.031226866 0.7419647 0.066749364 11242347
0.030861162 0.74193001 0.066748187 11176554
0.03049545 0.74189526 0.06674701 11308140
0.030129738 0.74186057 0.066745833 11110761
0.029764034 0.74182588 0.066744663 11308140
0.029398322 0.74179119 0.066743486 11308140
0.029032618 0.7417565 0.066742308 11242093
0.028666906 0.74172181 0.066741131 11307886
0.028301202 0.74168712 0.066739954 11242607
0.027681824 0.74248517 0.066216104 11242607
0.027314492 0.7424503 0.066214927 11176814
0.026947159 0.74241543 0.066213742 11111021
0.026579823 0.74238062 0.066212565 11176814
0.026212495 0.74234575 0.06621138 11111021
0.025845159 0.74231088 0.066210203 11176300
0.025477823 0.74227607 0.066209018 11176300
0.025110491 0.7422412 0.066207841 11242093
0.024743158 0.74220634 0.066206656 11307886
0.024375826 0.74217147 0.066205479 11307886
0.02400849 0.74213666 0.066204295 11373679
0.023641162 0.74210179 0.066203117 11308140
0.023273826 0.74206692 0.066201933 11242347
0.02290649 0.74203205 0.066200756 11308140
0.022539154 0.74199724 0.066199571 11308140
0.022171818 0.74196237 0.066198394 11308140
0.021804489 0.7419275 0.066197209 11242347
0.021155857 0.74272281 0.065673254 11373933
0.020786896 0.74268782 0.06567207 11373933
0.020417936 0.74265277 0.065670885 11439213
0.020048983 0.74261779 0.065669701 11373420
0.019680023 0.7425828 0.065668516 11373418
0.019311063 0.74254775 0.065667324 11439211
0.018942103 0.74251276 0.065666139 11439211
0.018573143 0.74247777 0.065664954 11373418
0.01820419 0.74244273 0.06566377 11307625
0.01783523 0.74240774 0.065662585 11373418
0.017466269 0.74237275 0.065661393 11504234
0.016798131 0.74316615 0.065137386 11372648
0.016427547 0.74313104 0.065136194 11438441
0.016056962 0.74309587 0.065135002 11438441
0.015686385 0.74306071 0.06513381 11570027
0.015315793 0.74302554 0.065132618 11504234
0.014945209 0.74299037 0.065131433 11570027
0.014574625 0.74295521 0.065130241 11570027
0.014204048 0.74292004 0.065129049 11504234
0.013833456 0.74288487 0.065127857 11438441
0.013462879 0.74284971 0.065126665 11504236
0.013092287 0.74281454 0.065125473 11504236
0.01272171 0.74277943 0.065124281 11635309
0.012351125 0.74274427 0.065123089 11635309
0.011980541 0.7427091 0.065121897 11570027
0.011609949 0.74267393 0.065120704 11570027
0.011239372 0.74263877 0.065119512 11570027
0.010868788 0.74260366 0.065118328 11504234
0.010171391 0.74339426 0.064594224 11570027
0.0097991824 0.74335897 0.064593025 11570027
0.0094269738 0.74332362 0.064591832 11635820
0.0090547651 0.74328834 0.064590633 11570027
0.0086825565 0.74325299 0.064589433 11504234
0.0083103478 0.74321771 0.064588241 11570027
0.0079381317 0.74318242 0.064587042 11570027
0.007565923 0.74314708 0.064585842 11504234
0.0071937144 0.74311173 0.06458465 11504234
0.0068214983 0.74307644 0.064583451 11570027
0.0064492971 0.74304116 0.064582258 11570027
0.006077081 0.74300581 0.064581059 11570027
0.0057048798 0.74297053 0.064579859 11635820
0.0053326637 0.74293518 0.064578667 11570027
0.004960455 0.74289989 0.064577468 11635820
0.0045882463 0.74286455 0.064576268 11635820
0.0042160377 0.74282926 0.064575076 11635820
0.00348939 0.74361712 0.064050883 11570027
0.0031155646 0.74358165 0.064049676 11635307
0.0027417243 0.74354619 0.064048477 11635307
0.0023678914 0.74351072 0.064047277 11635307
0.001994051 0.74347526 0.06404607 11701100
0.0016202256 0.74343979 0.06404487 11635820
0.0012463927 0.74340433 0.064043671 11570027
0.00087254494 0.74336886 0.064042464 11635820
0.00049871951 0.7433334 0.064041264 11635820
0.00012487918 0.74329793 0.064040065 11767406
-0.0002489537 0.74326241 0.064038858 11833199
-0.00062279403 0.74322701 0.064037658 11832686
-0.00099661946 0.74319148 0.064036459 11832686
-0.0013704598 0.74315608 0.064035252 11898479
-0.0017442927 0.74312055 0.064034052 11898479
-0.0021181256 0.74308515 0.064032853 11701100
-0.0024919659 0.74304962 0.064031646 11832686
-0.003247872 0.74383473 0.063507356 11963502
-0.0036233291 0.74379909 0.063506149 12029295
-0.0039987937 0.74376351 0.063504942 11963500
-0.0043742508 0.74372786 0.063503735 11766121
-0.0047497153 0.74369228 0.063502528 12029293
-0.0051251724 0.74365664 0.063501321 12029293
-0.005500637 0.74362099 0.063500114 11964270
-0.0058760941 0.74358535 0.063498907 11898477
-0.0062515512 0.74354976 0.0634977 11898477
-0.0066270158 0.74351412 0.063496493 11964270
-0.0070024729 0.74347854 0.063495286 11964272
-0.0073779374 0.74344289 0.063494079 11898479
-0.0077533945 0.74340725 0.063492872 11898479
-0.0081288591 0.74337167 0.063491665 11832686
-0.0085043162 0.74333602 0.063490458 11832686
-0.0088797808 0.74330044 0.063489251 11898479
-0.0092552304 0.74326479 0.063488044 11832686
-0.010040402 0.74404711 0.062963665 11832686
-0.010417484 0.74401134 0.06296245 11832686
-0.010794573 0.74397552 0.062961236 11701100
-0.011171661 0.74393976 0.062960021 11898479
-0.011548743 0.74390399 0.062958814 11964272
-0.011925839 0.74386823 0.0629576 11898479
-0.012302913 0.74383247 0.062956385 11898479
-0.012680009 0.74379665 0.062955171 11964272
-0.013057083 0.74376088 0.062953964 11832686
-0.013858497 0.74454165 0.062429518 11832686
-0.01423721 0.74450576 0.062428303 11964272
-0.014615923 0.74446982 0.062427081 12030065
-0.014994636 0.74443388 0.062425867 11964272
-0.015373342 0.74439794 0.062424645 11964270
-0.015752055 0.744362 0.06242343 11964270
-0.016130768 0.74432611 0.062422216 11898990
-0.016509473 0.74429017 0.062420994 11898990
-0.016888186 0.74425423 0.06241978 11833197
-0.017266907 0.74421829 0.062418558 11833197
-0.017645612 0.74418235 0.062417343 11833197
-0.018024325 0.74414647 0.062416121 11898990
-0.018403031 0.74411047 0.062414907 11833197
-0.018781744 0.74407458 0.062413692 11898990
-0.019607551 0.74485302 0.061889172 11964270
-0.019987889 0.74481696 0.06188795 11964270
-0.020368226 0.7447809 0.061886728 11964270
-0.020748548 0.74474478 0.061885506 11898477
-0.021128885 0.74470866 0.061884284 11898477
-0.021509223 0.7446726 0.061883062 11898477
-0.02188956 0.74463654 0.06188184 11832684
-0.022269897 0.74460042 0.061880618 11832684
-0.022650234 0.74456435 0.061879389 11635559
-0.023030572 0.74452829 0.061878167 11701352
-0.023410909 0.74449217 0.061876945 11832938
-0.023791246 0.74445611 0.061875723 11832938
-0.024171583 0.74442005 0.061874501 11635559
-0.024551921 0.74438393 0.06187328 11503973
-0.024932258 0.74434787 0.061872058 11437926
-0.025312595 0.74431175 0.061870836 11635305
-0.025692932 0.74427569 0.061869606 11700328
-0.026073255 0.74423957 0.061868384 11634535
-0.026453607 0.74420351 0.061867163 11569512
-0.026833944 0.74416745 0.061865941 11503719
-0.027214281 0.74413133 0.061864719 11372646
-0.027594618 0.74409527 0.061863497 11306853
-0.027974956 0.74405921 0.061862275 11437926
-0.028355293 0.74402308 0.061861053 11569512
-0.028735615 0.74398702 0.061859824 11765607
-0.029115953 0.74395096 0.061858602 11897193
-0.02949629 0.74391484 0.06185738 11634021
-0.029876642 0.74387872 0.061856158 11634021
-0.030256964 0.74384266 0.061854936 11240549
0.053656291 0.74342364 0.067657985 11702898
0.053292207 0.74338907 0.067656815 11702898
0.052928124 0.74335456 0.067655645 11768691
0.052564044 0.74331999 0.067654476 11505779
0.05219996 0.74328548 0.067653306 11439986
0.05183588 0.74325091 0.067652136 11439986
0.051471792 0.7432164 0.067650966 11308400
0.051107712 0.74318182 0.067649789 11440240
0.050896607 0.74230415 0.068169579 11308654
0.050534151 0.74226975 0.068168409 11440240
0.050171692 0.74223542 0.068167247 11308654
0.049809232 0.74220097 0.068166077 11308654
0.049446777 0.74216664 0.068164915 11308654
0.049084321 0.74213225 0.068163753 11242861
0.048721865 0.74209785 0.068162583 11242861
0.048359405 0.74206346 0.068161421 11112045
0.047996949 0.74202907 0.068160251 11046252
0.04763449 0.74199468 0.068159088 11045998
0.047272034 0.74196029 0.068157926 11045998
0.046909574 0.7419259 0.068156756 11045998
0.046547119 0.7418915 0.068155594 11111791
0.046184659 0.74185711 0.068154424 10980205
0.045822203 0.74182272 0.068153262 10980205
0.045459747 0.74178833 0.068152092 10914412
0.045097291 0.74175394 0.06815093 10914412
0.044734828 0.7417196 0.068149768 10914666
0.044372372 0.74168515 0.068148598 10980459
0.044009916 0.74165082 0.068147436 10980459
0.043647461 0.74161643 0.068146266 10914666
0.043285001 0.74158204 0.068145104 10914666
0.042922545 0.74154764 0.068143941 10980459
0.042560086 0.74151325 0.068142772 11046252
0.04219763 0.74147886 0.068141609 10914666
0.04183517 0.74144447 0.06814044 11111275
0.041472711 0.74141008 0.068139277 11111275
0.041110255 0.74137568 0.068138115 11045480
0.040747799 0.74134129 0.068136945 11111273
0.040385343 0.7413069 0.068135783 11111273
0.039821148 0.74211103 0.067613505 11111273
0.03945706 0.74207652 0.067612335 11111275
0.03909298 0.74204195 0.067611165 11111275
0.038728897 0.74200737 0.067609996 11111275
0.038364813 0.74197286 0.067608826 11111275
0.038000733 0.74193835 0.067607649 11111275
0.037636649 0.74190378 0.067606479 11111275
0.037272565 0.74186921 0.067605309 11111275
0.036908485 0.7418347 0.067604139 11177068
0.036544401 0.74180019 0.06760297 11177068
0.036180317 0.74176562 0.0676018 11111275
0.035816237 0.74173105 0.06760063 11111275
0.03545215 0.74169654 0.06759946 11045482
0.03508807 0.74166197 0.067598283 11045228
0.034499496 0.74246383 0.067075938 11111021
0.034133784 0.74242914 0.067074761 11111021
0.033768073 0.74239439 0.067073591 11111021
0.033402368 0.7423597 0.067072414 11045228
0.033036664 0.74232501 0.067071237 11045228
0.032670952 0.74229032 0.067070059 11242093
0.032305248 0.74225563 0.067068882 11307886
0.031939536 0.74222094 0.067067713 11242347
0.031573825 0.74218625 0.067066535 11308140
0.03120812 0.7421515 0.067065358 11242347
0.030842416 0.74211681 0.067064181 11242347
0.030476704 0.74208212 0.067063004 11242347
0.030110992 0.74204743 0.067061834 11176554
0.029745288 0.74201274 0.067060657 11242347
0.029379576 0.74197805 0.06705948 11242347
0.029013872 0.74194336 0.067058302 11242347
0.02864816 0.74190867 0.067057125 11308140
0.028282456 0.74187398 0.067055948 11242607
0.027662996 0.7426728 0.066533506 11176814
0.027295664 0.74263799 0.066532321 11176814
0.026928332 0.74260312 0.066531144 11111021
0.026560996 0.74256825 0.066529959 11176814
0.026193667 0.74253345 0.066528782 11176814
0.025826331 0.74249858 0.066527598 11176300
0.025458995 0.74246371 0.06652642 11176300
0.025091663 0.7424289 0.066525236 11242093
0.024724331 0.74239403 0.066524059 11307886
0.024356999 0.74235916 0.066522874 11307886
0.023989663 0.74232435 0.066521697 11373679
0.023622334 0.74228948 0.066520512 11307886
0.023254998 0.74225461 0.066519335 11242093
0.022887662 0.74221981 0.06651815 11242347
0.022520326 0.74218494 0.066516973 11308140
0.022152998 0.74215007 0.066515788 11373420
0.021785662 0.74211526 0.066514611 11373420
0.021136947 0.74291134 0.065992057 11439213
0.020767987 0.74287629 0.065990873 11439213
0.020399027 0.7428413 0.065989688 11373420
0.020030074 0.74280632 0.065988503 11373420
0.019661114 0.74277133 0.065987319 11373418
0.019292153 0.74273628 0.065986127 11439211
0.018923193 0.74270129 0.065984942 11307625
0.018554233 0.7426663 0.065983757 11307625
0.01818528 0.74263132 0.065982573 11373418
0.01781632 0.74259627 0.065981388 11439211
0.01744736 0.74256128 0.065980196 11373418
0.01677914 0.74335551 0.065457597 11241832
0.016408555 0.74332035 0.065456405 11438441
0.016037971 0.74328518 0.065455213 11504234
0.015667386 0.74325001 0.065454021 11570027
0.015296794 0.74321491 0.065452829 11504234
0.014926217 0.74317974 0.065451637 11570027
0.014555626 0.74314457 0.065450445 11570027
0.014185049 0.74310941 0.065449253 11504234
0.013814464 0.74307424 0.065448061 11504234
0.01344388 0.74303907 0.065446869 11504236
0.013073295 0.74300396 0.065445684 11570029
0.012702711 0.7429688 0.065444492 11570029
0.012332134 0.74293363 0.0654433 11438443
0.011961542 0.74289846 0.065442108 11570027
0.011590958 0.7428633 0.065440916 11570027
0.011220373 0.74282813 0.065439723 11570027
0.010849796 0.74279296 0.065438531 11504234
0.01015231 0.74358445 0.064915836 11570027
0.0097801089 0.74354911 0.064914636 11570027
0.0094078928 0.74351382 0.064913444 11570027
0.0090356842 0.74347854 0.064912245 11504234
0.0086634755 0.74344319 0.064911045 11504234
0.0082912669 0.74340791 0.064909853 11504234
0.0079190582 0.74337256 0.064908653 11504234
0.0075468421 0.74333727 0.064907461 11504234
0.0071746334 0.74330193 0.064906262 11570027
0.0068024248 0.74326664 0.064905062 11570027
0.0064302236 0.7432313 0.06490387 11570027
0.0060580075 0.74319601 0.064902671 11504234
0.0056857988 0.74316072 0.064901471 11701100
0.0053135902 0.74312538 0.064900279 11635307
0.0049413815 0.74309003 0.06489908 11635307
0.0045691729 0.74305475 0.064897887 11635307
0.0041969642 0.74301946 0.064896688 11570027
0.0034702271 0.74380815 0.064373896 11570027
0.0030964017 0.74377269 0.064372696 11570025
0.0027225614 0.74373722 0.064371489 11570025
0.0023487285 0.74370176 0.064370289 11570025
0.0019748881 0.74366629 0.06436909 11570025
0.0016010627 0.74363077 0.064367883 11635818
0.0012272298 0.74359536 0.064366683 11635818
0.00085338205 0.74355984 0.064365484 11635818
0.00047955662 0.74352443 0.064364284 11635818
0.00010571629 0.74348891 0.064363077 11701100
-0.00026811659 0.74345344 0.064361878 11832686
-0.00064195693 0.74341798 0.064360678 11832686
-0.0010157824 0.74338251 0.064359471 11832686
-0.0013896227 0.74334705 0.064358272 11832686
-0.0017634556 0.74331158 0.064357072 11832686
-0.0021372885 0.74327612 0.064355865 11635307
-0.0025111288 0.74324065 0.064354666 11701100
-0.0032671168 0.74402654 0.063831776 11831916
-0.003642574 0.74399096 0.063830569 11963502
-0.0040180385 0.74395531 0.063829362 11963502
-0.0043934956 0.74391973 0.063828155 11766123
-0.0047689602 0.74388409 0.063826948 11963502
-0.0051444173 0.74384844 0.063825741 11963502
-0.0055198818 0.74381286 0.063824534 11898479
-0.005895339 0.74377722 0.063823327 11832686
-0.0062707961 0.74374163 0.06382212 11832686
-0.0066462606 0.74370599 0.063820913 11898479
-0.0070217177 0.74367034 0.063819706 11898479
-0.0073971823 0.74363476 0.063818499 11898479
-0.0077726394 0.74359912 0.063817292 11832686
-0.008148104 0.74356353 0.063816085 11832686
-0.0085235611 0.74352789 0.063814878 11832686
-0.0088990256 0.74349225 0.063813671 11898479
-0.0092744753 0.7434566 0.063812464 11832686
-0.010059729 0.74423981 0.063289486 11832686
-0.010436811 0.74420398 0.063288271 11832686
-0.010813899 0.74416822 0.063287064 11832686
-0.011190988 0.74413246 0.06328585 11898479
-0.011568069 0.74409664 0.063284636 11898479
-0.011945166 0.74406087 0.063283421 11898479
-0.01232224 0.74402511 0.063282214 11898479
-0.012699336 0.74398935 0.063281 11898479
-0.01307641 0.74395359 0.063279785 11832686
-0.013877913 0.74473518 0.062756747 11898479
-0.014256626 0.74469924 0.062755533 11898479
-0.014635339 0.7446633 0.062754311 11964272
-0.015014052 0.74462736 0.062753096 11964272
-0.015392758 0.74459147 0.062751874 11964272
-0.015771471 0.74455553 0.06275066 11964272
-0.016150184 0.74451959 0.062749445 11898992
-0.01652889 0.74448365 0.062748224 11898992
-0.016907603 0.74444771 0.062747009 11898992
-0.017286323 0.74441183 0.062745787 11898992
-0.017665029 0.74437588 0.062744573 11833197
-0.018043742 0.74433994 0.062743351 11898990
-0.018422447 0.744304 0.062742136 11964270
-0.01880116 0.74426806 0.062740922 11964270
-0.019627042 0.74504739 0.062217809 11964270
-0.020007379 0.74501127 0.062216587 11964270
-0.020387717 0.74497521 0.062215365 11898477
-0.020768054 0.74493909 0.062214144 11832684
-0.021148391 0.74490303 0.062212914 12029547
-0.021528728 0.74486697 0.062211692 12029547
-0.021909066 0.74483085 0.06221047 11963754
-0.022289403 0.74479479 0.062209249 11963754
-0.02266974 0.74475873 0.062208027 11832938
-0.023050062 0.7447226 0.062206805 11832938
-0.0234304 0.74468654 0.062205583 11701352
-0.023810737 0.74465042 0.062204361 11832938
-0.024191089 0.74461436 0.062203132 11832168
-0.024571411 0.74457824 0.06220191 11766375
-0.024951763 0.74454218 0.062200688 11634789
-0.025332086 0.74450612 0.062199466 11832168
-0.025712423 0.74447 0.062198244 11766121
-0.02609276 0.74443394 0.062197022 11700328
-0.026473098 0.74439788 0.0621958 11701098
-0.026853435 0.74436176 0.062194578 11569512
-0.027233772 0.7443257 0.062193349 11569512
-0.027614109 0.74428964 0.062192127 11503719
-0.027994446 0.74425352 0.062190905 11634535
-0.028374784 0.74421746 0.062189683 11700328
-0.028755121 0.74418133 0.062188461 11765607
-0.029135458 0.74414527 0.06218724 11831400
-0.029515795 0.74410915 0.062186018 11699814
-0.029896133 0.74407309 0.062184796 11699814
-0.03027647 0.74403703 0.062183566 11634535
0.053637631 0.74360967 0.067972578 11702898
0.053273547 0.7435751 0.067971408 11702898
0.052909464 0.74354059 0.067970239 11768691
0.052545384 0.74350607 0.067969061 11506033
0.0521813 0.7434715 0.067967892 11440240
0.051817216 0.74343693 0.067966722 11439986
0.051453132 0.74340242 0.067965552 11308400
0.051089048 0.74336785 0.067964382 11308654
0.050878029 0.74248934 0.068482764 11308654
0.05051557 0.74245501 0.068481594 11440240
0.050153114 0.74242061 0.068480432 11308654
0.049790654 0.74238622 0.068479262 11308654
0.049428198 0.74235183 0.0684781 11242861
0.049065739 0.74231744 0.068476938 11242861
0.048703283 0.74228305 0.068475768 11177068
0.048340827 0.74224865 0.068474606 11111791
0.047978371 0.74221426 0.068473436 11111791
0.047615912 0.74217987 0.068472274 11111791
0.047253452 0.74214548 0.068471111 11045998
0.046890996 0.74211109 0.068469942 11045998
0.046528541 0.74207669 0.068468779 11045998
0.046166085 0.7420423 0.06846761 10980205
0.045803625 0.74200797 0.068466447 10980205
0.045441166 0.74197352 0.068465285 10914412
0.04507871 0.74193919 0.068464115 10980205
0.044716254 0.7419048 0.068462953 11045998
0.044353798 0.7418704 0.068461783 10980205
0.043991335 0.74183601 0.068460621 10914412
0.043628879 0.74180162 0.068459451 10914412
0.043266423 0.74176723 0.068458289 10848619
0.042903967 0.74173284 0.068457127 10980205
0.042541511 0.74169844 0.068455957 10980459
0.042179048 0.74166405 0.068454795 10914666
0.041816592 0.74162966 0.068453625 11111275
0.041454136 0.74159527 0.068452463 11111275
0.041091681 0.74156088 0.0684513 11045480
0.040729221 0.74152648 0.068450131 11111273
0.040366765 0.74149215 0.068448968 11177066
0.039802484 0.74229705 0.067928098 11111273
0.0394384 0.74226254 0.067926921 11111273
0.039074317 0.74222797 0.067925751 11111273
0.038710237 0.74219346 0.067924581 11111275
0.038346153 0.74215889 0.067923412 11111275
0.037982069 0.74212438 0.067922242 11111275
0.037617989 0.74208981 0.067921072 11111275
0.037253905 0.7420553 0.067919903 11111275
0.036889821 0.74202073 0.067918733 11111275
0.036525741 0.74198616 0.067917563 11111275
0.036161654 0.74195164 0.067916386 11111275
0.035797574 0.74191713 0.067915216 11111021
0.035433494 0.74188256 0.067914046 11045228
0.035069413 0.74184799 0.067912877 11111021
0.034480758 0.74265069 0.067391932 11111021
0.034115039 0.74261594 0.067390762 11111021
0.033749335 0.74258125 0.067389585 11111021
0.03338363 0.74254656 0.067388408 10979435
0.033017918 0.74251187 0.067387231 10979435
0.032652207 0.74247718 0.067386054 11111021
0.032286502 0.74244249 0.067384884 11111021
0.031920798 0.7424078 0.067383707 11242093
0.031555086 0.74237311 0.067382529 11307886
0.031189375 0.74233842 0.067381352 11242347
0.03082367 0.74230373 0.067380175 11242347
0.030457959 0.74226904 0.067378998 11242347
0.030092254 0.74223435 0.067377828 11176554
0.02972655 0.7421996 0.067376651 11242347
0.029360838 0.74216491 0.067375474 11242347
0.028995126 0.74213022 0.067374296 11242347
0.028629422 0.74209553 0.067373119 11308140
0.02826371 0.74206084 0.06737195 11242861
0.027644169 0.74286056 0.066850901 11177068
0.027276836 0.74282569 0.066849723 11176814
0.026909504 0.74279082 0.066848539 11111021
0.026542168 0.74275601 0.066847362 11176814
0.02617484 0.74272114 0.066846177 11111021
0.025807504 0.74268627 0.066845 11176300
0.025440168 0.74265146 0.066843815 11242093
0.025072835 0.74261659 0.066842638 11242093
0.024705503 0.74258173 0.066841453 11307886
0.024338171 0.74254692 0.066840276 11307886
0.023970835 0.74251205 0.066839091 11373679
0.023603506 0.74247718 0.066837914 11308140
0.02323617 0.74244231 0.06683673 11242347
0.022868834 0.74240744 0.066835552 11308140
0.022501498 0.74237263 0.066834368 11308140
0.022134162 0.74233776 0.066833191 11373420
0.021766834 0.74230289 0.066832006 11373420
0.021118037 0.74309987 0.066310868 11439213
0.02074907 0.74306488 0.066309676 11439213
0.020380117 0.74302983 0.066308491 11504236
0.020011157 0.74299484 0.066307306 11504236
0.019642197 0.74295986 0.066306122 11373418
0.019273244 0.74292481 0.06630493 11373418
0.018904276 0.74288982 0.066303745 11241832
0.018535323 0.74285483 0.06630256 11307625
0.018166363 0.74281979 0.066301376 11373418
0.017797403 0.7427848 0.066300191 11439211
0.01742845 0.74274981 0.066298999 11373418
0.016760148 0.74354488 0.065777801 11307625
0.016389556 0.74350971 0.065776609 11307625
0.016018979 0.74347454 0.065775417 11373418
0.015648387 0.74343944 0.065774232 11439211
0.015277803 0.74340427 0.06577304 11373418
0.014907219 0.7433691 0.065771848 11373418
0.014536634 0.74333394 0.065770656 11439211
0.01416605 0.74329877 0.065769464 11373420
0.013795473 0.7432636 0.065768272 11373420
0.013424881 0.74322844 0.06576708 11504236
0.013054304 0.74319327 0.065765887 11570029
0.012683712 0.7431581 0.065764695 11570029
0.012313135 0.74312299 0.065763503 11438443
0.011942543 0.74308783 0.065762311 11504236
0.011571966 0.74305266 0.065761119 11504236
0.011201374 0.74301749 0.065759934 11570027
0.010830797 0.74298233 0.065758742 11438441
0.010133229 0.74377465 0.065237448 11504236
0.009761028 0.74373931 0.065236248 11504236
0.0093888119 0.74370402 0.065235056 11635820
0.0090166032 0.74366868 0.065233856 11504234
0.0086443946 0.74363339 0.065232657 11569514
0.0082721859 0.7435981 0.065231465 11569514
0.0078999773 0.74356276 0.065230265 11569514
0.0075277612 0.74352741 0.065229073 11569514
0.0071555525 0.74349213 0.065227874 11635307
0.0067833439 0.74345684 0.065226674 11635307
0.0064111426 0.74342149 0.065225482 11569516
0.0060389265 0.74338621 0.065224282 11635309
0.0056667179 0.74335086 0.065223083 11635307
0.0052945092 0.74331558 0.065221891 11569514
0.0049223006 0.74328029 0.065220691 11503721
0.0045500919 0.74324495 0.065219499 11569514
0.0041778833 0.7432096 0.0652183 11570025
0.0034510642 0.74399912 0.064696915 11570025
0.0030772388 0.74396372 0.064695708 11570025
0.0027033985 0.74392819 0.064694509 11504232
0.0023295656 0.74389279 0.064693309 11504232
0.0019557253 0.74385726 0.064692102 11635818
0.0015818998 0.7438218 0.064690903 11833197
0.0012080669 0.74378633 0.064689703 11570025
0.00083421916 0.74375087 0.064688496 11569514
0.00046039373 0.74371541 0.064687297 11701100
8.6553395e-05 0.74367994 0.064686097 11635307
-0.00028727949 0.74364448 0.06468489 11635307
-0.00066111982 0.74360901 0.064683691 11701100
-0.0010349452 0.74357355 0.064682491 11832686
-0.0014087856 0.74353808 0.064681292 11701100
-0.0017826185 0.74350262 0.064680085 11701100
-0.0021564513 0.74346715 0.064678885 11766123
-0.0025302917 0.74343169 0.064677685 11831916
-0.0032863617 0.74421841 0.064156204 11831916
-0.0036618188 0.74418283 0.064154997 11831916
-0.0040372834 0.74414718 0.06415379 11963502
-0.0044127405 0.74411154 0.064152583 11766123
-0.004788205 0.74407595 0.064151369 11831916
-0.0051636621 0.74404031 0.064150162 11831916
-0.0055391267 0.74400473 0.064148955 11701100
-0.0059145838 0.74396908 0.064147748 11701100
-0.0062900409 0.74393344 0.064146541 11701100
-0.0066655055 0.74389786 0.064145334 11701100
-0.0070409626 0.74386221 0.064144127 11832686
-0.0074164271 0.74382663 0.06414292 11832686
-0.0077918842 0.74379098 0.064141713 11701100
-0.0081673488 0.74375534 0.064140506 11701100
-0.0085428059 0.7437197 0.064139299 11832686
-0.0089182705 0.74368411 0.064138092 11898479
-0.0092937201 0.74364847 0.064136885 11701100
-0.010079056 0.74443245 0.063615315 11832686
-0.010456137 0.74439669 0.0636141 11832686
-0.010833226 0.74436092 0.063612886 11832686
-0.011210315 0.74432516 0.063611671 11898481
-0.011587396 0.74428934 0.063610464 11832688
-0.011964492 0.74425358 0.06360925 11701100
-0.012341566 0.74421781 0.063608035 11701100
-0.012718663 0.74418199 0.063606828 11832686
-0.013095737 0.74414623 0.063605614 11832686
-0.013897322 0.74492872 0.063083977 11832686
-0.014276035 0.74489272 0.063082762 11898479
-0.014654748 0.74485683 0.06308154 11964272
-0.015033461 0.74482089 0.063080326 11898479
-0.015412167 0.74478495 0.063079111 11898479
-0.01579088 0.74474907 0.063077889 11898479
-0.016169593 0.74471307 0.063076675 11964272
-0.016548298 0.74467719 0.063075453 11964272
-0.016927011 0.74464124 0.063074239 11898992
-0.017305732 0.7446053 0.063073017 11898992
-0.017684437 0.74456936 0.063071802 11833199
-0.01806315 0.74453342 0.063070588 11898992
-0.018441856 0.74449754 0.063069366 11898990
-0.018820569 0.7444616 0.063068151 11898990
-0.019646533 0.7452417 0.062546447 11964270
-0.02002687 0.74520564 0.062545218 11964270
-0.020407207 0.74516952 0.062543996 11898477
-0.020787545 0.74513346 0.062542774 11832684
-0.021167882 0.7450974 0.062541552 12029293
-0.021548219 0.74506128 0.06254033 12029293
-0.021928556 0.74502522 0.062539108 11963754
-0.022308894 0.74498916 0.062537886 11963754
-0.022689231 0.74495304 0.062536664 11832684
-0.023069553 0.74491698 0.062535435 11832684
-0.02344989 0.74488086 0.062534213 11701098
-0.023830228 0.74484479 0.062532991 11832684
-0.02421058 0.74480867 0.062531769 11963500
-0.024590902 0.74477261 0.062530547 11766121
-0.024971254 0.74473655 0.062529325 11634535
-0.025351577 0.74470043 0.062528104 11766121
-0.025731914 0.74466437 0.062526882 11766121
-0.026112251 0.74462831 0.062525652 11700328
-0.026492588 0.74459219 0.06252443 11831916
-0.026872925 0.74455613 0.062523209 11700330
-0.027253263 0.74452001 0.062521987 11766121
-0.0276336 0.74448395 0.062520765 11700328
-0.028013937 0.74444783 0.062519543 11699814
-0.028394274 0.74441177 0.062518321 11831400
-0.028774612 0.74437571 0.062517099 11831400
-0.029154949 0.74433959 0.06251587 11765607
-0.029535286 0.74430352 0.062514648 11765607
-0.029915623 0.74426746 0.062513426 11765607
-0.030295961 0.74423134 0.062512204 11700328
0.053759109 0.74294966 0.06880527 11637619
0.053396653 0.74291527 0.068804108 11571826
0.053034194 0.74288088 0.068802938 11571826
0.052671738 0.74284649 0.068801776 11506033
0.052309278 0.74281216 0.068800606 11440240
0.051946823 0.74277771 0.068799444 11440240
0.051584363 0.74274337 0.068798281 11308654
0.051221907 0.74270898 0.068797112 11308654
0.050859451 0.74267459 0.068795949 11308654
0.050496992 0.7426402 0.068794779 11440240
0.050134532 0.74260581 0.068793617 11308654
0.049772076 0.74257141 0.068792455 11308654
0.04940962 0.74253702 0.068791285 11308654
0.049047161 0.74250263 0.068790123 11308654
0.048847601 0.74162441 0.069307119 11177068
0.048486769 0.74159014 0.069305956 11176814
0.048125938 0.74155593 0.069304794 11242607
0.047765102 0.74152172 0.069303639 11045998
0.047404267 0.74148744 0.069302477 11045998
0.047043435 0.74145323 0.069301315 11045998
0.046682604 0.74141902 0.069300152 11045998
0.046321772 0.74138474 0.069298998 11045998
0.04596094 0.74135053 0.069297835 10980205
0.045600109 0.74131632 0.069296673 10914412
0.045239277 0.74128205 0.069295518 10980205
0.044878446 0.74124783 0.069294356 11045998
0.044517614 0.74121356 0.069293194 10980205
0.044156782 0.74117935 0.069292039 10914412
0.043795951 0.74114513 0.069290876 10914412
0.043435119 0.74111092 0.069289714 10914666
0.043074287 0.74107665 0.069288552 10980459
0.042713456 0.74104244 0.069287397 10914666
0.042352624 0.74100816 0.069286235 10848873
0.04179801 0.74181485 0.068766817 11177068
0.041435555 0.74178052 0.068765648 11111275
0.041073099 0.74174607 0.068764485 11111275
0.040710643 0.74171174 0.068763316 11111275
0.040348187 0.74167734 0.068762153 11177066
0.039985724 0.74164295 0.068760984 11045480
0.039623268 0.74160856 0.068759821 11045482
0.039260812 0.74157417 0.068758659 11111275
0.038898356 0.74153978 0.068757489 11177068
0.038535897 0.74150538 0.068756327 11111275
0.038173437 0.74147099 0.068755157 11111275
0.037810981 0.7414366 0.068753995 11111275
0.037448525 0.74140221 0.068752833 11111275
0.03708607 0.74136782 0.068751663 11177068
0.036723614 0.74133348 0.068750501 11242861
0.03636115 0.74129903 0.068749331 11177068
0.035998695 0.7412647 0.068748169 11111021
0.03541483 0.74206859 0.06822864 10979435
0.03505075 0.74203408 0.06822747 11111021
0.034686662 0.74199951 0.0682263 11111021
0.034322575 0.74196494 0.068225123 11111021
0.033958495 0.74193043 0.068223953 11111021
0.033594415 0.74189591 0.068222784 11045228
0.033230327 0.74186134 0.068221614 10979435
0.032866247 0.74182677 0.068220444 11111021
0.032502167 0.74179226 0.068219274 11111021
0.032138087 0.74175775 0.068218105 11242093
0.031773999 0.74172318 0.068216935 11307886
0.031170629 0.74252528 0.067697346 11308140
0.030804925 0.74249059 0.067696169 11308140
0.030439213 0.74245584 0.067694992 11242347
0.030073509 0.74242115 0.067693822 11176554
0.029707804 0.74238646 0.067692645 11242347
0.029342093 0.74235177 0.067691468 11242347
0.028976381 0.74231708 0.067690291 11308140
0.028610677 0.74228239 0.067689113 11308140
0.028244965 0.7422477 0.067687944 11242347
0.027879253 0.74221301 0.067686766 11373933
0.027513549 0.74217832 0.067685589 11176814
0.027147844 0.74214363 0.067684412 11111021
0.026782133 0.74210894 0.067683235 11177068
0.026416428 0.74207425 0.067682065 11177068
0.026050717 0.7420395 0.067680888 11176554
0.025685012 0.74200481 0.067679711 11242347
0.025319301 0.74197012 0.067678533 11308140
0.024953596 0.74193543 0.067677356 11242347
0.024587885 0.74190074 0.067676179 11308140
0.02422218 0.74186605 0.067675009 11373933
0.023584675 0.74266487 0.067155309 11242347
0.023217339 0.74263 0.067154132 11308140
0.022850003 0.7425952 0.067152947 11308140
0.022482671 0.74256033 0.06715177 11308140
0.022115335 0.74252546 0.067150585 11373420
0.021747999 0.74249065 0.067149408 11373420
0.02138067 0.74245578 0.067148224 11439213
0.021013342 0.74242091 0.067147046 11439213
0.020645998 0.7423861 0.067145862 11438443
0.02027867 0.74235123 0.067144684 11504236
0.019911334 0.74231637 0.0671435 11439213
0.019543998 0.74228156 0.067142323 11373420
0.019176669 0.74224669 0.067141138 11307627
0.018809333 0.74221182 0.067139961 11307627
0.018147454 0.74300838 0.066620179 11373420
0.017778493 0.74297333 0.066618994 11439213
0.017409541 0.74293834 0.066617802 11439213
0.017040573 0.74290335 0.066616617 11307627
0.01667162 0.7428683 0.066615433 11307627
0.016302653 0.74283332 0.066614248 11373420
0.0159337 0.74279833 0.066613063 11439213
0.01556474 0.74276328 0.066611871 11373420
0.01519578 0.74272829 0.066610686 11373418
0.014517643 0.7435233 0.066090859 11505004
0.014147066 0.74348813 0.066089667 11373418
0.013776474 0.74345297 0.066088483 11373418
0.013405897 0.7434178 0.066087291 11439211
0.013035305 0.74338263 0.066086099 11373418
0.012664728 0.74334753 0.066084906 11373418
0.012294143 0.74331236 0.066083714 11373418
0.011923559 0.74327719 0.066082522 11504234
0.011552967 0.74324203 0.06608133 11504234
0.01118239 0.74320686 0.066080138 11504234
0.010811806 0.74317169 0.066078946 11438441
0.010441221 0.74313653 0.066077754 11504236
0.010070637 0.74310136 0.066076562 11504236
0.0097000524 0.74306619 0.06607537 11635820
0.009329468 0.74303102 0.066074185 11570027
0.0089588836 0.74299592 0.066072993 11569514
0.0085882992 0.74296075 0.066071801 11503721
0.0082177147 0.74292558 0.066070609 11503721
0.0078471228 0.74289042 0.066069417 11569514
0.0074765459 0.74285525 0.066068225 11635307
0.0067642629 0.74364698 0.065548286 11569514
0.0063920617 0.74361169 0.065547094 11635309
0.0060198456 0.74357641 0.065545894 11635309
0.0056476444 0.74354106 0.065544702 11569514
0.0052754283 0.74350578 0.065543503 11569514
0.0049032196 0.74347043 0.065542303 11503721
0.004531011 0.74343514 0.065541111 11569514
0.0041588098 0.7433998 0.065539911 11635305
0.0037866011 0.74336451 0.065538712 11635305
0.0034143925 0.74332917 0.06553752 11504232
0.0030421764 0.74329388 0.06553632 11504232
0.0026699752 0.7432586 0.065535128 11504232
0.0022977591 0.74322325 0.065533929 11635818
0.0019255579 0.7431879 0.065532729 11767404
0.0015533343 0.74315262 0.065531537 11570025
0.0011811256 0.74311733 0.065530337 11569514
0.00080892444 0.74308199 0.065529138 11635307
0.00043670833 0.7430467 0.065527946 11635307
6.4507127e-05 0.74301136 0.065526746 11569514
-0.00030771643 0.74297607 0.065525554 11701100
-0.00067991763 0.74294078 0.065524355 11701100
-0.0010521263 0.74290544 0.065523155 11701100
-0.0014243349 0.74287009 0.065521963 11701100
-0.0021756142 0.74365819 0.065001898 11635307
-0.0025494546 0.74362266 0.065000698 11701100
-0.0029232875 0.74358726 0.064999498 11635307
-0.0032971203 0.74355173 0.064998291 11701100
-0.0036709607 0.74351633 0.064997092 11831916
-0.0040447861 0.7434808 0.064995892 11831916
-0.0044186264 0.7434454 0.064994685 11832686
-0.0047924593 0.74340987 0.064993486 11701100
-0.0051662996 0.74337441 0.064992286 11701100
-0.0055401325 0.74333894 0.064991087 11701100
-0.0059139654 0.74330348 0.06498988 11701100
-0.0066847503 0.74408966 0.064469755 11635307
-0.0070602074 0.74405408 0.064468548 11701100
-0.007435672 0.74401844 0.064467341 11832686
-0.0078111291 0.74398279 0.064466134 11701100
-0.0081865937 0.74394721 0.064464927 11701100
-0.0085620508 0.74391156 0.06446372 11832688
-0.0089375153 0.74387598 0.064462513 11832688
-0.009312965 0.74384034 0.064461306 11701102
-0.009688437 0.74380469 0.064460099 11832688
-0.010063887 0.74376911 0.064458892 11832688
-0.010439351 0.74373347 0.064457685 11832688
-0.010814816 0.74369788 0.064456478 11898479
-0.011190273 0.74366224 0.064455271 11832686
-0.011565737 0.74362659 0.064454064 11701100
-0.012360893 0.74441051 0.063933864 11701100
-0.012737989 0.74437469 0.06393265 11963502
-0.013115063 0.74433893 0.063931435 11963502
-0.01349216 0.74430317 0.063930228 11963502
-0.013869241 0.74426734 0.063929014 11963502
-0.014246322 0.74423158 0.063927799 11898479
-0.014623411 0.74419582 0.063926585 11832686
-0.015000492 0.74416006 0.063925378 11832686
-0.015377581 0.74412429 0.063924164 11832686
-0.016189002 0.7449066 0.063403904 11898479
-0.016567707 0.74487066 0.063402683 11964272
-0.01694642 0.74483478 0.063401468 11964272
-0.017325141 0.74479884 0.063400246 11964272
-0.017703846 0.7447629 0.063399032 11964272
-0.018082559 0.74472696 0.063397817 11964272
-0.018461265 0.74469101 0.063396595 11898479
-0.018839978 0.74465513 0.063395381 11964272
-0.019218691 0.74461919 0.063394159 11964270
-0.019597396 0.74458325 0.063392945 11964270
-0.019976109 0.74454731 0.063391723 11898477
-0.020354822 0.74451137 0.063390508 11898477
-0.020733528 0.74447548 0.063389294 12029293
-0.021112241 0.74443954 0.063388072 12029293
-0.021490954 0.7444036 0.063386858 11963754
-0.021869667 0.74436766 0.063385636 11832168
-0.022248372 0.74433172 0.063384421 11701098
-0.022627085 0.74429584 0.063383207 11701098
-0.023005798 0.74425989 0.063381985 11701098
-0.023384504 0.74422395 0.06338077 11832684
-0.023763224 0.74418801 0.063379548 11832684
-0.02414193 0.74415207 0.063378334 11701098
-0.024520651 0.74411619 0.063377112 11635305
-0.024899349 0.74408025 0.063375898 11701098
-0.025278069 0.7440443 0.063374683 11766123
-0.025656775 0.74400836 0.063373461 11831916
-0.026035488 0.74397242 0.063372247 11831916
-0.026414193 0.74393654 0.063371025 11766123
-0.027272768 0.74471438 0.062850624 11831914
-0.027653106 0.74467826 0.062849395 11831914
-0.028033443 0.7446422 0.062848173 11699814
-0.02841378 0.74460614 0.062846951 11765607
-0.028794102 0.74457002 0.062845729 11765607
-0.02917444 0.74453396 0.062844507 11765607
-0.029554777 0.7444979 0.062843286 11765607
-0.029935129 0.74446177 0.062842064 11831400
-0.030315451 0.74442571 0.062840842 11700328
0.053740531 0.74313486 0.069118455 11441010
0.053378075 0.74310052 0.069117293 11571826
0.053015616 0.74306607 0.069116123 11571826
0.052653156 0.74303174 0.069114961 11506033
0.0522907 0.74299735 0.069113791 11440240
0.051928245 0.74296296 0.069112629 11308654
0.051565785 0.74292856 0.069111466 11308654
0.051203325 0.74289417 0.069110297 11308654
0.05084087 0.74285978 0.069109134 11440240
0.050478414 0.74282539 0.069107965 11440240
0.050115958 0.742791 0.069106802 11308654
0.049753495 0.74275661 0.06910564 11308654
0.049391039 0.74272221 0.06910447 11440240
0.049028583 0.74268782 0.069103308 11440240
0.048829105 0.74180877 0.069618896 11242861
0.048468273 0.74177456 0.069617741 11176814
0.048107442 0.74174029 0.069616579 11242607
0.047746606 0.74170607 0.069615416 11242607
0.047385775 0.74167186 0.069614261 11242607
0.047024943 0.74163759 0.069613099 11242607
0.046664111 0.74160337 0.069611937 11176814
0.04630328 0.74156916 0.069610775 11111021
0.045942448 0.74153489 0.06960962 11111021
0.045581616 0.74150068 0.069608457 11045228
0.045220785 0.7414664 0.069607295 11111021
0.044859953 0.74143219 0.06960614 10980205
0.044499118 0.74139798 0.069604978 10980205
0.044138286 0.74136376 0.069603816 10914666
0.043777455 0.74132949 0.069602653 10914666
0.043416623 0.74129528 0.069601499 10980459
0.043055791 0.74126101 0.069600336 11046252
0.04269496 0.74122679 0.069599174 10914412
0.042334128 0.74119258 0.069598019 10848619
0.041779436 0.7420001 0.069080003 11111021
0.041416977 0.74196571 0.069078833 11111021
0.041054521 0.74193132 0.069077671 11111275
0.040692061 0.74189693 0.069076501 11045482
0.040329605 0.74186254 0.069075339 11177068
0.039967149 0.74182814 0.069074176 11045482
0.039604694 0.74179375 0.069073007 11111273
0.03924223 0.74175936 0.069071844 11111273
0.038879775 0.74172497 0.069070674 11177068
0.038517319 0.74169058 0.069069512 11111275
0.038154863 0.74165618 0.069068342 11111275
0.037792403 0.74162185 0.06906718 11045482
0.037429947 0.7415874 0.069066018 11111275
0.037067488 0.74155307 0.069064848 11177068
0.036705032 0.74151868 0.069063686 11177068
0.036342576 0.74148428 0.069062516 11177068
0.03598012 0.74144989 0.069061354 11045228
0.035396166 0.74225461 0.068543226 10979435
0.035032086 0.7422201 0.068542056 11045228
0.034668006 0.74218553 0.068540886 11111021
0.034303918 0.74215102 0.068539716 11176814
0.033939838 0.74211645 0.068538547 11176814
0.033575751 0.74208194 0.068537377 11111021
0.033211671 0.74204737 0.068536207 11045228
0.032847591 0.74201286 0.068535037 11111021
0.032483503 0.74197829 0.06853386 11111021
0.032119423 0.74194378 0.06853269 11111021
0.031755343 0.74190921 0.068531521 11111021
0.031151883 0.74271214 0.06801334 11373933
0.030786179 0.74267745 0.068012163 11308140
0.030420467 0.74264276 0.068010993 11308140
0.030054763 0.74260807 0.068009816 11242347
0.029689059 0.74257338 0.068008639 11242347
0.029323347 0.74253863 0.068007462 11308140
0.028957635 0.74250394 0.068006285 11308140
0.028591931 0.74246925 0.068005115 11242347
0.028226219 0.74243456 0.068003938 11045228
0.027860507 0.74239987 0.06800276 11242607
0.027494803 0.74236518 0.068001583 11176814
0.027129099 0.74233049 0.068000406 11176814
0.026763387 0.74229574 0.067999229 11242861
0.026397683 0.74226105 0.067998059 11177068
0.026031971 0.74222636 0.067996882 11242347
0.025666267 0.74219167 0.067995705 11242347
0.025300555 0.74215698 0.067994528 11308140
0.024934851 0.74212229 0.06799335 11242347
0.024569139 0.7420876 0.067992181 11308140
0.024203435 0.74205291 0.067991003 11373933
0.023565847 0.74285257 0.067472711 11242347
0.023198511 0.7428177 0.067471527 11308140
0.022831175 0.74278289 0.067470349 11242347
0.022463836 0.74274802 0.067469165 11308140
0.022096507 0.74271315 0.067467988 11439213
0.021729179 0.74267828 0.067466803 11373420
0.021361835 0.74264348 0.067465626 11373420
0.020994507 0.74260861 0.067464441 11373420
0.020627178 0.74257374 0.067463264 11372650
0.020259835 0.74253893 0.067462079 11504236
0.019892506 0.74250406 0.067460902 11439213
0.019525178 0.74246919 0.067459717 11439213
0.019157842 0.74243438 0.06745854 11373420
0.018790506 0.74239951 0.067457356 11373420
0.018128544 0.74319685 0.066938981 11439213
0.017759584 0.74316186 0.066937797 11373420
0.017390631 0.74312687 0.066936612 11439213
0.017021663 0.74309182 0.06693542 11373420
0.016652711 0.74305683 0.066934235 11307627
0.016283743 0.74302185 0.066933051 11373420
0.01591479 0.74298686 0.066931866 11439213
0.01554583 0.74295187 0.066930674 11505006
0.01517687 0.74291682 0.066929489 11439213
0.014498644 0.74371266 0.066411071 11439213
0.014128067 0.7436775 0.066409878 11307627
0.013757482 0.74364233 0.066408686 11373420
0.013386898 0.74360716 0.066407494 11439211
0.013016313 0.743572 0.066406302 11307625
0.012645729 0.74353683 0.06640511 11307625
0.012275152 0.74350166 0.066403918 11307625
0.01190456 0.7434665 0.066402733 11373418
0.011533976 0.74343139 0.066401541 11373418
0.011163391 0.74339622 0.066400349 11373418
0.010792814 0.74336106 0.066399157 11307625
0.010422222 0.74332589 0.066397965 11373420
0.010051645 0.74329072 0.066396773 11373420
0.0096810535 0.74325562 0.066395581 11570027
