# .PCD v0.7 - Point Cloud Data file format
VERSION 0.7
FIELDS x y z rgb
SIZE 4 4 4 4
TYPE F F F U
COUNT 1 1 1 1
WIDTH 1118
HEIGHT 1
VIEWPOINT 0 0 0 1 0 0 0
POINTS 1118
DATA ascii
0.057503939 0.82240957 0.069770627 8618080
0.057576641 0.82204783 0.069771968 8157527
0.057649359 0.82168609 0.069773309 8025941
0.057722077 0.82132435 0.06977465 7762769
0.05779478 0.82096261 0.069775991 7631183
0.057867497 0.82060087 0.069777332 7499599
0.057940215 0.82023907 0.069778673 7302220
0.058012933 0.81987733 0.069780014 7301707
0.058085635 0.81951559 0.069781356 7235914
0.058158353 0.81915385 0.069782697 7366986
0.058231071 0.8187921 0.069784038 7366986
0.058303773 0.81843036 0.069785379 7366986
0.058376491 0.81806862 0.06978672 7235400
0.058449209 0.81770688 0.069788061 7301193
0.058521912 0.81734514 0.069789402 7235400
0.058594629 0.8169834 0.069790743 7301193
0.058667347 0.8166216 0.069792084 7235400
0.05874005 0.81625986 0.069793426 7235400
0.058812767 0.81589812 0.069794767 7235400
0.058885485 0.81553638 0.069796108 7235400
0.058107391 0.81497264 0.069311351 7235400
0.058180436 0.81460929 0.069312699 7235400
0.058253467 0.81424594 0.069314048 7301193
0.058326498 0.81388259 0.069315396 7104328
0.058399528 0.81351924 0.069316737 7104328
0.058472574 0.81315589 0.069318086 7104326
0.058545604 0.81279254 0.069319434 7104326
0.058618635 0.81242919 0.069320783 7104326
0.05869168 0.81206584 0.069322132 7104326
0.058764711 0.81170249 0.069323473 7104328
0.058837742 0.81133914 0.069324821 7235914
0.058063522 0.81075621 0.068840146 7170121
0.05813688 0.81039125 0.068841502 7104328
0.058210239 0.81002629 0.068842858 7170121
0.058283597 0.80966139 0.068844207 7170121
0.058356941 0.80929643 0.068845563 7170121
0.058430299 0.80893147 0.068846911 7170121
0.058503658 0.80856651 0.068848267 7301193
0.058577016 0.80820155 0.068849616 7301193
0.058650374 0.80783659 0.068850972 7301193
0.058723733 0.80747169 0.068852328 7366986
0.058797091 0.80710673 0.068853676 7301193
0.05887045 0.80674177 0.068855032 7301193
0.058100387 0.80613804 0.068370424 7301193
0.058174059 0.80577147 0.068371788 7301193
0.058247745 0.8054049 0.068373144 7301193
0.058321416 0.80503833 0.0683745 7301193
0.058395103 0.80467182 0.068375863 7301191
0.058468774 0.80430526 0.068377219 7301191
0.05854246 0.80393875 0.068378583 7301191
0.058616132 0.80357218 0.068379939 7235398
0.058689818 0.80320561 0.068381295 7301191
0.058763489 0.80283904 0.068382658 7301191
0.058837175 0.80247253 0.068384014 7366468
0.058071002 0.80184954 0.067899488 7366468
0.058145002 0.80148143 0.067900851 7366468
0.058219001 0.80111325 0.067902222 7366468
0.058293 0.80074513 0.067903586 7366468
0.058366999 0.80037695 0.067904949 7300675
0.058440998 0.80000877 0.067906313 7300675
0.05767706 0.79937464 0.067421824 7366468
0.057751387 0.79900485 0.067423195 7300675
0.057825699 0.79863513 0.067424566 7300675
0.057900026 0.7982654 0.067425936 7300675
0.057974353 0.79789561 0.067427307 7300675
0.057212353 0.79725182 0.066942848 7300675
0.057286993 0.79688048 0.066944227 7300675
0.057361633 0.79650915 0.066945605 7300675
0.057436287 0.79613781 0.066946983 7300675
0.057510927 0.79576647 0.066948354 7300675
0.057585567 0.79539508 0.066949733 7300675
0.057660207 0.79502374 0.066951111 7300675
0.057734862 0.7946524 0.066952489 7366468
0.057809502 0.79428101 0.06695386 7300675
0.057884142 0.79390967 0.066955239 7366468
0.057958782 0.79353833 0.066956617 7366468
0.058033437 0.793167 0.066957995 7300675
0.058108076 0.79279566 0.066959366 7300675
0.058182716 0.79242426 0.066960745 7366468
0.057425544 0.79175651 0.066476382 7366468
0.057500511 0.7913835 0.066477761 7300675
0.057575479 0.79101062 0.066479146 7300673
0.057650447 0.79063761 0.066480525 7300673
0.0577254 0.79026467 0.066481911 7300673
0.057800367 0.78989172 0.066483289 7300673
0.057875335 0.78951877 0.066484675 7300675
0.057950303 0.78914583 0.066486061 7300675
0.058025271 0.78877288 0.066487439 7300675
0.057271302 0.7880891 0.066003136 7300675
0.057346582 0.78771454 0.066004522 7300675
0.057421863 0.78733999 0.066005908 7300675
0.057497159 0.78696543 0.066007301 7300675
0.057572439 0.78659087 0.066008687 7300675
0.057647735 0.78621632 0.066010073 7300675
0.057723016 0.78584176 0.066011466 7300675
0.057798311 0.78546721 0.066012852 7300675
0.057873592 0.78509265 0.066014238 7366468
0.057948872 0.7847181 0.066015631 7300421
0.058024168 0.78434354 0.066017017 7300421
0.057274073 0.78364056 0.065532781 7366214
0.057349682 0.7832644 0.065534174 7300421
0.05742529 0.78288823 0.065535568 7300421
0.057500899 0.78251207 0.065536968 7366214
0.057576507 0.78213596 0.065538362 7366214
0.057652116 0.7817598 0.065539755 7366214
0.056904271 0.78104556 0.065055564 7366214
0.056980208 0.78066784 0.065056965 7366214
0.057056144 0.78029007 0.065058358 7432261
0.057132065 0.77991235 0.065059759 7432261
0.057208002 0.77953458 0.065061159 7366468
0.057283923 0.7791568 0.06506256 7300675
0.057359859 0.77877903 0.065063961 7432261
0.057435796 0.77840132 0.065065362 7366468
0.056690827 0.77767271 0.06458123 7366468
0.056767076 0.77729332 0.064582638 7366468
0.05684334 0.776914 0.064584039 7300675
0.05691959 0.77653462 0.064585447 7300675
0.056995839 0.77615529 0.064586855 7300675
0.057072088 0.77577591 0.064588264 7300675
0.057148337 0.77539659 0.064589664 7366468
0.057224587 0.7750172 0.064591072 7432261
0.057300851 0.77463788 0.064592481 7366468
0.056559131 0.77389324 0.064108409 7366468
0.056635708 0.7735123 0.064109817 7431748
0.056712285 0.77313131 0.064111233 7365955
0.056788862 0.77275038 0.064112641 7431748
0.056865424 0.77236938 0.064114057 7365955
0.056942001 0.77198845 0.064115465 7365955
0.057018578 0.77160752 0.06411688 7431748
0.057095155 0.77122653 0.064118288 7431748
0.057171732 0.77084559 0.064119704 7365955
0.057248294 0.77046466 0.064121112 7365955
0.057324871 0.77008367 0.064122528 7431748
0.056586996 0.76931989 0.063638516 7497541
0.056663886 0.76893729 0.063639939 7497541
0.056740776 0.76855475 0.063641354 7497287
0.056817681 0.7681722 0.06364277 7497287
0.056894571 0.76778966 0.063644193 7497287
0.056971461 0.76740706 0.063645609 7365701
0.057048365 0.76702452 0.063647024 7497287
0.057125255 0.76664197 0.063648447 7431494
0.05720216 0.76625943 0.063649863 7431494
0.05727905 0.76587689 0.063651279 7497287
0.05735594 0.76549429 0.063652702 7366214
0.057432845 0.76511174 0.063654117 7366214
0.056699157 0.76432711 0.063170187 7432261
0.056776375 0.76394296 0.06317161 7432261
0.056853592 0.7635588 0.063173033 7432259
0.05693081 0.76317465 0.063174456 7432259
0.057008028 0.7627905 0.063175879 7498054
0.056276277 0.76199627 0.062691987 7432261
0.056353807 0.76161051 0.06269341 7432261
0.056431353 0.76122475 0.06269484 7366468
0.056508884 0.76083899 0.062696271 7366468
0.056586429 0.76045322 0.062697701 7366468
0.056663975 0.76006746 0.062699132 7366468
0.056741506 0.7596817 0.062700562 7498054
0.056819052 0.75929594 0.062701993 7301443
0.056896582 0.75891018 0.062703423 7301443
0.056168035 0.75809991 0.062219582 7235652
0.056245893 0.7577126 0.06222102 7235652
0.056323752 0.75732523 0.062222458 7367238
0.05640161 0.75693786 0.062223896 7367238
0.056479484 0.75655049 0.062225327 7367238
0.055752873 0.75573063 0.061741523 7367238
0.05583106 0.75534171 0.061742969 7301445
0.055909231 0.75495273 0.061744407 7301445
0.055987418 0.75456381 0.061745852 7301443
0.056065604 0.75417483 0.06174729 7235650
0.05614379 0.75378585 0.061748736 7235650
0.056221962 0.75339693 0.061750174 7169857
0.056300148 0.75300795 0.061751619 7235650
0.056378335 0.75261903 0.061753064 7301443
0.055654928 0.75178313 0.061269321 7301445
0.055733442 0.7513926 0.061270766 7301445
0.055811942 0.75100201 0.061272211 7104580
0.055890441 0.75061148 0.061273664 7104580
0.05596894 0.75022089 0.06127511 7170373
0.056047454 0.74983037 0.061276555 7236166
0.056125954 0.74943978 0.061278008 7301445
0.056204468 0.74904925 0.061279453 7235652
0.056282967 0.74865866 0.061280899 7366468
0.056361467 0.74826813 0.061282352 7300675
0.056439981 0.74787754 0.061283797 7169089
0.05651848 0.74748701 0.061285242 7103296
0.056596979 0.74709642 0.061286688 7103296
0.056675479 0.74670589 0.061288141 7103296
0.05595693 0.74584603 0.060804494 6905917
0.056035757 0.74545383 0.060805947 6905917
0.056114584 0.7450617 0.060807399 6775101
0.056193411 0.74466956 0.060808852 6709308
0.056272238 0.74427736 0.060810305 6709054
0.056351066 0.74388522 0.060811758 6445882
0.054434344 0.82787353 0.069099978 11249800
0.054507703 0.82750857 0.069101334 11052421
0.054581061 0.82714361 0.069102682 11184007
0.05551663 0.82692802 0.0695889 11053191
0.055589661 0.82656467 0.069590248 10921605
0.055662692 0.82620132 0.069591597 10659718
0.055735737 0.82583797 0.069592938 10725511
0.055808768 0.82547462 0.069594286 10659466
0.055881798 0.82511127 0.069595635 10593673
0.055954844 0.82474792 0.069596983 10659466
0.056027874 0.82438457 0.069598325 10593673
0.056100905 0.82402122 0.069599673 10462085
0.057033256 0.8238216 0.070085838 10198913
0.057105973 0.82345986 0.07008718 10132091
0.057178676 0.82309812 0.070088521 9671540
0.057251394 0.82273638 0.070089862 9474159
0.057324111 0.82237464 0.070091203 9605745
0.057396814 0.8220129 0.070092544 9145194
0.057469532 0.8216511 0.070093885 9013608
0.05754225 0.82128936 0.070095226 8487262
0.057614967 0.82092762 0.070096567 8750434
0.05768767 0.82056588 0.070097908 8355678
0.057760388 0.82020414 0.070099249 7895127
0.057833105 0.8198424 0.070100591 7894357
0.057905808 0.81948066 0.070101932 7696978
0.057978526 0.81911892 0.070103265 7564877
0.058051243 0.81875718 0.070104606 7499084
0.058123946 0.81839538 0.070105948 7301705
0.058196664 0.81803364 0.070107289 7235912
0.058269382 0.8176719 0.07010863 7301191
0.058342084 0.81731015 0.070109971 7301191
0.058414802 0.81694841 0.070111312 7301191
0.05848752 0.81658667 0.070112653 7235398
0.058560222 0.81622493 0.070113994 7235398
0.05863294 0.81586319 0.070115335 7301191
0.058705658 0.81550145 0.070116676 7235398
0.057926774 0.81493753 0.069633342 7235398
0.057999805 0.81457418 0.069634691 7169605
0.05807285 0.81421083 0.069636039 7235398
0.058145881 0.81384748 0.069637388 7235398
0.058218911 0.81348413 0.069638729 7235398
0.058291957 0.81312078 0.069640078 7104326
0.058364987 0.81275743 0.069641426 7038533
0.058438018 0.81239408 0.069642775 7038533
0.058511049 0.81203073 0.069644123 7104326
0.058584094 0.81166738 0.069645464 7104328
0.058657125 0.81130403 0.069646813 7170121
0.0578821 0.81072092 0.069163561 7170121
0.057955459 0.81035602 0.069164909 7104328
0.058028817 0.80999106 0.069166265 7170121
0.058102176 0.8096261 0.069167621 7170121
0.058175534 0.80926114 0.06916897 7170121
0.058248892 0.80889618 0.069170326 7235914
0.058322236 0.80853122 0.069171675 7235400
0.058395594 0.80816633 0.069173031 7301193
0.058468953 0.80780137 0.069174379 7301193
0.058542311 0.80743641 0.069175735 7301193
0.05861567 0.80707145 0.069177091 7301191
0.058689028 0.80670649 0.06917844 7301191
0.057918176 0.80610257 0.068695255 7301191
0.057991847 0.80573606 0.068696618 7301191
0.058065534 0.8053695 0.068697974 7366984
0.058139205 0.80500293 0.06869933 7301191
0.058212891 0.80463642 0.068700694 7301191
0.058286563 0.80426985 0.06870205 7301191
0.058360249 0.80390328 0.068703406 7301191
0.05843392 0.80353677 0.068704769 7235398
0.058507606 0.8031702 0.068706125 7301191
0.058581278 0.80280364 0.068707481 7301191
0.058654964 0.80243713 0.068708844 7235652
0.057888001 0.80181396 0.068225734 7301445
0.057962 0.80144584 0.068227105 7366468
0.058036 0.80107766 0.068228468 7366468
0.058109999 0.80070955 0.068229832 7300675
0.058183998 0.80034137 0.068231195 7300675
0.058257997 0.79997325 0.068232559 7300675
0.057493255 0.79933888 0.067749485 7366468
0.057567582 0.79896915 0.067750856 7300675
0.057641894 0.79859936 0.067752227 7300675
0.057716221 0.79822963 0.067753598 7366468
0.057790548 0.79785991 0.067754969 7366468
0.057027757 0.79721594 0.067271933 7300675
0.057102397 0.7968446 0.067273311 7300675
0.057177037 0.79647326 0.06727469 7300675
0.057251677 0.79610193 0.067276068 7366468
0.057326332 0.79573059 0.067277439 7300675
0.057400972 0.79535919 0.067278817 7300675
0.057475612 0.79498786 0.067280196 7300675
0.057550251 0.79461652 0.067281574 7366468
0.057624906 0.79424512 0.067282945 7300675
0.057699546 0.79387379 0.067284323 7366468
0.057774186 0.79350245 0.067285702 7366468
0.057848826 0.79313111 0.06728708 7300675
0.057923466 0.79275978 0.067288451 7300675
0.057998121 0.79238838 0.067289829 7366468
0.057240143 0.79172045 0.066806883 7300675
0.057315111 0.7913475 0.066808268 7300675
0.057390079 0.79097456 0.066809647 7300673
0.057465047 0.79060161 0.066811033 7300673
0.057540014 0.79022866 0.066812411 7300673
0.057614982 0.78985572 0.066813797 7300673
0.057689935 0.78948271 0.066815175 7300675
0.057764903 0.78910977 0.066816561 7300675
0.05783987 0.78873682 0.066817939 7300675
0.057085112 0.78805292 0.066335052 7300675
0.057160392 0.78767836 0.066336446 7300675
0.057235673 0.78730381 0.066337831 7300675
0.057310969 0.78692925 0.066339217 7234369
0.057386249 0.78655469 0.06634061 7365955
0.057461545 0.78618014 0.066341996 7300421
0.057536826 0.78580558 0.066343382 7300421
0.057612121 0.78543103 0.066344775 7300421
0.057687402 0.78505647 0.066346161 7366214
0.057762682 0.78468192 0.066347554 7300421
0.057837978 0.78430736 0.06634894 7300421
0.057087094 0.7836042 0.06586612 7300421
0.057162702 0.78322804 0.065867513 7300421
0.057238311 0.78285193 0.065868914 7300421
0.057313919 0.78247577 0.065870307 7366214
0.057389528 0.7820996 0.065871701 7366214
0.057465136 0.78172344 0.065873094 7366214
0.056716502 0.78100908 0.065390319 7300421
0.056792423 0.7806313 0.065391719 7366214
0.056868359 0.78025359 0.06539312 7366214
0.056944281 0.77987581 0.065394521 7366214
0.057020217 0.7794981 0.065395921 7366468
0.057096153 0.77912033 0.065397322 7300675
0.057172075 0.77874255 0.065398723 7366468
0.057248011 0.77836478 0.065400124 7366468
0.056502253 0.77763605 0.064917408 7300675
0.056578502 0.77725667 0.064918816 7300675
0.056654751 0.77687734 0.064920217 7300675
0.056731001 0.77649796 0.064921625 7300675
0.056807265 0.77611864 0.064923033 7300675
0.056883514 0.77573925 0.064924434 7300675
0.056959763 0.77535993 0.064925842 7300675
0.057036012 0.77498055 0.06492725 7432261
0.057112262 0.77460122 0.064928658 7366468
0.056369767 0.7738564 0.064446002 7366468
0.056446329 0.77347547 0.06444741 7431748
0.056522906 0.77309453 0.064448826 7365955
0.056599483 0.77271354 0.064450234 7431748
0.05667606 0.77233261 0.06445165 7431748
0.056752622 0.77195168 0.064453065 7365955
0.056829199 0.77157068 0.064454474 7365955
0.056905776 0.77118975 0.064455889 7365955
0.056982353 0.77080882 0.064457297 7234369
0.05705893 0.77042782 0.064458713 7365955
0.057135493 0.77004689 0.064460121 7431748
0.056396827 0.76928288 0.063977532 7497541
0.056473717 0.76890033 0.063978948 7497541
0.056550607 0.76851779 0.063980371 7497287
0.056627512 0.76813525 0.063981786 7497287
0.056704402 0.76775265 0.063983202 7431494
0.056781292 0.7673701 0.063984625 7365701
0.056858197 0.76698756 0.063986041 7431494
0.056935087 0.76660502 0.063987456 7431494
0.057011992 0.76622248 0.063988879 7366214
0.057088882 0.76583987 0.063990295 7366214
0.057165772 0.76545733 0.063991711 7366214
0.057242677 0.76507479 0.063993126 7366214
0.056508198 0.76428998 0.063510619 7432007
0.056585416 0.76390582 0.063512042 7366214
0.056662634 0.76352167 0.063513465 7366468
0.056739837 0.76313752 0.063514888 7366468
0.056817055 0.76275337 0.063516311 7432261
0.056084514 0.76195896 0.063033834 7366468
0.056162059 0.7615732 0.063035265 7432261
0.05623959 0.76118743 0.063036695 7366468
0.056317136 0.76080167 0.063038126 7432261
0.056394666 0.76041591 0.063039556 7432261
0.056472212 0.76003015 0.063040987 7366468
0.056549743 0.75964445 0.063042417 7498054
0.056627288 0.75925869 0.06304384 7432261
0.056704819 0.75887293 0.063045271 7432261
0.055975482 0.75806248 0.062562853 7235652
0.05605334 0.75767517 0.062564291 7235652
0.056131199 0.7572878 0.062565729 7301445
0.056209058 0.75690043 0.06256716 7367238
0.056286916 0.75651306 0.062568597 7367238
0.055559516 0.75569308 0.062086217 7301445
0.055637702 0.7553041 0.062087655 7301445
0.055715889 0.75491518 0.0620891 7301445
0.055794075 0.7545262 0.062090538 7301443
0.055872247 0.75413722 0.062091984 7235650
0.055950433 0.7537483 0.062093422 7235650
0.056028619 0.75335932 0.062094867 7169857
0.056106806 0.75297034 0.062096305 7235650
0.056184977 0.75258142 0.062097751 7301443
0.055460781 0.7517454 0.061615422 7301445
0.05553928 0.75135481 0.061616875 7301445
0.055617794 0.75096428 0.061618321 7301445
0.055696294 0.75057375 0.061619766 7301445
0.055774793 0.75018317 0.061621219 7236166
0.055853307 0.74979258 0.061622664 7301959
0.055931807 0.74940205 0.06162411 7301445
0.056010306 0.74901152 0.061625555 7301445
0.05608882 0.74862093 0.061627008 7432261
0.056167319 0.7482304 0.061628453 7300675
0.056245834 0.74783981 0.061629899 7300675
0.056324333 0.74744928 0.061631352 7169089
0.056402832 0.74705869 0.061632797 7169089
0.056481332 0.74666816 0.061634243 7169089
0.055761993 0.74580812 0.061152019 6971710
0.05584082 0.74541593 0.061153471 6971710
0.055919647 0.74502379 0.061154924 6840894
0.055998474 0.74463165 0.061156377 6775101
0.056077302 0.74423945 0.06115783 6840124
0.056156129 0.74384731 0.061159283 6642745
0.054252937 0.82783824 0.069423392 11711123
0.054326296 0.82747328 0.069424741 11909533
0.054399639 0.82710832 0.069426097 12041119
0.055336013 0.82689291 0.069910891 11778204
0.055409044 0.82652956 0.06991224 11843997
0.055482075 0.82616621 0.069913588 11384216
0.055555105 0.82580286 0.06991493 11186837
0.055628151 0.82543951 0.069916278 11120274
0.055701181 0.82507616 0.069917627 11251860
0.055774212 0.82471281 0.069918975 10988688
0.055847257 0.82434946 0.069920316 10857102
0.055920288 0.82398611 0.069921665 10725257
0.056853428 0.82378668 0.070406407 10527878
0.056926146 0.82342494 0.070407748 10724226
0.056998864 0.82306314 0.070409089 10461054
0.057071567 0.82270139 0.07041043 10197882
0.057144284 0.82233965 0.070411772 10066296
0.057217002 0.82197791 0.070413113 9671538
0.057289705 0.82161617 0.070414454 9737331
0.057362422 0.82125443 0.070415795 9474157
0.05743514 0.82089269 0.070417136 9276778
0.057507843 0.82053095 0.070418477 9210985
0.05758056 0.82016921 0.070419818 9145192
0.057653278 0.81980741 0.070421159 8816227
0.057725981 0.81944567 0.0704225 8421469
0.057798699 0.81908393 0.070423841 8025941
0.057871416 0.81872219 0.070425183 8223320
0.057944119 0.81836045 0.070426524 8026195
0.058016837 0.81799871 0.070427865 8026195
0.058089554 0.81763697 0.070429206 7828049
0.058162272 0.81727523 0.070430547 7499084
0.058234975 0.81691349 0.070431888 7367498
0.058307692 0.81655169 0.070433229 7235912
0.05838041 0.81618994 0.07043457 7235912
0.058453113 0.8158282 0.070435911 7235912
0.058525831 0.81546646 0.070437253 7301191
0.058598548 0.81510472 0.070438594 7235398
0.058671251 0.81474298 0.070439935 7169605
0.058743969 0.81438124 0.070441276 7235398
0.057965264 0.81381238 0.06995938 7169605
0.058038294 0.81344903 0.069960728 7235398
0.058111325 0.81308568 0.069962069 7235398
0.058184355 0.81272233 0.069963418 7169605
0.058257401 0.81235898 0.069964767 7038533
0.058330432 0.81199563 0.069966115 7038533
0.058403462 0.81163228 0.069967456 7104328
0.058476508 0.81126893 0.069968805 7170121
0.058549538 0.81090558 0.069970153 7170121
0.058622569 0.81054223 0.069971502 7104328
0.058695599 0.81017888 0.069972843 7170121
0.057920754 0.80959082 0.069491029 7170121
0.057994112 0.80922586 0.069492385 7170121
0.058067471 0.8088609 0.069493733 7235914
0.058140829 0.808496 0.069495089 7104328
0.058214188 0.80813104 0.069496438 7170121
0.058287546 0.80776608 0.069497794 7235400
0.05836089 0.80740112 0.069499142 7301193
0.058434248 0.80703616 0.069500498 7366984
0.058507606 0.80667126 0.069501854 7301191
0.058580965 0.8063063 0.069503203 7301191
0.058654323 0.80594134 0.069504559 7301191
0.058727682 0.80557638 0.069505908 7366984
0.057956994 0.80496752 0.069024161 7301191
0.05803068 0.80460095 0.069025517 7301191
0.058104351 0.80423445 0.06902688 7235398
0.058178037 0.80386788 0.069028236 7301191
0.058251709 0.80350131 0.069029599 7235398
0.05832538 0.8031348 0.069030955 7301191
0.058399066 0.80276823 0.069032311 7301191
0.058472738 0.80240166 0.069033675 7235398
0.058546424 0.80203515 0.069035031 7235398
0.058620095 0.80166858 0.069036387 7300675
0.058693781 0.80130202 0.06903775 7300675
0.057926983 0.80067396 0.068556078 7366468
0.058000982 0.80030578 0.068557441 7366468
0.058074981 0.79993767 0.068558805 7366468
0.05814898 0.79956949 0.068560176 7366468
0.058222994 0.79920137 0.068561539 7366468
0.058296993 0.79883319 0.068562903 7300675
0.057532415 0.79819393 0.068081267 7366468
0.057606742 0.79782414 0.068082638 7366468
0.057681069 0.79745442 0.068084009 7366214
0.057755381 0.79708469 0.06808538 7300421
0.057829708 0.7967149 0.068086751 7300421
0.05790402 0.79634517 0.068088122 7366214
0.057978347 0.79597539 0.068089493 7300421
0.058052674 0.79560566 0.068090864 7300421
0.057291016 0.79495198 0.06760928 7300421
0.057365656 0.79458064 0.067610659 7366214
0.057440296 0.79420924 0.06761203 7366214
0.057514936 0.7938379 0.067613408 7366214
0.057589591 0.79346657 0.067614786 7366214
0.05766423 0.79309523 0.067616165 7300421
0.05773887 0.79272389 0.067617536 7300421
0.05781351 0.7923525 0.067618914 7300421
0.057888165 0.79198116 0.067620292 7300421
0.057962805 0.79160982 0.067621671 7168835
0.058037445 0.79123843 0.067623042 7300675
0.058112085 0.79086709 0.06762442 7300675
0.05818674 0.79049575 0.067625798 7300673
0.05826138 0.79012442 0.067627177 7300673
0.05750455 0.78944671 0.067145683 7300675
0.057579517 0.78907377 0.067147061 7169089
0.05765447 0.78870082 0.067148447 7300675
0.057729438 0.78832781 0.067149825 7300675
0.057804406 0.78795493 0.067151211 7300675
0.057879373 0.78758192 0.06715259 7169089
0.057954341 0.78720897 0.067153975 7234369
0.058029294 0.78683603 0.067155361 7365955
0.058104262 0.78646308 0.06715674 7300675
0.058179229 0.78609014 0.067158125 7300675
0.058254197 0.78571719 0.067159504 7300675
0.058329165 0.78534424 0.06716089 7366468
0.057576492 0.78464574 0.06667947 7300421
0.057651788 0.78427118 0.066680863 7300421
0.057727069 0.78389663 0.066682249 7300421
0.057802364 0.78352207 0.066683635 7300421
0.057877645 0.78314751 0.066685028 7300421
0.057126924 0.78243941 0.066203646 7366214
0.057202533 0.78206325 0.06620504 7366214
0.057278141 0.78168708 0.066206433 7366214
0.05735375 0.78131092 0.066207826 7366214
0.057429358 0.78093481 0.066209219 7366214
0.057504967 0.78055865 0.06621062 7300421
0.057580575 0.78018248 0.066212013 7366214
0.057656184 0.77980632 0.066213407 7300675
0.057731792 0.77943015 0.0662148 7300675
0.05698429 0.77870607 0.065733477 7300675
0.057060227 0.7783283 0.065734878 7300675
0.057136148 0.77795053 0.065736279 7300675
0.057212085 0.77757281 0.06573768 7300675
0.057288021 0.77719504 0.06573908 7300675
0.057363942 0.77681732 0.065740481 7300675
0.057439879 0.77643955 0.065741882 7366468
0.0575158 0.77606177 0.065743282 7300675
0.056771189 0.77532327 0.06526202 7300675
0.056847438 0.77494389 0.065263428 7432261
0.056923687 0.7745645 0.065264836 7366468
0.056999937 0.77418518 0.065266237 7366468
0.057076201 0.77380586 0.065267645 7366468
0.05715245 0.77342647 0.065269053 7300675
0.057228699 0.77304709 0.065270461 7431748
0.057304949 0.77266777 0.065271862 7431748
0.057381198 0.77228844 0.06527327 7365955
0.057457462 0.77190906 0.065274678 7365955
0.057533711 0.77152967 0.065276079 7365955
0.056792974 0.77077198 0.064794891 7234369
0.056869552 0.77039099 0.064796306 7431748
0.056946129 0.77001005 0.064797714 7431748
0.057022691 0.76962912 0.06479913 7497541
0.057099268 0.76924813 0.064800546 7431748
0.057175845 0.76886719 0.064801954 7431494
0.057252422 0.76848626 0.064803369 7431494
0.057328999 0.76810527 0.064804778 7365701
0.057405561 0.76772434 0.064806193 7234115
0.056668028 0.76695061 0.064325057 7365701
0.056744918 0.76656806 0.064326473 7431494
0.056821823 0.76618546 0.064327888 7366214
0.056898713 0.76580292 0.064329311 7366214
0.056975603 0.76542038 0.064330727 7366214
0.057052508 0.76503783 0.064332142 7366214
0.057129398 0.76465523 0.064333558 7366214
0.057206288 0.76427269 0.064334981 7366214
0.057283193 0.76389015 0.064336397 7300675
0.057360083 0.7635076 0.064337812 7366468
0.057436988 0.76312506 0.064339235 7432261
0.056703314 0.76233208 0.063858166 7366468
0.056780532 0.76194793 0.063859589 7432261
0.05685775 0.76156378 0.063861012 7366468
0.056934968 0.76117963 0.063862443 7432261
0.057012185 0.76079547 0.063863866 7432261
0.057089403 0.76041132 0.063865289 7432261
0.05635798 0.75960714 0.063384265 7498054
0.056435525 0.75922137 0.063385695 7432261
0.056513071 0.75883567 0.063387126 7432261
0.056590602 0.75844991 0.063388556 7432261
0.056668147 0.75806415 0.063389987 7432261
0.056745678 0.75767839 0.063391417 7301445
0.056823224 0.75729263 0.06339284 7433031
0.056900755 0.75690687 0.063394271 7367238
0.056172222 0.75608826 0.062913299 7301445
0.056250095 0.75570095 0.062914737 7367238
0.056327954 0.75531358 0.062916175 7301445
0.056405813 0.7549262 0.062917612 7301443
0.056483671 0.75453883 0.062919043 7301443
0.05656153 0.75415152 0.062920481 7235650
0.056639388 0.75376415 0.062921919 7235650
0.056717247 0.75337678 0.062923357 7235650
0.05679512 0.75298941 0.062924787 7301443
0.056069806 0.75215483 0.062443875 7301445
0.056147993 0.75176591 0.06244532 7367238
0.056226179 0.75137693 0.062446758 7301445
0.056304365 0.75098801 0.062448204 7301445
0.056382537 0.75059903 0.062449649 7367238
0.05565916 0.74975485 0.061968766 7433031
0.055737659 0.74936432 0.061970219 7497800
0.055816159 0.74897373 0.061971664 7497800
0.055894673 0.7485832 0.06197311 7432007
0.055973172 0.74819261 0.061974563 7366214
0.056051672 0.74780208 0.061976008 7300421
0.056130186 0.74741149 0.061977454 7168835
0.056208685 0.74702096 0.061978906 7300421
0.056287184 0.74663037 0.061980352 7168835
0.056365699 0.74623984 0.061981797 7037503
0.056444198 0.74584925 0.061983243 6971710
0.056522697 0.74545872 0.061984695 6971710
0.055803522 0.74459374 0.061503902 6905917
0.05588235 0.7442016 0.061505355 6840124
0.055961177 0.74380946 0.061506808 6642745
0.054071516 0.82780296 0.0697468 12501675
0.054144874 0.827438 0.069748156 12174250
0.054218233 0.8270731 0.069749504 12108457
0.055155382 0.82685781 0.070232883 11911076
0.055228427 0.82649446 0.070234232 11647904
0.055301458 0.82613111 0.07023558 11581595
0.055374488 0.82576776 0.070236921 11318423
0.055447519 0.82540441 0.07023827 11383441
0.055520564 0.82504106 0.070239618 11383441
0.055593595 0.82467771 0.070240967 11316878
0.055666625 0.82431436 0.070242308 11185292
0.055739671 0.82395101 0.070243657 11053706
0.055812702 0.82358766 0.070245005 10790534
0.055885732 0.82322431 0.070246354 10855812
0.055958763 0.82286096 0.070247702 10790019
0.056891739 0.82266647 0.070731007 10658685
0.056964457 0.82230473 0.070732348 10461306
0.057037175 0.82194299 0.070733689 10263927
0.057109877 0.82158118 0.07073503 10198134
0.057182595 0.82121944 0.070736371 9934962
0.057255313 0.8208577 0.070737712 9869169
0.057328016 0.82049596 0.070739053 9803376
0.057400733 0.82013422 0.070740394 9605997
0.057473451 0.81977248 0.070741735 9342825
0.057546169 0.81941074 0.070743077 9342825
0.057618871 0.819049 0.070744418 9211239
0.057691589 0.81868726 0.070745759 9211239
0.057764307 0.81832552 0.0707471 9078883
0.057837009 0.81796372 0.070748441 8881504
0.057909727 0.81760198 0.070749782 8553055
0.057982445 0.81724024 0.070751123 8684641
0.058055148 0.8168785 0.070752464 8618078
0.058127865 0.81651676 0.070753805 8420699
0.058200583 0.81615502 0.070755146 8157527
0.058273286 0.81579328 0.070756488 7762769
0.058346003 0.81543154 0.070757829 7828049
0.058418721 0.81506979 0.07075917 7499084
0.058491424 0.81470799 0.070760503 7301705
0.058564141 0.81434625 0.070761845 7301705
0.057784632 0.81377727 0.070281371 7104326
0.057857677 0.81341392 0.07028272 7104326
0.057930708 0.81305057 0.070284061 7170119
0.058003739 0.81268722 0.07028541 7104326
0.058076769 0.81232387 0.070286758 7104326
0.058149815 0.81196052 0.070288107 7038533
0.058222845 0.81159717 0.070289448 7104328
0.058295876 0.81123382 0.070290796 7170121
0.058368921 0.81087047 0.070292145 7104328
0.058441952 0.81050712 0.070293494 7038535
0.058514982 0.81014377 0.070294842 7170121
0.057739332 0.80955553 0.069814436 7170121
0.057812691 0.80919063 0.069815792 7170121
0.057886049 0.80882567 0.069817148 7170121
0.057959408 0.80846071 0.069818497 7104328
0.058032766 0.80809575 0.069819853 7170121
0.058106124 0.80773079 0.069821201 7235398
0.058179483 0.80736589 0.069822557 7301191
0.058252841 0.80700094 0.069823906 7366984
0.058326185 0.80663598 0.069825262 7301191
0.058399543 0.80627102 0.069826618 7301191
0.058472902 0.80590606 0.069827966 7301191
0.05854626 0.80554116 0.069829322 7301191
0.057774782 0.80493212 0.069348991 7301191
0.057848468 0.80456555 0.069350347 7301191
0.05792214 0.80419898 0.06935171 7235398
0.057995811 0.80383247 0.069353066 7301191
0.058069497 0.8034659 0.069354422 7235398
0.058143169 0.80309933 0.069355786 7301191
0.058216855 0.80273283 0.069357142 7301191
0.058290526 0.80236626 0.069358498 7235398
0.058364213 0.80199969 0.069359861 7235398
0.058437884 0.80163318 0.069361217 7366468
0.05851157 0.80126661 0.069362581 7366468
0.057743981 0.80063838 0.068882324 7366468
0.057817981 0.8002702 0.068883695 7366468
0.05789198 0.79990208 0.068885058 7366468
0.057965979 0.7995339 0.068886422 7366468
0.058039978 0.79916579 0.068887785 7366468
0.058113977 0.79879761 0.068889149 7300675
0.057348609 0.79815817 0.068408936 7366214
0.057422936 0.79778844 0.068410307 7432007
0.057497263 0.79741871 0.068411671 7366214
0.057571575 0.79704893 0.068413042 7300421
0.057645902 0.7966792 0.068414412 7300421
0.057720229 0.79630941 0.068415783 7366214
0.057794541 0.79593968 0.068417154 7300421
0.057868868 0.7955699 0.068418525 7366214
0.057106405 0.79491609 0.067938365 7366214
0.05718106 0.79454476 0.067939743 7366214
0.0572557 0.79417336 0.067941114 7366214
0.05733034 0.79380202 0.067942493 7432007
0.05740498 0.79343069 0.067943871 7366214
0.057479635 0.79305935 0.067945249 7300421
0.057554275 0.79268801 0.06794662 7300421
0.057628915 0.79231662 0.067947999 7366214
0.057703555 0.79194528 0.067949377 7366214
0.057778209 0.79157394 0.067950755 7168835
0.057852849 0.79120255 0.067952126 7300675
0.057927489 0.79083121 0.067953505 7366468
0.058002129 0.79045987 0.067954883 7300675
0.058076784 0.79008853 0.067956261 7300675
0.057319149 0.78941065 0.067476183 7169089
0.057394117 0.7890377 0.067477569 7169089
0.057469085 0.78866476 0.067478947 7300675
0.057544038 0.78829181 0.067480333 7300675
0.057619005 0.78791887 0.067481712 7300675
0.057693973 0.78754592 0.067483097 7300675
0.057768941 0.78717297 0.067484476 7234369
0.057843909 0.78680003 0.067485861 7234369
0.057918876 0.78642702 0.06748724 7365955
0.057993829 0.78605407 0.067488626 7365955
0.058068797 0.78568113 0.067490011 7300675
0.058143765 0.78530818 0.06749139 7366468
0.057390302 0.78460956 0.067011394 7300421
0.057465598 0.784235 0.067012779 7168835
0.057540879 0.78386045 0.067014173 7300421
0.057616174 0.78348589 0.067015558 7300421
0.057691455 0.78311133 0.067016944 7300421
0.056939945 0.78240305 0.066536985 7366214
0.057015553 0.78202689 0.066538379 7366214
0.057091162 0.78165072 0.066539772 7366214
0.05716677 0.78127456 0.066541165 7366214
0.057242379 0.78089845 0.066542566 7366214
0.057317987 0.78052229 0.066543959 7366214
0.057393596 0.78014612 0.066545352 7366214
0.057469204 0.77976996 0.066546746 7300675
0.057544813 0.77939379 0.066548139 7300675
0.056796506 0.77866954 0.06606824 7300675
0.056872442 0.77829182 0.06606964 7300675
0.056948379 0.77791405 0.066071041 7300675
0.0570243 0.77753627 0.066072442 7300675
0.057100236 0.77715856 0.066073835 7300675
0.057176158 0.77678078 0.066075236 7300675
0.057252094 0.77640301 0.066076636 7300675
0.05732803 0.7760253 0.066078037 7300675
0.056582615 0.77528656 0.065598197 7300675
0.056658864 0.77490723 0.065599605 7432261
0.056735113 0.77452791 0.065601006 7366468
0.056811363 0.77414852 0.065602414 7366468
0.056887612 0.77376914 0.065603822 7432261
0.056963876 0.77338982 0.065605231 7300675
0.057040125 0.77301049 0.065606631 7431748
0.057116374 0.77263111 0.065608039 7431748
0.057192624 0.77225173 0.065609448 7234369
0.057268873 0.7718724 0.065610856 7365955
0.057345122 0.77149308 0.065612257 7234369
0.056603611 0.77073514 0.065132491 7365955
0.056680173 0.77035421 0.065133899 7431748
0.05675675 0.76997328 0.065135315 7431748
0.056833327 0.76959229 0.065136723 7497541
0.056909904 0.76921135 0.065138139 7431748
0.056986466 0.76883042 0.065139547 7431748
0.057063043 0.76844943 0.065140963 7431748
0.05713962 0.76806849 0.065142371 7365955
0.057216197 0.7676875 0.065143786 7234369
0.05647786 0.76691365 0.064664066 7365955
0.05655475 0.76653105 0.064665489 7431748
0.056631655 0.76614851 0.064666905 7431748
0.056708544 0.76576596 0.06466832 7497541
0.056785434 0.76538342 0.064669743 7366468
0.056862339 0.76500082 0.064671159 7366468
0.056939229 0.76461828 0.064672574 7366468
0.057016119 0.76423573 0.06467399 7366468
0.057093024 0.76385319 0.064675413 7300675
0.057169914 0.76347065 0.064676829 7300675
0.057246804 0.76308805 0.064678252 7366468
0.056512356 0.76229495 0.064198598 7366468
0.056589574 0.7619108 0.064200021 7366468
0.056666791 0.76152664 0.064201444 7366468
0.056743994 0.76114249 0.064202875 7366468
0.056821212 0.76075834 0.064204298 7366468
0.05689843 0.76037419 0.064205721 7432261
0.056166232 0.75956988 0.063726112 7432261
0.056243762 0.75918412 0.063727543 7432261
0.056321308 0.75879836 0.063728973 7432261
0.056398839 0.7584126 0.063730404 7432261
0.056476384 0.75802684 0.063731834 7432261
0.056553915 0.75764108 0.063733265 7432261
0.056631461 0.75725532 0.063734695 7563847
0.056708992 0.75686955 0.063736126 7498054
0.055979669 0.75605083 0.063256569 7432261
0.056057528 0.75566351 0.063258007 7367238
0.056135386 0.75527614 0.063259445 7301445
0.05621326 0.75488877 0.063260883 7301445
0.056291118 0.7545014 0.063262314 7301445
0.056368977 0.75411409 0.063263752 7301445
0.056446835 0.75372672 0.06326519 7235652
0.056524694 0.75333935 0.06326662 7301445
0.056602553 0.75295198 0.063268058 7367238
0.055876464 0.75211728 0.062788568 7301191
0.055954635 0.7517283 0.062790006 7366984
0.056032822 0.75133938 0.062791452 7366984
0.056111008 0.7509504 0.06279289 7301191
0.056189194 0.75056148 0.062794335 7366984
0.055465013 0.74971712 0.062314875 7432777
0.055543512 0.74932659 0.062316321 7497800
0.055622011 0.748936 0.062317774 7497800
0.055700526 0.74854547 0.062319219 7366214
0.055779025 0.74815488 0.062320665 7366214
0.055857524 0.74776435 0.062322117 7366214
0.055936038 0.74737376 0.062323563 7366214
0.056014538 0.74698323 0.062325008 7366214
0.056093037 0.74659264 0.062326454 7300421
0.056171551 0.74620211 0.062327906 7103042
0.056250051 0.74581152 0.062329352 7037249
0.05632855 0.74542099 0.062330797 7037503
0.055608585 0.74455583 0.061851427 6905917
0.055687413 0.74416369 0.06185288 6839870
0.05576624 0.74377155 0.061854333 6642491
0.053890094 0.82776773 0.070070207 12437170
0.053963453 0.82740277 0.070071563 12240045
0.054036811 0.82703781 0.070072919 12042666
0.054974765 0.82682264 0.070554875 11975583
0.055047795 0.82645929 0.070556223 11712411
0.055120841 0.82609594 0.070557572 11645841
0.055193871 0.82573265 0.070558913 11514255
0.055266902 0.8253693 0.070560262 11513742
0.055339932 0.82500595 0.07056161 11382156
0.055412978 0.8246426 0.070562959 11382156
0.055486009 0.82427925 0.0705643 11250570
0.055559039 0.8239159 0.070565648 11118984
0.055632085 0.82355255 0.070566997 10921605
0.055705115 0.8231892 0.070568345 10921603
0.055778146 0.82282585 0.070569694 10921603
0.056711912 0.82263148 0.071051583 10986880
0.05678463 0.82226974 0.071052924 10921087
0.056857347 0.821908 0.071054265 10855294
0.056930065 0.82154626 0.071055606 10723708
0.057002768 0.82118452 0.071056947 10723708
0.057075486 0.82082278 0.071058288 10526329
0.057148203 0.82046103 0.071059629 10526329
0.057220906 0.82009929 0.07106097 10526329
0.057293624 0.81973749 0.071062312 10328948
0.057366341 0.81937575 0.071063645 10197362
0.057439044 0.81901401 0.071064986 9869167
0.057511762 0.81865227 0.071066327 9869167
0.057584479 0.81829053 0.071067668 9671790
0.057657182 0.81792879 0.07106901 9605997
0.0577299 0.81756705 0.071070351 9408364
0.057802618 0.81720531 0.071071692 9408364
0.05787532 0.81684357 0.071073033 9145192
0.057948038 0.81648177 0.071074374 8947813
0.058020756 0.81612003 0.071075715 9145192
0.058093473 0.81575829 0.071077056 8684641
0.058166176 0.81539655 0.071078397 8683871
0.058238894 0.81503481 0.071079738 8618078
0.058311611 0.81467307 0.07108108 8157529
0.058384314 0.81431133 0.071082421 8354908
0.057604015 0.81374216 0.070603363 7696976
0.057677045 0.81337881 0.070604712 7696976
0.057750091 0.81301546 0.070606053 7499597
0.057823122 0.81265211 0.070607401 7433804
0.057896152 0.81228876 0.07060875 7235912
0.057969183 0.81192541 0.070610099 7235912
0.058042228 0.81156206 0.07061144 7235912
0.058115259 0.81119871 0.070612788 7170119
0.058188289 0.81083536 0.070614137 7170119
0.058261335 0.81047201 0.070615485 7104326
0.058334365 0.81010866 0.070616834 7235398
0.057557926 0.8095203 0.070137851 7301191
0.057631284 0.80915534 0.070139199 7301191
0.057704642 0.80879039 0.070140556 7301191
0.057777986 0.80842543 0.070141912 7235398
0.057851344 0.80806053 0.07014326 7301191
0.057924703 0.80769557 0.070144616 7235398
0.057998061 0.80733061 0.070145965 7301191
0.05807142 0.80696565 0.070147321 7366984
0.058144778 0.80660069 0.070148669 7301191
0.058218136 0.80623573 0.070150025 7301191
0.058291495 0.80587083 0.070151374 7301191
0.058364838 0.80550587 0.07015273 7301191
0.057592571 0.80489665 0.069673821 7301191
0.057666242 0.80453014 0.069675177 7301191
0.057739928 0.80416358 0.069676533 7235398
0.0578136 0.80379701 0.069677897 7301191
0.057887286 0.8034305 0.069679253 7301191
0.057960957 0.80306393 0.069680616 7301191
0.058034644 0.80269736 0.069681972 7235398
0.058108315 0.80233085 0.069683328 7235398
0.058182001 0.80196428 0.069684692 7235398
0.058255672 0.80159771 0.069686048 7366214
0.058329359 0.80123121 0.069687404 7366214
0.057560965 0.80060279 0.069208577 7366468
0.057634965 0.80023468 0.069209941 7366468
0.057708964 0.7998665 0.069211304 7366468
0.057782978 0.79949832 0.069212668 7366468
0.057856977 0.7991302 0.069214031 7366468
0.057930976 0.79876208 0.069215395 7300675
0.057164818 0.79812247 0.068736598 7366214
0.05723913 0.79775268 0.068737969 7366214
0.057313457 0.79738295 0.06873934 7300421
0.057387769 0.79701322 0.068740711 7300421
0.057462096 0.79664344 0.068742082 7300421
0.057536423 0.79627371 0.068743452 7300421
0.057610735 0.79590392 0.068744823 7300421
0.057685062 0.79553419 0.068746194 7366214
0.05692181 0.79488021 0.06826745 7366214
0.05699645 0.79450881 0.068268821 7366214
0.057071105 0.79413748 0.068270199 7366214
0.057145745 0.79376614 0.068271577 7432007
0.057220384 0.7933948 0.068272956 7366214
0.057295024 0.79302347 0.068274327 7300421
0.057369679 0.79265207 0.068275705 7366214
0.057444319 0.79228073 0.068277083 7366214
0.057518959 0.7919094 0.068278462 7300421
0.057593599 0.79153806 0.068279833 7168835
0.057668254 0.79116666 0.068281211 7300421
0.057742894 0.79079533 0.068282589 7300421
0.057817534 0.79042399 0.068283968 7300675
0.057892174 0.79005265 0.068285346 7300675
0.057133749 0.78937459 0.067806683 7300675
0.057208717 0.7890017 0.067808069 7169089
0.057283685 0.7886287 0.067809448 7300675
0.057358652 0.78825575 0.067810833 7300675
0.05743362 0.7878828 0.067812219 7300675
0.057508573 0.78750986 0.067813598 7169089
0.057583541 0.78713691 0.067814983 7234369
0.057658508 0.78676397 0.067816362 7234369
0.057733476 0.78639102 0.067817748 7365955
0.057808444 0.78601807 0.067819126 7234369
0.057883412 0.78564513 0.067820512 7431748
0.057958364 0.78527212 0.06782189 7431748
0.057204112 0.78457332 0.067343317 7300675
0.057279408 0.78419876 0.067344703 7169089
0.057354689 0.78382421 0.067346089 7300421
0.057429969 0.78344965 0.067347482 7300421
0.057505265 0.78307509 0.067348868 7300421
0.05675295 0.78236669 0.066870324 7366214
0.056828558 0.78199053 0.066871718 7300675
0.056904167 0.78161442 0.066873111 7366468
0.056979775 0.78123826 0.066874504 7366468
0.057055384 0.78086209 0.066875905 7366468
0.057130992 0.78048593 0.066877298 7366468
0.057206601 0.78010976 0.066878691 7366468
0.057282209 0.77973366 0.066880085 7300675
0.057357818 0.77935749 0.066881478 7300675
0.056608737 0.77863306 0.066402994 7300675
0.056684658 0.77825528 0.066404395 7300675
0.056760594 0.77787757 0.066405796 7300675
0.056836516 0.77749979 0.066407196 7300675
0.056912452 0.77712202 0.066408597 7300675
0.056988388 0.77674425 0.066409998 7300675
0.05706431 0.77636653 0.066411398 7366468
0.057140246 0.77598876 0.066412799 7300675
0.056394026 0.77524996 0.065934375 7366468
0.056470275 0.77487057 0.065935783 7366468
0.056546539 0.77449119 0.065937184 7366468
0.056622788 0.77411187 0.065938592 7366468
0.056699038 0.77373254 0.06594 7432261
0.056775287 0.77335316 0.065941408 7300675
0.056851536 0.77297378 0.065942809 7431748
0.0569278 0.77259445 0.065944217 7365955
0.057004049 0.77221513 0.065945625 7365955
0.057080299 0.77183574 0.065947026 7365955
0.057156548 0.77145636 0.065948434 7234369
0.056414232 0.77069837 0.065470085 7234369
0.056490809 0.77031738 0.065471493 7431748
0.056567371 0.76993644 0.065472908 7431748
0.056643948 0.76955545 0.065474316 7431748
0.056720525 0.76917452 0.065475732 7431748
0.056797102 0.76879358 0.065477148 7431748
0.056873679 0.76841259 0.065478556 7431748
0.056950241 0.76803166 0.065479971 7366468
0.057026818 0.76765072 0.06548138 7169089
0.056287691 0.76687664 0.065003082 7300675
0.056364581 0.7664941 0.065004498 7366468
0.056441471 0.76611155 0.065005913 7366468
0.056518376 0.76572901 0.065007336 7432261
0.056595266 0.76534641 0.065008752 7366468
0.056672171 0.76496387 0.065010168 7366468
0.056749061 0.76458132 0.065011591 7366468
0.056825951 0.76419878 0.065013006 7366468
0.056902856 0.76381624 0.065014422 7300675
0.056979746 0.76343364 0.065015845 7300675
0.057056636 0.76305109 0.065017261 7366468
0.056321383 0.76225781 0.06453903 7432261
0.0563986 0.76187372 0.064540453 7366468
0.056475818 0.76148951 0.064541884 7366468
0.056553036 0.76110536 0.064543307 7366468
0.056630254 0.76072121 0.06454473 7366468
0.056707472 0.76033705 0.064546153 7366468
0.055974469 0.75953257 0.064067967 7432261
0.056051999 0.75914681 0.064069398 7366468
0.056129545 0.75876105 0.064070828 7432261
0.056207091 0.75837529 0.064072251 7432261
0.056284621 0.75798959 0.064073682 7432261
0.056362167 0.75760382 0.064075112 7366468
0.056439698 0.75721806 0.064076543 7498054
0.056517243 0.7568323 0.064077973 7366468
0.055787116 0.75601339 0.06359984 7366468
0.055864975 0.75562608 0.063601278 7432261
0.055942833 0.75523871 0.063602716 7432261
0.056020692 0.75485134 0.063604146 7301445
0.056098551 0.75446397 0.063605584 7235652
0.056176424 0.75407666 0.063607022 7235652
0.056254283 0.75368929 0.063608453 7235652
0.056332141 0.75330192 0.063609891 7301191
0.05641 0.75291455 0.063611329 7301191
0.055683106 0.75207973 0.063133255 7301191
0.055761293 0.75169075 0.063134693 7366984
0.055839479 0.75130177 0.063136138 7301191
0.05591765 0.75091279 0.063137576 7301191
0.055995837 0.75052387 0.063139021 7301191
0.055270866 0.74967939 0.062660985 7432777
0.055349365 0.7492888 0.06266243 7497800
0.055427864 0.74889827 0.062663876 7497800
0.055506378 0.74850768 0.062665328 7432007
0.055584878 0.74811715 0.062666774 7366214
0.055663377 0.74772656 0.062668219 7366214
0.055741891 0.74733603 0.062669665 7432007
0.055820391 0.74694544 0.062671117 7366214
0.05589889 0.74655491 0.062672563 7300421
0.055977404 0.74616432 0.062674008 7168835
0.056055903 0.74577379 0.062675461 7103042
0.056134403 0.74538326 0.062676907 7037503
0.055413634 0.74451792 0.062198952 6971710
0.055492461 0.74412578 0.062200405 6905917
0.055571288 0.74373364 0.062201858 6708538
0.053708687 0.82773244 0.070393622 12108459
0.053782046 0.82736748 0.07039497 11975326
0.053855389 0.82700253 0.070396326 11777947
0.054794148 0.82678753 0.070876867 11776146
0.054867178 0.82642418 0.070878215 11710353
0.054940209 0.82606083 0.070879564 11644556
0.055013254 0.82569748 0.070880905 11512970
0.055086285 0.82533419 0.070882253 11446664
0.055159315 0.82497084 0.070883602 11512457
0.055232346 0.82460749 0.07088495 11512457
0.055305392 0.82424414 0.070886299 11380871
0.055378422 0.82388079 0.07088764 11315078
0.055451453 0.82351744 0.070888989 11249285
0.055524498 0.82315409 0.070890337 11117953
0.055597529 0.82279074 0.070891686 11117953
0.0565321 0.82259655 0.071372151 11117953
0.056604803 0.82223481 0.071373492 11117953
0.05667752 0.82187307 0.071374834 11052158
0.056750238 0.82151127 0.071376175 10986365
0.056822941 0.82114953 0.071377516 10855292
0.056895658 0.82078779 0.071378857 10789499
0.056968376 0.82042605 0.071380198 10854781
0.057041079 0.82006431 0.071381539 10788988
0.057113796 0.81970257 0.07138288 10723706
0.057186514 0.81934083 0.071384221 10723706
0.057259217 0.81897908 0.071385562 10460534
0.057331935 0.81861734 0.071386904 10592120
0.057404652 0.81825554 0.071388245 10395513
0.05747737 0.8178938 0.071389586 10198134
0.057550073 0.81753206 0.071390927 9869169
0.05762279 0.81717032 0.071392268 9737583
0.057695508 0.81680858 0.071393609 9868915
0.057768211 0.81644684 0.07139495 9803122
0.057840928 0.8160851 0.071396291 9605743
0.057913646 0.81572336 0.071397632 9605743
0.057986349 0.81536162 0.071398973 9605743
0.058059067 0.81499988 0.071400315 9342571
0.058131784 0.81463808 0.071401656 9210987
0.058204487 0.81427634 0.071402997 9013608
0.057423398 0.81370705 0.070925355 8750436
0.057496428 0.8133437 0.070926704 8750436
0.057569459 0.81298035 0.070928045 8750434
0.057642505 0.812617 0.070929393 8421469
0.057715535 0.81225365 0.070930742 8421469
0.057788566 0.8118903 0.07093209 8092504
0.057861596 0.81152695 0.070933439 7763539
0.057934642 0.8111636 0.07093478 7829332
0.058007672 0.81080025 0.070936128 7499084
0.058080703 0.8104369 0.070937477 7499084
0.058153749 0.81007355 0.070938826 7499084
0.057376504 0.80948502 0.070461258 7564877
0.057449862 0.80912006 0.070462614 7367498
0.057523221 0.80875516 0.070463963 7170119
0.057596579 0.8083902 0.070465319 7235398
0.057669938 0.80802524 0.070466667 7301191
0.057743281 0.80766028 0.070468023 7301191
0.05781664 0.80729532 0.070469379 7301191
0.057889998 0.80693036 0.070470728 7366984
0.057963356 0.80656546 0.070472084 7301191
0.058036715 0.8062005 0.070473433 7301191
0.058110073 0.80583555 0.070474789 7301191
0.058183432 0.80547059 0.070476137 7301191
0.057410359 0.80486125 0.069998652 7301191
0.057484031 0.80449474 0.070000008 7366984
0.057557717 0.80412817 0.070001364 7301191
0.057631388 0.8037616 0.070002727 7301191
0.057705075 0.80339503 0.070004083 7366984
0.057778746 0.80302852 0.070005439 7301191
0.057852432 0.80266196 0.070006803 7235398
0.057926103 0.80229539 0.070008159 7235398
0.05799979 0.80192888 0.070009515 7235398
0.058073461 0.80156231 0.070010878 7366468
0.058147147 0.80119574 0.070012234 7366468
0.058220819 0.80082923 0.070013598 7366468
0.058294505 0.80046266 0.070014954 7366468
0.058368176 0.80009609 0.07001631 7300675
0.057599962 0.7994628 0.069538914 7300675
0.057673961 0.79909462 0.069540277 7300675
0.05774796 0.7987265 0.069541648 7300675
0.057821959 0.79835832 0.069543011 7366214
0.057895958 0.7979902 0.069544375 7366214
0.057129651 0.79734719 0.069067001 7366214
0.057203978 0.79697746 0.069068372 7300421
0.05727829 0.79660773 0.069069743 7300421
0.057352617 0.79623795 0.069071114 7300421
0.057426929 0.79586822 0.069072485 7300421
0.057501256 0.79549849 0.069073856 7366214
0.057575583 0.7951287 0.069075227 7235398
0.057649896 0.79475898 0.069076598 7235398
