# .PCD v0.7 - Point Cloud Data file format
VERSION 0.7
FIELDS x y z rgb
SIZE 4 4 4 4
TYPE F F F U
COUNT 1 1 1 1
WIDTH 1090
HEIGHT 1
VIEWPOINT 0 0 0 1 0 0 0
POINTS 1090
DATA ascii
-0.033792034 0.78353256 0.015057802 1580055
-0.033600003 0.78353494 0.015384302 1448469
-0.033407986 0.78353727 0.015710786 1448467
-0.03321597 0.78353959 0.016037285 1514260
-0.033023939 0.78354192 0.016363785 2429704
-0.03202492 0.78354418 0.016089723 4995631
-0.031832069 0.78354651 0.016417623 8807504
-0.032447889 0.78354895 0.017343253 9268055
-0.032255858 0.78355128 0.017669752 9530710
-0.032063842 0.7835536 0.017996237 9662296
-0.031871811 0.78355592 0.018322736 9793882
-0.031679794 0.78355825 0.01864922 9793882
-0.031487778 0.78356063 0.01897572 9924700
-0.03210938 0.78356296 0.0198915 9924700
-0.031918198 0.78356528 0.020216584 9924700
-0.031727001 0.78356761 0.020541668 9924700
-0.031535804 0.78356993 0.020866752 9793884
-0.031344607 0.78357226 0.021191835 9859677
-0.031153411 0.78357458 0.021516934 9859675
-0.031651706 0.78358835 0.024615034 9925468
-0.031462178 0.78359067 0.024937302 9859675
-0.031272635 0.783593 0.025259584 9859675
-0.031083092 0.78359526 0.025581852 9925468
-0.03171961 0.78359747 0.0264723 9859675
-0.031530902 0.78359973 0.026793167 9859675
-0.031342179 0.78360206 0.027114019 9925468
-0.031963006 0.78362423 0.031976521 9991261
-0.031776786 0.7836265 0.032293163 9925468
-0.031590551 0.78362876 0.032609805 9925468
-0.03224279 0.78363073 0.033473507 9925468
-0.03205739 0.78363299 0.033788741 9991261
-0.031871989 0.78363526 0.034103975 9991261
-0.032527536 0.78363717 0.034962058 9991261
-0.032342955 0.78363943 0.035275884 9991261
-0.03215839 0.7836417 0.03558971 9925468
-0.031973824 0.7836439 0.035903536 9925468
-0.031789243 0.78364617 0.036217362 9728602
-0.031604677 0.78364843 0.036531188 9333844
-0.032265991 0.78365028 0.037379414 8675914
-0.032082245 0.78365254 0.037691832 9004879
-0.031898513 0.78365475 0.038004249 9334360
-0.031714767 0.78365701 0.038316675 9334360
-0.031531021 0.78365922 0.038629092 8939090
-0.032197326 0.78366101 0.03946887 8544332
-0.0320144 0.78366327 0.039779879 8939090
-0.031831488 0.78366548 0.040090896 9728606
-0.031648576 0.78366768 0.040401906 9925981
-0.032319009 0.78366947 0.041234657 9991774
-0.032136917 0.78367168 0.041544259 9925981
-0.03195484 0.78367388 0.041853867 9925981
-0.031772748 0.78367609 0.042163469 9794911
-0.031590655 0.78367835 0.042473078 9663325
-0.032266065 0.78368002 0.04329738 8874579
-0.032084808 0.78368223 0.043605581 7229754
-0.03190355 0.78368443 0.043913774 7821373
-0.031722277 0.78368664 0.044221975 8018752
-0.03154102 0.78368884 0.044530176 7690305
-0.031359762 0.78369105 0.044838369 7229754
-0.032040954 0.78369266 0.045652814 7491127
-0.03186053 0.78369486 0.045959607 7556920
-0.031680092 0.78369707 0.046266399 8347465
-0.031499654 0.78369927 0.046573192 9729118
-0.032474771 0.78373694 0.054778673 10057821
-0.032298476 0.78373909 0.055078425 10057821
-0.03212218 0.78374124 0.055378184 10057821
-0.031945884 0.78374338 0.055677935 10057821
-0.031769589 0.78374553 0.055977687 9992028
-0.032478094 0.78374684 0.056745693 9992028
-0.032302633 0.78374898 0.057044044 10057821
-0.032127157 0.78375113 0.057342388 10057821
-0.031951696 0.78375328 0.057640739 9992028
-0.031776235 0.78375536 0.057939082 9926235
-0.031600758 0.78375751 0.058237426 9926235
-0.032315075 0.78375876 0.05899559 9926235
-0.032140434 0.78376085 0.059292533 9729370
-0.031965792 0.78376299 0.059589468 9663577
-0.032683402 0.78376418 0.060342006 9465944
-0.032509595 0.78376627 0.060637534 9268565
-0.032335788 0.78376842 0.060933068 8742995
-0.032161966 0.7837705 0.061228603 6374447
-0.031988159 0.78377265 0.06152413 5982776
-0.031814352 0.78377473 0.061819665 10522493
-0.032537758 0.78377587 0.062562339 9536104
-0.032364771 0.78377795 0.062856466 8417623
-0.032191798 0.78378004 0.063150592 9728856
-0.032018811 0.78378218 0.063444711 10057821
-0.031845823 0.78378427 0.063738838 10320478
-0.031672835 0.78378636 0.064032964 10254685
-0.031499848 0.7837885 0.064327091 10057306
-0.031326875 0.78379059 0.06462121 10057306
-0.031153888 0.78379267 0.064915337 10057306
-0.031885579 0.78379369 0.065643944 10057306
-0.031713426 0.78379577 0.065936662 9991767
-0.031541258 0.78379792 0.066229381 9991767
-0.031369105 0.78380001 0.066522099 9991767
-0.032671914 0.78380394 0.068252318 9991767
-0.032501414 0.78380603 0.068542227 10057560
-0.032330915 0.78380811 0.068832129 9991767
-0.032160416 0.7838102 0.069122031 9991767
-0.032902852 0.78381109 0.06983234 9925974
-0.032733187 0.78381312 0.070120841 10056790
-0.032563508 0.78381521 0.070409335 10056790
-0.032393843 0.78381729 0.070697829 10188376
-0.032224163 0.78381932 0.070986323 10122583
-0.032054484 0.7838214 0.071274817 10056790
-0.031884819 0.78382343 0.071563318 10056790
-0.03171514 0.78382552 0.071851812 10056790
-0.031545475 0.7838276 0.072140306 10056790
-0.031375796 0.78382963 0.072428808 10122329
-0.031206116 0.78383172 0.072717302 10122329
-0.031036451 0.7838338 0.073005795 10122329
-0.030866772 0.78383583 0.073294289 10122329
-0.030697107 0.78383791 0.073582783 10451812
-0.030527428 0.78383994 0.073871285 11175535
-0.030357748 0.78384203 0.074159779 11504754
-0.030188084 0.78384411 0.074448273 11702133
-0.030018404 0.78384614 0.074736774 11767924
-0.02984874 0.78384823 0.075025268 11833717
-0.02967906 0.78385031 0.075313762 11767924
-0.02950938 0.78385234 0.075602256 11833717
-0.036732659 0.78314096 0.014011279 1777434
-0.036542296 0.78314328 0.014334962 1843227
-0.036351934 0.78314561 0.014658645 1843227
-0.036161572 0.78314787 0.014982313 1843227
-0.035170823 0.78314841 0.014694214 1645848
-0.034979627 0.78315073 0.015019298 1645848
-0.033986405 0.78315127 0.014735416 1645848
-0.033794388 0.78315359 0.0150619 1580055
-0.033602372 0.78315592 0.015388399 1448469
-0.033410341 0.78315824 0.015714899 1448467
-0.033218324 0.78316063 0.016041383 1514260
-0.033026308 0.78316295 0.016367882 2429704
-0.032834277 0.78316528 0.016694367 5193010
-0.03264226 0.7831676 0.017020866 8675918
-0.032450244 0.78316993 0.017347351 9268055
-0.032258213 0.78317225 0.01767385 9596503
-0.032066196 0.78317463 0.018000335 9793882
-0.03187418 0.78317696 0.018326834 9924698
-0.031682149 0.78317928 0.018653318 9924698
-0.031490132 0.78318161 0.018979818 9924698
-0.032111734 0.7831856 0.019895583 9924698
-0.031920537 0.78318793 0.020220667 9924700
-0.031729341 0.78319025 0.020545751 9924700
-0.031538159 0.78319257 0.020870835 9793884
-0.031346962 0.7831949 0.021195918 9859677
-0.031155765 0.78319722 0.021521002 9859677
-0.031654045 0.78321427 0.024619088 9925468
-0.031464502 0.7832166 0.024941355 9859675
-0.031274959 0.78321886 0.025263622 9859675
-0.031085432 0.78322119 0.02558589 9925468
-0.03172192 0.783225 0.026476324 9859675
-0.031533211 0.78322726 0.02679719 9859675
-0.031344503 0.78322959 0.027118057 9859675
-0.032523975 0.78324986 0.031030573 9859675
-0.032337755 0.78325212 0.031347215 9925468
-0.03215152 0.78325438 0.031663857 9859675
-0.0319653 0.78325665 0.0319805 9925468
-0.031779066 0.78325891 0.032297134 9925468
-0.031592846 0.78326118 0.032613777 9925468
-0.03224507 0.78326482 0.033477463 9925468
-0.032059669 0.78326708 0.033792697 9991261
-0.031874269 0.78326935 0.034107931 9991261
-0.032529801 0.78327292 0.034965992 9991261
-0.03234522 0.78327513 0.035279825 9991261
-0.032160655 0.78327739 0.035593651 9925468
-0.031976089 0.78327966 0.035907477 9925468
-0.031791508 0.78328186 0.036221303 9728602
-0.031606942 0.78328413 0.036535129 9465430
-0.032268256 0.78328764 0.037383333 9268051
-0.03208451 0.78328985 0.037695751 9268051
-0.031900764 0.78329211 0.038008176 9400151
-0.031717017 0.78329432 0.038320594 9334358
-0.031533271 0.78329659 0.038633011 8873811
-0.032199562 0.78329998 0.039472774 8479053
-0.03201665 0.78330225 0.039783783 8939090
-0.031833738 0.78330445 0.0400948 9597020
-0.031650826 0.78330666 0.04040581 9925981
-0.032321244 0.78331006 0.041238539 9925981
-0.032139167 0.78331226 0.041548148 9925981
-0.031957075 0.78331453 0.041857749 9925981
-0.031774983 0.78331673 0.042167358 9794911
-0.031592891 0.78331894 0.04247696 9663325
-0.032268286 0.78332227 0.043301247 9006167
-0.032087028 0.78332448 0.043609448 6966584
-0.03190577 0.78332669 0.043917648 7623740
-0.031724513 0.78332889 0.044225842 7886912
-0.03154324 0.7833311 0.044534042 7492926
-0.031361982 0.7833333 0.044842236 7229754
-0.032043174 0.78333658 0.045656666 7952191
-0.031862751 0.78333873 0.045963459 8873293
-0.031682312 0.78334093 0.046270251 9071958
-0.031501874 0.78334314 0.046577036 9598302
-0.032476932 0.78338903 0.054782435 10057821
-0.032300636 0.78339118 0.055082187 10057821
-0.032124341 0.78339332 0.055381946 10057821
-0.031948045 0.78339547 0.055681698 10057821
-0.031771749 0.78339761 0.05598145 9992028
-0.032480255 0.78340054 0.056749441 9992028
-0.032304794 0.78340268 0.057047784 10057821
-0.032129318 0.78340477 0.057346135 10057821
-0.031953856 0.78340691 0.057644479 9992028
-0.03177838 0.78340906 0.05794283 9992028
-0.031602919 0.7834112 0.058241174 9926235
-0.032317221 0.78341407 0.058999322 9926235
-0.03214258 0.78341615 0.059296258 9729370
-0.031967938 0.7834183 0.059593201 9663577
-0.032685548 0.7834211 0.060345709 9466198
-0.032511726 0.78342324 0.060641244 9268819
-0.032337919 0.78342533 0.060936779 8742995
-0.032164112 0.78342748 0.061232314 6308654
-0.03199029 0.78342956 0.061527841 6114364
-0.031816483 0.78343171 0.061823376 10522495
-0.032539889 0.78343445 0.062566027 9799022
-0.032366902 0.78343654 0.062860154 8285783
-0.032193914 0.78343862 0.06315428 9728856
-0.032020926 0.78344077 0.063448407 10057821
-0.031847954 0.78344285 0.063742533 10320478
-0.031674966 0.78344494 0.06403666 10320478
-0.031501979 0.78344709 0.064330779 10123099
-0.031328991 0.78344917 0.064624906 10123099
-0.031156018 0.78345126 0.064919032 10057306
-0.031887695 0.78345394 0.065647617 10057306
-0.031715527 0.78345603 0.065940335 9991513
-0.031543374 0.78345811 0.066233054 9991513
-0.031371221 0.7834602 0.066525772 9991767
-0.032674015 0.78346747 0.068255961 9991767
-0.032503501 0.7834695 0.068545863 10057560
-0.032333001 0.78347158 0.068835765 9991767
-0.032162502 0.78347367 0.069125667 9991767
-0.032904938 0.78347617 0.069835961 9925974
-0.032735273 0.78347826 0.070124462 10056790
-0.032565594 0.78348029 0.070412956 10056790
-0.032395929 0.78348237 0.07070145 10188122
-0.03222625 0.78348446 0.070989944 10122329
-0.03205657 0.78348649 0.071278438 10122329
-0.031886905 0.78348857 0.071566939 10056536
-0.031717226 0.78349066 0.071855433 10122329
-0.031547561 0.78349268 0.072143927 10122329
-0.031377882 0.78349477 0.072432429 10122329
-0.031208202 0.7834968 0.072720923 10188122
-0.031038538 0.78349888 0.073009416 10122329
-0.030868858 0.78350097 0.07329791 10122329
-0.030699179 0.783503 0.073586404 10452066
-0.030529514 0.78350508 0.073874906 11175789
-0.030359834 0.78350717 0.0741634 11373679
-0.03019017 0.78350919 0.074451894 11636851
-0.03002049 0.78351128 0.074740395 11702644
-0.029850811 0.78351331 0.075028889 11768437
-0.029681146 0.78351539 0.075317383 11767924
-0.029511467 0.78351748 0.075605877 11833717
-0.036734998 0.78276521 0.014015347 1777434
-0.036544636 0.78276753 0.01433903 1777434
-0.036354274 0.78276986 0.014662698 1777434
-0.036163911 0.78277218 0.014986381 1777434
-0.035173178 0.78277105 0.014698297 1645848
-0.034981981 0.78277338 0.015023381 1645848
-0.033988774 0.78277224 0.014739513 1580055
-0.033796743 0.78277457 0.015066013 1514260
-0.033604726 0.78277695 0.015392497 1448467
-0.03341271 0.78277928 0.015718982 1514260
-0.033220679 0.7827816 0.016045481 1580053
-0.033028662 0.78278393 0.01637198 2824462
-0.032836646 0.78278625 0.016698465 4995631
-0.032644615 0.78278863 0.017024964 9004883
-0.032452598 0.78279096 0.017351449 9268055
-0.032260582 0.78279328 0.017677948 9596505
-0.032068551 0.78279561 0.018004432 9662298
-0.031876534 0.78279793 0.018330932 9793884
-0.031684518 0.78280026 0.018657431 9793884
-0.031492487 0.78280264 0.018983915 9924698
-0.032114089 0.78280824 0.019899666 9924698
-0.031922892 0.78281057 0.02022475 9990491
-0.031731695 0.78281289 0.020549834 9990491
-0.031540498 0.78281522 0.020874918 9793882
-0.031349316 0.78281754 0.021200001 9859675
-0.031158119 0.78281987 0.021525085 9859675
-0.03252627 0.78288233 0.031034544 9859675
-0.032340035 0.7828846 0.031351186 9925468
-0.032153815 0.78288686 0.031667829 9859675
-0.03196758 0.78288913 0.031984471 9925468
-0.031781361 0.78289139 0.032301113 9925468
-0.031595126 0.78289366 0.032617755 9925468
-0.03224735 0.7828989 0.033481419 9925468
-0.032061949 0.78290117 0.033796653 9925468
-0.031876549 0.78290337 0.034111887 9991261
-0.032532066 0.78290862 0.034969933 9991261
-0.0323475 0.78291082 0.035283759 9925468
-0.03216292 0.78291309 0.035597593 9794395
-0.031978354 0.78291535 0.035911418 9794395
-0.031793773 0.78291756 0.036225244 9794395
-0.031609207 0.78291982 0.03653907 9399637
-0.032270506 0.78292495 0.037387252 9136465
-0.03208676 0.78292722 0.037699677 9070672
-0.031903028 0.78292942 0.038012095 9400151
-0.031719282 0.78293169 0.038324513 9334358
-0.031535536 0.78293389 0.038636938 8873811
-0.032201812 0.78293896 0.039476678 8413260
-0.0320189 0.78294122 0.039787687 8939090
-0.031835988 0.78294343 0.040098704 9728606
-0.031653062 0.78294563 0.040409714 9991774
-0.032323495 0.7829507 0.041242428 9925981
-0.032141402 0.7829529 0.041552037 9925981
-0.03195931 0.78295511 0.041861638 9925981
-0.031777218 0.78295732 0.04217124 9729118
-0.031595126 0.78295952 0.042480849 9597532
-0.032270521 0.78296453 0.043305121 9203546
-0.032089263 0.78296673 0.043613315 7361342
-0.031907991 0.78296894 0.043921515 7755328
-0.031726733 0.78297114 0.044229716 7886914
-0.031545475 0.78297335 0.044537909 7492926
-0.031364217 0.78297555 0.04484611 7361340
-0.032045394 0.78298044 0.045660518 8348237
-0.031864956 0.78298265 0.045967311 9203546
-0.031684533 0.78298479 0.046274103 9269852
-0.031504095 0.782987 0.046580888 9533024
-0.032306939 0.78302997 0.053106293 10057821
-0.032129809 0.78303212 0.053407453 10057821
-0.031952694 0.78303427 0.053708613 10189407
-0.031775564 0.78303641 0.05400978 10057821
-0.032479092 0.78304106 0.054786198 10057821
-0.032302797 0.78304321 0.05508595 10057821
-0.032126501 0.78304535 0.055385709 10057821
-0.031950206 0.7830475 0.055685461 10057821
-0.03177391 0.78304964 0.055985212 9992028
-0.032482415 0.78305417 0.056753188 9992028
-0.032306939 0.78305632 0.057051532 10057821
-0.032131478 0.78305846 0.057349876 10057821
-0.031956002 0.78306061 0.057648227 9992028
-0.031780541 0.78306276 0.05794657 9992028
-0.03160508 0.78306484 0.058244921 9860442
-0.032319367 0.78306937 0.059003048 9926235
-0.032144725 0.78307146 0.059299983 9729370
-0.031970084 0.7830736 0.059596926 9663577
-0.032687679 0.78307807 0.06034942 9466198
-0.032513872 0.78308016 0.060644954 9268819
-0.03234005 0.78308231 0.060940489 8677202
-0.032166243 0.78308439 0.061236024 6242861
-0.031992435 0.78308654 0.061531551 6311741
-0.031818613 0.78308862 0.061827086 10522493
-0.032542005 0.78309304 0.062569723 9799022
-0.032369033 0.78309512 0.062863849 8219990
-0.032196045 0.78309721 0.063157976 9728856
-0.032023057 0.78309929 0.063452095 10057821
-0.03185007 0.78310144 0.063746221 10320478
-0.031677082 0.78310353 0.064040348 10320478
-0.032406271 0.78310782 0.064773142 10123099
-0.032234117 0.78310996 0.065065861 10057306
-0.032061964 0.78311205 0.065358579 10123099
-0.031889811 0.78311414 0.065651298 10057306
-0.031717643 0.78311622 0.065944016 9991513
-0.03154549 0.78311831 0.066236734 9991513
-0.031373337 0.78312039 0.066529445 9991767
-0.031201184 0.78312248 0.066822164 9925974
-0.031029016 0.78312457 0.067114882 9925974
-0.032676101 0.78313094 0.068259597 9991767
-0.032505602 0.78313297 0.068549499 10057560
-0.032335103 0.78313506 0.068839401 9991767
-0.032164603 0.78313714 0.069129303 9925974
-0.032907024 0.78314131 0.069839582 9925974
-0.032737359 0.78314334 0.070128083 9925720
-0.03256768 0.78314543 0.070416577 9925720
-0.032398 0.78314751 0.070705071 9925720
-0.032228336 0.78314954 0.070993565 9925720
-0.032058656 0.78315163 0.071282059 9991513
-0.031888992 0.78315365 0.07157056 9925720
-0.031719312 0.78315574 0.071859054 9991513
-0.031549633 0.78315783 0.072147548 9991513
-0.031379968 0.78315985 0.07243605 9991513
-0.031210288 0.78316194 0.072724544 9991513
-0.031040624 0.78316396 0.073013037 9991513
-0.030870944 0.78316605 0.073301531 9991513
-0.030701265 0.78316814 0.073590025 10452066
-0.0305316 0.78317016 0.073878527 11044203
-0.030361921 0.78317225 0.074167021 11439472
-0.030192241 0.78317434 0.074455515 11702644
-0.030022576 0.78317636 0.074744016 11768437
-0.029852897 0.78317845 0.07503251 11768437
-0.029683232 0.78318048 0.075321004 11767924
-0.029513553 0.78318256 0.075609498 11833717
-0.036737338 0.78238946 0.014019415 1645848
-0.036546975 0.78239179 0.014343083 1645848
-0.036356613 0.78239411 0.014666766 1645848
-0.036166251 0.78239644 0.014990434 1777434
-0.035175517 0.78239369 0.01470238 1645848
-0.034984335 0.78239602 0.015027463 1645848
-0.033991128 0.78239328 0.014743611 1580055
-0.033799112 0.7823956 0.015070096 1514262
-0.033607081 0.78239793 0.015396595 1448469
-0.033415064 0.78240025 0.015723094 1514260
-0.033223048 0.78240258 0.016049579 1580053
-0.033031017 0.78240496 0.016376078 2692876
-0.032839 0.78240728 0.016702563 5390389
-0.032646984 0.78240961 0.017029062 8873297
-0.032454953 0.78241193 0.017355546 9268055
-0.032262936 0.78241426 0.017682046 9531225
-0.03207092 0.78241664 0.01800853 9597018
-0.031878889 0.78241897 0.018335029 9793884
-0.031686872 0.78242129 0.018661514 9793884
-0.031494856 0.78242362 0.018988013 9924698
-0.032116428 0.78243089 0.019903734 9793112
-0.031925231 0.78243321 0.020228833 9924698
-0.031734049 0.78243554 0.020553917 9924698
-0.031542853 0.78243786 0.020879 9924698
-0.031351656 0.78244019 0.021204084 9990491
-0.031160459 0.78244251 0.021529168 9793882
-0.032528549 0.78251475 0.031038523 9859675
-0.03234233 0.78251702 0.031355165 9925468
-0.032156095 0.78251928 0.031671807 9859675
-0.031969875 0.78252155 0.031988442 9925468
-0.03178364 0.78252381 0.032305084 9859675
-0.031597421 0.78252608 0.032621726 9925468
-0.032249615 0.78253293 0.033485375 9925468
-0.032064214 0.7825352 0.033800609 9925468
-0.031878829 0.78253746 0.034115843 9925468
-0.032534331 0.78254431 0.034973875 9925468
-0.032349765 0.78254658 0.035287701 9925468
-0.032165185 0.78254879 0.035601526 9860188
-0.031980619 0.78255105 0.035915352 9860188
-0.031796053 0.78255332 0.036229178 9794395
-0.031611472 0.78255552 0.036543012 9268051
-0.032272771 0.78256232 0.037391178 8675916
-0.032089025 0.78256452 0.037703596 8807502
-0.031905279 0.78256679 0.038016014 9268567
-0.031721532 0.78256899 0.038328439 9334360
-0.031537786 0.78257126 0.038640857 8873557
-0.032204062 0.78257793 0.039480582 8413006
-0.03202115 0.7825802 0.039791591 9004883
-0.031838223 0.7825824 0.040102609 9728606
-0.031655312 0.78258461 0.040413618 9991774
-0.03232573 0.78259128 0.041246317 9925981
-0.032143638 0.78259349 0.041555919 9925981
-0.031961545 0.78259569 0.041865528 9794395
-0.031779453 0.78259796 0.042175129 9202774
-0.031597361 0.78260016 0.042484738 8939602
-0.032272741 0.78260672 0.043308988 8939604
-0.032091483 0.78260893 0.043617189 7623744
-0.031910226 0.78261113 0.043925382 7821123
-0.031728968 0.78261334 0.044233583 8018502
-0.031547695 0.78261554 0.044541776 7559232
-0.031366438 0.78261775 0.044849977 7822404
-0.032047614 0.7826243 0.04566437 8677715
-0.031867176 0.78262651 0.045971163 9138266
-0.031686738 0.78262872 0.046277955 9138266
-0.031506315 0.78263086 0.04658474 9467231
-0.032309115 0.78268039 0.053110071 10057821
-0.032131985 0.78268254 0.053411238 10057821
-0.03195487 0.78268468 0.053712398 10189407
-0.03177774 0.78268683 0.054013558 10057821
-0.032481268 0.78269309 0.05478996 10057821
-0.032304972 0.78269523 0.055089712 10057821
-0.032128677 0.78269738 0.055389471 9992028
-0.031952381 0.78269953 0.055689223 10057821
-0.031776085 0.78270167 0.055988982 9992028
-0.032484561 0.78270787 0.056756929 10057821
-0.0323091 0.78271002 0.05705528 10057821
-0.032133624 0.78271216 0.057353623 10057821
-0.031958163 0.78271425 0.057651967 9992028
-0.031782702 0.78271639 0.057950318 9992028
-0.031607226 0.78271854 0.058248661 9860442
-0.032321513 0.78272468 0.059006773 9926235
-0.032146871 0.78272676 0.059303716 9860442
-0.031972229 0.78272891 0.059600651 9794649
-0.03268981 0.78273499 0.06035313 9465944
-0.032516003 0.78273714 0.060648665 9202772
-0.032342196 0.78273922 0.0609442 8611409
-0.032168373 0.78274137 0.061239727 6177068
-0.031994566 0.78274345 0.061535262 6443327
-0.031820759 0.7827456 0.061830796 10588286
-0.032544136 0.78275156 0.062573418 9601897
-0.032371148 0.78275371 0.062867537 8417623
-0.032198161 0.78275579 0.063161664 9466198
-0.032025188 0.78275788 0.06345579 9926749
-0.031852201 0.78276002 0.063749917 10320478
-0.031679213 0.78276211 0.064044043 10320478
-0.032408386 0.78276807 0.064776815 10123099
-0.032236233 0.78277016 0.065069534 10057306
-0.03206408 0.78277224 0.065362252 10057306
-0.031891927 0.78277433 0.065654971 10057306
-0.031719759 0.78277642 0.065947689 9991513
-0.031547606 0.7827785 0.066240408 10057306
-0.031375453 0.78278059 0.066533118 9991513
-0.031203285 0.78278273 0.066825837 9925720
-0.031031132 0.78278482 0.067118555 9991513
-0.032678202 0.78279442 0.068263233 9991513
-0.032507703 0.78279644 0.068553142 10057306
-0.032337189 0.78279853 0.068843044 9991513
-0.03216669 0.78280061 0.069132946 9991767
-0.03290911 0.7828064 0.069843203 9991767
-0.032739446 0.78280848 0.070131704 9925720
-0.032569766 0.78281051 0.070420198 9925720
-0.032400087 0.7828126 0.070708692 9991513
-0.032230422 0.78281468 0.070997193 9991513
-0.032060742 0.78281671 0.071285687 9991513
-0.031891063 0.78281879 0.071574181 9925720
-0.031721398 0.78282082 0.071862675 9991513
-0.031551719 0.78282291 0.072151169 9991513
-0.031382054 0.78282499 0.072439671 9991513
-0.031212375 0.78282702 0.072728164 9991513
-0.031042695 0.78282911 0.073016658 9991515
-0.03087303 0.78283119 0.07330516 9991515
-0.030703351 0.78283322 0.073593654 10452066
-0.030533686 0.7828353 0.073882148 11044203
-0.030364007 0.78283733 0.074170642 11373679
-0.030194327 0.78283942 0.074459136 11702644
-0.030024663 0.7828415 0.074747637 11636851
-0.029854983 0.78284353 0.075036131 11768437
-0.029685318 0.78284562 0.075324625 11767924
-0.029515639 0.7828477 0.075613126 11833717
-0.036739677 0.78201377 0.014023468 1645848
-0.036549315 0.7820161 0.014347151 1645848
-0.036358953 0.78201836 0.014670834 1645848
-0.03616859 0.78202069 0.014994502 1777434
-0.035978213 0.78202301 0.015318185 1645848
-0.035787851 0.78202534 0.015641853 1645848
-0.034795493 0.78202099 0.01535663 1580055
-0.034604296 0.78202331 0.015681714 1514262
-0.034413099 0.78202564 0.016006798 1448469
-0.033417419 0.78202128 0.015727177 1514260
-0.033225402 0.78202361 0.016053677 1580053
-0.033033386 0.78202593 0.016380176 2692876
-0.032841355 0.78202826 0.01670666 5390389
-0.032649338 0.78203064 0.01703316 8873297
-0.032457322 0.78203297 0.017359644 9268055
-0.032265291 0.78203529 0.017686144 9531225
-0.032073274 0.78203762 0.018012628 9597018
-0.031881258 0.78203994 0.018339127 9793884
-0.031689227 0.78204226 0.018665627 9793884
-0.03149721 0.78204465 0.018992111 9924698
-0.032118782 0.78205353 0.019907817 9793112
-0.031927586 0.78205585 0.020232901 9924698
-0.031736389 0.78205818 0.020557985 9924698
-0.031545207 0.7820605 0.020883083 9924698
-0.03135401 0.78206283 0.021208167 9990491
-0.031162813 0.78206515 0.021533251 9793882
-0.032258555 0.78213406 0.029532909 9925468
-0.032071501 0.78213632 0.02985096 9925468
-0.031884447 0.78213859 0.03016901 9925468
-0.032530844 0.78214717 0.031042494 9859675
-0.032344609 0.78214943 0.031359136 9925468
-0.03215839 0.7821517 0.031675778 9859675
-0.031972155 0.78215396 0.031992421 9925468
-0.031785935 0.78215623 0.032309063 9859675
-0.0315997 0.78215849 0.032625705 9925468
-0.032251894 0.78216702 0.033489332 9925468
-0.032066494 0.78216928 0.033804566 9925468
-0.031881094 0.78217155 0.0341198 9925468
-0.032536596 0.78218001 0.034977816 9925468
-0.03235203 0.78218228 0.035291642 9925468
-0.032167464 0.78218448 0.035605468 9860188
-0.031982884 0.78218675 0.035919294 9860188
-0.031798318 0.78218901 0.03623312 9794395
-0.031613737 0.78219122 0.036546946 9268051
-0.032275021 0.78219962 0.037395097 8675916
-0.032091275 0.78220189 0.037707523 8807502
-0.031907529 0.78220409 0.03801994 9268567
-0.031723797 0.78220636 0.038332358 9334360
-0.031540051 0.78220856 0.038644776 8873557
-0.032206312 0.78221691 0.039484486 8413006
-0.0320234 0.78221917 0.039795496 9004883
-0.031840473 0.78222138 0.040106513 9728606
-0.031657562 0.78222358 0.040417522 9991774
-0.032327965 0.78223187 0.041250199 9925981
-0.032145873 0.78223413 0.041559808 9925981
-0.031963781 0.78223634 0.041869409 9794395
-0.031781688 0.78223854 0.042179018 9202774
-0.031599611 0.78224075 0.04248862 8939602
-0.032274976 0.78224897 0.043312855 8939604
-0.032093704 0.78225118 0.043621056 7623744
-0.031912446 0.78225338 0.043929249 7821123
-0.031731188 0.78225559 0.04423745 8018502
-0.031549931 0.7822578 0.04454565 7559232
-0.031368673 0.78226 0.044853844 7822404
-0.03204982 0.78226817 0.045668222 8677715
-0.031869397 0.78227037 0.045975015 9138266
-0.031688958 0.78227258 0.0462818 9138266
-0.03150852 0.78227478 0.046588592 9467231
-0.032665536 0.78232646 0.052511528 9992028
-0.032488406 0.78232861 0.052812696 10189407
-0.032311291 0.78233081 0.053113855 10057821
-0.03213416 0.78233296 0.053415015 10057821
-0.031957045 0.7823351 0.053716175 10189407
-0.031779915 0.78233725 0.054017335 10057821
-0.032483429 0.78234512 0.054793723 10057821
-0.032307133 0.78234726 0.055093482 10057821
-0.032130837 0.78234941 0.055393234 9992028
-0.031954542 0.78235155 0.055692986 10057821
-0.031778246 0.7823537 0.055992737 9992028
-0.032486722 0.78236157 0.056760676 10057821
-0.032311261 0.78236365 0.05705902 10057821
-0.032135785 0.7823658 0.057357371 10057821
-0.031960323 0.78236794 0.057655714 9992028
-0.032672927 0.78237575 0.05841662 9992028
-0.032498285 0.78237784 0.058713563 9860442
-0.032323644 0.78237998 0.059010498 9926235
-0.032149017 0.78238207 0.059307441 9860442
-0.031974375 0.78238422 0.059604377 9794649
-0.032691956 0.78239197 0.06035684 9465944
-0.032518134 0.78239405 0.060652375 9202772
-0.032344326 0.7823962 0.06094791 8611409
-0.032170519 0.78239828 0.061243437 6177068
-0.032892227 0.78240597 0.06198886 6443327
-0.03271924 0.78240806 0.062282979 10588286
-0.032546267 0.78241014 0.062577106 9601897
-0.032373279 0.78241229 0.062871233 8417623
-0.032200292 0.78241438 0.063165359 9466198
-0.032027304 0.78241646 0.063459486 9926749
-0.031854317 0.78241855 0.063753605 10320478
-0.031681344 0.78242069 0.064047731 10320478
-0.032410502 0.78242826 0.064780489 10123099
-0.032238349 0.78243035 0.065073207 10057306
-0.032066196 0.78243244 0.065365925 10057306
-0.031894028 0.78243452 0.065658644 10057306
-0.031721875 0.78243661 0.065951362 9991513
-0.031549722 0.78243876 0.066244081 10057306
-0.032284677 0.78244627 0.066966981 9991513
-0.032113358 0.78244835 0.067258291 9925720
-0.031942025 0.78245038 0.067549601 9991513
-0.032680288 0.78245789 0.068266876 9991513
-0.032509789 0.78245997 0.068556778 10057306
-0.03233929 0.782462 0.06884668 9991513
-0.032168791 0.78246409 0.069136582 9991767
-0.032911196 0.78247154 0.069846824 9991767
-0.032741517 0.78247356 0.070135325 9925720
-0.032571852 0.78247565 0.070423819 9925720
-0.032402173 0.78247768 0.070712313 9991513
-0.032232508 0.78247976 0.071000814 9991513
-0.032062829 0.78248185 0.071289308 9991513
-0.031893149 0.78248388 0.071577802 9925720
-0.031723484 0.78248596 0.071866296 9991513
-0.031553805 0.78248805 0.07215479 9991513
-0.03138414 0.78249007 0.072443292 9991513
-0.031214461 0.78249216 0.072731785 9991513
-0.031044781 0.78249419 0.073020279 9991515
-0.030875117 0.78249627 0.073308781 9991515
-0.030705437 0.78249836 0.073597275 10452066
-0.030535772 0.78250039 0.073885769 11044203
-0.030366093 0.78250247 0.074174263 11373679
-0.030196413 0.78250456 0.074462757 11702644
-0.030026749 0.78250659 0.074751258 11636851
-0.029857069 0.78250867 0.075039752 11768437
-0.02968739 0.7825107 0.075328246 11767924
-0.029517725 0.78251278 0.075616747 11833717
-0.036742017 0.78163803 0.014027536 1777434
-0.036551654 0.78164035 0.014351204 1645848
-0.036361292 0.78164268 0.014674887 1580055
-0.03617093 0.781645 0.01499857 1645848
-0.035980552 0.78164726 0.015322238 1777434
-0.03579019 0.78164959 0.015645921 1777434
-0.034797832 0.78164357 0.015360713 1580055
-0.034606636 0.78164589 0.015685797 1580055
-0.034415454 0.78164822 0.01601088 1514262
-0.033419788 0.78164226 0.01573129 1645078
-0.033227757 0.78164458 0.016057774 1710871
-0.03303574 0.78164697 0.016384274 3021328
-0.032843724 0.78164929 0.016710758 5653048
-0.032651693 0.78165162 0.017037258 8741971
-0.032459676 0.78165394 0.017363742 9136729
-0.03226766 0.78165627 0.017690241 9334362
-0.032075629 0.78165865 0.018016741 9465948
-0.031883612 0.78166097 0.018343225 9793886
-0.031691596 0.7816633 0.018669724 9662300
-0.031499565 0.78166562 0.018996209 9924698
-0.032121122 0.78167617 0.0199119 9924698
-0.03192994 0.7816785 0.020236984 9924698
-0.031738743 0.78168082 0.020562068 9924698
-0.031547546 0.78168315 0.020887151 9924698
-0.03135635 0.78168547 0.02121225 9990491
-0.031165168 0.7816878 0.021537334 9924698
-0.03226085 0.78176486 0.029536903 9925468
-0.032073796 0.78176713 0.029854953 9925468
-0.031886742 0.78176939 0.030173004 9925468
-0.032533124 0.78177965 0.031046472 9859675
-0.032346904 0.78178191 0.031363115 9925468
-0.03216067 0.78178418 0.031679757 9859675
-0.03197445 0.78178644 0.031996399 9925468
-0.031788215 0.78178871 0.032313034 9859675
-0.031601995 0.78179097 0.032629676 9859675
-0.032254174 0.7818011 0.033493295 9925468
-0.032068774 0.78180337 0.033808529 9925468
-0.031883374 0.78180563 0.034123763 9925468
-0.032538876 0.78181571 0.03498175 9859675
-0.032354295 0.78181797 0.035295583 9859675
-0.032169729 0.78182018 0.035609409 9794395
-0.031985149 0.78182244 0.035923235 9794395
-0.031800583 0.78182471 0.036237061 9728604
-0.031616017 0.78182691 0.036550887 8939088
-0.032277286 0.78183699 0.037399024 8149574
-0.03209354 0.78183919 0.037711442 8610125
-0.031909794 0.78184146 0.038023859 9203544
-0.031726047 0.78184366 0.038336277 9137751
-0.031542301 0.78184593 0.038648702 8611409
-0.032208562 0.78185588 0.03948839 8282444
-0.032025635 0.78185815 0.0397994 9004883
-0.031842723 0.78186035 0.040110417 9728606
-0.031659812 0.78186256 0.040421426 9925981
-0.0323302 0.78187251 0.041254088 9925981
-0.032148108 0.78187472 0.04156369 9925981
-0.031966016 0.78187692 0.041873299 9728602
-0.031783924 0.78187913 0.0421829 8215881
-0.031601846 0.78188133 0.042492509 7623744
-0.031419754 0.7818836 0.04280211 7689023
-0.031237662 0.7818858 0.043111719 7425851
-0.03105557 0.78188801 0.043421321 7294779
-0.031733409 0.78189784 0.044241317 7886916
-0.031552151 0.78190005 0.044549517 7559750
-0.031370893 0.78190225 0.044857711 7757129
-0.031189635 0.78190446 0.045165911 7624514
-0.031008363 0.78190666 0.045474112 7427135
-0.030827105 0.78190887 0.045782305 8216651
-0.030645847 0.78191108 0.046090506 9466718
-0.032667711 0.78197688 0.052515313 10057821
-0.032490581 0.78197902 0.052816473 10189407
-0.032313466 0.78198117 0.053117633 10057821
-0.032136336 0.78198332 0.053418793 10057821
-0.031959221 0.78198552 0.05371996 10057821
-0.031782091 0.78198767 0.05402112 10057821
-0.032485589 0.7819972 0.054797485 10057821
-0.032309294 0.78199935 0.055097237 10057821
-0.032132998 0.78200144 0.055396996 9992028
-0.031956702 0.78200358 0.055696748 9992028
-0.031780407 0.78200573 0.055996507 9992028
-0.032488883 0.7820152 0.056764424 9992028
-0.032313406 0.78201735 0.057062767 9992028
-0.032137945 0.7820195 0.057361111 9992028
-0.031962469 0.78202164 0.057659462 9992028
-0.032675073 0.78203106 0.058420353 9992028
-0.032500431 0.78203315 0.058717288 9926235
-0.032325789 0.78203529 0.059014231 9926235
-0.032151163 0.78203738 0.059311166 9860442
-0.031976521 0.78203952 0.059608109 9794649
-0.032694086 0.78204888 0.060360551 9335128
-0.032520279 0.78205103 0.060656086 9071956
-0.032346457 0.78205311 0.060951613 8743508
-0.03217265 0.7820552 0.061247148 5980202
-0.032894358 0.78206456 0.061992548 6575683
-0.03272137 0.78206664 0.062286675 10260091
-0.032548383 0.78206873 0.062580802 9471081
-0.032375395 0.78207082 0.062874928 8352600
-0.032202423 0.78207296 0.063169047 9597530
-0.032029435 0.78207505 0.063463174 9926495
-0.031856447 0.78207713 0.0637573 10320480
-0.03168346 0.78207928 0.064051427 10320480
-0.032412618 0.78208846 0.064784169 10253917
-0.032240465 0.78209054 0.065076888 10253917
-0.032068312 0.78209263 0.065369599 10057306
-0.031896144 0.78209478 0.065662317 10057306
-0.031723991 0.78209686 0.065955035 9991513
-0.031551838 0.78209895 0.066247754 10057306
-0.032286778 0.78210807 0.066970639 9991513
-0.032115459 0.78211015 0.067261949 10057306
-0.031944126 0.78211224 0.067553259 9991513
-0.032682389 0.78212136 0.068270512 9991513
-0.03251189 0.78212345 0.068560421 10057306
-0.032341391 0.78212547 0.068850324 10057306
-0.032170877 0.78212756 0.069140226 10057306
-0.032000378 0.78212965 0.069430128 9991513
-0.031829879 0.78213173 0.06972003 9991513
-0.032573938 0.78214073 0.07042744 10057306
-0.032404259 0.78214282 0.070715934 10057306
-0.032234594 0.7821449 0.071004435 9991513
-0.032064915 0.78214693 0.071292929 9991513
-0.031895235 0.78214902 0.071581423 9925720
-0.031725571 0.78215104 0.071869917 9925720
-0.031555891 0.78215313 0.072158411 9925720
-0.031386212 0.78215522 0.072446913 9991513
-0.031216547 0.78215724 0.072735406 9991513
-0.031046867 0.78215933 0.0730239 9991513
-0.030877203 0.78216141 0.073312402 9991513
-0.030707523 0.78216344 0.073600896 10517859
-0.030537844 0.78216553 0.07388939 11175789
-0.030368179 0.78216755 0.074177884 11373679
-0.0301985 0.78216964 0.074466377 11636851
-0.030028835 0.78217173 0.074754879 11636851
-0.029859155 0.78217375 0.075043373 11702644
-0.029689476 0.78217584 0.075331867 11767924
-0.029519811 0.78217793 0.075620368 11767924
-0.036744356 0.78126228 0.014031604 1777434
-0.036553994 0.7812646 0.014355272 1645848
-0.036363631 0.78126693 0.014678955 1580055
-0.036173269 0.78126925 0.015002623 1645848
-0.035982892 0.78127158 0.015326306 1777434
-0.03579253 0.7812739 0.015649989 1777434
-0.034800187 0.78126621 0.015364781 1580055
-0.03460899 0.78126854 0.015689865 1580055
-0.034417793 0.78127086 0.016014963 1514262
-0.033422142 0.78126329 0.015735388 1645078
-0.033230111 0.78126562 0.016061872 1710871
-0.033038095 0.78126794 0.016388372 3021328
-0.032846078 0.78127027 0.016714856 5653048
-0.032654062 0.78127259 0.017041355 8741971
-0.032462031 0.78127497 0.01736784 9136729
-0.032270014 0.7812773 0.017694339 9334362
-0.032077998 0.78127962 0.018020824 9465948
-0.031885967 0.78128195 0.018347323 9793886
-0.03169395 0.78128427 0.018673822 9662300
-0.031501934 0.78128666 0.019000307 9924698
-0.032123476 0.78129876 0.019915983 9924698
-0.031932279 0.78130114 0.020241067 9924698
-0.031741098 0.78130347 0.020566151 9924698
-0.031549901 0.78130579 0.020891234 9924698
-0.031358704 0.78130811 0.021216318 9990491
-0.031167507 0.78131044 0.021541417 9924698
-0.032263145 0.78139567 0.029540896 9925468
-0.032076091 0.78139794 0.029858947 9925468
-0.031889036 0.7814002 0.030176997 9925468
-0.032535419 0.78141207 0.031050444 9859675
-0.032349184 0.78141433 0.031367086 9925468
-0.032162964 0.78141659 0.031683728 9859675
-0.031976745 0.78141886 0.03200037 9925468
-0.03179051 0.78142112 0.032317013 9859675
-0.031604275 0.78142339 0.032633655 9859675
-0.032256454 0.78143519 0.033497252 9925468
-0.032071054 0.7814374 0.033812486 9925468
-0.031885654 0.78143966 0.03412772 9925468
-0.032541141 0.7814514 0.034985691 9859675
-0.03235656 0.78145367 0.035299517 9859675
-0.032171994 0.78145593 0.035613343 9794395
-0.031987414 0.78145814 0.035927176 9794395
-0.031802848 0.7814604 0.036241002 9728604
-0.031618282 0.78146267 0.036554828 8939088
-0.032279536 0.78147429 0.037402943 8149574
-0.03209579 0.78147656 0.037715361 8610125
-0.031912044 0.78147876 0.038027778 9203544
-0.031728312 0.78148103 0.038340203 9137751
-0.031544566 0.78148323 0.038652621 8611409
-0.032210797 0.78149486 0.039492294 8282444
-0.032027885 0.78149712 0.039803304 9004883
-0.031844974 0.78149933 0.040114321 9728606
-0.031662047 0.78150153 0.04042533 9925981
-0.032332435 0.78151309 0.04125797 9925981
-0.032150343 0.7815153 0.041567579 9925981
-0.031968251 0.78151751 0.04187718 9728602
-0.031786174 0.78151977 0.042186789 8215881
-0.031604081 0.78152198 0.042496398 7623744
-0.031421989 0.78152418 0.042806 7689023
-0.031239897 0.78152639 0.043115608 7425851
-0.031057805 0.78152859 0.04342521 7294779
-0.031735644 0.7815401 0.044245183 7886916
-0.031554386 0.7815423 0.044553384 7559750
-0.031373113 0.78154451 0.044861585 7757129
-0.031191856 0.78154671 0.045169778 7624514
-0.031010598 0.78154892 0.045477979 7427135
-0.03082934 0.78155112 0.04578618 8216651
-0.030648068 0.78155333 0.046094373 9466718
-0.032669887 0.7816273 0.05251909 10057821
-0.032492757 0.78162944 0.05282025 10189407
-0.032315642 0.78163159 0.053121418 10057821
-0.032138512 0.78163373 0.053422578 10057821
-0.031961396 0.78163588 0.053723738 10057821
-0.031784266 0.78163809 0.054024898 10057821
-0.032487765 0.78164923 0.054801248 10057821
-0.032311469 0.78165138 0.055101007 10057821
-0.032135174 0.78165352 0.055400759 9992028
-0.031958878 0.78165567 0.055700511 9992028
-0.031782582 0.78165781 0.056000262 9992028
-0.032491028 0.7816689 0.056768164 9992028
-0.032315567 0.78167105 0.057066515 9992028
-0.032140091 0.78167313 0.057364859 9992028
-0.03196463 0.78167528 0.057663202 9992028
-0.032677218 0.78168637 0.058424078 9992028
-0.032502577 0.78168845 0.058721013 9926235
-0.032327935 0.7816906 0.059017956 9926235
-0.032153308 0.78169274 0.059314892 9860442
-0.031978667 0.78169483 0.059611835 9794649
-0.032696217 0.78170586 0.060364261 9335128
-0.03252241 0.78170794 0.060659796 9071956
-0.032348603 0.78171003 0.060955323 8743508
-0.032174781 0.78171217 0.061250858 5980202
-0.032896474 0.78172308 0.061996244 6575683
-0.032723501 0.78172523 0.062290363 10260091
-0.032550514 0.78172731 0.06258449 9471081
-0.032377526 0.7817294 0.062878616 8352600
-0.032204539 0.78173155 0.063172743 9597530
-0.032031551 0.78173363 0.063466862 9926495
-0.031858578 0.78173572 0.063760988 10320480
-0.031685591 0.7817378 0.064055115 10320480
-0.032414734 0.78174865 0.064787842 10253917
-0.032242581 0.7817508 0.065080561 10253917
-0.032070428 0.78175288 0.065373272 10057306
-0.03189826 0.78175497 0.06566599 10057306
-0.031726107 0.78175706 0.065958709 9991513
-0.031553954 0.78175914 0.066251427 10057306
-0.032288894 0.78176993 0.066974297 9991513
-0.032117561 0.78177202 0.067265607 10057306
-0.031946227 0.7817741 0.067556918 9991513
-0.032684475 0.78178483 0.068274155 9991513
-0.032513976 0.78178692 0.068564057 10057306
-0.032343477 0.781789 0.068853959 10057306
-0.032172978 0.78179103 0.069143862 10057306
-0.032002479 0.78179312 0.069433764 9991513
-0.03183198 0.7817952 0.069723666 9991513
-0.032576025 0.78180587 0.070431061 10057306
-0.032406345 0.7818079 0.070719555 10057306
-0.032236665 0.78180999 0.071008056 9991513
-0.032067001 0.78181207 0.07129655 9991513
-0.031897321 0.7818141 0.071585044 9925720
-0.031727657 0.78181618 0.071873538 9925720
-0.031557977 0.78181827 0.072162032 9925720
-0.031388298 0.7818203 0.072450534 9991513
-0.031218633 0.78182238 0.072739027 9991513
-0.031048954 0.78182441 0.073027521 9991513
-0.030879274 0.7818265 0.073316023 9991513
-0.030709609 0.78182858 0.073604517 10517859
-0.03053993 0.78183061 0.073893011 11175789
-0.030370265 0.7818327 0.074181505 11373679
-0.030200586 0.78183478 0.074469998 11636851
-0.030030906 0.78183681 0.0747585 11636851
-0.029861242 0.78183889 0.075046994 11702644
-0.029691562 0.78184092 0.075335488 11767924
-0.029521897 0.78184301 0.075623989 11767924
-0.036746696 0.78088659 0.014035657 1777434
-0.036556333 0.78088886 0.01435934 1645848
-0.036365971 0.78089118 0.014683023 1580055
-0.036175594 0.7808935 0.015006691 1645848
-0.035985231 0.78089583 0.015330374 1777434
-0.035794869 0.78089815 0.015654042 1777434
-0.034802526 0.78088886 0.015368864 1777434
-0.034611344 0.78089118 0.015693948 1843227
-0.034420148 0.7808935 0.016019031 1645848
-0.033424497 0.78088427 0.015739486 1645078
-0.03323248 0.78088659 0.01606597 1776664
-0.033040449 0.78088897 0.016392469 3021330
-0.032848433 0.7808913 0.016718954 5521464
-0.032656416 0.78089362 0.017045453 8741973
-0.0324644 0.78089595 0.017371938 9005145
-0.032272369 0.78089827 0.017698437 9268569
-0.032080352 0.7809006 0.018024936 9400155
-0.031888336 0.78090298 0.018351421 9597532
-0.031696305 0.78090531 0.01867792 9465946
-0.031504288 0.78090763 0.019004405 9924952
-0.032125831 0.7809214 0.019920066 9924952
-0.031934634 0.78092372 0.02024515 9924952
-0.031743437 0.78092605 0.020570233 9990745
-0.03155224 0.78092837 0.020895317 9990745
-0.031361058 0.7809307 0.021220401 9990745
-0.031169862 0.78093302 0.021545485 9990745
-0.032265455 0.78102648 0.02954489 9925722
-0.0320784 0.78102875 0.029862925 9925722
-0.031891331 0.78103101 0.030180976 9925722
-0.032537714 0.78104448 0.031054422 9925722
-0.032351479 0.78104675 0.031371057 9925468
-0.032165259 0.78104901 0.031687707 9925468
-0.031979024 0.78105128 0.032004341 9859675
-0.031792805 0.78105354 0.032320984 9859675
-0.03160657 0.78105581 0.032637626 9859675
-0.032258734 0.78106922 0.033501208 9859675
-0.032073334 0.78107148 0.033816442 9925468
-0.031887934 0.78107375 0.034131676 9859675
-0.032543406 0.7810871 0.034989633 9925468
-0.032358825 0.78108937 0.035303459 9925468
-0.032174259 0.78109163 0.035617284 9860188
-0.032833025 0.78110498 0.036469609 9794395
-0.032649279 0.78110719 0.036782026 9531225
-0.032465547 0.78110945 0.037094444 8675916
-0.032281801 0.78111166 0.037406862 8280645
-0.032098055 0.78111386 0.037719287 8872782
-0.031914309 0.78111613 0.038031705 9203544
-0.032578886 0.78112942 0.038874172 9203544
-0.032395974 0.78113163 0.039185181 8348237
-0.032213047 0.78113383 0.039496198 8150858
-0.032030135 0.7811361 0.039807208 9004881
-0.031847224 0.7811383 0.040118225 9531225
-0.031664297 0.78114051 0.040429235 9925981
-0.03233467 0.78115374 0.041261859 9991774
-0.032152578 0.78115594 0.041571468 9729116
-0.031970501 0.78115815 0.04188107 9597530
-0.031788409 0.78116035 0.042190678 9006167
-0.031606317 0.78116256 0.04250028 8282444
-0.031424224 0.78116477 0.042809889 8149574
-0.031242132 0.78116697 0.04311949 7491644
-0.031060055 0.78116924 0.043429099 7162425
-0.031737864 0.78118229 0.044249058 7294011
-0.031556606 0.78118449 0.044557251 7427135
-0.031375349 0.7811867 0.044865452 7953479
-0.031194091 0.78118891 0.045173652 7427131
-0.031012818 0.78119111 0.045481846 7163959
-0.03083156 0.78119332 0.045790046 7491640
-0.030650303 0.78119552 0.04609824 8939086
-0.032672063 0.78127772 0.052522868 10123101
-0.032494932 0.78127986 0.052824035 10123101
-0.032317817 0.78128201 0.053125195 10123101
-0.032140687 0.78128415 0.053426355 10057308
-0.031963572 0.7812863 0.053727515 10123101
-0.032666221 0.78129911 0.054505259 10123101
-0.032489926 0.78130126 0.054805011 10254687
-0.03231363 0.78130341 0.05510477 10123101
-0.032137334 0.78130555 0.055404522 10057821
-0.031961039 0.7813077 0.055704273 10057821
-0.031784743 0.78130984 0.056004032 9992028
-0.032493189 0.78132254 0.056771912 10057821
-0.032317713 0.78132468 0.057070255 9992028
-0.032142252 0.78132683 0.057368606 10057821
-0.031966791 0.78132898 0.05766695 9992028
-0.032679364 0.78134167 0.058427803 9992028
-0.032504722 0.78134376 0.058724746 9992028
-0.032330081 0.7813459 0.059021682 9926235
-0.033045977 0.78135854 0.05977691 9860442
-0.03287217 0.78136063 0.060072437 9794649
-0.032698348 0.78136277 0.060367972 9335128
-0.032524541 0.78136486 0.060663506 9137749
-0.032350734 0.781367 0.060959034 8480336
-0.032176912 0.78136909 0.061254568 5914409
-0.032898605 0.78138167 0.061999932 7035464
-0.032725617 0.78138381 0.062294059 10325114
-0.03255263 0.7813859 0.062588185 9405288
-0.032379657 0.78138798 0.062882312 8286807
-0.032206669 0.78139007 0.063176431 9663577
-0.032033682 0.78139222 0.063470557 9926749
-0.031860694 0.7813943 0.063764684 10254687
-0.031687707 0.78139639 0.06405881 10254687
-0.03241685 0.78140891 0.064791515 10123101
-0.032244697 0.78141099 0.065084234 10123101
-0.032072529 0.78141308 0.065376952 10057308
-0.031900376 0.78141516 0.065669671 10057308
-0.031728223 0.78141725 0.065962382 10188122
-0.03155607 0.78141934 0.066255108 10188122
-0.032290995 0.78143179 0.066977955 9991513
-0.032119662 0.78143388 0.067269266 10057306
-0.031948343 0.78143591 0.067560576 10057306
-0.032686576 0.7814483 0.068277791 10057306
-0.032516077 0.78145039 0.068567693 10057306
-0.032345578 0.78145248 0.068857595 10057306
-0.032175079 0.7814545 0.069147497 10057306
-0.032004565 0.78145659 0.0694374 9991513
-0.031834066 0.78145868 0.069727309 10057306
-0.032578096 0.78147095 0.070434682 10057306
-0.032408431 0.78147304 0.070723176 10057306
-0.032238752 0.78147513 0.071011677 9991513
-0.032069087 0.78147715 0.071300171 10188122
-0.031899408 0.78147924 0.071588665 10122329
-0.031729728 0.78148127 0.071877159 10122329
-0.031560063 0.78148335 0.072165653 10122329
-0.031390384 0.78148544 0.072454154 10188122
-0.031220719 0.78148746 0.072742648 10122329
-0.03105104 0.78148955 0.073031142 9991515
-0.03088136 0.78149164 0.073319644 9925722
-0.030711696 0.78149366 0.073608138 10583398
-0.030542016 0.78149575 0.073896632 11241328
-0.030372337 0.78149778 0.074185126 11504752
-0.030202672 0.78149986 0.074473619 11702131
-0.030032992 0.78150195 0.074762121 11702131
-0.029863328 0.78150398 0.075050615 11767924
-0.029693648 0.78150606 0.075339109 11964533
-0.029523969 0.78150809 0.07562761 11898740
-0.036749035 0.78051084 0.014039725 1777434
-0.036558673 0.78051317 0.014363393 1645848
-0.03636831 0.78051549 0.014687076 1580055
-0.036177933 0.78051776 0.015010759 1645848
-0.035987571 0.78052008 0.015334427 1777434
-0.035797209 0.78052241 0.01565811 1777434
-0.034804881 0.7805115 0.015372947 1777434
-0.034613684 0.78051382 0.015698031 1843227
-0.034422502 0.78051615 0.016023114 1645848
-0.033426866 0.7805053 0.015743583 1645078
-0.033234835 0.78050762 0.016070068 1776664
-0.033042818 0.78050995 0.016396567 3021330
-0.032850787 0.78051227 0.016723052 5521464
-0.032658771 0.7805146 0.017049551 8741973
-0.032466754 0.78051698 0.01737605 9005145
-0.032274738 0.78051931 0.017702535 9268569
-0.032082707 0.78052163 0.018029034 9400155
-0.03189069 0.78052396 0.018355519 9597532
-0.031698674 0.78052628 0.018682018 9465946
-0.031506643 0.78052866 0.019008502 9924952
-0.031314626 0.78053099 0.019335002 9924952
-0.03112261 0.78053331 0.019661501 9924952
-0.030930579 0.78053564 0.019987985 9990745
-0.031893641 0.78066182 0.030184969 9925722
-0.031706586 0.78066409 0.03050302 9925722
-0.031519532 0.78066635 0.03082107 9925468
-0.031332478 0.78066862 0.03113912 9925468
-0.031981319 0.78068376 0.03200832 9859675
-0.031795084 0.78068602 0.032324962 9859675
-0.031608865 0.78068829 0.032641605 9859675
-0.032261014 0.78070331 0.033505164 9859675
-0.032075614 0.78070557 0.033820398 9925468
-0.031890213 0.78070784 0.034135632 9859675
-0.032545671 0.78072286 0.034993574 9925468
-0.032361105 0.78072506 0.0353074 9925468
-0.032176524 0.78072733 0.035621226 9860188
-0.03283529 0.78074229 0.036473528 9794395
-0.032651544 0.78074455 0.036785945 9531225
-0.032467797 0.78074676 0.037098363 8675916
-0.032284051 0.78074902 0.037410788 8280645
-0.032100305 0.78075123 0.037723206 8872782
-0.031916559 0.78075349 0.038035624 9203544
-0.032581136 0.78076839 0.038878076 9203544
-0.032398209 0.7807706 0.039189085 8348237
-0.032215297 0.78077281 0.039500102 8150858
-0.032032385 0.78077501 0.039811112 9004881
