# .PCD v0.7 - Point Cloud Data file format
VERSION 0.7
FIELDS x y z rgb
SIZE 4 4 4 4
TYPE F F F U
COUNT 1 1 1 1
WIDTH 1097
HEIGHT 1
VIEWPOINT 0 0 0 1 0 0 0
POINTS 1097
DATA ascii
0.056578219 0.75922078 0.049156949 10587513
0.056742162 0.75884163 0.049158126 10521720
0.056906089 0.75846249 0.049159288 10521720
0.056387365 0.75750107 0.048646599 10521720
0.056551948 0.75712043 0.048647776 10455927
0.056716532 0.7567398 0.048648953 10455927
0.056881115 0.75635916 0.048650131 10324341
0.057045698 0.75597852 0.048651308 10193267
0.056530848 0.75500804 0.048138633 10324853
0.056696087 0.75462592 0.048139811 10390646
0.056861311 0.75424373 0.048140988 10324853
0.056349069 0.75326735 0.047628328 10324341
0.056514964 0.75288367 0.04762952 10324341
0.056680843 0.75250006 0.047630697 10258548
0.056171179 0.75151765 0.047118068 10192755
0.056337699 0.75113249 0.04711926 10258548
0.055829972 0.75014555 0.04660663 10192755
0.055997148 0.74975896 0.046607822 10258548
0.056164324 0.7493723 0.046609029 10324341
0.054986879 0.74777305 0.045582607 10324341
0.055155367 0.74738348 0.045583814 10258548
0.055323839 0.74699384 0.045585021 10061683
0.055492312 0.7466042 0.045586228 10061683
0.055660784 0.74621457 0.04558742 9995890
0.055829257 0.74582493 0.045588627 9995890
0.055483267 0.82829612 0.065244332 15722193
0.055627123 0.82796341 0.06524536 15458251
0.055770978 0.82763076 0.065246388 15195079
0.055914819 0.82729805 0.065247416 14735300
0.056058675 0.82696539 0.065248445 14406335
0.056984454 0.82698756 0.065762632 14208958
0.057127655 0.82665634 0.065763652 13879993
0.05727087 0.82632518 0.065764681 13682874
0.05741407 0.82599401 0.065765701 13419702
0.05755727 0.82566279 0.065766729 13222836
0.05770047 0.82533163 0.06576775 13091250
0.057843685 0.82500041 0.065768778 12828078
0.057986885 0.82466924 0.065769799 12630699
0.058130085 0.82433808 0.06577082 12565160
0.058273286 0.82400686 0.065771848 12236195
0.058416501 0.82367569 0.065772869 12169373
0.058559701 0.82334447 0.065773897 11906201
0.058702901 0.82301331 0.065774918 11840408
0.058846101 0.82268214 0.065775938 11577236
0.058989316 0.82235092 0.065776967 11510671
0.059132516 0.82201976 0.065777987 11247499
0.059275717 0.82168859 0.065779015 11116167
0.059418917 0.82135737 0.065780036 10918788
0.059562132 0.82102621 0.065781057 10787972
0.058935717 0.82031167 0.065269016 10656386
0.059079573 0.81997901 0.065270044 10721409
0.059223413 0.81964636 0.065271072 10589823
0.059367269 0.81931365 0.0652721 10589310
0.059511125 0.81898093 0.065273128 10589310
0.058888629 0.81825745 0.06476111 10457724
0.059033126 0.81792331 0.064762145 10457724
0.059177637 0.8175891 0.064763181 10589308
0.059322134 0.8172549 0.064764209 10589308
0.05946663 0.81692076 0.064765245 10589308
0.059611127 0.81658655 0.06476628 10655101
0.058993146 0.81585258 0.064254291 10655101
0.059138298 0.81551689 0.064255327 10655101
0.059283435 0.8151812 0.06425637 10720894
0.059428588 0.8148455 0.064257406 10589308
0.05957374 0.81450987 0.064258441 10655103
0.058959648 0.81376684 0.063746482 10655103
0.059105441 0.81342965 0.063747518 10720896
0.059251249 0.81309247 0.063748561 10786689
0.059397042 0.81275535 0.063749604 10983298
0.059542835 0.81241816 0.063750647 10917505
0.059688628 0.81208098 0.06375169 10851712
0.059079081 0.81132746 0.063239768 10917505
0.059225529 0.81098878 0.063240811 10917503
0.059371978 0.81065011 0.063241862 10917503
0.058764994 0.80989069 0.062729947 10983296
0.058912084 0.80955052 0.062730998 10917503
0.059059188 0.8092103 0.062732048 10917503
0.059206277 0.80887014 0.062733099 10983296
0.059353366 0.80852997 0.062734149 10983296
0.058750302 0.80776149 0.062222272 10983296
0.058898032 0.80741984 0.06222333 10983296
0.059045777 0.80707812 0.062224388 10917503
0.05844529 0.80630374 0.061712518 10917503
0.058593675 0.80596054 0.061713576 10983296
0.058742061 0.80561733 0.061714642 10917503
0.058144197 0.80483693 0.061202809 10851710
0.058293223 0.80449224 0.061203875 10655355
0.058442265 0.8041476 0.06120494 10655355
0.058591291 0.80380291 0.061206006 10655355
0.058740333 0.80345821 0.061207071 10721148
0.058146328 0.80266881 0.060695246 10457976
0.05829601 0.80232263 0.060696319 10589562
0.058445692 0.80197644 0.060697392 10260595
0.05785428 0.80118102 0.060185596 9997423
0.058004618 0.80083334 0.060186669 9734253
0.058154941 0.80048567 0.060187742 9471081
0.058305278 0.800138 0.060188815 9734512
0.058455616 0.79979032 0.060189895 9339754
0.058605939 0.79944265 0.060190968 9406833
0.058019057 0.79863673 0.059679195 9801591
0.058170035 0.79828757 0.059680276 10132098
0.058321014 0.79793841 0.059681356 10329477
0.058471993 0.79758924 0.059682436 10135952
0.058622986 0.79724008 0.059683517 10333331
0.058039993 0.79642516 0.059171773 10334876
0.058191627 0.79607451 0.059172854 10269083
0.058343247 0.79572386 0.059173942 9610899
0.057762861 0.79490292 0.058662228 8689797
0.057915136 0.79455078 0.058663316 8095093
0.058067411 0.79419857 0.058664404 6779233
0.058219686 0.79384643 0.058665492 7105624
0.058371961 0.79349428 0.058666579 7829347
0.05779545 0.79266435 0.058154881 8221793
0.057948381 0.79231071 0.058155976 8550758
0.058101296 0.79195702 0.058157071 9142125
0.057527393 0.79112113 0.057645403 9142125
0.057680964 0.790766 0.057646498 9207916
0.057834536 0.79041082 0.057647593 9207916
0.057988107 0.79005563 0.057648696 9667954
0.058141679 0.78970051 0.057649791 9733747
0.05829525 0.78934532 0.057650886 9930610
0.057725877 0.78849894 0.057139255 9930610
0.057880089 0.78814232 0.057140358 9930610
0.057312667 0.78729141 0.056628734 9996403
0.057467535 0.78693324 0.056629837 9996403
0.057622403 0.78657508 0.056630947 10127989
0.057777256 0.78621697 0.056632057 10127989
0.057932138 0.78585875 0.05663316 10062196
0.058087006 0.78550065 0.05663427 10062196
0.057524085 0.78463924 0.056122668 10062196
0.057679608 0.78427958 0.056123778 10127989
0.057835132 0.78391993 0.056124896 10259575
0.057274818 0.78305256 0.055613324 10390646
0.057430983 0.78269142 0.055614434 10324853
0.057587147 0.78233027 0.055615552 10324853
0.057743311 0.78196907 0.055616669 10324853
0.057899475 0.78160793 0.055617787 10390646
0.057343066 0.78073156 0.05510623 10324853
0.057499871 0.78036892 0.055107355 10390646
0.05765669 0.78000629 0.055108473 10324853
0.057813495 0.77964365 0.055109598 10324853
0.057970315 0.77928096 0.055110715 10390646
0.05812712 0.77891833 0.05511184 10324853
0.057575226 0.77803147 0.054600328 10390646
0.057732686 0.77766728 0.054601453 10456439
0.057890147 0.77730316 0.054602578 10456439
0.05734086 0.77641034 0.054091081 10390646
0.057498962 0.77604467 0.054092214 10324853
0.056951627 0.77514732 0.053580731 10324855
0.057110384 0.77478015 0.053581864 10324855
0.057269141 0.77441305 0.053583011 10390646
0.057427898 0.77404588 0.053584144 10390646
0.05758664 0.77367872 0.053585276 10587511
0.057745397 0.77331161 0.053586408 10521718
0.057202592 0.77240378 0.053074956 10456439
0.057362005 0.77203512 0.053076088 10456439
0.057521403 0.77166647 0.053077236 10390646
0.057680815 0.77129781 0.053078368 10390646
0.057840213 0.77092916 0.053079516 10521718
0.057999611 0.7705605 0.053080648 10521718
0.057461321 0.76964223 0.05256924 10521718
0.057621375 0.76927203 0.052570388 10521718
0.057085052 0.76834923 0.05205898 10521718
0.057245761 0.7679776 0.052060127 10521718
0.057406455 0.76760596 0.052061275 10455925
0.056872725 0.76667714 0.051549897 10455925
0.05703406 0.76630402 0.051551044 10521718
0.05719541 0.76593089 0.051552191 10521718
0.056664273 0.76499605 0.051040828 10455925
0.056826264 0.76462144 0.051041991 10455925
0.056988254 0.76424676 0.051043153 10521718
0.056459695 0.76330596 0.05053179 10455925
0.056622341 0.7629298 0.050532952 10521718
0.056095734 0.76198453 0.050021634 10455925
0.056259021 0.76160693 0.050022796 10521718
0.056422308 0.76122928 0.050023958 10521718
0.05658561 0.76085162 0.050025135 10455927
0.056748897 0.76047397 0.050026298 10587513
0.056912184 0.76009631 0.05002746 10521720
0.056390107 0.75914055 0.049516156 10521720
0.056554049 0.75876141 0.049517319 10521720
0.056717977 0.75838226 0.049518496 10521720
0.056198508 0.75742054 0.049007222 10521720
0.056363091 0.7570399 0.049008399 10455927
0.056527674 0.75665927 0.049009576 10324855
0.056692272 0.75627863 0.049010754 10324855
0.056856856 0.755898 0.049011931 10324853
0.056341246 0.75492716 0.048500672 10324853
0.056506485 0.75454503 0.048501849 10324853
0.056671724 0.75416291 0.048503026 10324853
0.056158736 0.75318617 0.047991782 10193269
0.056324616 0.75280249 0.047992975 10193269
0.056490496 0.75241888 0.047994152 10258548
0.055980086 0.75143611 0.047482952 10192755
0.056146622 0.75105101 0.047484145 10455927
0.055638149 0.75006378 0.04697293 10324341
0.055805326 0.74967712 0.046974123 10258548
0.055972502 0.74929047 0.046975315 10324341
0.055318207 0.82822573 0.065559521 15525328
0.055462062 0.82789302 0.065560549 15327435
0.055605903 0.82756037 0.065561578 15130056
0.055749759 0.82722765 0.065562606 14735300
0.055893615 0.826895 0.065563634 14406335
0.056820139 0.82691747 0.066076398 14011839
0.056963339 0.82658625 0.066077426 13814460
0.05710654 0.82625508 0.066078447 13617594
0.057249755 0.82592392 0.066079468 13486008
0.057392955 0.8255927 0.066080496 13222836
0.057536155 0.82526153 0.066081516 13091250
0.057679355 0.82493037 0.066082545 12828078
0.05782257 0.82459915 0.066083565 12696492
0.05796577 0.82426798 0.066084586 12433572
0.058108971 0.82393682 0.066085614 12236193
0.058252171 0.8236056 0.066086635 12038301
0.058395386 0.82327443 0.066087663 11840922
0.058538586 0.82294321 0.066088684 11840408
0.058681786 0.82261205 0.066089705 11577236
0.058825001 0.82228088 0.066090733 11510671
0.058968201 0.82194966 0.066091754 11247499
0.059111401 0.8216185 0.066092782 11116167
0.059254602 0.82128733 0.066093802 10918788
0.059397817 0.82095611 0.066094831 10918788
0.058770657 0.82024133 0.065584205 10787202
0.058914512 0.81990862 0.065585233 10721409
0.059058353 0.81957591 0.065586261 10589823
0.059202209 0.81924325 0.06558729 10589310
0.059346065 0.8189106 0.065588318 10589310
0.058722824 0.81818676 0.065077722 10457724
0.05886732 0.81785256 0.06507875 10457724
0.059011832 0.81751835 0.065079786 10457722
0.059156328 0.81718421 0.065080814 10589308
0.059300825 0.81685001 0.06508185 10589308
0.059445322 0.81651586 0.065082885 10655101
0.058826596 0.81578153 0.064572319 10785917
0.058971748 0.81544584 0.064573355 10785917
0.059116885 0.81511021 0.064574391 10851710
0.059262037 0.81477451 0.064575434 10785917
0.059407189 0.81443882 0.064576469 10785917
0.058792353 0.81369549 0.064065926 10785917
0.058938161 0.81335831 0.064066969 10851710
0.059083953 0.81302118 0.064068012 10851710
0.059229746 0.81268394 0.064069048 10917505
0.059375539 0.81234682 0.064070091 10917505
0.059521347 0.81200963 0.064071134 10851712
0.058911055 0.81125581 0.063560627 10917505
0.059057489 0.81091714 0.063561678 10917503
0.059203938 0.81057847 0.063562721 10983296
0.058596224 0.80981869 0.06305223 10983296
0.058743313 0.80947852 0.06305328 10917503
0.058890402 0.80913836 0.063054331 10851710
0.059037492 0.80879819 0.063055389 10917503
0.059184581 0.80845797 0.063056439 10852480
0.058580771 0.80768919 0.062545978 10852480
0.058728516 0.80734754 0.062547036 10852480
0.058876261 0.80700588 0.062548093 10852480
0.058275014 0.80623108 0.062037647 10983296
0.0584234 0.80588794 0.062038705 10983296
0.058571801 0.80554473 0.062039763 10983296
0.057973176 0.80476397 0.061529353 10917503
0.058122218 0.80441928 0.061530419 10851964
0.058271259 0.80407465 0.061531484 10851964
0.058420286 0.80372995 0.06153255 10917757
0.058569327 0.80338532 0.061533615 10917757
0.057974577 0.80259556 0.061023213 10917757
0.058124259 0.80224937 0.061024286 10917757
0.058273941 0.80190319 0.061025351 10721148
0.057681784 0.80110747 0.060514979 10655355
0.057832122 0.80075979 0.060516052 10589562
0.057982445 0.80041212 0.060517125 10326390
0.058132783 0.80006444 0.060518205 10129524
0.05828312 0.79971677 0.060519278 9932145
0.058433443 0.7993691 0.060520351 9602926
0.057845816 0.79856288 0.060010001 9405547
0.057996795 0.79821372 0.060011081 9602926
0.058147773 0.79786456 0.060012162 9405547
0.058298767 0.79751539 0.060013242 8947311
0.058449745 0.79716617 0.060014322 9868413
0.057866007 0.79635096 0.059503995 9870473
0.058017641 0.7960003 0.059505083 10331024
0.058169276 0.79564965 0.059506163 10794143
0.05758813 0.79482841 0.058995865 11386280
0.05774042 0.79447621 0.058996953 11057575
0.057892695 0.79412407 0.058998048 10860196
0.05804497 0.79377192 0.058999136 10135961
0.058197245 0.79341972 0.059000224 8885894
0.057619974 0.79258955 0.058489949 7699306
0.057772905 0.79223585 0.058491036 6712411
0.05792582 0.79188222 0.058492132 7368283
0.057351172 0.79104602 0.057981886 7105111
0.057504743 0.79069084 0.057982981 8418402
0.057658315 0.79033566 0.057984076 8484195
0.057811886 0.78998053 0.057985179 8878438
0.057965457 0.78962535 0.057986274 9207403
0.058119029 0.78927016 0.05798737 9798770
0.05754891 0.78842348 0.057477154 9535598
0.057703137 0.7880668 0.057478257 9536368
0.057134956 0.78721565 0.056968056 9733747
0.057289824 0.78685749 0.056969158 9733747
0.057444692 0.78649932 0.056970268 9733747
0.057599559 0.78614116 0.056971379 9865333
0.057754427 0.78578299 0.056972481 9865333
0.057909295 0.78542483 0.056973591 9996149
0.057345644 0.78456312 0.056463413 9996149
0.057501167 0.78420347 0.056464523 10062196
0.057656676 0.78384382 0.056465633 10127989
0.057095632 0.78297615 0.055955485 10193269
0.057251796 0.78261501 0.055956602 10193269
0.05740796 0.78225386 0.055957712 10193269
0.057564124 0.78189266 0.05595883 10193269
0.057720289 0.78153151 0.055959947 10324853
0.057163134 0.78065485 0.055449814 10324853
0.057319939 0.78029221 0.055450939 10324853
0.057476759 0.77992952 0.055452056 10193267
0.057633564 0.77956688 0.055453181 10456439
0.057790384 0.77920425 0.055454299 10390646
0.057947189 0.77884161 0.055455424 10324853
0.057394549 0.7779544 0.054945327 10324853
0.05755201 0.77759027 0.054946452 10390646
0.05770947 0.77722609 0.054947577 10456439
0.057159439 0.77633297 0.054437496 10390646
0.057317555 0.7759673 0.054438628 10324853
0.05676946 0.77506965 0.053928569 10324855
0.056928217 0.77470249 0.053929716 10193269
0.057086974 0.77433538 0.053930849 10521718
0.057245731 0.77396822 0.053931981 10521718
0.057404488 0.77360106 0.053933114 10456439
0.057563245 0.77323389 0.053934246 10390646
0.057019696 0.77232575 0.053424209 10390646
0.057179093 0.7719571 0.053425357 10456439
0.057338491 0.77158844 0.053426489 10390646
0.057497904 0.77121979 0.053427637 10390646
0.057657301 0.77085114 0.053428769 10390646
0.057816714 0.77048254 0.053429917 10390646
0.057277679 0.76956385 0.052919924 10390646
0.057437733 0.76919371 0.052921057 10390646
0.056900665 0.76827061 0.052411079 10390646
0.057061359 0.76789892 0.052412227 10390646
0.057222068 0.76752734 0.052413374 10455925
0.056687579 0.76659817 0.051903412 10455925
0.056848928 0.76622504 0.051904559 10521718
0.057010278 0.76585191 0.051905721 10521718
0.056478381 0.76491678 0.051395774 10521718
0.056640387 0.7645421 0.051396936 10521718
0.056802377 0.76416749 0.051398084 10587511
0.056273073 0.76322639 0.050888151 10521718
0.056435719 0.76285022 0.050889313 10521718
0.055908367 0.7619046 0.05037941 10455925
0.056071654 0.761527 0.050380573 10521718
0.056234941 0.76114935 0.050381735 10521718
0.056398243 0.76077169 0.050382912 10521720
0.05656153 0.7603941 0.050384074 10521720
0.056724817 0.76001644 0.050385237 10521720
0.056201994 0.75906032 0.049875349 10521720
0.056365937 0.75868118 0.049876526 10455927
0.05652988 0.75830203 0.049877688 10521720
0.05600965 0.75733995 0.049367845 10521720
0.056174234 0.75695932 0.049369022 10455927
0.056338817 0.75657868 0.049370185 10455927
0.056503415 0.75619805 0.049371362 10455927
0.056667998 0.75581741 0.049372539 10193267
0.056151658 0.75484633 0.048862711 10193267
0.056316882 0.75446415 0.048863888 10193267
0.056482121 0.75408202 0.048865065 10193267
0.055968389 0.75310498 0.048355252 10193269
0.056134284 0.75272131 0.048356429 10193269
0.056300163 0.75233769 0.048357621 10324341
0.055789009 0.75135463 0.047847822 10192755
0.055955529 0.75096953 0.047849014 10258548
0.055446312 0.74998194 0.047339231 10258548
0.055613488 0.74959528 0.047340423 10324341
0.055780679 0.74920869 0.047341615 10324341
0.055510193 0.82949686 0.066381976 16315361
0.055653393 0.8291657 0.066382997 15986396
0.055796593 0.82883447 0.066384025 15722707
0.055939794 0.82850331 0.066385046 15327949
0.056083009 0.82817209 0.066386066 15195851
0.056226209 0.82784092 0.066387095 15130058
0.056369409 0.82750976 0.066388115 14735300
0.056512609 0.82717854 0.066389143 14472128
0.056655824 0.82684737 0.066390164 14077632
0.056799024 0.82651621 0.066391192 13814460
0.056942225 0.82618499 0.066392213 13617594
0.057085425 0.82585382 0.066393234 13486008
0.05722864 0.82552266 0.066394262 13222836
0.05737184 0.82519144 0.066395283 13157043
0.05751504 0.82486027 0.066396311 12828078
0.057658255 0.82452905 0.066397332 12696492
0.057801455 0.82419789 0.066398352 12301988
0.057944655 0.82386672 0.066399381 12301988
0.058087856 0.8235355 0.066400401 12169887
0.058231071 0.82320434 0.066401429 11906715
0.058374271 0.82287318 0.06640245 11840406
0.058517471 0.82254195 0.066403471 11577234
0.058660671 0.82221079 0.066404499 11510671
0.058803886 0.82187963 0.06640552 11181706
0.058947086 0.8215484 0.066406548 11050374
0.059090286 0.82121724 0.066407569 10918788
0.059233487 0.82088602 0.066408597 10918788
0.059376702 0.82055485 0.066409618 10787202
0.059519902 0.82022369 0.066410638 10655616
0.059663102 0.81989247 0.066411667 10589823
0.059037149 0.81917286 0.065902472 10589310
0.059181005 0.81884015 0.0659035 10589310
0.059324861 0.81850749 0.065904528 10457724
0.059468701 0.81817478 0.065905556 10457724
0.059612557 0.81784213 0.065906584 10589310
0.058990523 0.81711352 0.065397426 10589310
0.05913502 0.81677932 0.065398455 10589310
0.059279516 0.81644511 0.06539949 10655103
0.059424028 0.81611097 0.065400526 10851710
0.059568524 0.81577677 0.065401554 10785917
0.059713021 0.81544256 0.06540259 10785917
0.059095487 0.81470346 0.064893454 10785917
0.059240639 0.81436777 0.064894497 10851710
0.058625072 0.81362414 0.064385369 10785917
0.058770865 0.81328696 0.064386413 10785917
0.058916658 0.81294978 0.064387456 10785917
0.059062451 0.81261265 0.064388499 10917505
0.059208259 0.81227541 0.064389542 10917505
0.059354052 0.81193829 0.064390585 10851712
0.058743015 0.81118417 0.063881494 10917505
0.058889449 0.81084549 0.063882545 10917503
0.059035897 0.81050682 0.063883588 10917503
0.058427438 0.80974668 0.063374519 10917503
0.058574528 0.80940652 0.06337557 10917503
0.058721632 0.80906636 0.06337662 10720894
0.058868721 0.80872619 0.063377671 10786687
0.05901581 0.80838597 0.063378721 10786689
0.058411255 0.80761689 0.062869683 10852482
0.058559 0.80727524 0.062870741 10852480
0.058706731 0.80693352 0.062871799 10852480
0.058854476 0.80659187 0.062872849 10852480
0.059002206 0.80625021 0.062873907 10852480
0.059149951 0.80590856 0.062874965 10917503
0.058549911 0.80512893 0.062365949 10917503
0.058698311 0.80478579 0.062367015 10851964
0.058846697 0.80444258 0.062368073 10851964
0.05824928 0.80365705 0.061859094 10983550
0.058398321 0.80331236 0.061860159 10983550
0.058547348 0.80296767 0.061861224 10917757
0.058696389 0.80262303 0.06186229 10983550
0.058845431 0.80227834 0.061863355 10983550
0.058251873 0.80148375 0.061354384 10983550
0.058401555 0.80113763 0.061355457 10786941
0.058551237 0.80079144 0.06135653 10786941
0.057960287 0.79999089 0.060847588 10786941
0.058110625 0.79964322 0.060848661 10655355
0.058260947 0.79929554 0.060849734 10655868
0.058411285 0.79894787 0.060850814 10392696
0.058561608 0.7986002 0.060851887 10326903
0.057974532 0.79779065 0.06034296 9866352
0.058125526 0.79744148 0.06034404 9405547
0.058276504 0.79709232 0.060345121 9405547
0.058427483 0.79674315 0.060346201 9472112
0.058578461 0.79639399 0.060347281 9208940
0.05872944 0.79604483 0.060348362 8881520
0.058146909 0.79522479 0.059839472 9671036
0.058298543 0.79487407 0.059840553 10330508
0.058450162 0.79452342 0.05984164 10527887
0.057870239 0.79369736 0.059332781 10792860
0.058022514 0.79334521 0.059333868 11516583
0.058174789 0.79299307 0.059334956 10991268
0.058327064 0.79264092 0.059336044 11254440
0.058479339 0.79228872 0.059337132 10595997
0.057903275 0.79145372 0.058828287 9609102
0.058056206 0.79110003 0.058829382 7500128
0.058209121 0.79074639 0.058830477 6973784
0.05763568 0.78990537 0.058321662 7169367
0.057789251 0.78955019 0.058322757 7498332
0.057942823 0.789195 0.058323853 8090209
0.058096394 0.78883988 0.058324955 8616553
0.058249965 0.78848469 0.058326051 8813162
0.058403537 0.78812957 0.058327146 9010541
0.05783461 0.78727806 0.057818368 9405297
0.057988837 0.78692138 0.057819471 9339504
0.057421863 0.78606534 0.0573107 9405297
0.057576731 0.78570724 0.057311803 9602676
0.057731599 0.78534901 0.057312913 9733749
0.057886466 0.78499091 0.057314016 9733749
0.058041334 0.78463274 0.057315126 9799540
0.058196202 0.78427458 0.057316236 9931126
0.057633758 0.78340805 0.056807488 10062196
0.057789266 0.78304839 0.056808598 10062196
0.057944775 0.78268874 0.056809708 10127476
0.057384938 0.78181624 0.05630099 10127476
0.057541102 0.7814551 0.056302108 10193269
0.057697266 0.78109396 0.056303225 10193269
0.057853431 0.78073275 0.056304343 10324853
0.058009595 0.78037161 0.056305461 10193267
0.057453632 0.77949011 0.055796757 10390646
0.057610452 0.77912748 0.055797882 10324853
0.057767257 0.77876484 0.055799 10324853
0.057924062 0.77840221 0.055800125 10390646
0.058080882 0.77803952 0.055801243 10390646
0.058237687 0.77767688 0.055802368 10390646
0.057686254 0.7767849 0.055293709 10390646
0.057843715 0.77642071 0.055294834 10324853
0.058001176 0.77605659 0.055295959 10324853
0.057452351 0.77515864 0.054787308 10324853
0.057610452 0.77479297 0.05478844 10390646
0.057768553 0.77442729 0.054789573 10390646
0.05792667 0.77406168 0.054790698 10587511
0.058084771 0.77369601 0.05479183 10587511
0.057539836 0.77278906 0.054283224 10390646
0.057698593 0.7724219 0.054284364 10390646
0.05785735 0.77205473 0.054285496 10390646
0.057314992 0.77114177 0.05377689 10390646
0.057474405 0.77077317 0.053778037 10390646
0.057633802 0.77040452 0.05377917 10390646
0.0577932 0.77003586 0.053780317 10456439
0.057952613 0.76966721 0.05378145 10456439
0.057414129 0.76874524 0.053272888 10521972
0.057574183 0.7683751 0.053274035 10521972
0.057734236 0.76800495 0.053275183 10456179
0.057198375 0.76707703 0.052766621 10456179
0.05735907 0.76670539 0.052767769 10521972
0.057519764 0.7663337 0.052768916 10521972
0.056986481 0.76539981 0.052260384 10521718
0.057147831 0.76502663 0.052261546 10521718
0.05730918 0.7646535 0.052262694 10521718
0.056778491 0.7637136 0.051754192 10521718
0.056940496 0.76333892 0.051755339 10521718
0.056411743 0.76239449 0.051246837 10521718
0.056574374 0.76201832 0.051247999 10521718
0.056737021 0.76164222 0.051249161 10521718
0.056210876 0.76069176 0.050740689 10521718
0.056374162 0.76031417 0.050741851 10587511
0.056537449 0.75993651 0.050743029 10521720
0.056013882 0.7589801 0.050234541 10521720
0.056177825 0.75860095 0.050235718 10455927
0.056341767 0.75822181 0.050236896 10521720
0.05650571 0.75784266 0.050238058 10521720
0.056669638 0.75746357 0.050239235 10521720
0.05683358 0.75708437 0.050240412 10521720
0.056314558 0.75611752 0.049731985 10324341
0.056479141 0.75573689 0.049733162 10324341
0.056643724 0.75535625 0.049734339 10324341
0.056808323 0.75497556 0.049735516 10193269
0.056972906 0.75459492 0.049736694 10193269
0.056457758 0.75361907 0.049228281 10193269
0.056622997 0.75323689 0.049229473 10127476
0.056788236 0.75285476 0.04923065 10193269
0.055597931 0.75127316 0.048212707 10127476
0.055764452 0.75088799 0.048213899 10192755
0.055254489 0.7499001 0.047705531 10324341
0.055421665 0.74951351 0.047706723 10324341
0.055588841 0.74912685 0.047707915 10324341
0.055345863 0.82942677 0.066695742 16249055
0.055489078 0.8290956 0.066696763 16051676
0.055632278 0.82876444 0.066697791 15788500
0.055775478 0.82843322 0.066698812 15262156
0.055918679 0.82810205 0.06669984 15260872
0.056061894 0.82777083 0.066700861 15063493
0.056205094 0.82743967 0.066701882 14669509
0.056348294 0.8271085 0.06670291 14472130
0.056491494 0.82677728 0.06670393 14011839
0.056634709 0.82644612 0.066704959 13814460
0.056777909 0.82611489 0.066705979 13682874
0.05692111 0.82578373 0.066707 13551288
0.057064325 0.82545257 0.066708028 13288116
0.057207525 0.8251214 0.066709049 13222323
0.057350725 0.82479018 0.066710077 12828078
0.057493925 0.82445902 0.066711098 12696492
0.05763714 0.82412779 0.066712126 12367781
0.05778034 0.82379663 0.066713147 12236195
0.05792354 0.82346547 0.066714168 12169887
0.058066741 0.82313424 0.066715196 11840922
0.058209956 0.82280308 0.066716217 11906199
0.058353156 0.82247186 0.066717245 11577234
0.058496356 0.82214069 0.066718265 11379855
0.058639556 0.82180953 0.066719286 11050890
0.058782771 0.82147831 0.066720314 10919304
0.058925971 0.82114714 0.066721335 10787718
0.059069172 0.82081598 0.066722363 10722179
0.059212387 0.82048476 0.066723384 10656386
0.059355587 0.82015359 0.066724405 10655616
0.059498787 0.81982243 0.066725433 10589823
0.058872089 0.81910247 0.066217661 10589310
0.059015945 0.81876975 0.066218689 10589310
0.059159786 0.8184371 0.066219717 10457724
0.059303641 0.81810439 0.066220745 10589310
0.059447497 0.81777173 0.066221774 10589310
0.058824718 0.81704277 0.065714031 10457724
0.058969215 0.81670856 0.06571506 10457724
0.059113711 0.81637442 0.065716095 10655103
0.059258223 0.81604022 0.065717131 10655103
0.059402719 0.81570601 0.065718159 10655103
0.059547216 0.81537187 0.065719195 10655101
0.058928937 0.81463242 0.065211482 10720894
0.059074089 0.81429672 0.065212518 10720894
0.058457777 0.8135528 0.064704813 10655101
0.05860357 0.81321561 0.064705856 10589308
0.058749363 0.81287843 0.064706899 10655101
0.058895171 0.81254125 0.064707942 10720896
0.059040964 0.81220412 0.064708985 10720896
0.059186757 0.81186688 0.064710028 10720896
0.058574975 0.81111252 0.064202361 10720896
0.058721423 0.81077385 0.064203411 10720894
0.058867872 0.81043512 0.064204454 10786687
0.058258668 0.80967474 0.063696802 10851710
0.058405757 0.80933452 0.063697852 10851710
0.058552846 0.80899435 0.063698903 10851712
0.058699936 0.80865419 0.063699953 10851712
0.058847025 0.80831403 0.063701011 10917505
0.058241725 0.80754459 0.063193388 10983298
0.05838947 0.80720294 0.063194446 10983298
0.058537215 0.80686128 0.063195504 10983298
0.058684945 0.80651957 0.063196555 10917505
0.05883269 0.80617791 0.063197613 10917505
0.058980435 0.8058362 0.063198671 10851710
0.05837965 0.80505633 0.062691078 10851710
0.058528036 0.80471313 0.062692136 10851964
0.058676422 0.80436999 0.062693201 10851964
0.058078274 0.8035841 0.062185638 10917757
0.058227301 0.80323941 0.062186703 10917757
0.058376342 0.80289477 0.062187769 10917757
0.058525383 0.80255008 0.062188834 10983550
0.05867441 0.80220538 0.062189899 10917757
0.058080107 0.80141056 0.061682351 10983550
0.058229804 0.80106437 0.061683424 10983550
0.058379486 0.80071819 0.061684489 10851964
0.057787791 0.79991734 0.061176971 10917755
0.057938129 0.79956961 0.061178043 10917755
0.058088452 0.79922199 0.061179116 10786939
0.058238789 0.79887432 0.061180197 10786939
0.058389112 0.79852664 0.06118127 10721146
0.057801306 0.79771674 0.060673766 10589560
0.057952285 0.79736757 0.060674846 10392696
0.058103263 0.79701841 0.060675927 10261110
0.058254242 0.79666924 0.060677007 9931378
0.058405221 0.79632008 0.060678087 9799792
0.058556199 0.79597092 0.060679168 9668206
0.057972923 0.79515058 0.060171694 9470827
0.058124557 0.79479992 0.060172781 9273963
0.058276191 0.79444921 0.060173862 9273963
0.057695508 0.79362285 0.059666418 9276278
0.057847783 0.79327071 0.059667513 9473657
0.058000058 0.79291856 0.059668601 10067082
0.058152333 0.79256636 0.059669688 10790805
0.058304608 0.79221421 0.059670776 11055519
0.057727814 0.79137886 0.059163354 11647656
0.057880729 0.79102516 0.05916445 8751994
0.05803366 0.79067153 0.059165537 10265233
0.057459459 0.78983021 0.058658145 10200471
0.05761303 0.78947502 0.058659241 9147783
0.057766601 0.78911984 0.058660336 7568236
0.057920173 0.78876472 0.058661439 6976099
0.058073744 0.78840953 0.058662534 7237728
0.058227316 0.78805441 0.058663629 7171935
0.057657659 0.78720254 0.058156267 7762787
0.057811886 0.78684592 0.058157369 8354924
0.057244152 0.78598958 0.057650022 8880237
0.057399035 0.78563142 0.057651125 8946030
0.057553902 0.78527325 0.057652235 9208688
0.05770877 0.78491509 0.057653345 9274481
0.057863638 0.78455693 0.057654448 9405295
0.058018506 0.78419876 0.057655558 9668467
0.057455301 0.78333193 0.057148233 9799540
0.057610825 0.78297228 0.057149343 9733747
0.057766333 0.78261262 0.057150453 10062196
0.057205752 0.78173983 0.056643158 9996403
0.057361916 0.78137869 0.056644268 10062196
0.05751808 0.78101754 0.056645386 10127989
0.057674244 0.78065634 0.056646504 10127987
0.057830408 0.78029519 0.056647621 10127987
0.057273701 0.7794134 0.056140341 10259573
0.057430521 0.77905077 0.056141466 10259573
0.057587326 0.77868807 0.056142583 10324853
0.057744145 0.77832544 0.056143709 10324853
0.05790095 0.7779628 0.056144826 10390646
0.058057755 0.77760011 0.056145944 10390646
0.057505578 0.77670783 0.055638708 10390646
0.057663038 0.7763437 0.055639833 10324853
0.057820499 0.77597952 0.055640958 10390646
0.057270929 0.77508128 0.05513373 10390646
0.057429031 0.7747156 0.055134863 10390646
0.057587147 0.77434993 0.055135995 10324853
0.057745248 0.77398431 0.05513712 10456439
0.057903349 0.77361864 0.055138253 10390646
0.057357669 0.7727114 0.054631069 10324853
0.057516426 0.77234423 0.054632202 10324853
0.057675183 0.77197707 0.054633334 10390646
0.057132095 0.7710638 0.054126158 10390646
0.057291493 0.77069515 0.054127291 10390646
0.057450891 0.7703265 0.054128438 10390646
0.057610303 0.76995784 0.054129571 10390900
0.057769701 0.76958919 0.054130718 10456693
0.057230487 0.76866692 0.053623572 10390900
0.057390541 0.76829678 0.053624704 10390900
0.057550579 0.76792663 0.053625852 10521972
0.057013974 0.76699835 0.053118721 10521972
0.057174668 0.76662672 0.053119868 10653558
0.057335377 0.76625508 0.053121015 10521972
0.056801349 0.76532084 0.052613914 10456179
0.056962699 0.76494765 0.052615061 10521972
0.057124048 0.76457453 0.052616209 10521972
0.056592613 0.76363432 0.052109122 10521972
0.056754619 0.76325965 0.052110285 10521972
0.056225106 0.76231492 0.051603198 10521972
0.056387752 0.76193875 0.05160436 10521718
0.056550398 0.76156259 0.051605523 10521718
0.056023508 0.76061189 0.051098466 10587511
0.056186795 0.76023424 0.051099628 10587511
0.056350082 0.75985658 0.051100805 10521720
0.05582577 0.75889987 0.050593749 10521720
0.055989712 0.75852072 0.050594911 10455927
0.056153655 0.75814158 0.050596088 10455927
0.056317598 0.75776243 0.050597265 10455927
0.056481525 0.75738335 0.050598428 10455927
0.056645468 0.75700414 0.050599605 10455927
0.0561257 0.756037 0.050092608 10455927
0.056290284 0.75565636 0.050093785 10455927
0.056454882 0.75527573 0.050094962 10455927
0.056619465 0.75489503 0.050096139 10324855
0.056784049 0.7545144 0.050097317 10324855
0.056268156 0.75353819 0.049590319 10193269
0.056433395 0.75315607 0.049591511 10127476
0.056598634 0.75277388 0.049592689 10193269
0.055181548 0.82935667 0.067009509 16249055
0.055324748 0.82902551 0.067010529 16117469
0.055467963 0.82869434 0.067011558 16051158
0.055611163 0.82836312 0.067012578 15459021
0.055754364 0.82803196 0.067013606 15458251
0.055897564 0.82770079 0.067014627 15063493
0.056040779 0.82736957 0.067015648 14669509
0.056183979 0.82703841 0.067016676 14603716
0.056327179 0.82670724 0.067017697 14011839
0.056470394 0.82637602 0.067018725 13814460
0.056613594 0.82604486 0.067019746 13682874
0.056756794 0.82571363 0.067020774 13419702
0.056899995 0.82538247 0.067021795 13288116
0.05704321 0.82505131 0.067022815 13156530
0.05718641 0.82472008 0.067023844 12828078
0.05732961 0.82438892 0.067024864 12696492
0.05747281 0.82405776 0.067025892 12367781
0.057616025 0.82372653 0.067026913 12236195
0.057759225 0.82339537 0.067027934 12300959
0.057902426 0.82306421 0.067028962 11971994
0.058045626 0.82273299 0.067029983 11840406
0.058188841 0.82240182 0.067031011 11577234
0.058332041 0.8220706 0.067032032 11379855
0.058475241 0.82173944 0.067033052 11182476
0.058618456 0.82140827 0.067034081 11050890
0.058761656 0.82107705 0.067035101 10787718
0.058904856 0.82074589 0.06703613 10721925
0.059048057 0.82041466 0.06703715 10590339
0.059191272 0.8200835 0.067038178 10655616
0.059334472 0.81975234 0.067039199 10655616
0.058707029 0.81903207 0.06653285 10655103
0.058850884 0.81869936 0.066533878 10589310
0.058994725 0.81836671 0.066534907 10589056
0.059138581 0.81803399 0.066535935 10654849
0.059282437 0.81770134 0.066536963 10589056
0.058658913 0.81697208 0.066030636 10457470
0.058803409 0.81663787 0.066031672 10457470
0.058947906 0.81630367 0.0660327 10589056
0.059092417 0.81596953 0.066033736 10720896
0.059236914 0.81563532 0.066034772 10720896
0.05938141 0.81530118 0.0660358 10655103
0.058762401 0.81456137 0.06552951 10655103
0.058907539 0.81422573 0.065530546 10720894
0.058290482 0.81348145 0.065024264 10655101
0.058436275 0.81314427 0.065025307 10589308
0.058582067 0.81280708 0.065026343 10655101
0.058727875 0.8124699 0.065027386 10720894
0.058873668 0.81213272 0.065028429 10720894
0.059019461 0.81179559 0.065029472 10655103
0.058406949 0.81104082 0.064523228 10655103
0.058553383 0.81070215 0.064524278 10720894
0.058699831 0.81036347 0.064525321 10786687
0.058089882 0.80960274 0.064019084 10785917
0.058236971 0.80926257 0.064020142 10785917
0.058384061 0.80892241 0.064021192 10851712
0.058531165 0.80858219 0.064022243 10785919
0.058678254 0.80824202 0.064023294 10851712
0.058072209 0.80747229 0.063517094 10917505
0.058219954 0.80713063 0.063518152 10983298
0.058367684 0.80678892 0.06351921 10917505
0.058515429 0.80644727 0.06352026 10917505
0.05866316 0.80610561 0.063521318 10917505
0.058810905 0.8057639 0.063522376 10851710
0.058209389 0.80498374 0.063016199 10851710
0.058357775 0.80464053 0.063017264 10851710
0.058506161 0.80429739 0.063018322 10851710
0.057907254 0.80351114 0.062512182 10917757
0.058056295 0.80316651 0.062513247 10917757
0.058205336 0.80282182 0.062514313 10851964
0.058354363 0.80247712 0.062515378 10983550
0.058503404 0.80213249 0.062516443 10917503
0.057908356 0.80133724 0.062010318 10917503
0.058058053 0.80099112 0.062011383 10917757
0.058207735 0.80064493 0.062012456 10786171
0.057615295 0.79984373 0.061506353 10851962
0.057765633 0.79949605 0.061507426 10917755
0.057915956 0.79914838 0.061508507 10983548
0.058066294 0.79880071 0.061509579 10917755
0.058216617 0.79845309 0.061510652 10721146
0.057628065 0.79764289 0.061004572 10721146
0.057779044 0.79729372 0.061005652 10655355
0.057930022 0.7969445 0.061006732 10589562
0.058081001 0.79659534 0.061007813 10655355
0.05823198 0.79624617 0.061008886 10457976
0.058382958 0.79589701 0.061009966 10588792
0.057798952 0.79507637 0.060503922 10522999
0.057950571 0.79472566 0.060505003 10128757
0.058102205 0.794375 0.060506091 9536620
0.057520777 0.79354835 0.060000062 9536622
0.057673052 0.7931962 0.06000115 9405036
0.057825327 0.792844 0.060002245 9405295
0.057977617 0.79249185 0.060003333 9405295
0.058129892 0.79213965 0.060004421 9538165
0.057552338 0.79130399 0.059498414 9867130
0.057705268 0.79095036 0.05949951 9672321
0.057858184 0.79059672 0.059500605 10659216
0.057283252 0.78975505 0.058994628 10924194
0.057436824 0.78939986 0.058995724 10989987
0.057590395 0.78904474 0.058996819 11123370
0.057743967 0.78868955 0.058997922 11057577
0.057897538 0.78833437 0.058999017 10202266
0.058051109 0.78797925 0.059000112 8886406
0.057480693 0.78712708 0.058494173 7503208
0.05763492 0.7867704 0.058495276 6450520
0.057066455 0.78591383 0.057989344 6645073
0.057221323 0.7855556 0.057990447 7237210
0.057376206 0.7851975 0.057991557 8156516
0.057531059 0.78483927 0.057992667 8485481
0.057685941 0.78448117 0.05799377 8813930
0.057840794 0.784123 0.05799488 8879723
0.05727686 0.78325582 0.05748897 9470829
0.057432383 0.78289616 0.057490088 9536622
0.057587892 0.78253651 0.057491198 9536622
0.057026565 0.78166342 0.056985319 9668208
0.057182729 0.78130227 0.056986436 9930610
0.057338893 0.78094113 0.056987554 9996403
0.057495058 0.78057992 0.056988664 10127989
0.057651222 0.78021878 0.056989782 10127989
0.057093769 0.77933669 0.056483924 9996403
0.057250589 0.778974 0.056485042 10062196
0.057407394 0.77861136 0.056486167 10259573
0.057564199 0.77824867 0.056487285 10127987
0.057721019 0.77788603 0.05648841 10259573
0.057877824 0.7775234 0.056489527 10325366
0.057324901 0.77663076 0.055983707 10390646
0.057482362 0.77626663 0.055984832 10127474
0.057639822 0.77590245 0.055985957 10324853
0.057089508 0.77500385 0.055480152 10324853
0.057247609 0.77463818 0.055481285 10324853
0.057405725 0.77427256 0.05548241 10324853
0.057563826 0.77390695 0.055483542 10324853
0.057721943 0.77354127 0.055484675 10456439
0.057175502 0.77263367 0.054978907 10324853
0.057334259 0.77226651 0.054980047 10324853
0.057493016 0.77189934 0.05498118 10390646
0.056949183 0.77098578 0.054475419 10390646
0.057108581 0.77061713 0.054476559 10390900
0.057267994 0.77024847 0.054477699 10390900
0.057427391 0.76987982 0.054478839 10390900
0.057586789 0.76951116 0.054479972 10390900
0.057046831 0.7685886 0.053974256 10390900
0.057206884 0.76821846 0.053975388 10390900
0.057366937 0.76784831 0.053976536 10390900
0.056829587 0.76691973 0.05347082 10456693
0.056990281 0.7665481 0.053471968 10456693
0.057150975 0.76617646 0.053473115 10390900
0.056616217 0.76524186 0.052967429 10325107
0.056777567 0.76486874 0.052968577 10390900
0.056938916 0.76449561 0.052969739 10521972
0.056406736 0.76355505 0.052464068 10521972
0.056568727 0.76318038 0.05246523 10587765
0.056038484 0.76223528 0.051959544 10521972
0.05620113 0.76185918 0.051960707 10521972
0.056363776 0.76148301 0.051961884 10521972
0.055836141 0.76053196 0.051456243 10587511
0.055999428 0.76015437 0.05145742 10587511
0.056162715 0.75977671 0.051458582 10653306
0.055637658 0.75881964 0.050952941 10521720
0.0558016 0.75844049 0.050954118 10455927
0.055965543 0.75806135 0.050955296 10521720
0.056129485 0.7576822 0.050956458 10455927
0.056293428 0.75730306 0.050957635 10455927
0.056457356 0.75692391 0.050958812 10455927
0.055936843 0.75595641 0.050453231 10521720
0.056101441 0.75557578 0.050454408 10324341
0.056266025 0.75519514 0.050455585 10455927
0.056430608 0.75481451 0.050456747 10390648
0.056595191 0.75443387 0.050457925 10324855
0.056078568 0.75345731 0.049952358 10324855
0.056243807 0.75307518 0.04995355 10193269
0.056409031 0.75269306 0.049954727 10193269
0.055017233 0.82928663 0.067323275 16249053
0.055160433 0.82895541 0.067324296 16117467
0.055303648 0.82862425 0.067325324 16116951
0.055446848 0.82829309 0.067326345 15656400
0.055590048 0.82796186 0.067327373 15327435
0.055733249 0.8276307 0.067328393 14932677
0.055876464 0.82729948 0.067329422 14538183
0.056019664 0.82696831 0.067330442 14275011
0.056162864 0.82663715 0.067331463 13946561
0.057091057 0.82666391 0.06783855 13749182
0.057233602 0.82633418 0.06783957 13617081
0.057376161 0.82600451 0.067840591 13419702
0.057518721 0.82567483 0.067841604 13288116
0.05766128 0.82534516 0.067842625 13156530
0.057803839 0.82501543 0.067843646 12893358
0.057946384 0.82468575 0.067844667 12827565
0.058088943 0.82435608 0.067845687 12433574
0.058231503 0.82402641 0.067846701 12301988
0.058374062 0.82369673 0.067847721 12235680
0.058516607 0.823367 0.067848742 11840922
0.058659166 0.82303733 0.067849763 11906199
0.058801726 0.82270765 0.067850783 11643027
0.058944285 0.82237798 0.067851797 11379855
0.059086829 0.82204831 0.067852817 11182476
0.058454126 0.82133818 0.067347847 11050890
0.058597341 0.82100701 0.067348868 10919304
0.058740541 0.82067579 0.067349896 10721925
0.058883741 0.82034463 0.067350917 10656132
0.059026942 0.8200134 0.067351945 10655362
0.059170157 0.81968224 0.067352965 10655362
0.059313357 0.81935108 0.067353986 10589569
0.059456557 0.81901985 0.067355014 10523776
0.058829665 0.81829631 0.066850089 10654849
0.058973521 0.8179636 0.066851117 10654849
0.059117377 0.81763089 0.066852145 10589056
0.059261233 0.81729823 0.066853173 10589056
0.059405074 0.81696558 0.066854201 10589056
0.059548929 0.81663287 0.066855229 10720642
0.058926612 0.81589878 0.066350341 10655362
0.059071109 0.81556463 0.066351376 10655362
0.059215605 0.81523043 0.066352405 10589823
0.059360102 0.81489623 0.06635344 10589823
0.059504613 0.81456208 0.066354476 10589823
0.05964911 0.81422788 0.066355504 10524030
0.059031293 0.8134833 0.065850645 10589310
0.059176445 0.81314766 0.065851688 10655103
0.05856058 0.81239855 0.065346837 10655103
0.058706373 0.81206137 0.06534788 10720896
0.058852166 0.81172419 0.065348916 10720896
0.058997974 0.81138706 0.065349959 10655103
0.059143767 0.81104988 0.065351002 10720896
0.05928956 0.8107127 0.065352045 10786689
0.05867824 0.80995309 0.064847231 10720896
0.058824688 0.80961442 0.064848281 10720896
0.058971122 0.80927575 0.064849325 10851712
0.05836238 0.80851024 0.064344525 10785919
0.058509469 0.80817008 0.064345576 10851712
0.058656558 0.80782986 0.064346634 10917505
0.058803663 0.80748969 0.064347684 10983298
0.058950752 0.80714953 0.064348735 10851712
0.058345899 0.80637497 0.063843966 10917505
0.058493644 0.80603331 0.063845024 10917505
0.058641389 0.8056916 0.063846081 10851712
0.058789119 0.80534995 0.063847139 10851712
0.058936864 0.80500829 0.06384819 10785917
0.059084609 0.80466658 0.063849248 10851710
0.058484286 0.80388159 0.063344508 10917503
0.058632672 0.80353838 0.063345566 10917503
0.058034331 0.80274886 0.062840857 10851710
0.058183357 0.80240422 0.062841922 10851710
0.058332399 0.80205953 0.062842987 10851710
0.058481425 0.8017149 0.062844053 10851710
0.058630466 0.8013702 0.062845118 10851964
0.058779508 0.80102551 0.062846184 10786171
0.058185667 0.8002255 0.062341489 10786171
0.058335349 0.79987931 0.062342562 10851964
0.058485031 0.79953319 0.062343627 10917757
0.058634713 0.799187 0.0623447 10851964
0.058784395 0.79884082 0.062345773 10851964
0.058934078 0.79849464 0.062346838 10851964
0.058344781 0.79768413 0.061842188 10851964
0.058495119 0.79733646 0.061843261 10786171
0.05790776 0.79652148 0.061338611 10786171
0.058058739 0.79617232 0.061339691 10786171
0.058209717 0.79582316 0.061340772 10786171
0.057624966 0.79500216 0.060836144 10786171
0.057776585 0.79465151 0.060837224 10786171
0.057928219 0.79430079 0.060838312 10588792
0.058079839 0.79395014 0.060839392 10391929
0.058231473 0.79359949 0.06084048 10194550
0.058383107 0.79324883 0.06084156 10128759
0.057802886 0.79241735 0.060336977 9931380
0.057955161 0.79206514 0.060338065 9668721
0.058107436 0.791713 0.060339153 9471342
0.058259711 0.79136086 0.060340241 9274479
0.058411986 0.79100865 0.060341328 9471858
0.057835639 0.79016817 0.05983676 9210487
0.057988569 0.78981453 0.059837855 9605245
0.058141485 0.7894609 0.059838943 10265231
0.058294415 0.7891072 0.059840038 10988954
0.058447331 0.78875351 0.059841134 11254694
0.058600262 0.78839988 0.059842229 11188901
0.05802846 0.7875489 0.059337698 11320999
0.058182031 0.78719378 0.059338793 11057827
0.057612181 0.78633827 0.058834277 10069907
0.057766408 0.78598166 0.05883538 9148805
0.05792062 0.78562498 0.058836482 7633511
0.058074847 0.78526831 0.058837585 6580823
0.058229059 0.78491163 0.058838688 6841937
0.058383286 0.78455496 0.058839791 7565660
0.057817966 0.78368902 0.058335312 7959135
0.057972834 0.78333086 0.058336414 8419686
0.058127701 0.78297269 0.058337525 9010537
0.057564959 0.7821008 0.057833053 9339502
0.057720482 0.78174114 0.057834163 9470575
0.057159692 0.78086466 0.057329714 9536368
0.057315856 0.78050351 0.057330832 9536368
0.05747202 0.78014237 0.057331942 9733747
0.057628185 0.77978122 0.05733306 9668208
0.057784349 0.77942002 0.057334177 9865587
0.057940513 0.77905887 0.057335295 10127989
0.057384267 0.77817196 0.056830868 10127989
0.057541087 0.77780932 0.056831986 10127989
0.057697892 0.77744663 0.056833111 10259575
0.057854712 0.77708399 0.056834228 10390648
0.058011517 0.77672136 0.056835353 10127476
0.058168337 0.77635866 0.056836471 10193267
0.057616606 0.77546126 0.056332089 10193267
0.057774067 0.77509713 0.056333214 10324853
0.057224303 0.77419519 0.055828832 10193267
0.057382405 0.77382952 0.055829965 10259573
0.057540521 0.77346385 0.055831097 10325366
0.057698622 0.77309823 0.055832222 10259573
0.057856739 0.77273262 0.055833355 10259573
0.05801484 0.77236694 0.055834487 10390646
0.057469606 0.77145451 0.055330157 10390646
0.057628363 0.77108741 0.05533129 10390900
0.05778712 0.77072024 0.055332422 10390900
0.057244495 0.76980186 0.0548281 10390900
0.057403892 0.76943314 0.054829232 10390900
0.057563305 0.76906455 0.054830372 10390900
0.057722703 0.76869589 0.054831512 10390900
0.0578821 0.76832724 0.054832652 10456693
0.057343334 0.76739979 0.05432836 10456693
0.057503387 0.76702964 0.054329507 10456693
0.057663441 0.7666595 0.054330647 10456693
0.057127282 0.76572615 0.053826362 10193521
0.057287991 0.76535451 0.053827509 10390900
0.057448685 0.76498282 0.053828672 10521972
0.056915119 0.76404345 0.053324416 10521972
0.057076469 0.76367033 0.053325564 10587765
0.057237819 0.7632972 0.053326711 10521972
0.056706846 0.76235181 0.052822486 10521718
0.056868836 0.7619772 0.052823633 10521718
0.0563398 0.76102728 0.052319393 10521718
0.056502432 0.76065111 0.052320555 10587511
0.056665078 0.76027501 0.052321717 10456441
0.056138635 0.75931913 0.051817521 10390648
0.056301937 0.75894153 0.051818699 10324855
0.056465238 0.75856388 0.051819861 10324855
0.055941373 0.75760198 0.051315665 10324855
0.056105316 0.75722283 0.051316828 10390648
0.056269243 0.75684369 0.051318005 10324855
0.056433186 0.7564646 0.051319182 10390648
0.056597129 0.75608546 0.051320344 10324855
0.056761071 0.75570631 0.051321521 10390648
0.056924999 0.75532717 0.051322699 10390648
0.057088941 0.75494802 0.051323861 10324855
0.056570932 0.75397265 0.050819725 10324855
0.056735516 0.75359201 0.050820902 10193269
0.056900114 0.75321138 0.050822079 10193269
0.054852918 0.82921654 0.067637041 16249051
0.054996118 0.82888538 0.067638069 16117465
0.055139318 0.82855415 0.06763909 16051158
0.055282533 0.82822299 0.067640111 15656400
0.055425733 0.82789183 0.067641139 15130570
0.055568933 0.8275606 0.06764216 14933191
0.055712134 0.82722944 0.067643188 14472903
0.055855349 0.82689822 0.067644209 14143938
0.055998549 0.82656705 0.067645229 13814975
0.056927472 0.82659411 0.0681509 13683389
0.057070032 0.82626444 0.068151914 13617083
0.057212591 0.82593477 0.068152934 13419704
0.057355151 0.82560503 0.068153955 13288118
0.057497695 0.82527536 0.068154976 13156532
0.057640254 0.82494569 0.068155997 12893358
0.057782814 0.82461601 0.06815701 12761772
0.057925373 0.82428634 0.068158031 12498854
0.058067933 0.82395661 0.068159051 12367268
0.058210477 0.82362694 0.068160072 12169887
0.058353037 0.82329726 0.068161085 11906715
0.058495596 0.82296759 0.068162106 11775127
0.058638155 0.82263792 0.068163127 11511955
0.0587807 0.82230818 0.068164147 11445648
0.058923259 0.82197851 0.068165168 11248269
0.058289811 0.82126808 0.067661613 11050890
0.058433011 0.82093692 0.067662634 10919304
0.058576226 0.8206057 0.067663662 10787718
0.058719426 0.82027453 0.067664683 10656132
0.058862627 0.81994337 0.067665711 10721155
0.059005827 0.81961215 0.067666732 10721155
0.059149042 0.81928098 0.067667753 10589569
0.059292242 0.81894982 0.067668781 10523776
0.058664605 0.81822586 0.067165278 10589569
0.058808461 0.81789321 0.067166306 10589569
0.058952317 0.81756055 0.067167334 10654851
0.059096158 0.81722784 0.067168362 10589058
0.059240013 0.81689513 0.067169391 10589569
