# .PCD v0.7 - Point Cloud Data file format
VERSION 0.7
FIELDS x y z rgb
SIZE 4 4 4 4
TYPE F F F U
COUNT 1 1 1 1
WIDTH 1093
HEIGHT 1
VIEWPOINT 0 0 0 1 0 0 0
POINTS 1093
DATA ascii
-0.031066641 0.82044601 0.055889532 8347203
-0.030928046 0.82075065 0.05588454 8412996
-0.03078945 0.82105529 0.055879548 8347203
-0.030650854 0.82135987 0.055874541 8215617
-0.030512258 0.82166451 0.05586955 8215617
-0.030373663 0.82196909 0.055864543 8347203
-0.031049564 0.82240963 0.056482837 8215617
-0.030911654 0.82271278 0.05647786 8412996
-0.030773729 0.82301587 0.056472883 8347203
-0.030635819 0.82331902 0.056467906 8347203
-0.030497894 0.82362217 0.056462929 8412996
-0.030359983 0.82392526 0.056457967 8412996
-0.031040624 0.82435536 0.057076424 8412742
-0.030903384 0.82465702 0.057071462 8412742
-0.030766144 0.82495868 0.057066515 8478535
-0.030628905 0.82526028 0.057061568 8544328
-0.03049165 0.82556194 0.057056621 8610121
-0.03035441 0.8258636 0.057051674 8610121
-0.030217171 0.8261652 0.057046726 8675914
-0.030079931 0.82646686 0.057041764 8675914
-0.029942691 0.82676852 0.057036817 8807500
-0.030630082 0.82718378 0.057655528 8807500
-0.030493513 0.82748389 0.057650596 8873293
-0.030356959 0.82778406 0.057645679 8873293
-0.030220389 0.82808423 0.057640746 9004879
-0.03008382 0.8283844 0.057635829 9070672
-0.029947251 0.82868457 0.057630897 9136465
-0.029810697 0.82898468 0.057625979 9136465
-0.029674128 0.82928485 0.057621047 9333846
-0.029537559 0.82958502 0.05761613 9465432
-0.029400989 0.82988518 0.057611197 9597018
-0.029264435 0.83018535 0.057606265 9597018
-0.029127866 0.83048546 0.057601348 9925470
-0.028991297 0.83078563 0.05759643 10057056
-0.028854728 0.8310858 0.057591498 10122847
-0.028718174 0.83138597 0.057586566 10122847
-0.028581604 0.83168614 0.057581648 10386019
-0.028445035 0.83198625 0.057576716 10451812
-0.028308466 0.83228642 0.057571799 10517605
-0.028171912 0.83258659 0.057566866 10714984
-0.028035343 0.83288676 0.057561949 10846570
-0.027898774 0.83318692 0.057557017 10912363
-0.027762204 0.83348703 0.057552099 10912617
-0.02762565 0.8337872 0.057547167 10978410
-0.027489081 0.83408737 0.05754225 11175789
-0.033587307 0.75666493 0.038503021 7360822
-0.033428431 0.7570141 0.038497299 7426615
-0.033269554 0.75736332 0.038491562 7426615
-0.033110678 0.75771248 0.03848584 7426615
-0.032951802 0.75806171 0.038480103 7492154
-0.032792926 0.75841087 0.038474381 7492154
-0.03333436 0.7591489 0.039086372 7557947
-0.033176154 0.75949657 0.039080665 7492154
-0.033017963 0.7598443 0.039074957 7492154
-0.033562109 0.76057637 0.039687037 7557947
-0.033404589 0.76092261 0.03968136 7623740
-0.033247054 0.76126879 0.039675683 7623740
-0.033793896 0.76199496 0.040287867 7623740
-0.033637047 0.76233965 0.04028222 7623740
-0.033480212 0.7626844 0.040276557 7821119
-0.033323362 0.76302916 0.040270895 7755326
-0.033166513 0.76337385 0.040265247 7821119
-0.033009663 0.76371861 0.040259585 7755326
-0.03356123 0.76443434 0.040871948 7821119
-0.033405066 0.7647776 0.040866315 7755326
-0.033248886 0.7651208 0.040860683 7755326
-0.033092722 0.76546407 0.04085505 7821119
-0.032936543 0.76580733 0.040849417 8017725
-0.032780379 0.76615059 0.040843785 7754553
-0.0326242 0.7664938 0.040838152 7354912
-0.032468036 0.76683706 0.04083252 7749670
-0.032311857 0.76718032 0.040826887 8077608
-0.032870188 0.76788116 0.041439489 7946022
-0.032714695 0.76822293 0.041433871 8078123
-0.032559201 0.7685647 0.041428268 8275502
-0.03312023 0.76925963 0.042040959 8276786
-0.032965407 0.76959991 0.042035371 8210993
-0.032810584 0.76994014 0.042029783 8277045
-0.033374339 0.77062917 0.042642578 8342838
-0.033220202 0.77096796 0.04263702 8146742
-0.033066064 0.77130675 0.042631462 8146742
-0.032911912 0.77164555 0.042625904 8082748
-0.032757774 0.77198428 0.042620346 8148541
-0.032603621 0.77232307 0.042614788 7952445
-0.033172101 0.77300167 0.043227747 7952445
-0.033018634 0.77333897 0.043222219 7886652
-0.032865167 0.77367628 0.04321669 7755066
-0.0327117 0.77401358 0.043211147 7755066
-0.032558233 0.77435088 0.043205619 7491894
-0.032404765 0.77468818 0.043200076 7163189
-0.032977968 0.77535635 0.043813214 7557947
-0.032825172 0.77569216 0.043807715 7229754
-0.03267239 0.77602798 0.043802202 6177066
-0.032519594 0.77636379 0.043796688 6636847
-0.032366797 0.77669966 0.043791175 7097398
-0.032214016 0.77703547 0.043785661 6571826
-0.032791957 0.77769321 0.044398978 6769205
-0.032639831 0.77802753 0.04439348 7361342
-0.03248772 0.77836192 0.044387996 7492928
-0.033068359 0.77901369 0.045001402 7624512
-0.032916918 0.77934659 0.044995949 7690305
-0.032765478 0.77967942 0.04499048 7690303
-0.032614052 0.78001225 0.044985011 7427131
-0.032462612 0.78034508 0.044979557 5584929
-0.032311171 0.78067791 0.044974089 5913894
-0.032896549 0.78131938 0.045587674 5585960
-0.032745779 0.78165072 0.045582235 5125409
-0.032595024 0.78198206 0.045576796 5322788
-0.032444254 0.78231347 0.045571357 5520167
-0.032293499 0.78264481 0.045565918 5782569
-0.032142729 0.78297615 0.045560479 5914155
-0.031991959 0.78330755 0.04555504 6374447
-0.031841204 0.78363889 0.045549601 5782310
-0.031690434 0.78397024 0.045544162 5979689
-0.032282576 0.7845968 0.046157986 5848103
-0.032132491 0.78492671 0.046152577 5716517
-0.031982407 0.78525656 0.046147153 6506033
-0.031832322 0.78558648 0.046141744 7690305
-0.031682223 0.78591633 0.046136335 7756098
-0.032278419 0.78653395 0.046750292 7821121
-0.032129005 0.78686237 0.046744913 7097398
-0.031979591 0.78719074 0.046739519 6833714
-0.031830192 0.78751916 0.046734139 6965300
-0.031680778 0.78784752 0.046728745 6834998
-0.031531364 0.78817594 0.046723351 6703412
-0.032132298 0.78878319 0.047337487 6505261
-0.031983554 0.78911006 0.047332123 6307882
-0.031834826 0.789437 0.047326759 6307366
-0.031686082 0.78976387 0.047321394 7425847
-0.031537354 0.7900908 0.04731603 7426361
-0.031388611 0.79041767 0.047310665 7492154
-0.031994268 0.79101455 0.047924981 7492154
-0.03184621 0.79133993 0.047919631 7557947
-0.031698152 0.79166538 0.047914296 7623740
-0.032306537 0.79225624 0.048528701 7755326
-0.03215915 0.79258019 0.048523381 7886912
-0.032011762 0.79290414 0.048518062 7952705
-0.03186439 0.79322803 0.048512757 7952705
-0.031717002 0.79355198 0.048507437 7952705
-0.031569615 0.79387593 0.048502117 7886912
-0.032182708 0.79445642 0.049116701 7886912
-0.032036006 0.79477888 0.049111411 7886912
-0.031889305 0.79510128 0.049106121 7886912
-0.031742588 0.79542375 0.049100831 7821119
-0.031595886 0.79574621 0.049095541 7886912
-0.031449184 0.79606867 0.049090251 7952705
-0.032067001 0.79663873 0.049704984 7952705
-0.031920969 0.7969597 0.049699724 7952705
-0.031774938 0.79728067 0.049694464 7952705
-0.031628922 0.79760164 0.049689189 7952705
-0.03148289 0.79792261 0.049683928 7952705
-0.031336859 0.79824352 0.049678653 7952705
-0.031959414 0.79880327 0.05029358 7886912
-0.031814054 0.79912269 0.050288334 7952959
-0.031668708 0.79944217 0.050283089 7952959
-0.031523347 0.79976165 0.050277844 7952959
-0.031378001 0.80008113 0.050272599 7952959
-0.03123264 0.80040061 0.050267369 7952959
-0.031859919 0.80094993 0.050882444 7952959
-0.031715244 0.80126786 0.050877228 7952959
-0.031570554 0.80158591 0.050871998 7952959
-0.031425878 0.80190384 0.050866783 7952959
-0.031281203 0.80222183 0.050861567 7952959
-0.031136528 0.80253983 0.050856352 8018752
-0.030991852 0.80285782 0.050851136 7952959
-0.031969056 0.80842209 0.053256229 8084545
-0.031827077 0.80873418 0.053251117 8018752
-0.031685114 0.80904621 0.053245991 8149824
-0.031543136 0.80935824 0.053240865 8149824
-0.031401157 0.80967027 0.053235754 8215617
-0.031259194 0.80998236 0.053230628 8215617
-0.031117216 0.81029439 0.053225502 8149822
-0.030975237 0.81060642 0.053220391 8149822
-0.030833259 0.81091845 0.053215265 8215615
-0.031484216 0.81141579 0.053831205 8215615
-0.031342924 0.81172633 0.053826109 8215615
-0.031201616 0.81203687 0.053821012 8215615
-0.031855285 0.81252819 0.054437056 8215615
-0.031714663 0.8128373 0.05443199 8149822
-0.031574041 0.81314635 0.054426908 8149824
-0.031433418 0.81345546 0.054421842 8347203
-0.031292796 0.81376451 0.054416761 8347203
-0.031152174 0.81407356 0.054411694 8347203
-0.031011552 0.81438267 0.054406628 8215617
-0.030870929 0.81469172 0.054401547 8347203
-0.030730307 0.81500077 0.05439648 8347203
-0.031390727 0.81547725 0.055012763 8347203
-0.031250775 0.81578487 0.055007711 8347203
-0.031110838 0.81609243 0.05500266 8347203
-0.030970886 0.81640005 0.054997623 8347203
-0.030830935 0.81670761 0.054992571 8347203
-0.030690998 0.81701523 0.05498752 8347203
-0.031356141 0.81748128 0.055603966 8215617
-0.031216875 0.81778741 0.055598944 8347203
-0.031077608 0.81809348 0.055593923 8347203
-0.031745464 0.81855363 0.056210473 8346949
-0.031606868 0.81885827 0.056205481 8346949
-0.031468272 0.81916285 0.056200489 8346949
-0.031329677 0.81946748 0.056195483 8346949
-0.031191081 0.81977212 0.056190491 8346949
-0.031052485 0.8200767 0.056185484 8346949
-0.030913904 0.82038134 0.056180492 8346949
-0.030775309 0.82068592 0.056175485 8412742
-0.030636713 0.82099056 0.056170493 8215363
-0.030498117 0.82129514 0.056165487 8346949
-0.030359522 0.82159978 0.056160495 8215363
-0.030220926 0.82190442 0.056155488 8346949
-0.030897573 0.82234526 0.056772366 8346949
-0.030759647 0.82264835 0.056767389 8412742
-0.030621737 0.8229515 0.056762412 8412742
-0.030483812 0.82325459 0.056757435 8412742
-0.030345902 0.82355773 0.056752458 8478535
-0.030207992 0.82386088 0.056747481 8412742
-0.030889377 0.82429129 0.057364523 8412742
-0.030752137 0.82459295 0.057359576 8412742
-0.030614898 0.82489455 0.057354629 8478537
-0.030477658 0.82519621 0.057349682 8544330
-0.030340403 0.82549787 0.05734472 8610121
-0.030203164 0.82579952 0.057339773 8610121
-0.030065924 0.82610112 0.057334825 8610121
-0.029928684 0.82640278 0.057329878 8675914
-0.029791445 0.82670444 0.057324931 8807500
-0.03047958 0.82712001 0.057942212 8807500
-0.030343011 0.82742018 0.057937294 8807502
-0.030206442 0.82772028 0.057932362 8873295
-0.030069888 0.82802045 0.057927445 8939088
-0.029933318 0.82832062 0.057922512 9070674
-0.029796749 0.82862079 0.057917595 9070674
-0.029660195 0.8289209 0.057912663 9136467
-0.029523626 0.82922107 0.057907745 9333846
-0.029387057 0.82952124 0.057902813 9531225
-0.029250488 0.82982141 0.057897881 9531225
-0.029113919 0.83012158 0.057892963 9597018
-0.028977364 0.83042169 0.057888046 9860190
-0.028840795 0.83072186 0.057883114 9925983
-0.028704226 0.83102202 0.057878181 10057056
-0.028567657 0.83132219 0.057873264 10122849
-0.028431103 0.83162236 0.057868332 10320228
-0.028294533 0.83192253 0.057863414 10386021
-0.028157964 0.83222264 0.057858482 10517607
-0.028021395 0.83252281 0.057853565 10714986
-0.027884841 0.83282298 0.057848632 10780777
-0.027748272 0.83312315 0.057843715 10846570
-0.027611703 0.83342326 0.057838783 10912617
-0.027475148 0.83372343 0.057833865 10978410
-0.027338579 0.83402359 0.057828933 11044203
-0.033888847 0.75554317 0.03885375 7360822
-0.03372997 0.75589234 0.038848013 7360822
-0.033571094 0.75624156 0.038842276 7360822
-0.034109205 0.75698876 0.039452702 7360822
-0.033951014 0.7573365 0.039446995 7426615
-0.033792809 0.75768417 0.039441302 7426615
-0.033634618 0.7580319 0.039435595 7360822
-0.033476412 0.75837958 0.039429888 7426361
-0.033318222 0.75872731 0.039424181 7492154
-0.033861071 0.75946414 0.040034771 7557947
-0.033703551 0.75981039 0.040029094 7492154
-0.033546031 0.76015657 0.040023416 7492154
-0.034091592 0.7608875 0.040634111 7557947
-0.033934742 0.7612322 0.040628448 7623740
-0.033777893 0.76157695 0.040622801 7623740
-0.033621043 0.7619217 0.040617138 7623740
-0.033464193 0.7622664 0.040611476 7623740
-0.033307344 0.76261115 0.040605828 7821119
-0.033857644 0.76333165 0.041216686 7755326
-0.033701465 0.76367491 0.041211054 7821119
-0.0335453 0.76401818 0.041205421 7755326
-0.033389121 0.76436138 0.041199788 7821119
-0.033232957 0.76470464 0.041194156 7623740
-0.033076778 0.76504791 0.041188523 7755326
-0.033631802 0.76575798 0.04179956 7821119
-0.033476308 0.76609975 0.041793957 7952445
-0.033320814 0.76644152 0.041788355 7689273
-0.033165321 0.7667833 0.041782737 7686191
-0.033009827 0.76712501 0.041777134 7620398
-0.032854319 0.76746678 0.041771516 8145459
-0.034129322 0.76852441 0.042999521 7948080
-0.033975184 0.7688632 0.042993963 8145461
-0.033821046 0.76920199 0.042988405 8342840
-0.033666894 0.76954079 0.042982846 8343610
-0.033512756 0.76987958 0.042977288 8277817
-0.033358604 0.77021837 0.04297173 8147258
-0.033923775 0.77090615 0.04358314 8081465
-0.033770308 0.77124345 0.043577597 7950649
-0.033616841 0.77158082 0.043572068 8016442
-0.033463374 0.77191806 0.04356654 7951932
-0.033309907 0.77225542 0.043560997 8017725
-0.03315644 0.77259272 0.043555468 7952445
-0.033002973 0.77293003 0.043549925 7952445
-0.032849506 0.77326733 0.043544397 7952445
-0.032696038 0.77360463 0.043538854 7886652
-0.03326796 0.77427757 0.044150501 7558201
-0.033115163 0.77461338 0.044144988 6571306
-0.032962382 0.77494919 0.044139475 6439466
-0.032809585 0.77528501 0.044133976 7294775
-0.032656789 0.77562082 0.044128463 7229754
-0.032504007 0.77595663 0.044122949 5453343
-0.033080652 0.7766192 0.044734761 6374445
-0.032928541 0.77695352 0.044729277 6571824
-0.03277643 0.77728784 0.044723794 6440240
-0.033355787 0.77794445 0.045335695 6769205
-0.033204347 0.77827728 0.045330241 6900791
-0.033052906 0.77861017 0.045324773 6834998
-0.032901466 0.778943 0.045319319 7427133
-0.032750025 0.77927583 0.04531385 7690305
-0.032598585 0.77960867 0.045308396 7690303
-0.033182681 0.7802549 0.045920476 7361338
-0.033031926 0.78058624 0.045915037 5782310
-0.032881156 0.78091758 0.045909598 5848103
-0.032730401 0.78124899 0.04590416 5848362
-0.032579631 0.78158033 0.045898721 5387811
-0.032428861 0.78191167 0.045893282 5322788
-0.032278106 0.78224307 0.045887843 5651753
-0.032127336 0.78257442 0.045882419 5717800
-0.031976581 0.78290576 0.04587698 6178351
-0.032567427 0.78353709 0.046489298 6440240
-0.032417342 0.783867 0.046483889 5782310
-0.032267258 0.78419685 0.046478465 5848103
-0.032117173 0.78452671 0.046473056 5782310
-0.031967089 0.78485662 0.046467647 6506546
-0.031817004 0.78518647 0.046462238 7164476
-0.031666905 0.78551638 0.046456829 7756098
-0.03151682 0.78584623 0.046451405 7756098
-0.032113761 0.78646421 0.047063962 7886400
-0.031964347 0.78679258 0.047058567 6965298
-0.031814933 0.787121 0.047053173 6767919
-0.031665534 0.78744936 0.047047794 7162677
-0.03151612 0.78777778 0.0470424 7097400
-0.031366706 0.78810614 0.047037005 7360572
-0.03196837 0.78871369 0.047649726 7426363
-0.03257139 0.78931832 0.048262492 6965812
-0.032423332 0.7896437 0.048257157 6768171
-0.032275274 0.78996915 0.048251808 7755066
-0.032127216 0.79029453 0.048246473 7755066
-0.031979159 0.79061997 0.048241138 7755066
-0.031831101 0.79094541 0.048235789 7623740
-0.032438874 0.79153955 0.048848733 7755326
-0.032291487 0.7918635 0.048843414 7821119
-0.032144099 0.79218745 0.048838094 7755326
-0.031996727 0.79251134 0.048832789 7887166
-0.03184934 0.7928353 0.048827469 7952959
-0.032461151 0.79342055 0.049440548 7952959
-0.03231445 0.79374301 0.049435258 7952959
-0.032167733 0.79406548 0.049429968 7887166
-0.032021031 0.79438794 0.049424678 7887166
-0.031874329 0.79471034 0.049419388 7887166
-0.031727627 0.7950328 0.049414098 7887166
-0.032344162 0.79560769 0.050027356 7887166
-0.032198131 0.79592866 0.050022081 7821373
-0.0320521 0.79624957 0.05001682 7887166
-0.031906068 0.79657054 0.05001156 7952959
-0.031760037 0.79689151 0.050006285 7952959
-0.031614006 0.79721248 0.050001025 7952959
-0.03223528 0.79777694 0.050614446 7952959
-0.032089934 0.79809642 0.050609201 7952959
-0.031944573 0.7984159 0.050603956 7952959
-0.031799227 0.79873538 0.050598711 7887166
-0.031653866 0.79905486 0.05059348 7952959
-0.03150852 0.79937434 0.050588235 7952959
-0.032134503 0.79992837 0.05120182 7952959
-0.031989828 0.80024636 0.05119659 7887166
-0.031845152 0.80056435 0.051191375 7952959
-0.031700477 0.80088234 0.051186159 7952959
-0.031555802 0.80120033 0.051180944 7952959
-0.031411111 0.80151832 0.051175728 7952959
-0.031266436 0.80183631 0.051170513 7952959
-0.031121761 0.8021543 0.051165298 8018752
-0.030977085 0.80247229 0.051160067 8018752
-0.03083241 0.80279028 0.051154852 7952959
-0.032238513 0.80741972 0.05356963 8149824
-0.032096535 0.80773175 0.053564519 8018752
-0.031954572 0.80804378 0.053559393 8018752
-0.031812593 0.80835581 0.053554282 8018752
-0.031670615 0.8086679 0.053549156 8018752
-0.031528652 0.80897993 0.05354403 8149824
-0.031386673 0.80929196 0.053538918 8149824
-0.031244695 0.80960399 0.053533792 8215615
-0.031102717 0.80991602 0.053528681 8215615
-0.031752393 0.81041813 0.054143116 8149822
-0.0316111 0.81072867 0.05413802 8215615
-0.031469792 0.81103921 0.054132923 8215615
-0.031328499 0.81134975 0.054127827 8215615
-0.031187207 0.81166035 0.054122731 8215615
-0.031045899 0.81197089 0.054117635 8215615
-0.031700313 0.81246257 0.054732263 8215615
-0.031559676 0.81277162 0.054727182 8149822
-0.031419069 0.81308067 0.054722115 8149824
-0.031278431 0.81338978 0.054717049 8347203
-0.031137824 0.81369883 0.054711968 8347203
-0.030997202 0.81400794 0.054706901 8347203
-0.031656325 0.81448919 0.055321693 8215617
-0.031516388 0.81479675 0.055316642 8347203
-0.031376436 0.81510437 0.05531159 8347203
-0.0312365 0.81541193 0.055306539 8347203
-0.031096548 0.81571954 0.055301502 8347203
-0.030956596 0.8160271 0.055296451 8347203
-0.031620473 0.81649798 0.055911407 8412996
-0.031481206 0.81680405 0.055906385 8347203
-0.031341925 0.81711018 0.055901363 8215617
-0.031202659 0.81741625 0.055896342 8215617
-0.031063393 0.81772238 0.05589132 8347203
-0.030924127 0.81802845 0.055886298 8347203
-0.031592727 0.8184889 0.056501433 8346949
-0.031454131 0.81879354 0.056496426 8346949
-0.031315535 0.81909817 0.056491435 8346949
-0.03117694 0.81940275 0.056486428 8346949
-0.031038344 0.81970739 0.056481436 8346949
-0.030899748 0.82001197 0.056476429 8346949
-0.031573087 0.82046205 0.057091728 8346949
-0.031435162 0.8207652 0.057086766 8412742
-0.031297252 0.82106829 0.057081789 8215363
-0.031159326 0.82137144 0.057076812 8215363
-0.031021416 0.82167459 0.057071835 8215363
-0.030883491 0.82197767 0.057066858 8412742
-0.030745581 0.82228082 0.057061896 8346949
-0.030607656 0.82258397 0.057056919 8412742
-0.030469745 0.82288706 0.057051942 8412742
-0.031149849 0.8233223 0.057667479 8478535
-0.03101261 0.8236239 0.057662532 8478535
-0.03087537 0.82392555 0.057657585 8478535
-0.03073813 0.82422721 0.057652637 8478537
-0.030600891 0.82452881 0.05764769 8478537
-0.030463636 0.82483047 0.057642743 8478537
-0.031148463 0.82525527 0.058258459 8478537
-0.031011909 0.82555544 0.058253527 8544328
-0.03087534 0.82585561 0.058248609 8610121
-0.030738771 0.82615572 0.058243677 8610121
-0.030602202 0.82645589 0.05823876 8675914
-0.030465648 0.82675606 0.058233827 8675914
-0.031155199 0.82717043 0.058849715 8675914
-0.031019315 0.82746911 0.05884482 8807502
-0.030883417 0.82776779 0.058839917 8873295
-0.030747533 0.82806647 0.058835015 8939088
-0.030611649 0.82836515 0.058830112 9004881
-0.030475751 0.82866383 0.05882521 9070674
-0.030339867 0.8289625 0.058820307 9136467
-0.030203968 0.82926118 0.058815412 9333846
-0.030068085 0.8295598 0.05881051 9465432
-0.029932201 0.82985848 0.058805607 9531225
-0.029796302 0.83015716 0.058800712 9531225
-0.029660419 0.83045584 0.05879581 9794397
-0.02952452 0.83075452 0.058790907 9925983
-0.029388636 0.8310532 0.058786005 9991776
-0.029252753 0.83135188 0.058781102 10057569
-0.028280601 0.83155859 0.05815503 10320228
-0.028144032 0.83185875 0.058150098 10386021
-0.028007463 0.83215886 0.05814518 10517607
-0.027870893 0.83245903 0.058140248 10583400
-0.027734339 0.8327592 0.058135331 10780777
-0.02759777 0.83305937 0.058130398 10846570
-0.027461201 0.83335948 0.058125481 10912363
-0.027324632 0.83365965 0.058120549 10978156
-0.027188078 0.83395982 0.058115616 11044203
-0.033713758 0.75546896 0.039187267 7491894
-0.033554882 0.75581819 0.039181545 7360822
-0.033396006 0.75616735 0.039175808 7360822
-0.033934861 0.75691491 0.039784819 7360822
-0.033776671 0.75726259 0.039779112 7426615
-0.033618465 0.75761032 0.039773405 7426361
-0.033460259 0.75795805 0.039767697 7360568
-0.033302069 0.75830573 0.03976199 7426361
-0.033143863 0.75865346 0.039756283 7492154
-0.033687472 0.75939059 0.040365458 7557947
-0.033529952 0.75973684 0.04035978 7492154
-0.033372432 0.76008302 0.040354103 7492154
-0.033918738 0.76081425 0.040963382 7557947
-0.033761889 0.761159 0.040957719 7557947
-0.033605039 0.7615037 0.040952072 7623740
-0.033448189 0.76184845 0.040946409 7623740
-0.03329134 0.7621932 0.040940747 7623740
-0.03313449 0.7625379 0.040935099 7821119
-0.03368552 0.7632587 0.041544542 7755326
-0.033529356 0.76360196 0.041538909 7821119
-0.033373177 0.76394522 0.041533276 7755326
-0.033217013 0.76428849 0.041527644 7821119
-0.033060849 0.76463175 0.041522011 7755326
-0.03290467 0.76497495 0.041516379 7755326
-0.033460438 0.76568538 0.042125985 7755326
-0.033304945 0.76602715 0.042120382 7755580
-0.033149451 0.76636893 0.042114779 7558201
-0.032993942 0.76671064 0.042109162 7753783
-0.032838449 0.76705241 0.042103559 7753783
-0.032682955 0.76739419 0.042097956 7884856
-0.033959448 0.76845241 0.043323115 7819063
-0.033805311 0.7687912 0.043317556 7884856
-0.033651173 0.76912999 0.043311998 7950649
-0.033497021 0.76946878 0.04330644 8148028
-0.033342883 0.76980758 0.043300882 8016442
-0.03318873 0.77014637 0.043295324 7951162
-0.033754647 0.77083451 0.043905303 7819576
-0.03360118 0.77117181 0.043899775 7621943
-0.033447713 0.77150911 0.043894246 7950908
-0.033294246 0.77184641 0.043888703 7886398
-0.033140779 0.77218372 0.043883175 7952191
-0.032987311 0.77252102 0.043877631 7952191
-0.032833844 0.77285832 0.043872103 7952191
-0.032680377 0.77319562 0.04386656 7952445
-0.03252691 0.77353293 0.043861032 7886652
-0.033099577 0.77420622 0.044471249 7558201
-0.03294678 0.77454203 0.044465736 6900271
-0.032793984 0.77487785 0.044460237 6571052
-0.032641202 0.77521366 0.044454724 6965810
-0.032488406 0.77554947 0.04444921 6703412
-0.032335624 0.77588528 0.044443697 5058587
-0.032913014 0.77654815 0.045054093 5979689
-0.032760903 0.77688247 0.045048609 6308654
-0.032608792 0.77721679 0.045043126 6177581
-0.033188894 0.77787375 0.045653611 6309167
-0.033037454 0.77820659 0.045648158 6374958
-0.032886013 0.77853942 0.045642689 6309165
-0.032734573 0.77887225 0.045637235 7295547
-0.032583132 0.77920514 0.045631766 7624512
-0.032431692 0.77953798 0.045626312 7690303
-0.033016533 0.78018451 0.046236977 7163959
-0.032865763 0.78051585 0.046231538 6045482
-0.032715008 0.78084719 0.046226099 5913896
-0.032564238 0.78117859 0.04622066 5914155
-0.032413483 0.78150994 0.046215221 5650983
-0.032262713 0.78184128 0.046209782 5585960
-0.032111958 0.78217268 0.046204343 5717546
-0.031961188 0.78250402 0.046198905 5782823
-0.031810433 0.78283536 0.046193466 6638132
-0.032402024 0.78346705 0.046804368 6966582
-0.032251939 0.78379691 0.046798959 7032375
-0.032101855 0.78412676 0.04679355 6044712
-0.03195177 0.78445667 0.046788141 5584161
-0.031801686 0.78478652 0.046782717 7296062
-0.031651586 0.78511643 0.046777308 7361855
-0.031501502 0.78544629 0.046771899 7756098
-0.031351417 0.78577614 0.04676649 7756098
-0.031949103 0.78639442 0.047377616 7886914
-0.031799689 0.78672284 0.047372222 7492156
-0.031650275 0.7870512 0.047366828 7491642
-0.031500876 0.78737962 0.047361448 7623228
-0.032408223 0.78924918 0.048573315 7557947
-0.032260165 0.78957456 0.048567966 7558201
-0.032112107 0.7899 0.048562631 7887166
-0.031964049 0.79022539 0.048557296 7821373
-0.031815991 0.79055083 0.048551947 7821373
-0.031667933 0.79087627 0.048546612 7821373
-0.032276452 0.79147077 0.049158126 7821373
-0.032129064 0.79179466 0.049152806 7887166
-0.031981677 0.79211861 0.049147502 7821373
-0.031834304 0.79244256 0.049142182 7887166
-0.031686917 0.79276645 0.049136862 7952959
-0.032299474 0.79335207 0.04974854 7952959
-0.032152772 0.79367453 0.04974325 7887166
-0.032006055 0.79399693 0.049737945 7887166
-0.031859353 0.79431939 0.049732655 7952959
-0.031712651 0.79464185 0.049727365 7887166
-0.031565934 0.79496431 0.049722075 7887166
-0.03218323 0.7955395 0.050333917 7756350
-0.032037199 0.79586047 0.050328642 7756350
-0.031891167 0.79618138 0.050323382 7822143
-0.031745136 0.79650235 0.050318107 7822143
-0.031599104 0.79682332 0.050312847 7952959
-0.031453073 0.79714429 0.050307587 7952959
-0.032075092 0.79770905 0.050919577 7952959
-0.031929746 0.79802853 0.050914332 7887166
-0.031784385 0.79834801 0.050909102 7952959
-0.03163904 0.79866749 0.050903857 7952959
-0.031493679 0.79898697 0.050898612 7952959
-0.031348318 0.79930645 0.050893366 7952959
-0.031975061 0.79986084 0.051505536 7952959
-0.031830385 0.80017883 0.05150032 7952959
-0.03168571 0.80049682 0.051495105 7952959
-0.031541035 0.80081481 0.051489875 7952959
-0.032082051 0.80735338 0.053867683 8149824
-0.031940073 0.80766547 0.053862557 8018752
-0.031798109 0.8079775 0.053857446 8018752
-0.031656131 0.80828953 0.05385232 8018752
-0.031514153 0.80860156 0.053847194 8018752
-0.03137219 0.80891359 0.053842083 8149824
-0.031230211 0.80922568 0.053836957 8149824
-0.031088233 0.80953771 0.053831831 8215615
-0.030946255 0.80984974 0.05382672 8215615
-0.031596676 0.81035215 0.054439738 8149822
-0.031455383 0.81066269 0.054434642 8149822
-0.031314075 0.81097323 0.054429546 8215615
-0.031172782 0.81128383 0.05442445 8215615
-0.031031489 0.81159437 0.054419354 8215615
-0.030890182 0.81190491 0.054414257 8215615
-0.031545326 0.81239688 0.05502747 8215615
-0.031404704 0.81270593 0.055022389 8149822
-0.031264082 0.81301504 0.055017322 8149824
-0.031123459 0.81332409 0.055012241 8215617
-0.030982852 0.8136332 0.055007175 8215617
-0.03084223 0.81394225 0.055002108 8347203
-0.031502098 0.8144238 0.05561547 8215617
-0.031362161 0.81473142 0.055610433 8347203
-0.031222209 0.81503898 0.055605382 8347203
-0.031082273 0.8153466 0.05560033 8412996
-0.030942321 0.81565416 0.055595279 8412996
-0.030802369 0.81596178 0.055590242 8347203
-0.031466991 0.81643295 0.056203783 8412996
-0.031327724 0.81673902 0.056198761 8347203
-0.031188443 0.81704515 0.056193724 8215617
-0.031049177 0.81735122 0.056188703 8215617
-0.030909911 0.81765735 0.056183681 8347203
-0.03077063 0.81796342 0.056178659 8347203
-0.03143999 0.81842422 0.056792378 8346949
-0.031301394 0.8187288 0.056787372 8346949
-0.031162798 0.81903344 0.05678238 8346949
-0.031024203 0.81933802 0.056777373 8346949
-0.030885607 0.81964266 0.056772381 8346949
-0.030747011 0.81994724 0.056767374 8346949
-0.031421095 0.82039762 0.057381257 8346949
-0.03128317 0.82070076 0.05737628 8412742
-0.03114526 0.82100391 0.057371318 8346949
-0.031007335 0.82130706 0.057366341 8215363
-0.030869424 0.82161015 0.057361364 8215363
-0.030731499 0.8219133 0.057356387 8412742
-0.030593589 0.82221639 0.057351425 8215363
-0.030455664 0.82251954 0.057346448 8412742
-0.030317754 0.82282269 0.057341471 8412742
-0.030998603 0.82325816 0.057955593 8478535
-0.030861363 0.82355982 0.057950646 8478535
-0.030724123 0.82386148 0.057945698 8478535
-0.030586883 0.82416308 0.057940751 8478537
-0.030449644 0.82446474 0.057935789 8478537
-0.030312389 0.8247664 0.057930842 8544330
-0.030997962 0.8251915 0.058545157 8544330
-0.030861408 0.82549167 0.058540225 8544328
-0.030724838 0.82579184 0.058535293 8544328
-0.030588269 0.826092 0.058530375 8610121
-0.0304517 0.82639211 0.058525443 8610121
-0.030315146 0.82669228 0.058520526 8610121
-0.031005442 0.82710701 0.05913499 8675914
-0.030869558 0.82740569 0.059130087 8807502
-0.03073366 0.82770431 0.059125185 8873295
-0.030597776 0.82800299 0.059120283 8939088
-0.030461892 0.82830167 0.059115387 9004881
-0.030325994 0.82860035 0.059110485 9004881
-0.03019011 0.82889903 0.059105583 9136467
-0.030054212 0.8291977 0.05910068 9268053
-0.029918328 0.82949638 0.059095785 9399639
-0.029782444 0.82979506 0.059090883 9465432
-0.029646546 0.83009374 0.05908598 9531225
-0.029510662 0.83039236 0.059081078 9728604
-0.029374763 0.83069104 0.059076175 9925983
-0.02923888 0.83098972 0.059071273 9991776
-0.029102996 0.8312884 0.059066378 10057569
-0.028130099 0.83149481 0.058441713 10320228
-0.02799353 0.83179498 0.058436796 10386021
-0.027856961 0.83209509 0.058431864 10517607
-0.027720392 0.83239526 0.058426946 10583400
-0.027583838 0.83269542 0.058422014 10714986
-0.027447268 0.83299559 0.058417097 10780779
-0.027310699 0.83329576 0.058412164 10912363
-0.02717413 0.83359587 0.058407232 10912363
-0.027037576 0.83389604 0.058402315 11043949
-0.033538669 0.75539482 0.039520785 7491894
-0.033379793 0.75574398 0.039515063 7360822
-0.033220917 0.75609314 0.039509326 7360822
-0.033760518 0.75684106 0.040116921 7360568
-0.033602327 0.75718874 0.040111214 7426361
-0.033444121 0.75753647 0.040105507 7426361
-0.033285916 0.75788414 0.0400998 7360568
-0.033127725 0.75823188 0.040094092 7426361
-0.032969519 0.75857955 0.040088385 7492154
-0.033513874 0.75931704 0.040696144 7557947
-0.033356354 0.75966328 0.040690467 7492154
-0.033198833 0.76000947 0.040684789 7492154
-0.03374587 0.760741 0.041292652 7557947
-0.033589035 0.76108575 0.04128699 7557947
-0.033432186 0.7614305 0.041281328 7623740
-0.033275336 0.7617752 0.04127568 7623740
-0.033118486 0.76211995 0.041270018 7623740
-0.032961637 0.76246464 0.04126437 7690303
-0.033513412 0.7631858 0.041872382 7624510
-0.033357248 0.76352906 0.04186675 7624510
-0.033201069 0.76387227 0.041861117 7624510
-0.033044904 0.76421553 0.041855484 7690303
-0.032888725 0.76455879 0.041849852 7624510
-0.032732561 0.76490206 0.041844219 7624510
-0.033289075 0.76561278 0.042452425 7690303
-0.033133566 0.76595455 0.042446807 7624510
-0.032978088 0.76629627 0.042441204 7427131
-0.032822579 0.76663804 0.042435601 7623480
-0.032667086 0.76697981 0.042429984 7623480
-0.032511592 0.76732159 0.042424381 7754553
-0.033789575 0.76838046 0.043646708 7754553
-0.033635437 0.76871926 0.04364115 7754553
-0.033481285 0.76905805 0.043635592 7820346
-0.033327147 0.76939684 0.043630034 7951932
-0.03317301 0.76973563 0.043624476 8017725
-0.033018857 0.77007443 0.043618917 7951678
-0.033585519 0.77076286 0.044227481 7293748
-0.033432037 0.77110016 0.044221953 6964013
-0.033278584 0.77143747 0.044216409 7819322
-0.033125103 0.77177477 0.044210881 7886398
-0.03297165 0.77211207 0.044205338 7952191
-0.032818168 0.77244937 0.044199809 7952191
-0.032664716 0.77278668 0.044194266 7952191
-0.032511234 0.77312398 0.044188738 7886398
-0.032357782 0.77346128 0.04418321 7689019
-0.032931179 0.77413487 0.044792011 7294775
-0.032778397 0.77447069 0.044786498 6965810
-0.032625601 0.7748065 0.044780985 6506029
-0.032472819 0.77514231 0.044775471 6703408
-0.032320023 0.77547812 0.044769958 6440240
-0.032167226 0.77581394 0.044764459 4927001
-0.032745376 0.7764771 0.045373425 5914409
-0.032593265 0.77681148 0.045367941 6177581
-0.032441139 0.7771458 0.045362458 6111788
-0.033022001 0.777803 0.045971528 6177581
-0.032870561 0.7781359 0.045966074 6506031
-0.03271912 0.77846873 0.045960605 7163961
-0.03256768 0.77880156 0.045955136 7427131
-0.032416239 0.77913439 0.045949683 7690303
-0.032264799 0.77946723 0.045944229 7821119
-0.032850385 0.78011405 0.046553463 7294775
-0.032699615 0.78044546 0.046548024 6571056
-0.03254886 0.7807768 0.046542585 6176298
-0.03239809 0.78110814 0.046537146 5914409
-0.032247335 0.78143954 0.046531722 5717030
-0.032096565 0.78177088 0.046526283 5586214
-0.03194581 0.78210223 0.046520844 5849386
-0.03179504 0.78243363 0.046515405 5651235
-0.031644285 0.78276497 0.046509966 6374958
-0.032236621 0.78339696 0.047119454 7163959
-0.032086536 0.78372681 0.04711403 7295545
-0.031936452 0.78405666 0.04710862 7031605
-0.031786367 0.78438658 0.047103211 6702640
-0.031636268 0.78471643 0.047097802 7427133
-0.031486183 0.78504634 0.047092393 7624512
-0.031336099 0.78537619 0.047086969 7690818
-0.031186014 0.78570604 0.04708156 7756611
-0.031784445 0.78632468 0.047691271 7886912
-0.031635031 0.78665304 0.047685876 7821119
-0.031485617 0.78698146 0.047680482 7821119
-0.031336203 0.78730983 0.047675103 7886912
-0.032245055 0.78918004 0.048884124 7821373
-0.032096997 0.78950542 0.048878789 7755580
-0.031948939 0.78983086 0.048873439 7887166
-0.031800881 0.7901563 0.048868105 7887166
-0.031652823 0.79048169 0.04886277 7821373
-0.031504765 0.79080713 0.048857436 7887166
-0.032114029 0.79140192 0.049467519 7887166
-0.031966642 0.79172587 0.049462214 7887166
-0.031819254 0.79204977 0.049456894 7821373
-0.031671882 0.79237372 0.049451575 8018238
-0.031524494 0.79269767 0.04944627 8084031
-0.032137796 0.79328358 0.050056517 8084031
-0.031991094 0.79360598 0.050051227 8084031
-0.031844378 0.79392844 0.050045937 8084031
-0.031697676 0.79425091 0.050040647 8084031
-0.031550974 0.79457337 0.050035343 7952959
-0.031404257 0.79489577 0.050030053 7952959
-0.032022297 0.79547131 0.050640479 7887166
-0.031876266 0.79579222 0.050635204 7952959
-0.031730235 0.79611319 0.050629944 7952959
-0.031584203 0.79643416 0.050624669 7952959
-0.031438172 0.79675514 0.050619408 7952959
-0.03129214 0.79707611 0.050614133 7952959
-0.031914905 0.79764122 0.051224723 7952959
-0.031769559 0.79796064 0.051219478 7887166
-0.031624198 0.79828012 0.051214233 7952959
-0.031478852 0.7985996 0.051208988 7952959
-0.031333491 0.79891908 0.051203758 7952959
-0.03118813 0.79923856 0.051198512 7952959
-0.031815618 0.79979324 0.051809251 7952959
-0.031670943 0.80011123 0.051804036 7952959
-0.031526268 0.80042922 0.05179882 7952959
-0.031381577 0.80074722 0.051793605 7952959
-0.031925589 0.8072871 0.054165721 8149824
-0.031783611 0.80759913 0.05416061 8149824
-0.031641647 0.80791116 0.054155484 8149824
-0.031499669 0.80822325 0.054150358 8018752
-0.031357691 0.80853528 0.054145247 8018752
-0.031215712 0.80884731 0.054140121 8149824
-0.031073749 0.80915934 0.05413501 8149824
-0.030931771 0.80947143 0.054129884 8215615
-0.030789793 0.80978346 0.054124758 8215615
-0.031440958 0.81028616 0.054736376 8149822
-0.031299651 0.8105967 0.05473128 8149822
-0.031158358 0.81090724 0.054726183 8215615
-0.031017065 0.81121784 0.054721087 8215615
-0.030875772 0.81152838 0.054715991 8347201
-0.030734465 0.81183892 0.054710895 8215615
-0.031390354 0.8123312 0.055322677 8215615
-0.031249732 0.81264031 0.055317596 8215615
-0.03110911 0.81294936 0.055312529 8215615
-0.030968487 0.81325841 0.055307463 8215615
-0.030827865 0.81356752 0.055302382 8215617
-0.030687243 0.81387657 0.055297315 8347203
-0.031347871 0.81435847 0.055909261 8215617
-0.031207934 0.81466603 0.05590421 8347203
-0.031067982 0.81497365 0.055899158 8347203
-0.030928031 0.81528121 0.055894122 8412996
-0.030788094 0.81558883 0.05588907 8347203
-0.030648142 0.81589639 0.055884019 8215617
-0.031313509 0.81636786 0.056496143 8347203
-0.031174228 0.81667399 0.056491122 8347203
-0.031034961 0.81698012 0.0564861 8215617
-0.030895695 0.81728619 0.056481078 8215617
-0.030756429 0.81759232 0.056476057 8347203
-0.030617148 0.81789839 0.056471035 8347203
-0.031287238 0.81835949 0.057083324 8346949
-0.031148642 0.81866407 0.057078317 8412742
-0.031010062 0.81896871 0.057073325 8346949
-0.030871466 0.81927335 0.057068333 8346949
-0.03073287 0.81957793 0.057063326 8346949
-0.030594274 0.81988257 0.057058334 8215363
-0.031269103 0.82033324 0.057670787 8346949
-0.031131178 0.82063639 0.05766581 8412742
-0.030993268 0.82093948 0.057660848 8346949
-0.030855343 0.82124263 0.057655871 8346949
-0.030717432 0.82154578 0.057650894 8215363
-0.030579507 0.82184887 0.057645917 8346949
-0.030441597 0.82215202 0.057640955 8215363
-0.030303672 0.82245517 0.057635978 8346949
-0.030165762 0.82275826 0.057631001 8346949
-0.030847356 0.82319409 0.058243707 8478535
-0.030710116 0.82349575 0.05823876 8478535
-0.030572876 0.8237974 0.058233812 8478535
-0.030435637 0.824099 0.05822885 8478535
-0.030298397 0.82440066 0.058223903 8478535
-0.030161142 0.82470232 0.058218956 8478537
-0.03084746 0.82512772 0.058831841 8544330
-0.030710891 0.82542789 0.058826916 8544330
-0.030574337 0.82572806 0.058821991 8544330
-0.030437768 0.82602823 0.058817066 8610121
-0.030301198 0.82632834 0.058812141 8544328
-0.030164644 0.82662851 0.058807209 8610121
-0.030855685 0.82704353 0.059420258 8675914
-0.030719787 0.82734221 0.059415355 8807502
-0.030583903 0.82764089 0.05941046 8873295
-0.03044802 0.82793957 0.059405558 8939088
-0.030312121 0.82823825 0.059400655 9004881
-0.030176237 0.82853687 0.05939576 9004881
-0.030040354 0.82883555 0.059390858 9136467
-0.029904455 0.82913423 0.059385955 9268053
-0.029768571 0.8294329 0.059381053 9399639
-0.029632673 0.82973158 0.05937615 9465432
-0.029496789 0.83003026 0.059371248 9465432
-0.029360905 0.83032894 0.059366345 9728604
-0.029225007 0.83062762 0.05936145 9794397
-0.029089123 0.83092624 0.059356548 9925983
-0.028953224 0.83122492 0.059351645 10057569
-0.027979583 0.83143103 0.058728412 10189155
-0.027843028 0.8317312 0.05872348 10320741
-0.027706459 0.83203137 0.058718555 10386534
-0.02756989 0.83233148 0.05871363 10518120
-0.027433321 0.83263165 0.058708705 10518118
-0.027296767 0.83293182 0.05870378 10715497
-0.027160197 0.83323199 0.058698855 10912363
-0.027023628 0.83353209 0.058693931 10912363
-0.026887074 0.83383226 0.058689006 11043949
-0.034060776 0.75572407 0.040466145 7491894
-0.033902571 0.75607175 0.040460438 7491894
-0.033744365 0.75641942 0.04045473 7491894
-0.033586174 0.75676715 0.040449023 7360568
-0.033427969 0.75711489 0.040443316 7426361
-0.033269778 0.75746256 0.040437624 7426361
-0.033812851 0.75820482 0.041043878 7360568
-0.033655316 0.75855106 0.0410382 7426361
-0.033497795 0.75889724 0.041032523 7492154
-0.033340275 0.75924349 0.041026846 7557947
-0.033182755 0.75958967 0.041021153 7492154
-0.033025235 0.75993592 0.041015476 7492154
-0.033573017 0.76066774 0.041621923 7557947
-0.033416167 0.76101249 0.041616261 7623740
-0.033259332 0.76135725 0.041610613 7623740
-0.033809811 0.76208311 0.042217135 7623740
-0.033653647 0.76242638 0.042211503 7623740
-0.033497483 0.76276964 0.04220587 7755326
-0.033341303 0.7631129 0.042200238 7755326
-0.033185139 0.76345611 0.042194605 7624510
-0.03302896 0.76379937 0.042188972 7624510
-0.033584192 0.76451486 0.042795673 7690303
-0.033428699 0.76485664 0.04279007 7624510
-0.033273205 0.76519841 0.042784467 7624510
-0.033117712 0.76554018 0.04277885 7624510
-0.032962203 0.7658819 0.042773247 7624510
-0.032806709 0.76622367 0.042767629 7427131
-0.03408213 0.76729208 0.043986976 7360568
-0.033927992 0.76763088 0.043981418 7097396
-0.033773839 0.76796967 0.04397586 7294775
-0.033619702 0.76830846 0.043970302 7163189
-0.033465564 0.76864725 0.043964744 7294777
-0.033311412 0.76898605 0.043959185 7492156
-0.033876777 0.76967925 0.044566259 7754814
-0.03372331 0.77001655 0.04456073 7886400
-0.033569843 0.77035385 0.044555187 7754814
-0.033416376 0.77069116 0.044549659 6965298
-0.033262908 0.77102852 0.044544116 6570540
-0.033109441 0.77136576 0.044538587 7228470
-0.032955974 0.77170312 0.044533059 7294261
-0.032802507 0.77204043 0.044527516 7623226
-0.03264904 0.77237773 0.044521973 7952191
-0.03322117 0.77305603 0.045129299 7952191
-0.033068389 0.77339184 0.045123786 7689019
-0.032915592 0.77372766 0.045118272 6702124
-0.032762796 0.77406353 0.045112759 6109989
-0.032610014 0.77439934 0.045107245 6438954
-0.032457218 0.77473515 0.045101747 6374445
-0.033034086 0.77540308 0.045709223 6506031
-0.03288196 0.7757374 0.045703739 6374960
-0.032729849 0.77607179 0.045698255 5914409
-0.032577738 0.77640611 0.045692757 6177581
-0.032425612 0.77674043 0.045687273 6243374
-0.032273501 0.77707475 0.04568179 6111788
-0.032855093 0.77773231 0.046289444 6440753
-0.032703653 0.77806515 0.04628399 7163961
-0.032552227 0.77839798 0.046278521 7361340
-0.033136517 0.77904958 0.04688628 7624510
-0.032985762 0.77938098 0.046880841 7690303
-0.032834992 0.77971232 0.046875402 7690303
-0.032684237 0.78004366 0.046869963 7361338
-0.032533467 0.78037506 0.046864524 6834228
-0.032382712 0.78070641 0.046859086 6307884
-0.032231942 0.78103775 0.046853647 6111788
-0.032081187 0.78136915 0.046848208 5717030
-0.031930417 0.78170049 0.046842769 5519651
-0.032521471 0.78233725 0.047450766 6769718
-0.032371387 0.7826671 0.047445357 5979687
-0.032221302 0.78299695 0.047439948 6374445
-0.032071218 0.78332686 0.047434524 7295799
-0.031921133 0.78365672 0.047429115 7427385
-0.031771049 0.78398663 0.047423705 7558201
-0.03162095 0.78431648 0.047418281 7623994
-0.031470865 0.78464633 0.047412872 7755326
-0.031320781 0.78497624 0.047407463 7755326
-0.031170696 0.7853061 0.047402054 7821889
-0.031020612 0.78563595 0.047396645 7821889
-0.031619787 0.78625488 0.048004925 7756096
-0.031470373 0.7865833 0.047999531 7756096
-0.031320959 0.78691167 0.047994152 7756096
-0.031171545 0.78724003 0.047988757 7756096
-0.032835886 0.78938949 0.049808815 7690557
-0.032688513 0.78971344 0.04980351 7690557
-0.032541126 0.79003739 0.049798191 7756350
-0.032393754 0.79036129 0.049792871 7887166
-0.032246366 0.79068524 0.049787551 7821373
-0.032098979 0.79100919 0.049782246 7887166
-0.032709643 0.79160285 0.050390944 7952959
-0.032562941 0.79192525 0.050385654 7887166
-0.032416239 0.79224771 0.050380364 7821373
-0.032269523 0.79257017 0.050375074 8084031
-0.032122821 0.79289263 0.050369784 8084031
-0.031976119 0.79321504 0.050364494 8084031
-0.031829402 0.7935375 0.050359204 8084031
-0.0316827 0.79385996 0.050353914 8084031
-0.031535998 0.79418242 0.050348625 8084031
-0.031389281 0.79450482 0.050343335 7952959
-0.031242579 0.79482728 0.050338045 7952959
-0.031861365 0.79540312 0.05094704 7887166
-0.031715333 0.79572403 0.050941765 7952959
-0.031569302 0.79604501 0.050936505 7952959
-0.031423271 0.79636598 0.05093123 7952959
-0.031277239 0.79668695 0.05092597 7952959
-0.031131208 0.79700792 0.05092071 7952959
-0.031754717 0.79757333 0.051529869 7952959
-0.032379568 0.79813576 0.052139074 7887166
-0.032234892 0.79845375 0.052133858 7952959
-0.032090202 0.79877174 0.052128628 7952959
-0.032717794 0.79932821 0.052737951 7952959
-0.032573789 0.79964471 0.052732751 7952959
-0.032429785 0.79996121 0.052727565 7952959
-0.03228578 0.80027771 0.052722365 7887166
-0.032141775 0.80059427 0.052717164 7952959
-0.031997785 0.80091077 0.052711979 7952959
-0.03185378 0.80122727 0.052706778 7952959
-0.031709775 0.80154377 0.052701592 7952959
-0.031565771 0.80186027 0.052696392 7952959
-0.031769127 0.80722082 0.054463774 8018752
-0.031627148 0.80753285 0.054458648 8018752
-0.03148517 0.80784488 0.054453537 8018752
-0.032133028 0.80835682 0.055063576 8084545
-0.03199172 0.80866736 0.055058479 8018752
-0.031850427 0.8089779 0.055053383 8084031
-0.031709135 0.8092885 0.055048287 8149824
-0.031567827 0.80959904 0.055043191 8215615
-0.031426534 0.80990958 0.055038095 8215615
-0.031285241 0.81022018 0.055032998 8149822
-0.031143934 0.81053072 0.055027902 8215615
-0.031002641 0.81084126 0.055022806 8215615
-0.031657249 0.81133831 0.055633098 8215615
-0.031516626 0.81164742 0.055628017 8347201
-0.031376004 0.81195647 0.05562295 8215615
-0.031235382 0.81226557 0.055617884 8215615
-0.03109476 0.81257463 0.055612803 8215615
-0.030954137 0.81288368 0.055607736 8347201
-0.031613484 0.81337035 0.056218192 8215615
-0.031473532 0.81367797 0.05621314 8215617
-0.031333596 0.81398553 0.056208089 8215617
-0.031995639 0.81446624 0.056818649 8215617
-0.031856358 0.81477237 0.056813627 8347203
-0.031717092 0.81507844 0.056808606 8347203
-0.031577826 0.81538457 0.056803584 8347203
-0.031438559 0.81569064 0.056798562 8347203
-0.031299293 0.81599677 0.056793541 8215617
-0.031160012 0.81630284 0.056788519 8215617
-0.031020746 0.81660897 0.056783497 8215617
-0.030881479 0.81691504 0.056778476 8215617
-0.031550288 0.81738091 0.057389274 8215617
-0.031411693 0.81768554 0.057384267 8215617
-0.031273097 0.81799012 0.057379276 8215617
-0.031134501 0.81829476 0.057374269 8346949
-0.030995905 0.8185994 0.057369277 8346949
-0.03085731 0.81890398 0.05736427 8347203
-0.031530857 0.81935942 0.057975248 8347203
-0.031392932 0.81966257 0.057970271 8215617
-0.031255022 0.81996572 0.057965294 8215617
-0.031117097 0.82026881 0.057960317 8347203
-0.030979186 0.82057196 0.057955354 8412996
-0.030841276 0.82087511 0.057950377 8412742
-0.031519547 0.82132018 0.058561519 8346949
-0.031382307 0.82162178 0.058556572 8215363
-0.031245068 0.82192343 0.05855161 8346949
-0.031107828 0.82222509 0.058546662 8215363
-0.030970588 0.82252669 0.058541715 8346949
-0.030833349 0.82282835 0.058536768 8346949
-0.031516343 0.82326305 0.059148088 8412742
-0.031379789 0.82356316 0.059143156 8412742
-0.03124322 0.82386333 0.059138238 8478535
-0.031106651 0.8241635 0.059133306 8478535
-0.030970097 0.82446367 0.059128381 8412742
-0.030833527 0.82476377 0.059123456 8478537
-0.031521261 0.82518804 0.059734941 8544330
-0.031385377 0.82548672 0.059730038 8544330
-0.031249478 0.8257854 0.059725136 8544330
-0.031113595 0.82608408 0.059720233 8544328
-0.030977696 0.82638276 0.059715338 8544328
-0.030841812 0.82668144 0.059710436 8610121
-0.030705929 0.82698011 0.059705533 8675914
-0.03057003 0.82727873 0.059700631 8675916
-0.030434147 0.82757741 0.059695736 8807502
-0.030298263 0.82787609 0.059690833 8873295
-0.030162364 0.82817477 0.059685931 8939088
-0.030026481 0.82847345 0.059681028 9004881
-0.029890597 0.82877213 0.059676126 9136467
-0.029754698 0.82907081 0.059671223 9268053
-0.0296188 0.82936949 0.059666328 9399639
-0.030317366 0.82976991 0.0602782 9465432
-0.030182153 0.8300671 0.060273319 9465432
-0.03004694 0.83036429 0.060268447 9728604
-0.029911727 0.83066148 0.060263574 9728604
-0.029776514 0.83095866 0.060258694 9860190
-0.0296413 0.83125585 0.060253814 9991776
-0.028667584 0.83146012 0.059632018 10057569
-0.0285317 0.8317588 0.059627116 10254948
-0.028395802 0.83205748 0.059622213 10386532
-0.028259918 0.83235615 0.059617318 10452325
-0.028124034 0.83265483 0.059612416 10518118
-0.027988136 0.83295351 0.059607513 10649704
-0.027852252 0.83325219 0.059602618 10847083
-0.027716354 0.83355087 0.059597716 10847083
-0.02758047 0.83384955 0.059592813 10978156
-0.033886433 0.75565016 0.040798247 7360822
-0.033728227 0.7559979 0.04079254 7360822
-0.033570021 0.75634557 0.040786847 7295029
-0.033411831 0.7566933 0.04078114 7294775
-0.033253625 0.75704098 0.040775433 7426361
-0.033095434 0.75738871 0.040769726 7426361
-0.033639252 0.75813127 0.041374564 7360568
-0.033481717 0.75847745 0.041368887 7426361
-0.033324197 0.75882369 0.041363209 7492154
-0.033166677 0.75916994 0.041357532 7492154
-0.033009157 0.75951612 0.04135184 7492154
-0.032851636 0.75986236 0.041346163 7492154
-0.033400163 0.76059449 0.04195118 7557947
-0.033243313 0.76093924 0.041945532 7623740
-0.033086464 0.76128399 0.04193987 7623740
-0.033637702 0.76201022 0.042544976 7623740
-0.033481538 0.76235342 0.042539343 7755326
-0.033325374 0.76269668 0.042533711 7755326
-0.033169195 0.76303995 0.042528093 7755326
-0.033013016 0.76338321 0.04252246 7755326
-0.032856852 0.76372647 0.042516828 7821119
-0.033412829 0.76444227 0.043122113 7821119
-0.033257335 0.76478404 0.043116495 7755326
-0.033101827 0.76512575 0.043110892 7624510
-0.032946333 0.76546752 0.043105289 7624510
-0.03279084 0.7658093 0.043099672 7624510
-0.032635346 0.76615107 0.043094069 7295545
-0.033912256 0.76722014 0.04431057 6834224
-0.033758104 0.76755893 0.044305012 6505259
-0.033603966 0.76789773 0.044299453 6505261
-0.033449829 0.76823652 0.044293895 6505261
-0.033295676 0.76857531 0.044288337 6571056
-0.033141539 0.7689141 0.044282779 6439470
-0.033707649 0.7696076 0.044888437 7426365
-0.033554181 0.76994491 0.044882894 7557951
-0.033400714 0.77028221 0.044877365 7426365
-0.033247247 0.77061951 0.044871822 6702642
-0.03309378 0.77095681 0.044866294 6241575
-0.032940313 0.77129412 0.044860765 6767919
-0.032786846 0.77163142 0.044855222 6965296
-0.032633379 0.77196872 0.044849694 7425847
-0.032479912 0.77230603 0.044844151 7952191
-0.033052787 0.77298468 0.045450047 7952191
