# .PCD v0.7 - Point Cloud Data file format
VERSION 0.7
FIELDS x y z rgb
SIZE 4 4 4 4
TYPE F F F U
COUNT 1 1 1 1
WIDTH 1095
HEIGHT 1
VIEWPOINT 0 0 0 1 0 0 0
POINTS 1095
DATA ascii
0.048016556 0.82997561 0.021934405 15456466
0.048644312 0.83050197 0.022599593 15390673
0.048974656 0.83030683 0.022599027 15193294
0.049304999 0.83011168 0.02259846 15259087
0.049635336 0.82991654 0.022597894 15259087
0.04996568 0.82972139 0.022597328 15061708
0.050296016 0.82952619 0.022596762 14995917
0.050913937 0.83005834 0.023261979 14930124
0.051242881 0.82986403 0.023261413 14667722
0.051571809 0.82966971 0.023260862 14667722
0.051900752 0.8294754 0.023260295 14601929
0.05222968 0.82928109 0.023259729 14536136
0.052558623 0.82908678 0.023259163 14470343
0.052887551 0.82889247 0.023258597 14338757
0.053216495 0.82869816 0.02325803 14141376
0.05354543 0.82850385 0.023257479 14075583
0.053874366 0.82830948 0.023256913 13943997
0.054203302 0.82811517 0.023256347 13878204
0.054532237 0.82792085 0.02325578 13549752
0.054861166 0.82772654 0.023255229 13418166
0.055190109 0.82753223 0.023254663 13220787
0.055519044 0.82733792 0.023254097 13154994
0.055847984 0.82714355 0.02325353 13023408
0.055911832 0.82620865 0.02258715 12760236
0.056242172 0.82601351 0.022586584 12432295
0.056572512 0.82581836 0.022586018 12169123
0.056902856 0.82562321 0.022585452 11905951
0.057233196 0.82542807 0.022584885 11642779
0.057305481 0.82448816 0.021918505 11379089
0.05763723 0.82429218 0.021917939 11181710
0.057968974 0.8240962 0.021917358 10918023
0.058300722 0.82390022 0.021916792 10589058
0.058632471 0.82370424 0.021916226 10390909
0.058964219 0.82350826 0.021915659 9930358
0.039981775 0.83090937 0.019624233 14996939
0.040319152 0.83071005 0.019623652 15128525
0.040656522 0.83051074 0.019623071 15260111
0.040993892 0.83031148 0.019622505 15128525
0.041651577 0.83082104 0.020286232 15128525
0.041987546 0.83062255 0.020285651 15260111
0.042323507 0.83042407 0.02028507 15128525
0.042975567 0.83093703 0.020948812 15128525
0.043310128 0.83073938 0.020948246 15259341
0.043644689 0.83054173 0.020947665 15259341
0.04397925 0.83034408 0.020947099 15259341
0.044313803 0.83014643 0.020946532 15456720
0.044957429 0.83066434 0.02161026 15193548
0.045290582 0.83046752 0.021609694 15193548
0.045623735 0.83027071 0.021609128 15259341
0.045956887 0.83007389 0.021608561 15390927
0.04629004 0.82987708 0.02160798 15259341
0.046623193 0.82968026 0.021607414 15259341
0.047256976 0.83020401 0.022271186 15062478
0.047588728 0.83000803 0.022270605 15062478
0.047920473 0.82981205 0.022270039 15259857
0.048548639 0.83033907 0.022933811 15259857
0.048878983 0.83014393 0.022933245 15062478
0.049209319 0.82994878 0.022932693 15062478
0.049539663 0.82975364 0.022932127 15193294
0.049870007 0.82955843 0.022931561 15127501
0.050200351 0.82936329 0.022930995 15061710
0.050818674 0.82989615 0.023594782 14995917
0.05114761 0.82970184 0.023594216 14930124
0.051476546 0.82950753 0.023593664 14798538
0.051805481 0.82931316 0.023593098 14732745
0.052134417 0.82911885 0.023592532 14666952
0.052463353 0.82892454 0.023591965 14470343
0.052792288 0.82873023 0.023591399 14338757
0.053121231 0.82853591 0.023590833 14338755
0.05345016 0.8283416 0.023590282 14075583
0.053779095 0.82814729 0.023589715 13943997
0.054108031 0.82795298 0.023589149 13746618
0.054436974 0.82775867 0.023588583 13615545
0.054765902 0.8275643 0.023588032 13352373
0.055094846 0.82736999 0.023587465 13220787
0.055423781 0.82717568 0.023586899 13154994
0.055752717 0.82698137 0.023586333 13023408
0.055816159 0.82604575 0.022921383 12760236
0.056146499 0.82585061 0.022920817 12563111
0.056476839 0.82565546 0.022920251 12299939
0.056807183 0.82546031 0.022919685 12102558
0.057137523 0.82526517 0.022919118 11839386
0.057209402 0.82432455 0.022254139 11575955
0.057541151 0.82412857 0.022253573 11312783
0.057872895 0.82393259 0.022253007 10983816
0.058204643 0.82373661 0.02225244 10654851
0.058536392 0.82354063 0.022251874 10456702
0.05886814 0.82334465 0.022251308 9930358
0.037863843 0.8310374 0.019305587 14996939
0.038202621 0.83083725 0.019305021 14996939
0.038541399 0.8306371 0.019304425 15325904
0.039209329 0.83114159 0.019966722 15128525
0.039546706 0.83094227 0.01996614 15128525
0.039884068 0.83074296 0.019965559 15062732
0.040221445 0.8305437 0.019964978 15128525
0.040558808 0.83034438 0.019964397 15456720
0.040896185 0.83014506 0.019963831 15390927
0.041874997 0.83136493 0.021289021 15259341
0.042209558 0.83116734 0.021288455 15259341
0.042544119 0.83096969 0.021287873 15259341
0.04287868 0.83077204 0.021287307 15390927
0.043213233 0.83057439 0.021286726 15259341
0.043547794 0.83037674 0.02128616 15259341
0.044194639 0.83089364 0.021948472 15390927
0.044527791 0.83069682 0.021947891 15390927
0.044860944 0.83050001 0.021947324 15259341
0.045502163 0.83102024 0.022609666 15193548
0.045833908 0.83082426 0.022609085 15259341
0.046165653 0.83062828 0.022608519 15390927
0.046497405 0.8304323 0.022607952 15259341
0.046829149 0.83023632 0.022607386 15259341
0.047160901 0.83004034 0.02260682 15128525
0.047792286 0.83056641 0.023269176 15128525
0.048122622 0.83037126 0.02326861 15128525
0.048452966 0.83017612 0.023268044 15128525
0.04878331 0.82998097 0.023267478 15062732
0.049113654 0.82978582 0.023266912 15062732
0.049736597 0.8303169 0.023929268 15062478
0.05006554 0.83012259 0.023928717 14996685
0.050394468 0.82992828 0.023928151 15061708
0.050723411 0.82973391 0.023927584 14995915
0.051052347 0.8295396 0.023927018 14930122
0.051381283 0.82934529 0.023926467 14930122
0.051994391 0.82988214 0.024588838 14798536
0.052321918 0.82968867 0.024588272 14666950
0.052649453 0.82949519 0.024587721 14536134
0.052976981 0.82930171 0.024587154 14404548
0.053304516 0.82910818 0.024586588 14207169
0.053632043 0.8289147 0.024586037 14141376
0.053959571 0.82872123 0.024585471 13943997
0.054287098 0.82852769 0.024584919 13878204
0.054614633 0.82833421 0.024584353 13549752
0.054942161 0.82814074 0.024583787 13352373
0.055269696 0.82794726 0.02458322 13352373
0.055597223 0.82775378 0.024582669 13220787
0.055924758 0.82756031 0.024582103 13023408
0.05598639 0.82662481 0.023918569 12891822
0.056315325 0.8264305 0.023918018 12628904
0.056644261 0.82623619 0.023917452 12299939
0.056973197 0.82604182 0.023916885 12102558
0.057302132 0.82584751 0.023916319 11970972
0.057372198 0.82490706 0.02325277 11773334
0.057702534 0.82471192 0.023252204 11378576
0.058032878 0.82451677 0.023251638 11114632
0.058108564 0.82357299 0.022588074 10851460
0.058440313 0.82337701 0.022587508 10522497
0.058772061 0.82318103 0.022586942 9996153
0.037765734 0.83087027 0.019648343 15062732
0.038104504 0.83067018 0.019647777 15062732
0.038443282 0.83047003 0.019647181 15260111
0.039111622 0.83097517 0.020308048 15128525
0.039448999 0.83077592 0.020307481 15062732
0.039786361 0.8305766 0.0203069 15062732
0.040123738 0.83037728 0.020306319 15128525
0.040461101 0.83017802 0.020305738 15390927
0.040798478 0.8299787 0.020305157 15390927
0.04177811 0.83119994 0.021627516 15390927
0.042112663 0.8310023 0.021626934 15259341
0.042447224 0.83080471 0.021626368 15193548
0.042781785 0.83060706 0.021625787 15259341
0.043116339 0.83040941 0.021625221 15390927
0.043450899 0.83021176 0.02162464 15259341
0.044098146 0.83072937 0.022285536 15390927
0.044431306 0.83053255 0.02228497 15390927
0.044764452 0.83033574 0.022284389 15259341
0.045406081 0.83085668 0.022945315 15259341
0.045737825 0.8306607 0.022944734 15259341
0.046069577 0.83046472 0.022944167 15259341
0.046401329 0.83026874 0.022943601 15390927
0.046733074 0.83007276 0.022943035 15390927
0.047064818 0.82987678 0.022942469 15390927
0.047696613 0.83040351 0.023603395 15390927
0.048026957 0.83020836 0.023602828 15390927
0.048357293 0.83001322 0.023602262 15259341
0.048687637 0.82981807 0.023601696 15062732
0.049017981 0.82962292 0.02360113 15062732
0.049641334 0.83015466 0.024262071 15062478
0.049970277 0.82996035 0.024261504 15062478
0.050299205 0.82976604 0.024260938 15127501
0.050628148 0.82957172 0.024260387 15061708
0.050957076 0.82937741 0.024259821 14930122
0.051286019 0.82918304 0.024259254 14930122
0.05189953 0.82972062 0.02492021 14798536
0.052227065 0.82952714 0.024919659 14666950
0.0525546 0.82933366 0.024919093 14470341
0.052882127 0.82914013 0.024918526 14470341
0.053209655 0.82894665 0.024917975 14207169
0.053537183 0.82875317 0.024917409 14141376
0.053864717 0.8285597 0.024916857 13944510
0.054192245 0.82836616 0.024916291 13878717
0.05451978 0.82817268 0.024915725 13549752
0.054847308 0.82797921 0.024915174 13418166
0.055174835 0.82778573 0.024914607 13483959
0.055502363 0.82759225 0.024914056 13220787
0.055829901 0.82739878 0.02491349 13023408
0.055891123 0.82646257 0.024251372 12891822
0.056220062 0.82626826 0.024250805 12694697
0.056548998 0.82607394 0.024250239 12431525
0.05687793 0.82587963 0.024249688 12102558
0.057206865 0.82568532 0.024249122 11970972
0.057276525 0.82474416 0.023586988 11773334
0.057606861 0.82454902 0.023586422 11378576
0.057937205 0.82435387 0.023585856 11246220
0.058012486 0.82340944 0.022923723 10917255
0.058344234 0.82321346 0.022923157 10588290
0.058675982 0.82301748 0.02292259 10127739
0.036312886 0.83060265 0.019332826 15259341
0.036653064 0.83040166 0.01933226 15390927
0.036993243 0.83020067 0.019331664 15260111
0.037667617 0.8307032 0.0199911 15128525
0.038006388 0.83050311 0.019990519 15128525
0.038345166 0.83030295 0.019989938 15260111
0.039013915 0.83080882 0.020649374 15062732
0.039351292 0.8306095 0.020648807 14996939
0.039688654 0.83041024 0.020648226 15062732
0.040026031 0.83021092 0.020647645 15128525
0.040363394 0.83001161 0.020647079 15260111
0.040700771 0.82981229 0.020646498 15128525
0.041681208 0.83103496 0.021965995 15260111
0.042015769 0.83083731 0.021965429 15128525
0.042350329 0.83063966 0.021964848 15062732
0.04268489 0.83044201 0.021964282 15128525
0.043019451 0.83024442 0.021963716 15259341
0.043354005 0.83004677 0.021963134 15259341
0.044001661 0.83056504 0.0226226 15259341
0.044334821 0.83036822 0.022622034 15390927
0.044667967 0.83017141 0.022621453 15259341
0.045309998 0.83069307 0.023280948 15259341
0.04564175 0.83049709 0.023280382 15259341
0.045973495 0.83030111 0.023279816 15390927
0.046305247 0.83010513 0.02327925 15390927
0.046636991 0.82990915 0.023278683 15456720
0.046968736 0.82971317 0.023278117 15522000
0.04760094 0.83024061 0.023937613 15522000
0.047931276 0.83004546 0.023937047 15390927
0.04826162 0.82985032 0.02393648 15259341
0.048591964 0.82965517 0.023935914 15259341
0.048922308 0.82946002 0.023935348 15259341
0.04954607 0.82999241 0.024594873 15193548
0.049875006 0.8297981 0.024594307 15127755
0.050203942 0.82960379 0.024593741 15193294
0.050532877 0.82940948 0.024593174 15061708
0.050861813 0.82921517 0.024592623 14930122
0.051190756 0.82902086 0.024592057 14798536
0.051804677 0.82955909 0.025251597 14798536
0.052132212 0.82936561 0.025251031 14666950
0.052459739 0.82917213 0.025250465 14470341
0.052787267 0.8289786 0.025249913 14470341
0.053114794 0.82878512 0.025249347 14339009
0.053442329 0.82859164 0.025248796 14141630
0.053769864 0.82839811 0.02524823 13944764
0.054097392 0.82820463 0.025247663 13878971
0.054424919 0.82801116 0.025247097 13615545
0.054752447 0.82781768 0.025246546 13418166
0.055079982 0.8276242 0.025245979 13221557
0.055407509 0.82743073 0.025245428 13089971
0.055735044 0.82723719 0.025244862 12958385
0.055795856 0.82630038 0.024584174 12761006
0.056124795 0.82610607 0.024583608 12629674
0.056453731 0.8259117 0.024583042 12300709
0.056782663 0.82571739 0.024582475 12168351
0.057111599 0.82552308 0.024581924 11839386
0.057180852 0.82458127 0.023921221 11773334
0.057511192 0.82438612 0.023920655 11444369
0.057841536 0.82419097 0.023920089 11246220
0.057916407 0.82324576 0.023259372 10983048
0.058248155 0.82304978 0.023258805 10588290
0.058579903 0.8228538 0.023258239 10259325
0.035193816 0.83103776 0.019678757 15260111
0.035533994 0.83083677 0.019678175 15390927
0.03587418 0.83063579 0.019677594 15259341
0.036553167 0.83113652 0.0203356 15259341
0.036891945 0.83093643 0.020335019 15390927
0.037230723 0.83073628 0.020334437 15260111
0.037904091 0.83124036 0.020992458 15128525
0.038241468 0.83104104 0.020991877 15062478
0.038578831 0.83084172 0.020991296 15128271
0.038916208 0.83064246 0.020990714 15128271
0.039253578 0.83044314 0.020990133 14996685
0.039590947 0.83024383 0.020989567 15128525
0.040254481 0.83075368 0.021647602 15128525
0.040590443 0.8305552 0.021647021 15260111
0.040926404 0.83035678 0.02164644 15128525
0.04158432 0.83086997 0.02230449 15128525
0.041918881 0.83067232 0.022303909 15128525
0.042253435 0.83047467 0.022303343 15128525
0.042905718 0.83099115 0.022961378 15260111
0.043238871 0.83079433 0.022960812 15260111
0.043572024 0.83059752 0.022960246 15260111
0.044218682 0.83111739 0.023618296 15260111
0.044550426 0.83092141 0.02361773 15128525
0.044882171 0.83072543 0.023617163 15259341
0.045213923 0.83052945 0.023616597 15390927
0.045545675 0.83033347 0.023616031 15390927
0.045877419 0.83013749 0.023615465 15390927
0.046514235 0.83066314 0.024273545 15456207
0.046844579 0.830468 0.024272978 15522000
0.047174923 0.83027279 0.024272412 15522000
0.047806121 0.83080178 0.024930477 15522000
0.048135065 0.83060747 0.024929926 15456207
0.048463993 0.83041316 0.02492936 15324621
0.048792936 0.83021885 0.024928793 15259341
0.049121872 0.83002454 0.024928242 15259341
0.049450807 0.82983017 0.024927676 15193548
0.050072171 0.830365 0.025585771 15127755
0.050399698 0.83017153 0.025585204 15127501
0.050727226 0.82997799 0.025584653 15061708
0.051054753 0.82978451 0.025584087 14995915
0.051382288 0.82959104 0.025583535 14995915
0.051709823 0.82939756 0.025582969 14930122
0.052037351 0.82920408 0.025582403 14666950
0.052364878 0.82901061 0.025581852 14470341
0.052973591 0.82955283 0.026239991 14404548
0.05329971 0.82936013 0.026239425 14207423
0.053625837 0.82916749 0.026238859 14141630
0.053951964 0.82897484 0.026238307 13944764
0.054278083 0.8287822 0.026237756 13878971
0.05460421 0.82858956 0.02623719 13550776
0.054930337 0.82839686 0.026236624 13353397
0.054985121 0.82746267 0.025577366 13287604
0.055312648 0.8272692 0.0255768 13090225
0.055640183 0.82707566 0.025576234 12892846
0.055967715 0.82688218 0.025575683 12761260
0.056295242 0.82668871 0.025575116 12629674
0.056622773 0.82649523 0.025574565 12366502
0.0566874 0.82555521 0.024915278 12037535
0.057016335 0.82536083 0.024914712 11840156
0.057085179 0.82441831 0.02425544 11708054
0.057415519 0.82422316 0.024254873 11510675
0.057745863 0.82402802 0.024254307 11312011
0.058076203 0.82383287 0.024253741 11048839
0.058406547 0.82363772 0.024253175 10588288
0.058736887 0.82344258 0.024252623 10259323
0.033727087 0.83077544 0.019367546 15391697
0.034068681 0.83057368 0.01936695 15260111
0.034410261 0.83037186 0.019366369 15128271
0.035095289 0.83086997 0.020022944 15325650
0.035435475 0.83066899 0.020022362 15128525
0.035775654 0.83046806 0.020021781 15128525
0.036455058 0.83096945 0.020678356 15259341
0.036793835 0.8307693 0.020677775 15390927
0.037132613 0.83056921 0.020677194 15325650
0.037806384 0.83107394 0.021333784 15128271
0.038143761 0.83087468 0.021333203 15128271
0.038481124 0.83067536 0.021332622 15128271
0.038818501 0.83047605 0.021332055 15128271
0.039155871 0.83027673 0.021331474 15062478
0.03949324 0.83007741 0.021330893 15259857
0.040157177 0.83058798 0.021987513 15325650
0.040493138 0.8303895 0.021986932 15128525
0.040829107 0.83019108 0.021986365 15260111
0.041487418 0.83070493 0.022642985 15260111
0.041821979 0.83050728 0.022642404 15325904
0.04215654 0.83030969 0.022641838 15325904
0.042809226 0.83082688 0.023298457 15260111
0.043142386 0.83063006 0.023297876 15260111
0.043475531 0.83043325 0.02329731 15260111
0.044122599 0.83095378 0.023953944 15260111
0.044454344 0.8307578 0.023953378 15128525
0.044786096 0.83056182 0.023952812 15259341
0.04511784 0.83036584 0.023952246 15259341
0.045449592 0.83016986 0.023951679 15390927
0.045781337 0.82997388 0.023951113 15456720
0.04641857 0.83050025 0.024607763 15456720
0.046748914 0.83030504 0.024607196 15390927
0.04707925 0.83010989 0.02460663 15456207
0.047710858 0.8306396 0.02526328 15587793
0.048039794 0.83044529 0.025262728 15456466
0.04836873 0.83025092 0.025262162 15259087
0.048697673 0.83005661 0.025261596 15259087
0.049026601 0.8298623 0.025261045 15259087
0.049355544 0.82966799 0.025260478 15193294
0.04997731 0.83020347 0.025917158 15259087
0.050304838 0.83000994 0.025916591 14996685
0.050632365 0.82981646 0.02591604 14996685
0.050959893 0.82962298 0.025915474 14930892
0.051287435 0.82942951 0.025914907 14799306
0.051614963 0.82923603 0.025914356 14930122
0.05194249 0.82904255 0.02591379 14666950
0.052270018 0.82884902 0.025913239 14470341
0.052879132 0.82939196 0.026569933 14404548
0.053205259 0.82919931 0.026569381 14338755
0.053531386 0.82900667 0.02656883 14141376
0.053857513 0.82881403 0.026568264 13944510
0.054183632 0.82862133 0.026567698 13812924
0.054509759 0.82842869 0.026567146 13550522
0.054835878 0.82823604 0.026566595 13353143
0.054890268 0.82730114 0.025908738 13287350
0.055217795 0.82710767 0.025908187 13089971
0.055545323 0.82691413 0.025907621 12892846
0.055872854 0.82672065 0.025907069 12761260
0.056200385 0.82652718 0.025906503 12563881
0.056527916 0.82633364 0.025905937 12300709
0.056592133 0.82539296 0.02524808 12037535
0.056921069 0.82519865 0.025247514 11905949
0.056989506 0.82425541 0.024589658 11773847
0.057319846 0.82406026 0.024589092 11510675
0.05765019 0.82386512 0.024588525 11312781
0.05798053 0.82366997 0.024587959 10983816
0.058310874 0.82347482 0.024587393 10588288
0.058641214 0.82327968 0.024586841 10259323
0.03225112 0.83051676 0.019059181 15260111
0.032594115 0.8303141 0.019058585 15391697
0.032937102 0.8301115 0.019058004 15128525
0.033628158 0.830607 0.019713134 15128525
0.033969752 0.83040518 0.019712552 15128525
0.034311332 0.83020341 0.019711971 15128525
0.035340615 0.83140278 0.021022856 15325904
0.035679393 0.83120263 0.021022275 15260111
0.03601817 0.83100253 0.021021694 15260111
0.036696568 0.83150548 0.021676853 15390927
0.037033938 0.83130616 0.021676272 15390927
0.037371308 0.8311069 0.021675706 15390673
0.038044088 0.83161312 0.02233088 15259087
0.038380057 0.8314147 0.022330299 15062478
0.038716018 0.83121622 0.022329718 15128271
0.039051987 0.83101773 0.022329152 15128271
0.039387949 0.83081925 0.02232857 15128271
0.03972391 0.83062077 0.022328004 15128271
0.040386848 0.83113289 0.022983193 15325650
0.040721409 0.83093524 0.022982612 15128525
0.04105597 0.83073759 0.022982046 15325904
0.041713282 0.83125299 0.023637235 15456720
0.042046435 0.83105618 0.023636669 15522513
0.042379588 0.83085936 0.023636088 15522513
0.043031275 0.8313781 0.024291292 15456720
0.043363027 0.83118212 0.024290726 15456720
0.043694772 0.83098614 0.024290159 15390927
0.044340841 0.83150816 0.024945378 15390927
0.044671185 0.83131301 0.024944812 15390927
0.045001529 0.83111787 0.024944246 15390927
0.045331873 0.83092272 0.02494368 15390927
0.045662217 0.83072758 0.024943113 15390927
0.045992553 0.83053243 0.024942547 15522513
0.046628788 0.83106029 0.025597781 15390927
0.046957724 0.83086598 0.025597215 15390927
0.047286659 0.83067167 0.025596663 15456466
0.047615595 0.83047736 0.025596097 15522259
0.047944531 0.83028305 0.025595531 15325650
0.048273467 0.83008873 0.025594965 15259857
0.048899859 0.83062238 0.026250213 15128271
0.049227387 0.8304289 0.026249647 15128271
0.049554922 0.83023542 0.026249096 15259857
0.049882449 0.83004194 0.02624853 15128271
0.050209977 0.82984841 0.026247978 14996685
0.050537512 0.82965493 0.026247412 14996685
0.051154062 0.83019441 0.026902691 14996685
0.051480189 0.83000177 0.026902124 14799306
0.051806308 0.82980913 0.026901573 14930122
0.052132435 0.82961643 0.026901007 14666950
0.052458562 0.82942379 0.026900455 14470341
0.052784689 0.82923114 0.026899904 14404548
0.053110808 0.8290385 0.026899338 14338755
0.053436935 0.82884586 0.026898772 14141376
0.053763062 0.82865316 0.02689822 14010303
0.054089181 0.82846051 0.026897669 13878717
0.054415308 0.82826781 0.026897103 13484729
0.054741435 0.82807517 0.026896536 13353143
0.055067554 0.82788253 0.026895985 13287350
0.055393681 0.82768989 0.026895434 13024178
0.055719808 0.82749724 0.026894867 12892592
0.056045935 0.82730454 0.026894316 12761006
0.056372058 0.8271119 0.02689375 12498088
0.056698181 0.8269192 0.026893198 12300709
0.056760587 0.82597864 0.026236758 12037537
0.057088118 0.82578516 0.026236206 11905951
0.057415649 0.82559168 0.02623564 11839640
0.057483681 0.82464778 0.025579199 11510675
0.057812609 0.82445347 0.025578648 11312781
0.057884857 0.82350707 0.024922192 10983816
0.058215201 0.82331192 0.024921626 10719874
0.058545541 0.82311678 0.02492106 10325116
0.035242498 0.83123571 0.021365613 15325904
0.035581276 0.83103555 0.021365032 15325904
0.035920046 0.83083546 0.02136445 15260111
0.036598861 0.83133912 0.022018194 15325904
0.036936231 0.8311398 0.022017613 15325904
0.037273601 0.83094049 0.022017032 15260111
0.03794679 0.83144748 0.022670791 15128525
0.038282759 0.831249 0.022670209 15260111
0.038618721 0.83105052 0.022669643 15128525
0.038954683 0.83085203 0.022669062 15260111
0.039290652 0.83065355 0.022668481 15260111
0.039626613 0.83045506 0.022667915 15260111
0.040289961 0.8309679 0.023321673 15260111
0.040624522 0.83077025 0.023321107 15390927
0.040959083 0.83057261 0.023320526 15456720
0.041616797 0.83108866 0.023974299 15522513
0.04194995 0.83089185 0.023973733 15456720
0.042283103 0.83069503 0.023973167 15456207
0.0429352 0.83121449 0.02462694 15456207
0.043266945 0.83101851 0.024626374 15456207
0.043598689 0.83082253 0.024625808 15324621
0.044245176 0.83134526 0.025279596 15390927
0.044575512 0.83115011 0.02527903 15390927
0.044905856 0.83095497 0.025278464 15390927
0.045236193 0.83075982 0.025277913 15390927
0.045566536 0.83056468 0.025277346 15390927
0.04589688 0.83036953 0.02527678 15456720
0.046533518 0.83089811 0.025930583 15260111
0.046862453 0.83070374 0.025930017 15260111
0.047191389 0.83050942 0.025929451 15325650
0.047520332 0.83031511 0.025928885 15391443
0.04784926 0.8301208 0.025928333 15325650
0.048178203 0.82992649 0.025927767 15259857
0.048804998 0.83046085 0.0265816 15259857
0.049132533 0.83026737 0.026581034 15391443
0.049460061 0.83007389 0.026580483 15325650
0.049787588 0.82988042 0.026579916 15128271
0.050115116 0.82968688 0.02657935 15128271
0.050442651 0.8294934 0.026578784 14996685
0.051059611 0.8300336 0.027232647 14930892
0.051385738 0.8298409 0.027232081 14799306
0.051711865 0.82964826 0.027231529 14799306
0.052037984 0.82945561 0.027230963 14601927
0.052364111 0.82926297 0.027230412 14404548
0.05269023 0.82907033 0.027229846 14404548
0.053016357 0.82887763 0.027229294 14273475
0.053342484 0.82868499 0.027228743 14076096
0.053668611 0.82849228 0.027228177 14010303
0.05399473 0.82829964 0.02722761 13944510
0.054320857 0.828107 0.027227059 13550524
0.054646976 0.82791436 0.027226508 13353145
0.054973103 0.82772171 0.027225941 13287352
0.05529923 0.82752901 0.02722539 13024180
0.055625357 0.82733637 0.027224824 12892594
0.055951484 0.82714373 0.027224272 12826801
0.056277607 0.82695103 0.027223706 12497834
0.05660373 0.82675838 0.027223155 12300455
0.05666573 0.82581711 0.026568145 12103330
0.056993261 0.82562363 0.026567578 11905951
0.057320792 0.82543015 0.026567012 11904920
0.057388414 0.82448554 0.025912002 11641748
0.057717346 0.82429123 0.025911435 11443597
0.057789184 0.82334411 0.02525641 11114632
0.058119528 0.82314897 0.025255844 10851460
0.058449868 0.82295382 0.025255293 10325116
0.035144381 0.83106863 0.021708369 15260111
0.035483159 0.83086848 0.021707788 15128525
0.035821937 0.83066833 0.021707207 15325904
0.036501154 0.8311727 0.02235952 15325904
0.036838524 0.83097339 0.022358954 15260111
0.037175894 0.83077407 0.022358358 15325904
0.037849493 0.83128178 0.023010701 15260111
0.038185455 0.8310833 0.02301012 15260111
0.038521416 0.83088481 0.023009554 15128525
0.038857378 0.83068633 0.023008972 15128525
0.039193347 0.83048785 0.023008406 15325904
0.039529316 0.83028942 0.023007825 15260111
0.040193066 0.83080292 0.023660168 15325904
0.040527619 0.83060527 0.023659587 15390927
0.04086218 0.83040762 0.023659021 15456720
0.041520305 0.83092439 0.024311364 15456720
0.041853465 0.83072758 0.024310797 15456720
0.04218661 0.83053076 0.024310231 15456207
0.042839117 0.83105087 0.024962589 15324621
0.043170862 0.83085489 0.024962008 15324621
0.043502614 0.83065891 0.024961442 15324621
0.044149496 0.83118236 0.025613815 15390927
0.04447984 0.83098722 0.025613248 15390927
0.044810183 0.83079207 0.025612682 15390927
0.045140527 0.83059692 0.025612116 15456720
0.045470871 0.83040178 0.02561155 15390927
0.045801207 0.83020663 0.025610983 15390927
0.046438254 0.83073586 0.026263386 15325904
0.04676719 0.83054155 0.02626282 15325904
0.047096126 0.83034724 0.026262254 15325904
0.047425061 0.83015287 0.026261687 15391697
0.047753997 0.82995856 0.026261121 15325904
0.048082933 0.82976425 0.02626057 15260111
0.048710145 0.83029932 0.026912972 15325904
0.049037673 0.83010584 0.026912406 15391697
0.0493652 0.82991236 0.026911855 15325904
0.049692735 0.82971883 0.026911288 15128525
0.050020263 0.82952535 0.026910722 15062732
0.050347798 0.82933187 0.026910171 14996939
0.05096516 0.82987273 0.027562603 14865353
0.051291287 0.82968009 0.027562037 14799560
0.051617406 0.82948744 0.027561486 14865099
0.051943533 0.8292948 0.02756092 14667720
0.05226966 0.8291021 0.027560368 14404548
0.052595787 0.82890946 0.027559817 14338755
0.052921906 0.82871681 0.027559251 14273475
0.053248033 0.82852411 0.027558684 14076096
0.05357416 0.82833147 0.027558133 14010303
0.053900279 0.82813883 0.027557582 13944510
0.054226406 0.82794619 0.027557015 13484729
0.054552533 0.82775354 0.027556449 13353143
0.054878652 0.82756084 0.027555898 13287350
0.055204779 0.8273682 0.027555346 13024178
0.055530906 0.8271755 0.02755478 12892592
0.055857033 0.82698286 0.027554229 12826799
0.056183156 0.82679021 0.027553663 12563627
0.056509279 0.82659757 0.027553111 12300455
0.056570873 0.82565558 0.026899517 12103330
0.056898404 0.8254621 0.02689895 11905951
0.057225935 0.82526863 0.026898384 11839640
0.057293147 0.8243233 0.026244804 11576468
0.057622083 0.82412899 0.026244238 11312781
0.057693511 0.82318121 0.025590628 11115402
0.058023855 0.82298607 0.025590062 10917253
0.058354199 0.82279092 0.025589496 10390909
0.035391338 0.83160424 0.02270259 15062732
0.0357287 0.83140492 0.022702008 15062732
0.036066078 0.83120561 0.022701427 15260111
0.036744289 0.83171147 0.02335234 15325904
0.037080258 0.83151305 0.023351759 15260111
0.037416227 0.83131456 0.023351192 15128525
0.037752189 0.83111608 0.023350611 15128525
0.03808815 0.8309176 0.02335003 15260111
0.038424119 0.83071911 0.023349464 15260111
0.039092496 0.83123082 0.024000376 15128525
0.039427049 0.83103317 0.02399981 15325904
0.03976161 0.83083552 0.023999229 15325904
0.040424369 0.83135051 0.024650142 15325904
0.040757515 0.83115369 0.02464956 15390927
0.041090675 0.83095688 0.024648994 15390927
0.041747801 0.8314752 0.025299937 15456720
0.042079546 0.83127922 0.02529937 15522513
0.04241129 0.83108324 0.025298804 15456720
0.043062799 0.8316049 0.025949746 15390927
0.043393143 0.83140975 0.02594918 15390927
0.043723486 0.83121461 0.025948614 15259341
0.04405383 0.8310194 0.025948048 15390927
0.044384167 0.83082426 0.025947481 15390927
0.04471451 0.83062911 0.025946915 15390927
0.045356184 0.83115661 0.026597872 15456720
0.04568512 0.8309623 0.026597306 15390927
0.046014056 0.83076799 0.02659674 15390927
0.046342991 0.83057362 0.026596189 15522513
0.046671927 0.83037931 0.026595622 15588306
0.047000863 0.830185 0.026595056 15391697
0.047632694 0.83071828 0.027246028 15391697
0.047960222 0.8305248 0.027245477 15391697
0.048287757 0.83033133 0.027244911 15260111
0.048913963 0.83086789 0.027895898 15325904
0.04924009 0.83067524 0.027895346 15260111
0.049566209 0.83048254 0.02789478 15259341
0.049892336 0.8302899 0.027894229 15259341
0.050218455 0.8300972 0.027893662 15128525
0.050544582 0.82990456 0.027893111 14996939
0.051160954 0.83044696 0.028544113 14865353
0.051485673 0.83025515 0.028543562 14799560
0.051810391 0.83006334 0.028542995 14601927
0.05213511 0.82987148 0.028542444 14601927
0.052459829 0.82967967 0.028541893 14404548
0.052784547 0.8294878 0.028541327 14338755
0.053109266 0.82929599 0.028540775 14141889
0.053433985 0.82910419 0.028540224 14076096
0.053758703 0.82891238 0.028539672 14010303
0.054083422 0.82872051 0.028539106 13944510
0.05440814 0.8285287 0.028538555 13550522
0.054732859 0.82833683 0.028538004 13418936
0.055057578 0.82814503 0.028537452 13287350
0.055382296 0.82795322 0.028536886 13089971
0.055707023 0.82776141 0.028536335 12958385
0.056031741 0.82756954 0.028535783 12826799
0.056356452 0.82737774 0.028535217 12629674
0.056681175 0.82718587 0.028534666 12432295
0.056740955 0.82624406 0.027882501 12169123
0.057067081 0.82605141 0.02788195 11971744
0.057393204 0.82585871 0.027881384 11840156
0.057458606 0.82491362 0.02722922 11445398
0.057786133 0.82472008 0.027228653 11247501
0.058113664 0.82452661 0.027228087 10852743
0.058441196 0.82433313 0.027227521 10917253
0.058768727 0.82413965 0.02722697 10456702
0.026996322 0.83089477 0.01915431 15195347
0.027342118 0.8306905 0.019153729 15260370
0.02768793 0.83048618 0.019153133 15326163
0.028033733 0.83028191 0.019152552 15259857
0.035293624 0.83143783 0.023043931 15259341
0.035630994 0.83123851 0.023043349 15259341
0.035968371 0.83103925 0.023042768 15390927
0.036646992 0.83154583 0.02369225 15260111
0.036982961 0.83134735 0.023691669 15128525
0.037318923 0.83114886 0.023691103 15128525
0.037654884 0.83095038 0.023690522 15062732
0.037990853 0.8307519 0.023689955 15260111
0.038326815 0.83055341 0.023689374 15325904
0.038995601 0.83106577 0.024338871 15260111
0.039330162 0.83086818 0.02433829 15325904
0.039664723 0.83067054 0.024337724 15325904
0.040327877 0.83118618 0.024987206 15325904
0.04066103 0.83098936 0.02498664 15260111
0.040994182 0.83079261 0.024986073 15260111
0.041651718 0.83131158 0.025635585 15456720
0.041983463 0.8311156 0.025635004 15456720
0.042315207 0.83091962 0.025634438 15456720
0.042967133 0.831442 0.026283965 15390927
0.04329747 0.83124679 0.026283398 15390927
0.043627813 0.83105165 0.026282832 15259341
0.04395815 0.8308565 0.026282266 15456718
0.044288494 0.83066136 0.0262817 15456718
0.044618838 0.83046621 0.026281133 15390925
0.045260914 0.83099437 0.026930675 15456718
0.045589857 0.83080006 0.026930109 15390925
0.045918785 0.83060575 0.026929542 15390925
0.046247728 0.83041143 0.026928991 15522511
0.046576656 0.83021712 0.026928425 15588304
0.0469056 0.83002275 0.026927859 15522513
0.047537833 0.83055675 0.027577415 15456720
0.047865368 0.83036327 0.027576864 15391697
0.048192896 0.83016974 0.027576298 15260111
0.048819512 0.83070701 0.028225869 15260111
0.049145631 0.83051437 0.028225303 15260111
0.049471758 0.83032173 0.028224736 15259341
0.049797885 0.83012903 0.028224185 15390927
0.050124012 0.82993639 0.028223634 15128525
0.050450131 0.82974374 0.028223068 14931146
0.051066913 0.83028686 0.028872639 14865353
0.051391624 0.83009499 0.028872088 14667974
0.05171635 0.82990319 0.028871536 14667974
0.052041061 0.82971132 0.028870985 14602181
0.052365787 0.82951951 0.028870419 14404802
0.052690499 0.8293277 0.028869867 14339009
0.053015225 0.82913589 0.028869316 14141630
0.053339936 0.82894403 0.028868765 14141630
0.053664662 0.82875222 0.028868198 14010303
0.053989373 0.82856035 0.028867647 13944510
0.054314099 0.82836854 0.028867096 13550522
0.05463881 0.82817674 0.028866529 13484729
0.054963537 0.82798493 0.028865978 13353143
0.055288255 0.82779306 0.028865427 13089971
0.055612974 0.82760125 0.028864861 12958639
0.055937696 0.82740939 0.028864309 12892846
0.056262411 0.82721758 0.028863758 12629674
0.05658713 0.82702577 0.028863192 12498088
0.056646504 0.82608318 0.028212458 12300709
0.05697263 0.82589054 0.028211907 12037537
0.05729875 0.8256979 0.028211355 11840156
0.057363749 0.82475209 0.027560592 11511191
0.057691276 0.82455856 0.027560025 11379089
0.058018807 0.82436508 0.027559474 10918538
0.058346339 0.8241716 0.027558908 10720646
0.05867387 0.82397807 0.027558357 10391681
0.026896171 0.83072424 0.019504189 15195347
0.027241968 0.83051991 0.019503593 15129554
0.027587779 0.83031565 0.019502997 15195347
0.027933583 0.83011138 0.019502416 15194577
0.035195917 0.83127147 0.023385257 15259341
0.035533287 0.83107215 0.023384675 15390927
0.035870656 0.83087283 0.023384094 15390927
0.036549695 0.83138013 0.024032161 15260111
0.036885656 0.83118165 0.024031579 15260111
0.037221618 0.83098316 0.024031013 15325904
0.037557587 0.83078468 0.024030447 15128525
0.037893549 0.83058619 0.024029866 15325904
0.038229518 0.83038771 0.024029285 15260111
0.038898706 0.83090079 0.024677351 15260111
0.039233267 0.83070314 0.024676785 15128525
0.039567828 0.83050549 0.024676204 15325904
0.040231392 0.8310219 0.025324285 15260111
0.040564544 0.83082509 0.025323704 15128523
0.040897697 0.83062828 0.025323138 15260109
0.041555636 0.83114797 0.025971234 15259339
0.04188738 0.83095199 0.025970653 15390925
0.042219132 0.83075601 0.025970086 15390925
0.042871453 0.83127904 0.026618183 15390925
0.043201797 0.83108389 0.026617616 15390927
0.043532141 0.83088875 0.02661705 15390927
0.043862484 0.8306936 0.026616484 15456720
0.044192821 0.83049846 0.026615918 15522513
0.044523165 0.83030331 0.026615351 15390927
0.045165651 0.83083212 0.027263477 15456720
0.045494586 0.83063781 0.027262911 15390927
0.045823522 0.8304435 0.027262345 15456720
0.046152465 0.83024919 0.027261794 15456720
0.046481393 0.83005488 0.027261227 15522513
0.046810336 0.82986057 0.027260661 15456720
0.04744298 0.83039522 0.027908787 15390927
0.047770508 0.83020175 0.027908236 15325904
0.048098035 0.83000821 0.02790767 15260111
0.048725061 0.8305462 0.02855581 15260111
0.049051188 0.8303535 0.028555259 15325904
0.049377307 0.83016086 0.028554708 15128525
0.049703434 0.82996821 0.028554142 15260111
0.050029553 0.82977557 0.02855359 15062478
0.05035568 0.82958293 0.028553024 14930892
0.050972864 0.8301267 0.02920118 14865099
0.051297583 0.82993484 0.029200628 14799306
0.051622301 0.82974303 0.029200077 14667720
0.05194702 0.82955122 0.029199511 14601927
0.052271739 0.82935941 0.029198959 14470341
0.052596457 0.82916754 0.029198408 14338755
0.052921176 0.82897574 0.029197842 14141889
0.053245895 0.82878387 0.029197291 14076096
0.053570613 0.82859206 0.029196739 14010303
0.053895332 0.82840025 0.029196173 13944510
0.054220051 0.82820839 0.029195622 13682108
0.054544769 0.82801658 0.02919507 13484729
0.054869495 0.82782471 0.029194519 13353143
0.055194207 0.8276329 0.029193968 13221557
0.055518933 0.8274411 0.029193401 13024432
0.055843651 0.82724929 0.02919285 12827053
0.056168366 0.82705742 0.029192299 12629674
0.056493089 0.82686561 0.029191732 12498088
0.056552052 0.82592237 0.028542414 12300709
0.056878179 0.82572973 0.028541863 12103330
0.057204299 0.82553709 0.028541297 11906203
0.057268888 0.82459056 0.027891964 11577238
0.057596415 0.82439703 0.027891412 11379089
0.05792395 0.82420355 0.027890846 11050124
0.058251478 0.82401007 0.027890295 10786439
0.058579013 0.82381654 0.027889729 10391681
0.024341166 0.83109456 0.019210458 15194579
0.024688378 0.83088946 0.019209862 15260370
0.025035582 0.8306843 0.019209266 15391956
0.025382794 0.8304792 0.01920867 15326163
0.025730006 0.83027411 0.019208074 15260370
0.026077218 0.83006901 0.019207478 15391956
0.026796021 0.83055365 0.019854054 15326163
0.027141824 0.83034939 0.019853458 15260370
0.027487628 0.83014512 0.019852877 15062991
0.027833432 0.8299408 0.019852281 15194577
0.03509821 0.83110505 0.023726597 15260111
0.03543558 0.8309058 0.023726016 15390927
0.035772949 0.83070648 0.023725435 15390927
0.03645239 0.83121443 0.024372071 15390927
0.036788352 0.83101594 0.024371505 15390927
0.037124321 0.83081746 0.024370924 15456720
0.03746029 0.83061898 0.024370342 15456720
0.037796251 0.83042049 0.024369776 15456720
0.038132213 0.83022207 0.024369195 15390927
0.039135441 0.83144802 0.025663063 15390927
0.039468594 0.8312512 0.025662482 15259341
0.039801754 0.83105439 0.025661916 15390927
0.040464319 0.83157229 0.026308566 15390927
0.040796064 0.83137631 0.026308 15259339
0.041127808 0.83118033 0.026307434 15259339
0.041459553 0.83098435 0.026306868 15259339
0.041791305 0.83078837 0.026306301 15390925
0.042123057 0.83059239 0.026305735 15390927
0.042775787 0.83111614 0.026952416 15456720
0.043106131 0.83092099 0.026951849 15390927
0.043436468 0.83072585 0.026951283 15390927
0.044083573 0.83125287 0.027597964 15456720
0.044412516 0.83105856 0.027597398 15390927
0.044741444 0.83086425 0.027596846 15390927
0.045070387 0.83066988 0.02759628 15456720
0.045399323 0.83047557 0.027595714 15390927
0.045728259 0.83028126 0.027595147 15456720
0.046365522 0.83081412 0.028241858 15390927
0.046693057 0.83062065 0.028241292 15390927
0.047020592 0.83042717 0.02824074 15390927
0.047652237 0.83096331 0.028887451 15390927
0.047978356 0.83077067 0.028886884 15325904
0.048304483 0.83057803 0.028886333 15260111
0.04863061 0.83038533 0.028885782 15062732
0.048956729 0.83019269 0.028885216 15260111
0.049282856 0.83000004 0.028884649 15128525
0.049904667 0.83054203 0.029531389 15128525
0.050229378 0.83035022 0.029530823 14996685
0.050554097 0.83015835 0.029530272 14930892
0.050878815 0.82996655 0.029529721 14930892
0.051203541 0.82977474 0.029529154 14996685
0.05152826 0.82958287 0.029528603 14865099
0.051852979 0.82939106 0.029528052 14601927
0.052177697 0.82919919 0.029527485 14405061
0.052502416 0.82900739 0.029526934 14339268
0.05311016 0.82955772 0.030173689 14141889
0.053433478 0.82936668 0.030173138 14076096
0.053756788 0.82917571 0.030172586 13879487
0.054080106 0.82898474 0.030172035 13879487
0.054403417 0.8287937 0.030171484 13682108
0.054726727 0.82860273 0.030170918 13484729
0.055050045 0.8284117 0.030170366 13353143
0.055373356 0.82822073 0.030169815 13221557
0.055696674 0.82802975 0.030169263 13090225
0.056019984 0.82783872 0.030168712 12827053
0.056343298 0.82764769 0.030168161 12563881
0.056666613 0.82745671 0.030167609 12498088
0.056723759 0.82651365 0.029519707 12300709
0.057048477 0.82632184 0.029519156 12103330
0.057373196 0.82612997 0.029518604 11906203
0.057697915 0.82593817 0.029518038 11577238
0.058022633 0.8257463 0.029517487 11444369
0.058347359 0.82555449 0.029516935 11181197
0.058414347 0.82460558 0.028869033 10852232
0.058740474 0.82441294 0.028868467 10457474
0.059066601 0.8242203 0.0288679 10127737
0.024240606 0.83092332 0.019561738 15260370
0.024587817 0.83071822 0.019561157 15326163
0.024935029 0.83051312 0.019560561 15391956
0.025282241 0.83030796 0.019559965 15457490
0.025629453 0.83010286 0.019559368 15391697
0.025976658 0.82989776 0.019558772 15457490
0.02632387 0.8296926 0.019558176 15391697
0.039038956 0.83128369 0.026000127 15390927
0.039372109 0.83108693 0.025999546 15259341
0.039705262 0.83089012 0.02599898 15390927
0.040368237 0.83140868 0.026644215 15390927
0.040699981 0.8312127 0.026643649 15390925
0.041031726 0.83101672 0.026643082 15259339
0.041363478 0.83082074 0.026642516 15193548
0.041695222 0.83062476 0.026641935 15259341
0.042026974 0.83042878 0.026641369 15259341
0.042680115 0.83095324 0.027286634 15456720
0.043010451 0.83075809 0.027286068 15456720
0.043340795 0.83056289 0.027285501 15456720
0.04398831 0.83109063 0.027930766 15522513
0.044317245 0.83089632 0.0279302 15390927
0.044646181 0.83070201 0.027929634 15259341
0.044975124 0.8305077 0.027929068 15456720
0.045304053 0.83031338 0.027928516 15390927
0.045632996 0.83011901 0.02792795 15456720
0.046270669 0.83065259 0.02857323 15390927
0.046598203 0.83045912 0.028572679 15259341
0.046925731 0.83026564 0.028572112 15193548
0.047557779 0.8308025 0.029217407 15456720
0.047883905 0.8306098 0.029216841 15325904
0.048210032 0.83041716 0.02921629 15260111
0.048536159 0.83022451 0.029215723 15062732
0.048862286 0.83003187 0.029215172 15260111
0.049188405 0.82983923 0.029214606 15128525
0.049810618 0.83038187 0.029859915 15062732
0.050135337 0.83019006 0.029859364 14996939
0.050460055 0.82999825 0.029858813 14996939
0.050784774 0.82980639 0.029858246 14996939
0.0511095 0.82961458 0.029857695 14996939
0.051434211 0.82942271 0.029857144 14865099
0.05175893 0.8292309 0.029856592 14667720
0.052083649 0.8290391 0.029856026 14405061
0.052408375 0.82884729 0.029855475 14339268
0.053016528 0.82939827 0.030500799 14141889
0.053339839 0.82920724 0.030500248 14076096
0.053663157 0.82901627 0.030499697 13879487
0.053986467 0.82882524 0.030499145 13879487
0.054309778 0.82863426 0.030498594 13747901
0.054633088 0.82844329 0.030498028 13550522
0.054956406 0.82825226 0.030497491 13418936
0.055279717 0.82806128 0.030496925 13221557
0.055603035 0.82787025 0.030496374 13090225
0.055926345 0.82767928 0.030495822 12892846
0.056249663 0.8274883 0.030495271 12629674
0.056572974 0.82729727 0.03049472 12498088
0.056629717 0.82635349 0.029848248 12300709
0.056954436 0.82616162 0.029847682 12103330
0.057279155 0.82596982 0.02984713 12037019
0.057603873 0.82577801 0.029846579 11708054
0.057928592 0.8255862 0.029846027 11575185
0.058253314 0.82539433 0.029845461 11377806
0.058319896 0.82444477 0.029198974 10917255
0.058646023 0.82425207 0.029198423 10588290
0.05897215 0.82405943 0.029197857 10324605
0.021667518 0.83130157 0.019272327 15260372
0.02201613 0.83109558 0.019271716 15260372
0.022364743 0.83088964 0.01927112 15260372
0.022713363 0.83068371 0.019270524 15260370
0.023061983 0.83047777 0.019269928 15260370
0.023410596 0.83027184 0.019269332 15260370
0.024140052 0.83075207 0.019913033 15326163
0.024487257 0.83054698 0.019912437 15326163
0.024834469 0.83034188 0.019911841 15391956
0.025181681 0.83013678 0.019911259 15457490
0.025528893 0.82993162 0.019910663 15391697
0.025876097 0.82972652 0.019910067 15457490
0.026223309 0.82952142 0.019909471 15391697
0.038942471 0.83111942 0.026337191 15193548
0.039275624 0.8309226 0.02633661 15259341
0.039608777 0.83072579 0.026336044 15390927
0.040272154 0.83124506 0.026979864 15456720
0.040603898 0.83104908 0.026979297 15390925
0.04093565 0.8308531 0.026978731 15390925
0.041267402 0.83065712 0.026978165 15390927
0.041599147 0.83046114 0.026977599 15193548
0.041930892 0.83026516 0.026977032 15128525
0.042584442 0.83079028 0.027620852 15325904
0.042914785 0.83059514 0.027620286 15325904
0.043245122 0.83039999 0.02761972 15325904
0.043893047 0.83092844 0.028263569 15522513
0.044221982 0.83073413 0.028263003 15259341
0.044550918 0.83053982 0.028262436 15259341
0.044879854 0.83034545 0.02826187 15390927
0.045208789 0.83015114 0.028261304 15390673
0.045537733 0.82995683 0.028260753 15456466
0.046175815 0.83049107 0.028904617 15456720
0.046503343 0.83029759 0.028904051 15390927
0.04683087 0.83010411 0.028903484 15390927
0.047463335 0.83064163 0.029547364 15456720
0.047789462 0.83044899 0.029546797 15390927
0.048115581 0.83025634 0.029546246 15390927
0.048441708 0.8300637 0.02954568 15128525
0.048767827 0.829871 0.029545128 15260111
0.049093954 0.82967836 0.029544562 15062732
0.049716577 0.83022177 0.030188456 15062732
0.050041296 0.8300299 0.030187905 15193548
0.050366007 0.8298381 0.030187339 15193548
0.050690733 0.82964623 0.030186787 14996939
0.051015452 0.82945442 0.030186236 14931146
0.05134017 0.82926261 0.03018567 14799560
0.051664889 0.82907075 0.030185118 14602181
0.051989608 0.82887894 0.030184567 14405315
0.052314326 0.82868707 0.030184001 14405315
0.05292289 0.82923877 0.03082791 14142143
0.0532462 0.8290478 0.030827358 14076350
0.053569518 0.82885683 0.030826807 13945534
0.053892829 0.82866579 0.030826256 13813948
0.054216139 0.82847482 0.030825704 13747901
0.054539457 0.82828379 0.030825138 13550522
0.054862767 0.82809281 0.030824602 13418936
0.055186085 0.82790184 0.030824035 13287350
0.055509396 0.82771081 0.030823484 13089971
0.05583271 0.82751983 0.030822933 12892592
0.056156024 0.8273288 0.030822381 12629420
0.056479339 0.82713783 0.03082183 12563627
0.056535672 0.82619333 0.030176774 12300709
0.056860391 0.82600152 0.030176222 12103330
0.05718511 0.82580972 0.030175671 12037017
0.057509828 0.82561785 0.03017512 11708052
0.057834547 0.82542604 0.030174553 11772049
0.058159269 0.82523417 0.030174002 11443084
0.058225445 0.8242839 0.029528931 11048326
0.058551572 0.82409126 0.029528379 10785154
0.058877699 0.82389861 0.029527813 10456189
0.020520702 0.83174747 0.019626826 15391958
0.020869315 0.83154154 0.01962623 15326165
0.021217935 0.83133554 0.019625634 15325652
0.021566547 0.83112961 0.019625038 15325652
0.021915168 0.83092368 0.019624427 15260372
0.02226378 0.83071774 0.019623831 15260372
0.0226124 0.83051181 0.019623235 15194579
0.022961013 0.83030581 0.019622639 15194579
0.023309626 0.83009988 0.019622043 15260370
0.024039492 0.83058083 0.020264328 15326163
0.024386704 0.83037573 0.020263731 15391956
0.024733908 0.83017063 0.020263135 15391956
0.02508112 0.82996547 0.020262539 15391956
0.025428332 0.82976037 0.020261943 15260370
0.025775544 0.82955527 0.020261347 15391443
0.026122756 0.82935017 0.020260751 15457236
0.036503784 0.83142668 0.026034743 15391697
0.036838338 0.83122903 0.026034176 15391697
0.037172899 0.83103138 0.026033595 15325904
0.037846528 0.83154553 0.026675969 15391697
0.038179673 0.83134872 0.026675403 15260111
0.038512833 0.8311519 0.026674822 15260111
0.039180838 0.83166939 0.027317211 15259341
0.039512582 0.83147341 0.027316645 15259341
0.039844327 0.83127743 0.027316079 15390927
0.040176071 0.83108145 0.027315512 15456720
0.040507823 0.83088547 0.027314946 15390927
0.040839575 0.83068949 0.027314365 15390927
0.041497745 0.83121282 0.027956769 15390927
0.041828081 0.83101767 0.027956203 15193548
0.042158425 0.83082253 0.027955636 15128525
0.042810969 0.83134913 0.028598055 15325904
0.043139912 0.83115482 0.028597489 15325904
0.043468848 0.83096051 0.028596923 15260111
0.043797784 0.8307662 0.028596371 15325904
0.044126719 0.83057189 0.028595805 15260111
0.044455655 0.83037758 0.028595239 15128525
0.045098357 0.83091003 0.029237673 15128525
0.045425892 0.83071649 0.029237106 15260111
0.045753419 0.83052301 0.029236555 15325904
0.046390511 0.8310588 0.029878989 15391697
0.046716638 0.8308661 0.029878438 15260111
0.047042757 0.83067346 0.029877871 15260111
0.047368877 0.83048081 0.02987732 15260111
0.047695003 0.83028817 0.029876754 15259341
0.04802113 0.83009553 0.029876202 15259341
0.04864838 0.8306371 0.030518651 15128525
0.048973091 0.83044523 0.0305181 15260111
0.049297817 0.83025342 0.030517548 15260111
0.049622528 0.83006155 0.030516982 15062732
0.049947254 0.82986975 0.030516431 15062478
0.050271966 0.82967794 0.030515879 14996685
0.050889373 0.83022535 0.031158343 14996685
0.051212691 0.83003432 0.031157792 14865099
0.051536001 0.82984334 0.03115724 14799306
0.051859312 0.82965231 0.031156689 14601927
0.05218263 0.82946134 0.031156123 14471108
0.05250594 0.82927036 0.031155586 14405315
0.052829258 0.82907933 0.03115502 14273729
0.053152569 0.82888836 0.031154469 14142143
0.053475879 0.82869732 0.031153917 13945534
0.05379919 0.82850635 0.031153366 13813948
0.0541225 0.82831538 0.031152815 13748155
0.054445818 0.82812434 0.031152248 13484983
0.054769136 0.82793337 0.031151712 13287864
0.055092447 0.82774234 0.031151146 13156278
0.055415757 0.82755136 0.031150594 12958899
0.055739075 0.82736039 0.031150043 12827313
0.056062389 0.82716936 0.031149492 12629934
0.056385703 0.82697839 0.03114894 12498348
0.056709014 0.82678735 0.031148374 12366502
0.057032328 0.82659638 0.031147838 12169123
0.057355642 0.82640541 0.031147271 12102812
0.057678953 0.82621437 0.03114672 11708054
0.058002267 0.82602334 0.031146169 11706769
0.058325581 0.82583237 0.031145617 11377804
0.058389947 0.82488221 0.030501977 11114119
0.058714665 0.8246904 0.030501425 10850947
0.059039384 0.82449853 0.030500859 10456189
0.020419739 0.83157551 0.019979537 15457238
