# .PCD v0.7 - Point Cloud Data file format
VERSION 0.7
FIELDS x y z rgb
SIZE 4 4 4 4
TYPE F F F U
COUNT 1 1 1 1
WIDTH 1046
HEIGHT 1
VIEWPOINT 0 0 0 1 0 0 0
POINTS 1046
DATA ascii
0.4051353 -0.03848435 0.53022861 4282794033
0.40468878 -0.038148887 0.5301193 4282335019
0.4042429 -0.03781426 0.53000998 4282729777
0.40373513 -0.03753572 0.5298444 4282992182
0.40335295 -0.037147522 0.5297913 4283254584
0.40297106 -0.036759757 0.52973813 4283649344
0.40252745 -0.036428288 0.52962875 4283912255
0.40227011 -0.035929397 0.52968806 4284109634
0.42226022 -0.0091550201 0.55131185 4280950826
0.42176223 -0.0087480843 0.55120301 4280294429
0.42132491 -0.0082834065 0.55115038 4280295704
0.42088786 -0.0078191459 0.55109775 4280361497
0.42045113 -0.0073552877 0.55104518 4280821278
0.42001471 -0.0068918616 0.55099255 4281084448
0.41951913 -0.0064883083 0.55088365 4281347872
0.41902417 -0.0060855746 0.55077481 4281611812
0.41847062 -0.0057435781 0.55060971 4281809191
0.41797698 -0.0053427517 0.55050081 4282269996
0.41742513 -0.00500305 0.55033571 4282729264
0.41687417 -0.0046646148 0.55017054 4282794803
0.41638267 -0.0042667389 0.55006164 4282729012
0.41583335 -0.0039306134 0.54989648 4283058490
0.41534323 -0.003534615 0.54978758 4283124283
0.41485369 -0.003139466 0.54967868 4283256639
0.41424888 -0.0028682649 0.54945719 4283585086
0.41645896 -0.10369641 0.51085734 4279637530
0.41619051 -0.103324 0.51085991 4279637530
0.41600335 -0.10292271 0.51091874 4279507232
0.41581589 -0.10252097 0.51097757 4279376411
0.41562814 -0.10211883 0.5110364 4279375128
0.41544008 -0.10171628 0.51109529 4279244310
0.41525173 -0.10131329 0.51115412 4279375896
0.41506308 -0.10090989 0.51121294 4279244561
0.4147937 -0.10053622 0.51121557 4279309584
0.41460457 -0.1001322 0.5112744 4279309584
0.41441515 -0.09972775 0.51133323 4279309584
0.41414547 -0.099353656 0.51133585 4279309331
0.41395557 -0.098948568 0.51139474 4279112989
0.41376543 -0.098543063 0.51145357 4279047192
0.41357493 -0.098137148 0.51151246 4279113239
0.41338414 -0.097730801 0.51157129 4279113239
0.41319305 -0.097324029 0.51163018 4279113237
0.41308072 -0.096884795 0.51174533 4279179028
0.4129678 -0.096444726 0.51186049 4279375377
0.41293299 -0.095971331 0.51203191 4279375377
0.41289729 -0.095496677 0.5122034 4279506193
0.41278225 -0.095053658 0.51231855 4279439892
0.41274488 -0.094576702 0.51249003 4279244561
0.41270661 -0.094098479 0.51266152 4279244561
0.41266742 -0.093618989 0.512833 4279244561
0.41270518 -0.093104519 0.51306075 4279112975
0.412664 -0.092622302 0.51323223 4278652173
0.41262195 -0.092138827 0.51340377 4278717966
0.41265637 -0.09161973 0.51363158 4278981140
0.41261232 -0.09113352 0.51380312 4278981140
0.41256738 -0.090646051 0.51397467 4279046163
0.41252154 -0.090157315 0.51414621 4278914577
0.41247478 -0.089667328 0.51431775 4278783759
0.4124271 -0.089176081 0.51448929 4278717964
0.41230208 -0.088719182 0.51460457 4278848782
0.41225272 -0.088225618 0.51477617 4278914575
0.4121263 -0.087766841 0.51489145 4279110927
0.41215134 -0.087234706 0.51511931 4278848784
0.41209924 -0.086737365 0.51529092 4279243542
0.41204628 -0.086238757 0.51546258 4279111956
0.41206798 -0.085702002 0.51569051 4279046161
0.41201302 -0.08520066 0.51586211 4279111954
0.41203243 -0.084660754 0.5160901 4279242511
0.41205066 -0.084119171 0.51631802 4279242511
0.41206765 -0.083575904 0.51654601 4279177749
0.41200861 -0.083068885 0.51671767 4278915343
0.41202334 -0.082522467 0.51694572 4278981136
0.41196233 -0.08201272 0.51711738 4279112722
0.41190046 -0.081501715 0.5172891 4278915345
0.41191182 -0.08095067 0.51751709 4278980886
0.41177386 -0.080475919 0.51763248 4279046931
0.41170925 -0.079961129 0.51780427 4278915345
0.41171744 -0.079405673 0.51803231 4279243021
0.41165084 -0.078888148 0.51820403 4279112205
0.41165677 -0.078329541 0.51843214 4278981389
0.41166151 -0.077769242 0.51866019 4278981389
0.41173816 -0.077167034 0.51894462 4278915858
0.41166729 -0.076643616 0.51911646 4278718479
0.41174123 -0.076037616 0.51940089 4278981902
0.41174096 -0.075470388 0.51962906 4278916109
0.41173947 -0.074901484 0.51985723 4278981389
0.41173676 -0.074330896 0.52008539 4279047182
0.41173285 -0.073758617 0.52031356 4278915596
0.41172773 -0.073184669 0.52054173 4278981389
0.41172141 -0.072609037 0.52076995 4278981649
0.41171384 -0.072031729 0.52099812 4278849813
0.41170508 -0.071452729 0.52122641 4278981651
0.41169512 -0.070872054 0.52145463 4278718479
0.41161257 -0.07033246 0.52162653 4279374099
0.41160035 -0.069748625 0.52185476 4279505685
0.4116579 -0.069119938 0.52213937 4279374099
0.41164309 -0.068532526 0.52236766 4279243540
0.41169778 -0.067899846 0.52265233 4279309333
0.41175094 -0.067265049 0.522937 4279045909
0.41194344 -0.066540085 0.52333438 4279111702
0.41206357 -0.065856427 0.52367544 4279045911
0.4121117 -0.065214708 0.52396011 4279177749
0.4121584 -0.064570867 0.5242449 4279243540
0.41213369 -0.063969806 0.52447325 4279177747
0.4121775 -0.063321985 0.52475798 4279244310
0.41208073 -0.062762648 0.52493006 4279047444
0.41198307 -0.062202036 0.52510208 4278981651
0.41195369 -0.061594456 0.52533048 4278981651
0.41178501 -0.061077051 0.52544618 4279243542
0.4116846 -0.060512662 0.52561826 4279309335
0.41151458 -0.059993349 0.52573395 4279046933
0.41141248 -0.05942665 0.52590609 4279112726
0.41130954 -0.058858693 0.52607816 4279046931
0.41127396 -0.058242492 0.52630663 4279177998
0.41143131 -0.056193411 0.52721769 4278850837
0.41307539 -0.052380323 0.52965438 4278981136
0.41336083 -0.051500894 0.53016496 4279178515
0.41364357 -0.050617687 0.53067553 4279046929
0.41345608 -0.050074212 0.5307914 4278981399
0.413268 -0.049529895 0.53090727 4278916630
0.41334522 -0.048786759 0.53124875 4278981651
0.41322953 -0.047492586 0.53170615 4279046159
0.41389948 -0.045587674 0.53284043 4278979849
0.41409847 -0.04473 0.5332948 4278586378
0.41429502 -0.043868966 0.53374916 4278717714
0.41462001 -0.042902634 0.53431642 4278652173
0.41455033 -0.042239159 0.53454524 4278586380
0.41447946 -0.041573994 0.53477407 4278586378
0.41427743 -0.041010343 0.53489006 4278651401
0.41400999 -0.040497661 0.53494966 4278651401
0.41367757 -0.040036574 0.53495288 4278585608
0.41334516 -0.039575487 0.53495604 4278454022
0.41307709 -0.039061956 0.53501564 4278585608
0.41268033 -0.038653307 0.53496242 4278783238
0.41215575 -0.038350776 0.53479636 4279046660
0.41163206 -0.038049519 0.5346303 4279244039
0.40631193 -0.038889192 0.53137344 4281938472
0.40573722 -0.038658872 0.53115082 4282529582
0.40528941 -0.038321145 0.53104103 4282793006
0.40477952 -0.038039014 0.53087485 4282793006
0.40427053 -0.037758142 0.53070861 4283056692
0.40382487 -0.037423357 0.53059882 4282992184
0.40344203 -0.037034042 0.53054547 4283124283
0.40305948 -0.036645144 0.53049213 4283453248
0.40261531 -0.036312461 0.53038234 4283847745
0.40210998 -0.036036633 0.5302161 4283979331
0.42211843 -0.009231776 0.55198222 4280557341
0.42156023 -0.008882612 0.55181646 4280294934
0.42118281 -0.0083591044 0.5518201 4280295702
0.42068577 -0.0079530776 0.55171084 4280427288
0.42030865 -0.0074299872 0.55171442 4280756253
0.41981253 -0.007025227 0.55160511 4281085216
0.41931701 -0.0066213012 0.55149585 4281546273
0.41882208 -0.0062182099 0.55138654 4281743650
0.41832775 -0.0058159679 0.55127722 4282072615
0.41777515 -0.0054745674 0.5511114 4282663469
0.41728219 -0.0050742328 0.55100209 4283122989
0.41678983 -0.0046747029 0.55089271 4283057457
0.41623965 -0.0043366849 0.55072695 4282992182
0.41574866 -0.0039390624 0.55061758 4283387453
0.41525829 -0.0035422891 0.5505082 4283453246
0.41476852 -0.0031463355 0.55039883 4283848004
0.41627243 -0.10383363 0.51125371 4279506460
0.41608533 -0.10343263 0.51131278 4279572253
0.41589794 -0.10303119 0.51137185 4279507484
0.41571021 -0.10262933 0.51143092 4279310616
0.41552222 -0.10222706 0.51148999 4279179030
0.41533393 -0.10182437 0.51154906 4279376409
0.41514528 -0.10142124 0.51160812 4279310614
0.41487592 -0.10104758 0.51161075 4279113488
0.41468683 -0.10064384 0.51166981 4279309582
0.41449744 -0.10023968 0.51172888 4279375375
0.41422778 -0.099865593 0.51173145 4279309582
0.41403794 -0.099460796 0.51179051 4279309584
0.4138478 -0.099055573 0.51184964 4279309083
0.41365737 -0.098649941 0.51190871 4279178265
0.41346663 -0.098243877 0.51196778 4279112985
0.4132756 -0.097837403 0.51202691 4279178778
0.41316336 -0.097398743 0.51214248 4279375126
0.41297156 -0.096991211 0.51220161 4279375377
0.41293705 -0.096518904 0.51237369 4279376147
0.41282302 -0.096077718 0.51248932 4279376147
0.41278684 -0.095603094 0.51266146 4279244308
0.41274977 -0.095127203 0.5128336 4279243538
0.4126336 -0.094683073 0.51294923 4279244308
0.41267288 -0.094171636 0.51317787 4279375894
0.41263306 -0.093691967 0.51335001 4279441687
0.41259235 -0.09321104 0.51352215 4279376660
0.41262835 -0.092694983 0.51375085 4278718477
0.41250819 -0.092245385 0.51386654 4278586891
0.41254205 -0.091726385 0.51409525 4278850065
0.41249755 -0.091240197 0.51426744 4278783507
0.41245216 -0.090752751 0.51443964 4278783507
0.41240582 -0.090264045 0.51461184 4278783507
0.41235858 -0.08977408 0.5147841 4278783759
0.41231048 -0.089282848 0.51495636 4278717964
0.41218504 -0.088825904 0.51507205 4278782987
0.41213524 -0.088332362 0.51524431 4278914573
0.41208452 -0.087837555 0.51541656 4279046159
0.4120329 -0.087341487 0.51558882 4278979596
0.41198039 -0.086844161 0.51576114 4279243538
0.41192693 -0.086345583 0.51593339 4279111952
0.41194806 -0.085808925 0.51616222 4278848782
0.41196796 -0.085270599 0.51639104 4279046161
0.41198665 -0.08473058 0.51661992 4279176975
0.41200414 -0.084188879 0.5168488 4279045389
0.41202042 -0.0836455 0.51707762 4279308561
0.41196078 -0.083138295 0.51725 4278915858
0.41197476 -0.082591772 0.51747888 4278981136
0.41191316 -0.082081832 0.51765126 4279112722
0.4118506 -0.08157064 0.51782364 4278981140
0.41178715 -0.081058182 0.51799601 4278915095
0.41172284 -0.080544464 0.51816839 4278915606
0.41173136 -0.079990372 0.51839733 4278915606
0.41166502 -0.07947392 0.51856977 4279242768
0.41159785 -0.078956209 0.5187422 4279243791
0.41160303 -0.078397498 0.51897115 4278981389
0.41153383 -0.077877045 0.51914358 4278981389
0.41168284 -0.077234834 0.51948571 4278915856
0.41168427 -0.076670863 0.51971471 4278718477
0.41175723 -0.076064616 0.52000034 4278915343
0.41175607 -0.075497061 0.52022934 4278981136
0.41175371 -0.074927844 0.5204584 4279046931
0.41182244 -0.074315704 0.52074403 4279112722
0.41181749 -0.073742911 0.52097315 4279112722
0.41173935 -0.073210061 0.52114564 4279112722
0.41173214 -0.072634116 0.52137476 4278981651
0.4117237 -0.07205648 0.52160388 4278850067
0.41164255 -0.071519434 0.52177644 4278850067
0.41156048 -0.07098113 0.52194899 4278850065
0.4115487 -0.070398867 0.52217811 4279046161
0.41160679 -0.069772027 0.52246386 4279505942
0.41166341 -0.069143087 0.5227496 4279308563
0.41164768 -0.068555363 0.52297878 4279243288
0.41170141 -0.067922428 0.52326453 4279375128
0.41175359 -0.067287385 0.52355033 4279111956
0.4120152 -0.066518396 0.52400589 4279243542
0.41213411 -0.065834358 0.52434826 4279112472
0.41225114 -0.065147802 0.52469069 4279112726
0.41208693 -0.064637057 0.5248068 4279046931
0.41206154 -0.064035885 0.5250361 4279046931
0.41217405 -0.063343026 0.52537853 4279179030
0.41207653 -0.062783286 0.52555126 4278916628
0.41190884 -0.062267698 0.52566737 4279047444
0.41180962 -0.061705641 0.5258401 4278981651
0.41170955 -0.061142333 0.52601284 4279243542
0.41160852 -0.060577758 0.52618557 4279308565
0.41143793 -0.060058184 0.52630174 4279046931
0.41133526 -0.059491299 0.52647448 4279112724
0.41123167 -0.058923155 0.52664727 4279112724
0.41426402 -0.051527344 0.53131324 4278981136
0.41421044 -0.050887085 0.53154278 4279046929
0.41395515 -0.050391495 0.5316025 4278981649
0.4138996 -0.04974851 0.5318321 4278981653
0.41390938 -0.049054623 0.53211826 4278915858
0.41378486 -0.048457474 0.53229123 4279047444
0.41372567 -0.047809437 0.53252083 4278915858
0.41373137 -0.04710988 0.53280711 4278981138
0.41413105 -0.04610794 0.53343308 4279176975
0.41446167 -0.045151629 0.53400248 4278979596
0.41465798 -0.044292063 0.53445864 4278586378
0.41472095 -0.043530472 0.5348016 4278717968
0.41478211 -0.042766362 0.53514457 4278652171
0.41464591 -0.042153031 0.53531766 4278586378
0.41450885 -0.04153844 0.53549069 4278717194
0.41430601 -0.04097411 0.53560716 4278651654
0.41410255 -0.040408932 0.53572369 4278585861
0.41370484 -0.039998725 0.53567022 4278585861
0.4133074 -0.039588951 0.53561676 4278716677
0.41291028 -0.039179586 0.53556335 4278848263
0.41257757 -0.038718075 0.53556657 4278914824
0.41198903 -0.038467675 0.53534317 4279309062
0.41133791 -0.038271964 0.53506315 4279506441
0.40953225 -0.038314097 0.53404987 4280164625
0.40850681 -0.03844808 0.53342986 4280691221
0.40735832 -0.038694344 0.53269655 4281217308
0.40627682 -0.038892031 0.53201985 4281741865
0.40576497 -0.03860651 0.53185302 4282529582
0.40525404 -0.038322255 0.53168619 4282793008
0.40480661 -0.037984595 0.53157592 4282793008
0.40435976 -0.037647761 0.53146571 4283187764
0.40391356 -0.037311777 0.5313555 4283122998
0.40353006 -0.036921322 0.53130192 4283124283
0.40308487 -0.036586814 0.53119171 4283584834
0.40270215 -0.036197416 0.53113812 4283782213
0.42179573 -0.00948295 0.55248344 4280426007
0.42135799 -0.0090172887 0.55243039 4280294934
0.42092058 -0.0085520148 0.55237734 4280295702
0.42048347 -0.0080871582 0.5523243 4280493081
0.42004663 -0.0076227337 0.55227125 4280821276
0.41961011 -0.0071587414 0.5522182 4280887841
0.41911465 -0.006754458 0.55210841 4281611812
0.41861981 -0.006351009 0.55199867 4281809443
0.41812554 -0.0059483945 0.55188894 4282138408
0.41763189 -0.0055466294 0.55177915 4282925871
0.41713881 -0.0051457137 0.55166936 4284305979
0.41664639 -0.0047456324 0.55155957 4283385909
0.41615456 -0.0043463707 0.55144978 4283255354
0.41560513 -0.0040087402 0.5512833 4283452733
0.4151727 -0.0035504103 0.55123019 4283847745
0.41606122 -0.10351285 0.51182282 4279506460
0.41587341 -0.10311109 0.51188213 4279507482
0.41560435 -0.10273784 0.51188469 4279310614
0.41533524 -0.1023646 0.51188731 4279179028
0.41514683 -0.10196199 0.51194656 4279376407
0.41503865 -0.10152936 0.51206261 4279310614
0.41476911 -0.10115548 0.51206517 4279113488
0.41457975 -0.10075161 0.51212448 4279309836
0.41439015 -0.10034731 0.51218379 4279506445
0.41412029 -0.099973015 0.51218635 4279374859
0.41393021 -0.099568084 0.51224566 4279440398
0.41373983 -0.099162742 0.51230502 4279309335
0.41354913 -0.098756962 0.51236433 4279309335
0.41335815 -0.098350771 0.51242363 4279179032
0.41324598 -0.097912684 0.51253968 4279179032
0.41305423 -0.097505443 0.51259899 4279375126
0.41294104 -0.097065896 0.51271504 4279506193
0.41290593 -0.096593395 0.51288784 4279376147
0.41279134 -0.096151933 0.51300389 4279244561
0.41267616 -0.095709652 0.51311994 4279244310
0.4126386 -0.095233783 0.51329273 4279112722
0.41260016 -0.094756655 0.51346552 4279244308
0.41256082 -0.094278269 0.51363838 4279375894
0.41252053 -0.093798622 0.51381123 4279375894
0.41247934 -0.09331771 0.51398402 4279442200
0.41243726 -0.092835538 0.51415688 4278718477
0.41247159 -0.09231811 0.51438648 4278586891
0.41242754 -0.091833204 0.51455933 4278783757
0.41238257 -0.091347046 0.51473224 4278783507
0.41233671 -0.090859622 0.5149051 4278783507
0.41228992 -0.090370923 0.51507801 4278783507
0.41224223 -0.089880981 0.51525086 4278915343
0.41219363 -0.089389771 0.51542377 4278915343
0.41214412 -0.088897303 0.51559675 4278848780
0.41201755 -0.088439256 0.51571292 4278914573
0.41196638 -0.087944478 0.51588583 4279046159
0.41199011 -0.087412335 0.51611555 4278979596
0.41193697 -0.086914822 0.51628846 4279177745
0.41188291 -0.086416051 0.51646143 4279111952
0.41190329 -0.085879281 0.51669115 4278717966
0.41184726 -0.085377775 0.51686412 4278915343
0.41186538 -0.084837861 0.5170939 4279111954
0.41188228 -0.084296256 0.51732361 4279111954
0.41189799 -0.083752982 0.51755345 4279374356
0.41191247 -0.083208025 0.51778316 4279111954
0.41185129 -0.082699373 0.51795626 4279046159
0.41186351 -0.082151257 0.51818603 4279177745
0.41180038 -0.081639878 0.51835907 4279046931
0.41181031 -0.08108861 0.5185889 4278915610
0.41174519 -0.080574498 0.51876199 4278916128
0.41167915 -0.080059119 0.51893508 4278850335
0.41161221 -0.07954248 0.51910818 4279308565
0.41161776 -0.078985125 0.51933801 4279177747
0.41154885 -0.078465752 0.5195111 4278915596
0.41162524 -0.077865362 0.5197978 4278915596
0.41170007 -0.077262856 0.52008444 4278981651
0.41170061 -0.076698564 0.5203144 4278981136
0.41177261 -0.076092079 0.52060109 4278981136
0.41177058 -0.075524211 0.52083105 4279178515
0.41183966 -0.074913725 0.52111775 4278915347
0.41183504 -0.074342296 0.5213477 4279046933
0.41182923 -0.073769167 0.52157772 4279112726
0.41175032 -0.073235929 0.52175093 4279046933
0.41174224 -0.072659649 0.52198088 4279112724
0.41173294 -0.0720817 0.5222109 4278981138
0.41165102 -0.07154426 0.52238417 4279046931
0.41163942 -0.070963144 0.52261418 4278981389
0.41155553 -0.070422977 0.52278745 4279046412
0.41161263 -0.069795884 0.52307427 4279374607
0.41166824 -0.069166705 0.52336115 4279308814
0.41172236 -0.06853541 0.52364802 4279309081
0.41184542 -0.067858569 0.5239917 4279178265
0.41203707 -0.067135535 0.52439225 4279046679
0.41222656 -0.066409566 0.52479279 4279178265
0.41227382 -0.065768823 0.52507973 4279177495
0.4123196 -0.065125972 0.52536672 4279112474
0.41222435 -0.064570032 0.52554005 4278981138
0.41212815 -0.064012833 0.52571344 4279046931
0.41216999 -0.063364528 0.52600044 4279178515
0.41200238 -0.062849522 0.52611697 4279047695
0.41190332 -0.062288329 0.52629042 4279113239
0.41180336 -0.061725877 0.52646381 4278981653
0.41170248 -0.061162166 0.5266372 4279112987
0.41160071 -0.060597196 0.52681065 4279243542
0.41142946 -0.060077146 0.52692723 4279046929
0.41449648 -0.052041486 0.53189856 4278981651
0.41430873 -0.051498532 0.53201532 4279046929
0.41418725 -0.050906233 0.53218889 4279046929
0.41406485 -0.050312683 0.53236252 4279113235
0.41388378 -0.049072653 0.53276664 4279047442
0.4139573 -0.048327088 0.5331108 4279047442
0.41409516 -0.047529452 0.53351188 4278981136
0.41456196 -0.045775443 0.53448451 4279046161
0.41462731 -0.045018524 0.53482878 4278914575
0.41475636 -0.044208698 0.53522992 4278652173
0.41462183 -0.043598332 0.53540361 4278652173
0.41468209 -0.042834267 0.53574795 4278652171
0.4145453 -0.042220756 0.53592169 4278586378
0.41447252 -0.041554734 0.5361523 4278651654
0.41433376 -0.040938482 0.53632611 4278716677
0.41400027 -0.04047592 0.53632933 4278651654
0.41360235 -0.040065221 0.53627563 4278717447
0.41320473 -0.039654948 0.53622198 4278849033
0.41287154 -0.039192811 0.5362252 4279177480
0.41247439 -0.038783155 0.53617156 4279374857
0.41188598 -0.038532034 0.53594726 4280031499
0.41123509 -0.038335502 0.53566611 4280360464
0.41064924 -0.038087957 0.53544182 4280688146
0.40936732 -0.038428739 0.53459197 4280886806
0.40840614 -0.038508125 0.53402638 4280888343
0.40725869 -0.038752958 0.53329015 4281742630
0.40624109 -0.038895331 0.5326677 4281939242
0.40572912 -0.038608953 0.53250015 4282333484
0.40521803 -0.03832382 0.53233266 4282596654
0.40477034 -0.037985377 0.53222197 4282859826
0.4043856 -0.037592955 0.53216821 4282991666
0.40387678 -0.037310988 0.53200066 4283123252
0.40355498 -0.036864609 0.53200376 4283451450
0.4031713 -0.036473669 0.53194994 4283649342
0.40278792 -0.036083139 0.53189617 4284044100
0.42159337 -0.0096180737 0.55309808 4280294932
0.42109567 -0.0092102736 0.55298787 4280164118
0.4207181 -0.0086865574 0.55299151 4280361495
0.42022133 -0.0082799941 0.55288136 4280624667
0.41978461 -0.0078154951 0.55282807 4280952862
0.41934821 -0.0073514283 0.55277479 4281151013
0.41885296 -0.006946981 0.55266458 4281677607
0.41841727 -0.0064839423 0.55261129 4282334252
0.41798195 -0.0060213357 0.552558 4282465838
0.41748822 -0.0056189895 0.5524478 4284174159
0.41699508 -0.0052174926 0.55233753 4284963673
0.41650254 -0.0048168302 0.55222732 4283714374
0.41595235 -0.0044775009 0.55206019 4283912262
0.4155193 -0.0040180236 0.55200684 4284043848
0.41595554 -0.10362187 0.51227683 4279507480
0.41576749 -0.10321996 0.51233637 4279441687
0.41557911 -0.10281762 0.51239586 4279376147
0.41530973 -0.10244396 0.51239848 4279506710
0.4151209 -0.10204101 0.51245797 4279506710
0.41485137 -0.10166713 0.51246059 4279310614
0.41466206 -0.10126354 0.51252007 4279047693
0.41447249 -0.10085953 0.51257962 4279374857
0.41428262 -0.10045509 0.51263916 4279638029
0.41409242 -0.10005026 0.51269865 4279506443
0.41390193 -0.099644974 0.5127582 4279309836
0.41371113 -0.099239275 0.51281774 4279309582
0.41352004 -0.098833174 0.51287729 4279440400
0.41332862 -0.09842664 0.51293683 4279440400
0.4131369 -0.098019674 0.51299638 4279376147
0.4130238 -0.097580701 0.51311284 4279505940
0.41291007 -0.097140878 0.51322937 4279637526
0.41279575 -0.096700214 0.5133459 4279244308
0.41275927 -0.096226469 0.51351935 4279375894
0.41264355 -0.095783919 0.51363587 4279178517
0.41252726 -0.09534052 0.51375234 4279178519
0.41248834 -0.094863415 0.51392585 4279375896
0.41244853 -0.09438505 0.51409936 4279244310
0.41240776 -0.093905419 0.51427287 4279375894
0.41236615 -0.093424536 0.51444638 4279442204
0.41232359 -0.092942387 0.51461989 4278850065
0.41228011 -0.092458978 0.5147934 4278652686
0.41231281 -0.091940179 0.51502389 4278718479
0.41226739 -0.091454037 0.51519746 4278783507
0.41222104 -0.090966634 0.51537102 4278783759
0.4122504 -0.090443209 0.51560152 4278783759
0.41212562 -0.089988045 0.5157181 4278915596
0.41207653 -0.089496858 0.51589173 4278915596
0.41202658 -0.089004412 0.5160653 4278849033
0.41197568 -0.0885107 0.51623893 4278914826
0.41192389 -0.088015735 0.5164125 4278914573
0.41187119 -0.087519497 0.51658612 4278979339
0.41189313 -0.086985782 0.51681674 4279046159
0.41183844 -0.086486816 0.51699036 4279177745
0.41185811 -0.08594995 0.51722097 4278915343
0.41187656 -0.085411392 0.51745164 4278783757
0.41189381 -0.084871158 0.51768225 4278980886
0.41190985 -0.084329233 0.51791292 4278980886
0.41185004 -0.083823122 0.51808661 4279242772
0.4118638 -0.08327806 0.51831728 4279111954
0.41180199 -0.082769215 0.51849103 4279176975
0.41173929 -0.082259119 0.51866472 4279242768
0.41174972 -0.081709422 0.51889545 4279309333
0.41168505 -0.081196591 0.51906914 4278915610
0.41169319 -0.080643743 0.51929986 4278850335
0.41162652 -0.080128178 0.51947367 4278784542
0.41148555 -0.079650521 0.51959038 4279111956
0.41156381 -0.079053886 0.51987815 4279177745
0.41149428 -0.078534327 0.52005196 4279046412
0.4115698 -0.077933893 0.52033973 4279046412
0.41164386 -0.077331364 0.52062756 4279047446
0.41171634 -0.076726735 0.52091533 4278981138
0.41171479 -0.076160446 0.52114618 4278981138
0.41178441 -0.075551815 0.52143401 4279112722
0.41185254 -0.074941099 0.5217219 4278915347
0.41191912 -0.074328259 0.52200979 4279046933
0.41184035 -0.073795892 0.52218366 4279112726
0.41176069 -0.073262252 0.52235752 4279112472
0.41182333 -0.072643958 0.52264541 4279178517
0.41174152 -0.07210739 0.52281928 4278981138
0.41165882 -0.071569532 0.52299321 4279046931
0.4115752 -0.07103043 0.52316713 4278981389
0.41163272 -0.070404999 0.52345508 4279046410
0.41168869 -0.069777459 0.52374309 4279309584
0.41174316 -0.069147825 0.52403104 4279243791
0.41172558 -0.068559252 0.52426207 4279309333
0.4117772 -0.067925617 0.52455008 4279112726
0.41224879 -0.067028351 0.52518028 4279046933
0.41229644 -0.066389263 0.52546835 4279178519
0.41234258 -0.065748066 0.52575636 4279374358
0.4123174 -0.065148979 0.52598745 4279112474
0.41236067 -0.064503789 0.52627558 4279244060
0.41219392 -0.063990414 0.52639258 4278981138
0.4120959 -0.063431337 0.52656662 4279243538
0.41199702 -0.062871009 0.52674067 4279046929
0.41189718 -0.062309422 0.52691472 4279113239
0.41186532 -0.061701097 0.52714586 4278981653
0.41183227 -0.061091088 0.52737701 4279047194
0.41440704 -0.052109972 0.53248781 4278915860
0.41428572 -0.051518537 0.53266209 4278981649
0.41458762 -0.043615974 0.53606367 4278652175
0.41464674 -0.042851754 0.53640932 4278586382
0.41463909 -0.042135946 0.53669792 4278717194
0.41450033 -0.04152035 0.53687239 4278848261
0.41416669 -0.041057579 0.53687555 4278585859
0.41389757 -0.040543236 0.53693587 4278717447
0.41356379 -0.040080257 0.53693902 4278783240
0.41310161 -0.039721251 0.5368281 4279046412
0.41270411 -0.039310895 0.53677422 4279308807
0.4123069 -0.038900964 0.53672034 4279571977
0.41171876 -0.038649321 0.53649521 4280360464
0.41113183 -0.038399354 0.53627002 4280557843
0.41035581 -0.038310207 0.53587353 4280885523
0.40830502 -0.038568459 0.5346238 4281216284
0.40722162 -0.038758196 0.53394175 4281742628
0.40633041 -0.038791329 0.53343099 4281939494
0.40562993 -0.03866595 0.53309155 4282333482
0.40518141 -0.038325869 0.53298044 4282662447
0.40473348 -0.037986629 0.53286934 4282794033
0.40434837 -0.037593499 0.53281534 4282991662
0.40396357 -0.037200801 0.53276134 4282991664
0.40351716 -0.036863662 0.53265023 4283582522
0.40313312 -0.036472008 0.53259623 4283714622
0.40287262 -0.035969645 0.53265643 4284175173
0.42133081 -0.0098112226 0.55365598 4280163346
0.42083335 -0.0094032586 0.55354536 4280164116
0.42039612 -0.0089378357 0.55349189 4280427286
0.41995922 -0.0084728301 0.55343837 4280690458
0.41952258 -0.0080082566 0.5533849 4281281827
0.41908628 -0.0075441003 0.55333138 4281216804
0.4186503 -0.0070803612 0.55327785 4281677607
0.41809681 -0.0067357421 0.55311006 4282596654
0.41772044 -0.0062137097 0.5531137 4282794033
0.41722691 -0.0058111995 0.55300301 4283976527
0.41679245 -0.0053495765 0.55294949 4283844943
0.41635826 -0.0048883557 0.55289596 4283845708
0.41586623 -0.0044879615 0.55278528 4284176208
0.41584966 -0.10373102 0.51273131 4279376145
0.41574222 -0.10330039 0.5128482 4279441940
0.41547269 -0.10292652 0.51285076 4279441940
0.41520315 -0.10255265 0.51285338 4279506712
0.41501406 -0.10214956 0.51291311 4279572505
0.41482466 -0.10174604 0.51297283 4279244561
0.414635 -0.10134211 0.51303256 4279179020
0.41444501 -0.10093775 0.51309234 4279440650
0.41417485 -0.10056304 0.51309496 4279638029
0.41398442 -0.10015805 0.51315469 4279506443
0.41379368 -0.09975265 0.51321447 4279309834
0.41360262 -0.099346831 0.51327419 4279375375
0.41341126 -0.098940581 0.51333398 4279375377
0.4132196 -0.098533913 0.51339376 4279309584
0.41310656 -0.098095506 0.5135107 4279637779
0.41291416 -0.097687796 0.51357049 4279637779
0.41280007 -0.097247913 0.51368743 4279506963
0.41268539 -0.096807197 0.51380438 4279244561
0.41264844 -0.096333474 0.51397848 4279376147
0.41253236 -0.095890865 0.51409549 4279244561
0.41249374 -0.095414832 0.51426959 4279178517
0.41245419 -0.094937541 0.51444376 4279375894
0.41233602 -0.094491988 0.51456076 4279244308
0.41237238 -0.093979172 0.51479214 4279376147
0.41233015 -0.093498096 0.51496631 4279573275
0.41228694 -0.09301576 0.51514047 4279310616
0.41216576 -0.092565998 0.51525754 4278718479
0.41212091 -0.092081353 0.5154317 4278717964
0.41215196 -0.091561183 0.51566315 4278783761
0.41210514 -0.091073804 0.51583737 4278717964
0.41213396 -0.090550475 0.51606876 4278783757
0.41208518 -0.090060361 0.51624304 4278915078
0.41195929 -0.089604095 0.5163601 4278915846
0.41190881 -0.089111671 0.51653433 4278784010
0.41185746 -0.088617988 0.51670861 4278784010
0.41188097 -0.088087305 0.51694012 4278915596
0.41182762 -0.087590888 0.5171144 4279046159
0.41177341 -0.087093204 0.51728868 4278915343
0.41179356 -0.086557902 0.51752019 4278981136
0.41173735 -0.086057492 0.51769453 4278652684
0.41175523 -0.085519031 0.51792604 4278717964
0.41177192 -0.084978893 0.5181576 4278981136
0.41178739 -0.08443708 0.51838917 4278981136
0.41180161 -0.083893582 0.51862073 4279045391
0.41174024 -0.083386026 0.51879507 4279177745
0.41175225 -0.08283937 0.51902664 4279111952
0.41168892 -0.082329087 0.51920104 4279243021
0.41169864 -0.081779271 0.51943266 4279177998
0.41163331 -0.081266254 0.51960707 4278783509
0.41164076 -0.080713294 0.51983869 4278915095
0.4115735 -0.080197543 0.52001309 4278915356
0.41150531 -0.079680532 0.52018756 4278783761
0.41158259 -0.079083651 0.52047646 4279112722
0.41158533 -0.078524172 0.52070814 4279244308
0.41158685 -0.077963017 0.52093983 4279046412
0.4116599 -0.07736025 0.52122873 4279047695
0.41165885 -0.076795518 0.52146047 4279046412
0.41187385 -0.076108038 0.52186388 4279112205
0.41186994 -0.075539321 0.52209562 4279046929
0.41193688 -0.07492815 0.52238458 4278915343
0.41193038 -0.074355856 0.52261633 4279112726
0.41192266 -0.073781878 0.52284813 4279178519
0.41191375 -0.073206224 0.52307993 4279177749
0.41183206 -0.072670512 0.52325451 4279046929
0.41174951 -0.072133526 0.52342904 4278915858
0.41173723 -0.071553253 0.5236609 4279047444
0.41165268 -0.07101354 0.52383548 4278916109
0.41170907 -0.070387647 0.52412456 4279112203
0.41176394 -0.069759659 0.52441365 4279309582
0.41174668 -0.069172442 0.52464551 4279177996
0.41213033 -0.067733169 0.52545279 4279046931
0.4123891 -0.066965617 0.52591372 4278981138
0.41243547 -0.066325858 0.52620292 4279112722
0.41255021 -0.065640062 0.52654934 4279308561
0.41252369 -0.06504003 0.52678132 4279243538
0.41235688 -0.06452702 0.52689874 4279309331
0.41212004 -0.064057723 0.52695894 4279112724
0.41202146 -0.063498467 0.5271337 4279244310
0.41192192 -0.062937953 0.5273084 4279046929
0.41202828 -0.062240601 0.52765495 4279112722
0.41199523 -0.061631531 0.52788699 4278981653
0.41196102 -0.061020777 0.52811903 4278981651
0.41206253 -0.060316704 0.52846557 4279243791
0.41455275 -0.043634087 0.53672504 4278586893
0.41467577 -0.042819038 0.53712934 4278521100
0.41466701 -0.042102784 0.53741908 4278716677
0.41446263 -0.04153765 0.53753686 4278979844
0.41419309 -0.041022964 0.53759742 4278914056
0.41385883 -0.040559351 0.53760064 4279177226
0.41365311 -0.039992325 0.53771842 4279243019
0.41319036 -0.039632127 0.53760701 4279834129
0.41266432 -0.039324902 0.53743827 4279900172
0.41220298 -0.038966581 0.53732687 4280163083
0.41161495 -0.038714215 0.53710085 4280557589
0.41102815 -0.038463518 0.53687477 4280820761
0.41018921 -0.038426384 0.53641945 4281806111
0.40826651 -0.038575731 0.53527939 4281282077
0.40712106 -0.03881751 0.53453737 4281413917
0.40623045 -0.03884951 0.5340246 4281742115
0.40559292 -0.038669229 0.53374112 4282071082
0.40514413 -0.038328364 0.5336296 4282531631
0.4046337 -0.038042784 0.53346068 4282729010
0.40431052 -0.037594512 0.53346384 4283123250
0.40392536 -0.037201107 0.5334096 4283582004
0.40354052 -0.036808111 0.53335536 4283910458
0.40309432 -0.036470816 0.53324378 4283912255
0.42100841 -0.010062158 0.55415654 4280360725
0.420571 -0.0095962435 0.55410284 4280361747
0.42013389 -0.0091307461 0.55404913 4280756503
0.41963768 -0.0087240934 0.55393803 4280822296
0.41920134 -0.008259654 0.55388433 4281675554
0.41882437 -0.0077367872 0.55388796 4281741863
0.41832954 -0.007332027 0.55377686 4282006572
0.4178941 -0.0068688393 0.5537231 4282728758
0.41745895 -0.0064060837 0.55366933 4282860344
0.41702414 -0.0059437305 0.55361563 4283648329
0.41658959 -0.0054818094 0.55356187 4284174673
0.41615534 -0.0050203055 0.55350816 4284240979
0.41566342 -0.0046195537 0.553397 4284899161
0.41563576 -0.10340966 0.51330352 4279441940
0.41536605 -0.10303558 0.51330608 4279441940
0.41517687 -0.10263255 0.5133661 4279572505
0.41498739 -0.10222912 0.51342607 4279572505
0.41471738 -0.10185461 0.51342863 4279375124
0.41452745 -0.10145056 0.51348859 4279244559
0.41433719 -0.10104606 0.51354861 4279375627
0.41414666 -0.10064115 0.51360857 4279638029
0.41395581 -0.10023583 0.51366854 4279506443
0.41376463 -0.099830084 0.51372856 4279309836
0.41357318 -0.099423915 0.51378852 4279375375
0.4133814 -0.09901733 0.51384854 4279375124
0.41318935 -0.098610319 0.51390851 4279375124
0.41299695 -0.098202884 0.51396853 4279375377
0.41288298 -0.097763591 0.51408589 4279571727
0.41276836 -0.09732344 0.51420331 4279506961
0.41265321 -0.096882463 0.51432073 4279375375
0.41253737 -0.096440643 0.51443815 4279375377
0.41242096 -0.095997974 0.51455557 4279244561
0.41245979 -0.095489457 0.51478779 4279375894
0.41234183 -0.095044687 0.51490521 4279375894
0.41230094 -0.094566159 0.51508003 4279244308
0.4122591 -0.094086364 0.51525486 4279376147
0.41221637 -0.09360531 0.51542974 4279573275
0.41217273 -0.093122996 0.51560462 4279376409
0.41212821 -0.092639416 0.5157795 4278915858
0.41208273 -0.092154592 0.51595438 4278652684
0.41203636 -0.091668487 0.51612926 4278718481
0.41206563 -0.091146737 0.51636159 4278783757
0.41201729 -0.090657905 0.51653647 4278783757
0.41196805 -0.090167813 0.51671141 4278784262
0.4119179 -0.089676462 0.51688635 4278915846
0.41186684 -0.089183845 0.51706123 4278915596
0.41181487 -0.088689968 0.51723623 4278915596
0.41183764 -0.088159189 0.51746857 4278981389
0.4117837 -0.087662578 0.51764357 4278981389
0.41172883 -0.087164707 0.51781851 4278783757
0.41174823 -0.086629301 0.51805091 4278915343
0.41176647 -0.086092204 0.51828337 4278718477
0.41178349 -0.085553423 0.51851577 4278717964
0.41179931 -0.085012965 0.51874822 4278915343
0.41181386 -0.084470831 0.51898068 4278981136
0.41175282 -0.083964348 0.51915568 4279045389
0.41176513 -0.083419047 0.5193882 4279177745
0.4117021 -0.082909837 0.5195632 4279111952
0.41163814 -0.082399361 0.51973832 4279177228
0.41164714 -0.081849441 0.51997077 4279177998
0.41158122 -0.081336237 0.52014589 4278783509
0.41158792 -0.080783166 0.52037841 4278980888
0.41152 -0.080267236 0.52055347 4278981403
0.41145122 -0.079750031 0.52072859 4278915347
0.41152769 -0.079153106 0.52101862 4279112724
0.41152972 -0.078593522 0.5212512 4279178517
0.41160327 -0.077992611 0.52154124 4279046412
0.41167533 -0.077389598 0.52183127 4279047695
0.41174585 -0.076784477 0.52212131 4278981389
0.41188723 -0.076136976 0.52246886 4278981389
0.41195458 -0.075527452 0.52275896 4279046929
0.41194838 -0.074956514 0.52299166 4278915343
0.41201288 -0.074342988 0.52328175 4279112726
0.41193241 -0.073809609 0.52345693 4279112726
0.4119226 -0.073233634 0.52368963 4279111954
0.4118402 -0.072697513 0.52386487 4279046931
0.41175684 -0.072160132 0.52404016 4278915858
0.41188592 -0.071495615 0.52438778 4279047444
0.41180032 -0.070955083 0.52456307 4278915856
0.41178459 -0.070370913 0.52479577 4278981389
0.41183832 -0.069742471 0.52508605 4279309584
0.41174954 -0.069197536 0.52526134 4279177998
0.41248178 -0.067541972 0.52635908 4279046931
0.4125284 -0.066903651 0.52664942 4278981138
0.41264337 -0.066219583 0.52699721 4279112975
0.41268677 -0.065576851 0.52728748 4279112205
0.41251993 -0.065064199 0.52740544 4279243791
0.41235244 -0.064550713 0.52752334 4279243791
0.41218436 -0.064036377 0.52764124 4279047446
0.41208482 -0.063476518 0.52781665 4279244310
0.41233015 -0.061426774 0.52880281 4278981651
0.41284254 -0.060450375 0.52949566 4278981136
0.41348806 -0.059377447 0.53030354 4279046929
0.41358352 -0.058666259 0.53065151 4279506193
0.41476887 -0.042736374 0.53790867 4278586380
0.41501778 -0.041816302 0.53842962 4278651654
0.41481182 -0.041249424 0.53854787 4279045637
0.4143475 -0.040886559 0.53843606 4279177228
0.41394806 -0.040473096 0.53838176 4279243021
0.41348481 -0.040111691 0.53826988 4279440141
0.41302216 -0.039751127 0.53815806 4280162831
0.41256011 -0.039391398 0.53804624 4280229130
0.4121623 -0.03898026 0.53799188 4280557325
0.41176486 -0.038569547 0.53793752 4280951577
0.41092405 -0.038527995 0.53748047 4281148956
0.4102121 -0.038384028 0.5371384 4281805859
0.40956509 -0.038189493 0.53685391 4281675041
0.40803862 -0.038743392 0.53576374 4281282331
0.40708286 -0.038823605 0.53519142 4281544988
0.40619275 -0.038854279 0.53467667 4281808162
0.40549278 -0.038726918 0.53433448 4282202414
0.4050439 -0.038385481 0.53422254 4282663219
0.40459564 -0.038044885 0.53411055 4282794805
0.40421 -0.037650555 0.53405607 4283320116
0.40388653 -0.037201867 0.53405917 4283516983
0.40343964 -0.036863163 0.53394717 4284240704
0.42062649 -0.010370672 0.55459917 4280623895
0.4201895 -0.0099050999 0.55454516 4280690458
0.41975278 -0.0094399452 0.55449122 4281216802
0.41937566 -0.0089168549 0.55449486 4281282595
0.41893941 -0.008452341 0.55444092 4282201898
0.41850349 -0.0079882294 0.55438697 4282661934
0.41806784 -0.00752455 0.55433297 4282400558
0.41763249 -0.0070612878 0.55427903 4282860344
0.41719747 -0.0065984428 0.55422509 4283320895
0.41682112 -0.0060764104 0.55422866 4284043335
0.41632831 -0.0056740195 0.55411714 4284504138
0.41601035 -0.0050923675 0.5541783 4284702550
0.41552907 -0.10351907 0.51375932 4279507733
0.41533977 -0.10311613 0.51381952 4279572756
0.41515017 -0.10271278 0.51387972 4279572503
0.41488004 -0.10233806 0.51388228 4279638296
0.41460991 -0.10196335 0.5138849 4279637528
0.41441968 -0.10155915 0.5139451 4279244310
0.41430897 -0.10112484 0.51406288 4279375894
0.41403839 -0.10074949 0.5140655 4279506710
0.41392675 -0.10031392 0.51418334 4279506710
0.41373518 -0.09990783 0.51424354 4279244308
0.41346413 -0.099531859 0.51424611 4279375124
0.41327211 -0.099125132 0.51430637 4279244310
0.41315866 -0.098687038 0.5144242 4279375896
0.41296589 -0.09827926 0.51448441 4279244561
0.41285139 -0.097839683 0.51460224 4279571981
0.4127363 -0.097399279 0.51472008 4279638031
0.41262054 -0.096958041 0.51483798 4279440652
0.41250426 -0.096515939 0.51495582 4279506445
0.41238731 -0.096073017 0.51507366 4279309584
0.41234758 -0.09559682 0.51524919 4279376147
0.41230696 -0.095119357 0.51542467 4279244561
0.41218793 -0.094673477 0.51554257 4279179281
0.41214561 -0.094193712 0.5157181 4279376407
0.4121024 -0.09371268 0.51589364 4279704091
0.41198125 -0.093263865 0.51601154 4279836447
0.41201329 -0.092746831 0.51624471 4279375896
0.41196737 -0.092262022 0.51642025 4278586893
0.41199714 -0.09174183 0.51665348 4278717964
0.41194922 -0.091254294 0.51682901 4278915345
0.41197675 -0.09073095 0.51706225 4278981138
0.41185072 -0.090275414 0.5171802 4278784010
0.41187608 -0.089749135 0.51741344 4278915594
0.41182441 -0.089256331 0.51758909 4278981387
0.41184753 -0.088726901 0.51782233 4278914826
0.41179386 -0.08823137 0.51799798 4279046412
0.41173929 -0.08773458 0.51817358 4279111952
0.41175905 -0.087200522 0.51840687 4278914573
0.41177762 -0.086664796 0.51864016 4278981136
0.41172004 -0.086163796 0.51881588 4278981136
0.41173631 -0.085624903 0.51904917 4278915343
0.41175139 -0.085084334 0.51928252 4278981136
0.41176525 -0.084542081 0.51951587 4278718477
0.41170359 -0.084035411 0.51969159 4278979849
0.41164097 -0.083527476 0.5198673 4279112205
0.41165149 -0.082980603 0.52010071 4279112205
0.41166082 -0.082432054 0.52033406 4279046159
0.41159517 -0.081919923 0.52050984 4279111952
0.41160226 -0.081368215 0.52074325 4278981140
0.41153464 -0.08085335 0.52091897 4278981140
0.41146615 -0.080337219 0.5210948 4278980886
0.41146985 -0.079780884 0.52132821 4278783759
0.41154534 -0.07918372 0.52161938 4279112724
0.41161931 -0.078584455 0.52191049 4279244310
0.41161907 -0.078022659 0.52214396 4279111954
0.41183203 -0.076774046 0.52278399 4279112724
0.41197217 -0.076126173 0.52313292 4278915345
0.41196632 -0.075556606 0.52336645 4278981389
0.41203117 -0.074944727 0.52365768 4278914826
0.41209453 -0.074330747 0.52394891 4279112724
0.41194153 -0.073837802 0.52406716 4279046931
0.41193086 -0.073261499 0.52430069 4279308563
0.41191894 -0.072683536 0.52453434 4279112724
0.41197702 -0.072062194 0.52482563 4278915345
0.41189155 -0.071522526 0.52500153 4278981138
0.41187602 -0.070939511 0.52523518 4278981902
0.41185927 -0.070354804 0.52546883 4278915596
0.41243395 -0.068204202 0.52668911 4279046933
0.41255119 -0.06752459 0.52703822 4279112724
0.41273654 -0.066799104 0.52744502 4279046931
0.41284999 -0.066114239 0.52779418 4279376147
0.41268307 -0.065601952 0.5279125 4279243791
0.41258502 -0.065044843 0.52808857 4279243791
0.41248608 -0.064486474 0.52826464 4279177998
0.41238618 -0.063926846 0.52844071 4279047446
0.41242346 -0.063276723 0.52873218 4279178517
0.41273478 -0.062445194 0.52925456 4279178515
0.4126997 -0.061835058 0.52948838 4279112722
0.41369206 -0.06054455 0.53058791 4278981653
0.41392601 -0.059746072 0.53105259 4278981649
0.4140892 -0.058989905 0.53145963 4278981649
0.41438657 -0.058139041 0.53198212 4279243791
0.41561055 -0.040606156 0.53996718 4279571209
0.41482234 -0.040495418 0.53956616 4279506963
0.41410041 -0.040336274 0.5392229 4279572756
0.41350839 -0.040076561 0.53899509 4279835408
0.41285369 -0.039870277 0.53870952 4280492561
0.41245544 -0.039458223 0.53865498 4280492815
0.41205746 -0.039046586 0.53860044 4280821267
0.41159636 -0.038687758 0.53848815 4281477921
0.41100937 -0.038434975 0.53826034 4281543714
0.41029727 -0.038289502 0.5379169 4281477921
0.409713 -0.038040496 0.53768909 4281543714
0.40621689 -0.038805865 0.53538781 4282400558
0.40545458 -0.038731061 0.53498656 4282597685
0.40488106 -0.038496986 0.53475857 4282991160
0.40443283 -0.038156018 0.53464615 4283122746
0.40410906 -0.037706904 0.53464925 4283385657
0.40378529 -0.037257798 0.53465235 4283451704
0.42068189 -0.011144519 0.55509496 4280624147
0.42030463 -0.01062122 0.55509859 4281018907
0.41986787 -0.010155782 0.55504441 4280953630
0.41949075 -0.0096326917 0.55504805 4281282854
0.41911367 -0.0091096163 0.55505168 4281348647
0.41867751 -0.008645013 0.5549975 4282268207
0.41824168 -0.0081808269 0.55494332 4282859315
0.41780615 -0.007717073 0.55488914 4282729010
0.41737092 -0.0072537363 0.55483496 4283254586
0.41699439 -0.0067314804 0.55483854 4283649344
0.41655964 -0.0062687844 0.55478436 4284306759
0.41618329 -0.005746752 0.55478799 4284570183
0.41523263 -0.10322557 0.51427597 4279441940
0.41504276 -0.10282208 0.51433641 4279441689
0.41485262 -0.10241817 0.51439679 4279507482
0.41458219 -0.10204303 0.51439941 4279506714
0.41439158 -0.1016385 0.51445985 4279244312
0.41420066 -0.10123353 0.51452029 4279376409
0.41400945 -0.10082814 0.51458073 4279310616
0.41381788 -0.10042235 0.51464117 4279310618
0.41362607 -0.10001612 0.5147016 4279244058
0.41343397 -0.099609479 0.51476204 4279375894
0.41324151 -0.099202417 0.51482248 4279244312
0.41312757 -0.098764047 0.51494074 4279375898
0.41293436 -0.098355934 0.51500118 4279178768
0.41281939 -0.097916096 0.51511949 4279506445
0.41262543 -0.09750694 0.51517993 4279506191
0.41258752 -0.097033918 0.51535606 4279506191
0.4124707 -0.096591562 0.51547444 4279506445
0.41235322 -0.096148357 0.51559269 4279375377
0.4123129 -0.095671982 0.51576889 4279310867
0.41219407 -0.095226891 0.5158872 4279179281
0.41215211 -0.094748192 0.51606339 4279179281
0.4121092 -0.09426824 0.51623958 4279244561
0.41191113 -0.093853399 0.51630008 4279638298
0.41194367 -0.093337931 0.51653415 4279769884
0.4118982 -0.092854403 0.5167104 4279507480
0.41185179 -0.092369609 0.51688659 4278915858
0.41188097 -0.091849521 0.51712072 4278783757
0.41190898 -0.091327764 0.51735479 4278915343
0.41193575 -0.090804316 0.51758891 4279177747
0.41180921 -0.090348512 0.51770735 4279046412
0.41183388 -0.089822128 0.51794147 4278914824
0.41178155 -0.089329131 0.51811779 4279046410
0.41172835 -0.088834889 0.51829404 4278914824
0.41174966 -0.088303871 0.51852822 4278914824
0.41176978 -0.087771177 0.51876241 4279177745
0.41171354 -0.087272726 0.51893872 4279046159
0.41173136 -0.086736873 0.51917291 4278981136
0.41174799 -0.086199351 0.51940715 4278981138
0.41168875 -0.085696697 0.51958346 4278915343
0.41170308 -0.085156024 0.51981771 4278981136
0.41171622 -0.084613658 0.52005196 4278784010
0.41172814 -0.08406961 0.52028626 4278979849
0.41166478 -0.083561286 0.52046263 4279111952
0.41167444 -0.083014086 0.52069694 4279111952
0.41160908 -0.082503028 0.52087331 4279046931
0.41161644 -0.081952676 0.52110761 4278981136
0.41154918 -0.081438884 0.52128404 4278981138
0.41155428 -0.080885388 0.52151841 4278915345
0.41155815 -0.080330208 0.52175272 4279046161
0.41148782 -0.079812214 0.5219292 4278915345
0.41156232 -0.079214796 0.52222145 4279112724
0.41156256 -0.078654572 0.52245581 4279244310
0.41156164 -0.078092672 0.52269018 4279111954
0.41191739 -0.076764241 0.52344847 4279112724
0.41198415 -0.07615611 0.52374083 4278915345
0.41204941 -0.075545892 0.52403319 4278981389
0.41218495 -0.074893013 0.52438343 4278915596
0.41210368 -0.074359894 0.52455997 4278915596
0.41195005 -0.073866457 0.52467865 4279046931
0.41193849 -0.073289841 0.52491313 4279176977
0.41206813 -0.072628766 0.52526343 4279178519
0.41205382 -0.072048374 0.52549797 4279046933
0.41196743 -0.071508095 0.52567458 4279047444
0.41202161 -0.070882529 0.52596706 4279113488
0.41186249 -0.070381537 0.52608573 4278915596
0.41245621 -0.06882263 0.52707613 4278916109
0.4125739 -0.068144955 0.5274266 4279046929
0.4128297 -0.067378625 0.52789289 4279112722
0.41308311 -0.066608921 0.52835917 4279112722
0.41291595 -0.066096798 0.52847797 4279178515
0.41274822 -0.06558384 0.52859676 4279244308
0.41271865 -0.064982206 0.52883142 4279112722
0.41275707 -0.06433478 0.52912402 4278981136
0.41296721 -0.062944546 0.52982515 4279112722
0.41341347 -0.062021911 0.53046536 4279112722
0.41419947 -0.060869843 0.53139532 4279112722
0.41422743 -0.060207918 0.53168803 4279046929
0.41425392 -0.059543893 0.53198075 4279047182
0.41434702 -0.058832169 0.53233141 4279112975
0.41416627 -0.058301128 0.53245032 4279112975
0.41537577 -0.040778853 0.54046607 4279900949
0.41484523 -0.040463351 0.54029536 4279900949
0.41412333 -0.040302917 0.53995073 4279900949
0.41340327 -0.040144987 0.53960609 4280426516
0.41287637 -0.039834552 0.53943539 4280689175
0.41235036 -0.039525352 0.53926468 4280953114
0.41201568 -0.039061114 0.5392679 4281347870
0.41155434 -0.038701497 0.53915513 4281282077
0.41103041 -0.038395248 0.53898442 4281347357
0.41044444 -0.038142994 0.53875566 4281610531
0.40529126 -0.038843244 0.53552395 4282861109
0.4048422 -0.038500652 0.53541106 4282926902
0.40445572 -0.038104698 0.53535616 4283451450
0.40406954 -0.037709154 0.53530133 4283845948
0.4211143 -0.01244089 0.5555867 4280426768
0.42067736 -0.011974961 0.55553234 4280821526
0.42030039 -0.011452079 0.55553597 4280822044
0.41992342 -0.010929197 0.55553961 4281216032
0.41954648 -0.01040633 0.55554318 4281347618
0.4191103 -0.0099414289 0.55548882 4281677614
0.41879255 -0.0093605816 0.55555046 4281809200
0.41835669 -0.0088960975 0.55549604 4282137654
0.4179211 -0.0084320605 0.55544162 4283188026
0.4174858 -0.0079684258 0.55538726 4283649342
0.41710931 -0.0074461848 0.55539083 4283649862
0.41673279 -0.0069239289 0.55539447 4284176206
0.41629815 -0.0064611435 0.55534005 4284637018
0.4159798 -0.0058794469 0.55540168 4284506204
0.4152056 -0.10330667 0.51479095 4279441687
0.41501534 -0.10290284 0.51485157 4279441691
0.41482478 -0.10249859 0.51491225 4279507484
0.41455403 -0.10212303 0.51491481 4279441691
0.41436303 -0.10171814 0.51497549 4279310616
0.4141717 -0.10131285 0.51503611 4279376411
0.41398007 -0.10090712 0.51509678 4279376411
0.41378814 -0.10050097 0.51515746 4279376161
0.41359591 -0.10009441 0.51521814 4279375907
0.41348234 -0.099657036 0.51533687 4279310366
0.41328937 -0.099249423 0.51539755 4279244312
0.41309607 -0.098841384 0.51545823 4279244312
0.41290247 -0.098432928 0.5155189 4279441687
0.4127869 -0.097992837 0.51563764 4279507215
0.41267079 -0.09755189 0.51575637 4279506445
0.41255403 -0.097110108 0.5158751 4279638031
0.41243669 -0.096667483 0.51599389 4279506445
0.41231874 -0.096224025 0.51611263 4279572756
0.41220015 -0.095779724 0.51623142 4279375894
0.41215846 -0.095302105 0.51640826 4279244308
0.41211587 -0.094823211 0.51658511 4279179281
0.41199517 -0.094375968 0.5167039 4279244561
0.41187388 -0.09392789 0.5168227 4279572505
0.41182882 -0.093445644 0.5169996 4279704091
0.41185957 -0.092928596 0.51723456 4279639068
0.41181257 -0.092443615 0.51741147 4279375898
0.41184103 -0.091923423 0.51764649 4278979598
0.4118683 -0.09140154 0.51788151 4279176977
0.41181827 -0.090912357 0.51805842 4279308563
0.41184324 -0.090387329 0.51829344 4279176975
0.41171545 -0.089930207 0.51841229 4279045640
0.41173831 -0.089402236 0.51864737 4279177226
0.41175997 -0.088872597 0.51888239 4279046410
0.41170508 -0.088376671 0.51905942 4278914824
0.41172445 -0.08784388 0.51929444 4279243791
0.41166759 -0.087345243 0.51947147 4279046412
0.41168469 -0.086809278 0.51970655 4278915345
0.41170061 -0.086271644 0.51994169 4278915343
