# .PCD v0.7 - Point Cloud Data file format
VERSION 0.7
FIELDS x y z rgb
SIZE 4 4 4 4
TYPE F F F U
COUNT 1 1 1 1
WIDTH 1052
HEIGHT 1
VIEWPOINT 0 0 0 1 0 0 0
POINTS 1052
DATA ascii
0.45686898 -0.067495659 0.4854179 4278717447
0.45668155 -0.067914084 0.48537922 4278783238
0.45658663 -0.068362549 0.48530096 4278717445
0.45639992 -0.068779916 0.48526227 4278717445
0.45621353 -0.069196865 0.48522359 4278652422
0.45602745 -0.06961339 0.48518491 4278718215
0.45584166 -0.070029497 0.48514619 4278652171
0.45565617 -0.070445187 0.48510751 4278848782
0.45537785 -0.070831254 0.48510841 4279046161
0.45519283 -0.071246311 0.48506969 4279045393
0.45500809 -0.071660951 0.48503101 4278914826
0.45463645 -0.07201802 0.48507148 4278849033
0.45445204 -0.072432235 0.4850328 4278915078
0.45417401 -0.072817884 0.48503369 4278914824
0.45389599 -0.073203534 0.48503458 4278848780
0.4538064 -0.073644638 0.48495629 4278848780
0.45381173 -0.074112423 0.48483843 4278914573
0.45372349 -0.074551634 0.48476014 4278849033
0.45363587 -0.074990012 0.48468184 4278915078
0.45354885 -0.075427547 0.48460352 4278849285
0.45336744 -0.075837553 0.48456484 4278914824
0.45347172 -0.076326549 0.48440737 4278652688
0.45357722 -0.076813877 0.48424986 4278652688
0.45332658 -0.078111976 0.48401493 4278914573
0.45314837 -0.078517579 0.48397622 4279177480
0.48213521 0.068699121 0.51111853 4283189061
0.48199117 0.067866609 0.510961 4282070327
0.48179001 0.067113027 0.5108431 4280821543
0.48164827 0.066283643 0.5106855 4280492578
0.48144907 0.065532789 0.51056761 4280230435
0.48142722 0.06455332 0.51033056 4280230435
0.48140717 0.063576385 0.51009357 4280295707
0.48132983 0.062678173 0.50989628 4279901203
0.48131326 0.061706066 0.50965923 4279309331
0.48129851 0.060736477 0.50942218 4279243538
0.48128557 0.059769407 0.50918519 4278981140
0.48127449 0.05880487 0.50894815 4278915345
0.48120531 0.057918012 0.5087508 4278915596
0.48125771 0.05688338 0.50847405 4278914826
0.48119187 0.056001112 0.5082767 4279045640
0.48112759 0.055120975 0.50807929 4279045640
0.48112527 0.054168612 0.50784224 4279243789
0.48106414 0.0532929 0.50764489 4279112203
0.48100451 0.05241926 0.50744754 4279112203
0.48094642 0.051547736 0.50725013 4278915343
0.48088986 0.050678328 0.50705278 4278783757
0.48077357 0.04988426 0.50689507 4278717964
0.48071983 0.049018815 0.50669771 4278915343
0.48060614 0.048228338 0.50654 4278783757
0.48061699 0.047294274 0.50630289 4278915343
0.480506 0.046507552 0.50614518 4278915343
0.48039621 0.045722529 0.50598752 4278717964
0.48028764 0.044939175 0.50582981 4278783757
0.48024258 0.044085741 0.5056324 4278915343
0.4801366 0.043305948 0.50547469 4278783757
0.4800944 0.042456508 0.50527728 4278717964
0.48005372 0.041609138 0.50507981 4278848780
0.47995168 0.040834844 0.50492209 4278914824
0.47985083 0.040062204 0.50476438 4278849031
0.4797512 0.039291263 0.5046066 4278915078
0.47971615 0.038451687 0.50440919 4278849033
0.47968259 0.037614211 0.50421172 4278783240
0.4795869 0.036848724 0.50405395 4278717447
0.47955623 0.036015242 0.50385654 4278783240
0.4794631 0.035253331 0.50369877 4278717447
0.47930712 0.034562364 0.50358075 4278849033
0.47921628 0.033803612 0.50342298 4278849033
0.47925547 0.032908842 0.50318575 4278782987
0.47923192 0.032085225 0.50298828 4278848780
0.47927457 0.031195313 0.50275105 4278981389
0.47918934 0.030444324 0.50259328 4278718217
0.47917035 0.029627025 0.50239581 4278783240
0.4790225 0.028947413 0.50227773 4278717194
0.47900623 0.028133884 0.5020802 4278717196
0.47899148 0.027322471 0.50188267 4278848780
0.47884697 0.026647493 0.50176466 4278717194
0.47876918 0.025906786 0.50160682 4278717194
0.47869259 0.025167793 0.50144899 4278783240
0.47861719 0.024430469 0.50129122 4278849033
0.47860923 0.023628518 0.50109369 4278849033
0.47853643 0.02289477 0.50093585 4278783240
0.47846484 0.022162706 0.50077802 4278717447
0.47839445 0.02143231 0.50062025 4278783240
0.47832528 0.020703629 0.50046241 4278717447
0.4781903 0.020041868 0.50034428 4278717447
0.47805631 0.019381374 0.50022614 4278717447
0.47799045 0.018657312 0.50006831 4278783240
0.47792584 0.017934904 0.49991047 4278783240
0.4777272 0.017343059 0.49983209 4278783240
0.47759697 0.016687825 0.49971399 4278717447
0.47746763 0.016033843 0.49959588 4278782987
0.47740722 0.015317336 0.49943802 4278979849
0.47727984 0.014666095 0.49931988 4278782470
0.47722173 0.013952747 0.49916202 4278848263
0.47709635 0.013304234 0.49904388 4278717447
0.47697186 0.012656987 0.49892575 4278717447
0.47691709 0.011948243 0.49876788 4278717194
0.47672558 0.011366263 0.49868947 4278782987
0.47660384 0.010722801 0.49857131 4278782987
0.47648299 0.010080606 0.49845317 4278651401
0.476363 0.0094396621 0.498335 4278782987
0.47631356 0.0087382793 0.49817711 4278848780
0.47626528 0.0080385804 0.49801922 4278782987
0.47614837 0.0074018389 0.49790105 4278717196
0.47603238 0.006766364 0.49778289 4278717196
0.47598743 0.0060712844 0.49762499 4278652173
0.47587341 0.0054385364 0.49750683 4278520585
0.47576025 0.004807055 0.49738866 4278586378
0.47564805 0.0041768253 0.49727046 4278586378
0.47560751 0.0034878403 0.49711254 4278914573
0.47556818 0.002800554 0.49695462 4278848780
0.4753879 0.0022341162 0.49687618 4278651401
0.47527948 0.0016091466 0.49675798 4278520838
0.47517192 0.00098544359 0.49663979 4278586631
0.47506532 0.00036299229 0.49652159 4278520838
0.47495964 -0.00025819242 0.4964034 4278520838
0.474783 -0.00081956387 0.49632496 4278520838
0.47467893 -0.0014384389 0.49620676 4278520836
0.4745037 -0.0019979328 0.49612826 4278520836
0.4744013 -0.0026144907 0.49601007 4278585859
0.47422743 -0.0031720847 0.49593163 4278651654
0.4741267 -0.0037863404 0.49581337 4278717447
0.47395417 -0.0043420419 0.49573493 4278652171
0.47385514 -0.0049539804 0.4956167 4278520585
0.473757 -0.0055646598 0.49549848 4278455045
0.47380617 -0.0062873811 0.49530077 4278585861
0.47378352 -0.006951578 0.49514279 4278585861
0.47376207 -0.0076140761 0.49498481 4278454275
0.47374183 -0.0082748979 0.49482679 4278585859
0.47364902 -0.0088782236 0.49470857 4278651652
0.47363102 -0.0095358938 0.49455059 4278651652
0.4734661 -0.010081083 0.49447209 4278651652
0.47345024 -0.010735802 0.49431407 4278651654
0.47328681 -0.011278898 0.49423558 4278717447
0.47312397 -0.011821158 0.49415708 4278783238
0.47303641 -0.01241713 0.49403882 4278651654
0.47287494 -0.012957484 0.49396032 4278717194
0.47271407 -0.013497002 0.49388182 4278520585
0.47262895 -0.014089614 0.49376354 4278520838
0.47254479 -0.014680959 0.49364528 4278520838
0.47246149 -0.015271038 0.493527 4278651654
0.47230351 -0.015806563 0.4934485 4278585861
0.47214609 -0.016341254 0.49336997 4278651401
0.47206524 -0.016927972 0.49325168 4278782989
0.47190922 -0.017460771 0.49317318 4278717196
0.47183004 -0.01804518 0.49305487 4278585610
0.47175175 -0.018628329 0.49293661 4278651401
0.47159785 -0.019158177 0.49285808 4278585861
0.47152123 -0.019739017 0.49273977 4278651654
0.47144553 -0.02031859 0.49262148 4278585861
0.47137073 -0.020896904 0.4925032 4278585861
0.47121972 -0.021422766 0.49242464 4278585861
0.47114658 -0.021998771 0.49230635 4278520838
0.47099692 -0.022522733 0.49222779 4278520838
0.47092545 -0.023096427 0.49210948 4278585861
0.47077715 -0.023618504 0.49203095 4278585861
0.47062945 -0.02413974 0.49195239 4278585861
0.47048235 -0.024660133 0.49187386 4278848263
0.4703359 -0.025179692 0.4917953 4278848263
0.47011167 -0.025648892 0.4917565 4278716677
0.46996623 -0.026166983 0.49167794 4278651654
0.46982145 -0.026684225 0.49159938 4278585861
0.46967721 -0.027200624 0.49152082 4278455043
0.46953362 -0.02771619 0.49144226 4278520836
0.46939063 -0.028230913 0.4913637 4278520836
0.46924824 -0.028744794 0.49128512 4278585859
0.46918586 -0.029305875 0.49116677 4278454275
0.46904483 -0.029817857 0.49108821 4278585861
0.46890444 -0.030329011 0.49100965 4278651654
0.46884447 -0.030886732 0.49089128 4278454794
0.46878543 -0.031443186 0.49077293 4278323206
0.46872729 -0.031998381 0.49065459 4278520838
0.46858978 -0.032505549 0.490576 4278520838
0.46853328 -0.033058427 0.49045765 4278455045
0.46839711 -0.033563688 0.49037907 4278585861
0.46834233 -0.034114257 0.49026072 4278585608
0.46820751 -0.03461764 0.4901821 4278585608
0.46807331 -0.035120159 0.49010351 4278651401
0.4679397 -0.035621859 0.49002492 4278651401
0.4678067 -0.03612271 0.48994631 4278585608
0.46775585 -0.036667824 0.48982793 4278651654
0.46762422 -0.037166774 0.48974934 4278848263
0.46749318 -0.037664898 0.48967075 4278782470
0.46736276 -0.038162179 0.48959213 4278716677
0.46723294 -0.038658619 0.48951352 4278716675
0.46718603 -0.039198257 0.48939514 4278782211
0.46705759 -0.039692804 0.48931652 4278716675
0.46701235 -0.04023014 0.48919815 4278651652
0.46680251 -0.04067938 0.48915929 4278585859
0.46675876 -0.0412146 0.48904091 4278454273
0.4666329 -0.041705579 0.48896229 4278651652
0.46650761 -0.042195708 0.48888364 4278585859
0.46638298 -0.04268501 0.48880503 4278585861
0.46625888 -0.043173462 0.48872641 4278585861
0.46605182 -0.04361891 0.48868757 4278454275
0.46584499 -0.044063948 0.48864871 4278585861
0.46563852 -0.044508561 0.48860985 4278651654
0.46543232 -0.044952765 0.48857099 4278716677
0.46531069 -0.045437843 0.48849237 4278585861
0.46510524 -0.045880996 0.48845351 4278454275
0.46490011 -0.046323709 0.48841467 4278585861
0.46478 -0.046806701 0.48833603 4278716677
0.46466047 -0.047288842 0.48825741 4278585091
0.46454158 -0.047770157 0.48817873 4278716677
0.4644233 -0.048250623 0.48810011 4278782468
0.46430558 -0.048730239 0.48802146 4278782468
0.46418852 -0.049209028 0.48794281 4278651652
0.46407202 -0.049686976 0.48786414 4278585859
0.46387038 -0.050124869 0.48782527 4278585859
0.46375495 -0.050601326 0.48774666 4278585859
0.46355405 -0.051038168 0.48770776 4278585861
0.4634397 -0.051513165 0.48762912 4278585861
0.46323955 -0.051948965 0.48759025 4278585861
0.46312627 -0.052422494 0.48751158 4278520838
0.46292692 -0.052857235 0.48747271 4278455045
0.46281466 -0.053329289 0.48739403 4278455045
0.46261603 -0.053762972 0.48735517 4278520838
0.46250486 -0.054233558 0.48727649 4278717447
0.46230701 -0.054666206 0.48723763 4278585861
0.46219689 -0.055135317 0.48715895 4278585861
0.46199977 -0.055566907 0.48712009 4278651652
0.46180299 -0.055998065 0.4870812 4278585859
0.46169436 -0.056465082 0.48700252 4278454273
0.46158639 -0.05693125 0.48692384 4278651654
0.46139079 -0.057360731 0.48688495 4278455045
0.46128386 -0.057825439 0.48680627 4278454273
0.46117753 -0.058289312 0.4867276 4278586113
0.46107182 -0.058752321 0.48664892 4278586113
0.46096671 -0.059214503 0.48657021 4278848515
0.46086216 -0.05967585 0.48649153 4278651654
0.46066916 -0.060101762 0.48645264 4278651654
0.46047646 -0.06052725 0.48641375 4278585859
0.46037346 -0.060986489 0.48633504 4278717445
0.46027106 -0.061444886 0.48625636 4278651652
0.46007958 -0.061868697 0.48621747 4278586631
0.4598884 -0.06229208 0.48617858 4278520836
0.45969751 -0.062715046 0.48613966 4278520836
0.45959708 -0.063170716 0.48606095 4278652422
0.45940694 -0.063592628 0.48602206 4278586629
0.45912665 -0.063981429 0.48602295 4278651652
0.45893696 -0.064402714 0.48598406 4278717445
0.45874757 -0.064823583 0.48594517 4278651654
0.4585585 -0.065244034 0.48590624 4278717196
0.45836973 -0.06566406 0.48586732 4278717196
0.45818126 -0.066083662 0.48582843 4278848530
0.45799312 -0.066502847 0.48578954 4278717196
0.45780528 -0.066921614 0.48575062 4278717447
0.4576177 -0.067339957 0.48571169 4278848263
0.45743042 -0.067757875 0.4856728 4278848263
0.4572435 -0.06817539 0.48563388 4278783238
0.45705682 -0.068592466 0.48559499 4278717447
0.45696276 -0.069039315 0.48551625 4278586629
0.45677692 -0.069455341 0.48547733 4278652424
0.4566839 -0.069900714 0.48539859 4278652171
0.45649877 -0.070315696 0.48535967 4278586378
0.45640683 -0.07075958 0.48528096 4278848782
0.45622244 -0.071173526 0.48524204 4278914575
0.45594519 -0.071558118 0.48524293 4278914575
0.45557457 -0.071914002 0.48528364 4278848780
0.45539063 -0.072327308 0.48524472 4278848780
0.45511335 -0.072711907 0.48524559 4278849031
0.45502371 -0.073152646 0.48516688 4278849031
0.45484072 -0.073564693 0.48512793 4278848782
0.45465797 -0.073976308 0.485089 4278782987
0.45456985 -0.074414954 0.48501027 4278914573
0.4543879 -0.074825518 0.48497134 4278783240
0.45430082 -0.075262696 0.48489261 4278783238
0.45421433 -0.075699016 0.48481387 4278849285
0.45422333 -0.076161116 0.48469529 4278849031
0.4542332 -0.07662195 0.4845767 4278652684
0.45414883 -0.077055342 0.48449796 4278850063
0.45406508 -0.077487886 0.48441923 4278783757
0.45388651 -0.077893831 0.48438028 4278914573
0.45399505 -0.07837601 0.48422188 4278849033
0.45362592 -0.078729808 0.48426259 4278980101
0.45344836 -0.079134278 0.48422363 4279243016
0.45317504 -0.079513416 0.4842245 4279111430
0.48239687 0.068511769 0.51167679 4283715916
0.48225242 0.067679554 0.5115183 4281873201
0.48199272 0.067003354 0.51143968 4280953129
0.48185039 0.066174075 0.51128113 4280689957
0.4817093 0.065346494 0.51112264 4280427042
0.48162809 0.064444005 0.51092422 4280361249
0.4815484 0.063543662 0.5107258 4280361500
0.48152924 0.062569275 0.51048744 4280098582
0.48145273 0.061673328 0.51028901 4279375375
0.48137775 0.060779482 0.51009053 4279243789
0.48136371 0.059812233 0.50985217 4279046412
0.48135152 0.058847517 0.50961375 4279046159
0.48134115 0.057885334 0.50937539 4279112205
0.4813326 0.056925654 0.50913697 4279112203
0.48132586 0.055968493 0.50889862 4279177996
0.48132092 0.055013865 0.5086602 4278914824
0.48125747 0.054135993 0.50846171 4279308812
0.48119551 0.053260222 0.50826323 4279177226
0.48113507 0.052386537 0.50806475 4279112203
0.48107615 0.051514968 0.5078662 4278914826
0.4810797 0.050572112 0.50762779 4278914573
0.48090172 0.049851328 0.50750911 4279046159
0.48078591 0.04905881 0.50735056 4279046159
0.48073274 0.048195243 0.50715208 4278783757
0.48068109 0.047333762 0.50695354 4278717964
0.48063096 0.046474382 0.50675499 4278783757
0.48058233 0.045617104 0.50655651 4278783757
0.48047319 0.044833854 0.50639784 4278783757
0.48036528 0.044052288 0.5062393 4278783757
0.48032087 0.04320088 0.50604075 4278717964
0.48027802 0.042351589 0.50584221 4278848780
0.48023668 0.041504398 0.50564361 4278848780
0.48019683 0.040659308 0.50544506 4278849031
0.48009557 0.039886981 0.50528646 4278783238
0.47999552 0.039116338 0.50512779 4278914824
0.47995993 0.038277134 0.50492924 4278783238
0.47986245 0.037510067 0.50477064 4278783238
0.47982973 0.036674842 0.50457203 4278849033
0.47979856 0.035841748 0.50437343 4278849033
0.47964114 0.03514953 0.5042547 4278849033
0.47954869 0.034389406 0.50409609 4278849033
0.47945744 0.033630952 0.50393742 4278914826
0.479496 0.032736629 0.50369889 4278914573
0.47947192 0.0319134 0.50350022 4278848780
0.47944933 0.031092271 0.50330162 4278783240
0.47942829 0.030273244 0.50310302 4278717447
0.47934386 0.029524252 0.50294435 4278783240
0.47926062 0.028776929 0.50278568 4278914573
0.47924381 0.027963772 0.50258702 4278848784
0.47922853 0.027152747 0.50238842 4278782987
0.47914922 0.026410893 0.50222969 4278717447
0.47900549 0.025737599 0.50211096 4278717447
0.47892845 0.024998888 0.50195223 4278783240
0.47885269 0.024261877 0.5017935 4278783240
0.47884417 0.023460284 0.5015949 4278783240
0.47877097 0.022726849 0.50143617 4278783240
0.47869894 0.021995082 0.50127745 4278717447
0.47862816 0.021265 0.50111872 4278717447
0.47855854 0.020536602 0.50095999 4278849033
0.47842327 0.019875079 0.5008412 4278717447
0.47835594 0.01914984 0.50068247 4278651654
0.47822267 0.018491045 0.50056374 4278717447
0.47815761 0.017768949 0.50040495 4278717447
0.47802627 0.017112896 0.50028616 4278783240
0.47789586 0.016458094 0.50016737 4278717194
0.47776636 0.015804544 0.50004858 4278782987
0.47763777 0.015152276 0.49992979 4278913803
0.47751009 0.014501259 0.49981099 4278848263
0.47745153 0.013788208 0.49965221 4278914056
0.47739422 0.013076827 0.49949345 4278914056
0.47726956 0.012430012 0.49937463 4278783240
0.47714579 0.011784464 0.49925584 4278651401
0.47702298 0.011140183 0.49913701 4278717194
0.47697005 0.010434881 0.49897823 4278717194
0.4768492 0.0097933412 0.49885941 4278717194
0.47672921 0.0091530383 0.49874058 4278782987
0.47667962 0.0084523857 0.4985818 4278717194
0.47663122 0.007753402 0.49842298 4278782987
0.47651431 0.0071173012 0.49830416 4278717194
0.47639829 0.006482482 0.49818534 4278782987
0.47628319 0.0058488995 0.49806648 4278782987
0.47616899 0.0052165985 0.49794763 4278651401
0.47612604 0.0045251846 0.49778882 4278717194
0.47608435 0.0038354397 0.49763 4278651401
0.47597316 0.0032073408 0.49751115 4278717194
0.47586289 0.0025805086 0.4973923 4278717194
0.47568256 0.0020144433 0.49731338 4278717194
0.47557396 0.0013899058 0.49719453 4278717194
0.47546628 0.00076663494 0.49707568 4278586378
0.47528806 0.00020351261 0.49699676 4278717964
0.47518206 -0.00041745603 0.49687791 4278520838
0.47507691 -0.0010371506 0.49675903 4278520838
0.47490084 -0.0015973225 0.49668011 4278585861
0.47472537 -0.00215666 0.49660119 4278651654
0.47462267 -0.0027729943 0.49648231 4278585861
0.47437623 -0.0032728016 0.49644339 4278585861
0.47427505 -0.0038870424 0.49632448 4278651654
0.47410217 -0.004442811 0.49624556 4278652424
0.47407544 -0.0051117316 0.49608672 4278454792
0.47404993 -0.0057789758 0.49592784 4278455045
0.47409874 -0.0065011233 0.495729 4278585861
0.47407579 -0.0071647912 0.49557012 4278717447
0.4741275 -0.0078829452 0.49537128 4278651654
0.47410715 -0.0085430443 0.49521238 4278651654
0.47408801 -0.0092014521 0.4950535 4278651654
0.47399622 -0.0098026618 0.49493456 4278651654
0.47390535 -0.010402612 0.49481565 4278585861
0.47381538 -0.011001289 0.49469674 4278717447
0.47365203 -0.011543818 0.49461779 4278717447
0.47356373 -0.012140192 0.49449885 4278783240
0.47340173 -0.012680814 0.4944199 4278651654
0.47324038 -0.013220608 0.49434096 4278717194
0.47307956 -0.013759561 0.49426198 4278651401
0.47299445 -0.014351524 0.49414304 4278717194
0.47291028 -0.014942214 0.4940241 4278717194
0.47282696 -0.015531652 0.49390516 4278585608
0.47266906 -0.016066611 0.49382618 4278585608
0.47258741 -0.016653731 0.49370724 4278585608
0.4725067 -0.0172396 0.4935883 4278717196
0.47235096 -0.017771617 0.49350932 4278651403
0.47227186 -0.018355168 0.49339035 4278585612
0.47219372 -0.018937454 0.49327141 4278585610
0.47204006 -0.019466527 0.4931924 4278585608
0.47196361 -0.02004651 0.49307346 4278651654
0.47188804 -0.020625226 0.49295449 4278717447
0.47173649 -0.021151364 0.49287549 4278651654
0.47166258 -0.021727771 0.49275652 4278651654
0.47151244 -0.022252001 0.49267751 4278585861
0.4714402 -0.022826098 0.49255854 4278651654
0.47129136 -0.023348451 0.49247956 4278651654
0.47114319 -0.023869947 0.49240053 4278454275
0.47107336 -0.024440676 0.49228156 4278585861
0.47092652 -0.024960294 0.49220255 4278782470
0.47070217 -0.025429428 0.49216354 4278782470
0.47055641 -0.025947571 0.49208453 4278782470
0.47041124 -0.02646488 0.49200553 4278585861
0.47026664 -0.026981331 0.49192652 4278585861
0.47012269 -0.027496956 0.49184752 4278520838
0.46997935 -0.028011747 0.49176848 4278455045
0.46983659 -0.02852568 0.49168947 4278455045
0.46977359 -0.029086955 0.49157047 4278585861
0.46963221 -0.029599011 0.49149144 4278454275
0.4695709 -0.030157976 0.49137241 4278585861
0.46943086 -0.030668125 0.4912934 4278585861
0.4693712 -0.031224772 0.4911744 4278585608
0.46923256 -0.031733043 0.49109536 4278585608
0.46917456 -0.032287389 0.49097633 4278651401
0.46911746 -0.032840461 0.4908573 4278717194
0.46898094 -0.033345789 0.49077827 4278585861
0.46892554 -0.033896551 0.49065924 4278585861
0.46879035 -0.034399986 0.4905802 4278585608
0.46865577 -0.03490258 0.49050117 4278585608
0.4685218 -0.035404325 0.4904221 4278585608
0.46846956 -0.035950683 0.49030304 4278585608
0.4682557 -0.036405317 0.490264 4278585610
0.46820498 -0.036949567 0.49014497 4278585608
0.46807361 -0.037447736 0.4900659 4278651401
0.46786109 -0.037900485 0.49002683 4278782470
0.46781263 -0.038441569 0.4899078 4278782470
0.46768308 -0.038937233 0.48982874 4278716677
0.46763629 -0.039476022 0.48970968 4278848004
0.46750808 -0.039969787 0.48963061 4278979590
0.46738046 -0.040462703 0.48955154 4278782468
0.46725348 -0.040954791 0.48947248 4278585089
0.46720991 -0.041489169 0.48935342 4278585089
0.46708426 -0.041979373 0.48927432 4278782468
0.46695924 -0.042468712 0.48919529 4278585859
0.46683481 -0.042957224 0.48911619 4278585861
0.4666276 -0.043402605 0.48907712 4278585608
0.46650428 -0.043889642 0.48899803 4278454022
0.46629781 -0.044333979 0.48895895 4278585608
0.46609166 -0.044777885 0.48891988 4278585608
0.46588582 -0.045221373 0.48888081 4278585861
0.4657644 -0.045705676 0.48880172 4278454275
0.46555933 -0.046148121 0.48876265 4278651654
0.46543902 -0.046630949 0.48868358 4278585861
0.4652347 -0.047072344 0.48864448 4278716677
0.46511543 -0.047553703 0.48856539 4278716677
0.46499676 -0.048034228 0.48848629 4278716677
0.46487868 -0.048513919 0.48840719 4278716675
0.46476126 -0.04899276 0.4883281 4278782468
0.46464443 -0.049470767 0.488249 4278716675
0.46452817 -0.049947917 0.48816991 4278716675
0.46432686 -0.05038511 0.48813081 4278454273
0.4642117 -0.050860792 0.48805171 4278585859
0.46401113 -0.051296934 0.48801261 4278585861
0.46389705 -0.051771149 0.48793352 4278585861
0.46369725 -0.052206241 0.48789442 4278585861
0.46358418 -0.05267898 0.48781532 4278585861
0.46338516 -0.053113014 0.48777622 4278520838
0.46327317 -0.053584293 0.48769709 4278520838
0.46307492 -0.054017276 0.48765799 4278455045
0.46296397 -0.054487079 0.48757887 4278455045
0.46285367 -0.054956049 0.48749974 4278454275
0.46265659 -0.05538734 0.48746064 4278585861
0.46254733 -0.055854842 0.48738152 4278651654
0.46235102 -0.056285083 0.48734242 4278651652
0.46224281 -0.056751117 0.48726329 4278585859
0.46213523 -0.057216294 0.48718417 4278585861
0.46202821 -0.057680637 0.48710504 4278585861
0.46192184 -0.058144137 0.48702589 4278585861
0.46181607 -0.058606803 0.48694676 4278717699
0.46171087 -0.059068628 0.48686761 4278586113
0.46160632 -0.059529603 0.48678848 4278716929
0.46150234 -0.059989735 0.48670936 4278782468
0.46130997 -0.060414523 0.48667023 4278651654
0.46120709 -0.060873196 0.4865911 4278585861
0.46110481 -0.061331026 0.48651195 4278717447
0.46091366 -0.061754122 0.48647282 4278717447
0.4607228 -0.062176805 0.48643368 4278717445
0.46053225 -0.06259907 0.48639455 4278585859
0.46043193 -0.063054159 0.48631543 4278520838
0.46024215 -0.063475385 0.48627627 4278586631
0.45996246 -0.063863337 0.48627719 4278520838
0.45977312 -0.064283922 0.48623806 4278455045
0.45958412 -0.064704075 0.48619893 4278717194
0.45939538 -0.065123826 0.4861598 4278717447
0.45920697 -0.065543145 0.48612067 4278717196
0.45901883 -0.065962031 0.48608154 4278717198
0.45883101 -0.066380516 0.48604238 4278782991
0.45855224 -0.066767216 0.4860433 4278717196
0.45836487 -0.067185059 0.48600417 4278717194
0.4581778 -0.067602493 0.48596501 4278651654
0.45799106 -0.068019509 0.48592588 4278979847
0.4578965 -0.068466604 0.4858467 4278914054
0.4577105 -0.06888257 0.48580757 4278717445
0.45761698 -0.069328204 0.48572838 4278783238
0.45752406 -0.069773003 0.48564923 4278783240
0.45743179 -0.070216954 0.48557004 4278717447
0.45724747 -0.07063061 0.48553091 4278783240
0.45697063 -0.071014568 0.48553181 4278848780
0.45678675 -0.071427584 0.48549265 4278848780
0.4566032 -0.071840182 0.48545349 4278913805
0.45641994 -0.072252356 0.48541433 4278782987
0.45623696 -0.072664104 0.4853752 4278782987
0.45605427 -0.073075444 0.48533607 4278585859
0.45587194 -0.073486358 0.48529691 4278783238
0.45568988 -0.073896848 0.48525774 4278782737
0.45550814 -0.07430692 0.48521858 4278848782
0.45542082 -0.074743941 0.4851394 4278783240
0.45533413 -0.075180128 0.48506021 4278717447
0.45524806 -0.075615466 0.484981 4278914826
0.4553518 -0.076103441 0.48482174 4278652424
0.45526722 -0.076536685 0.48474252 4278586631
0.45499343 -0.076916441 0.48474339 4278914826
0.4548147 -0.077322304 0.48470423 4278914826
0.45454109 -0.077701852 0.48470512 4278849033
0.45445818 -0.078132793 0.48462591 4278849033
0.45437586 -0.078562871 0.48454669 4278848780
0.45419854 -0.078966856 0.48450753 4279045383
0.45402145 -0.079370409 0.48446834 4279176199
0.45374873 -0.079748705 0.48446923 4279241992
0.45357215 -0.080151632 0.48443007 4279373329
0.45329958 -0.080529712 0.48443094 4279505164
0.44905573 -0.090049446 0.48353064 4279180051
0.44878665 -0.09042269 0.48353148 4279246096
0.44861776 -0.090814903 0.48349229 4279246096
0.44844919 -0.091206692 0.48345309 4279246096
0.44818044 -0.091579519 0.48345396 4279246096
0.48254287 0.068479463 0.51231527 4283519307
0.48239771 0.067647114 0.51215589 4282530359
0.48219562 0.066893563 0.51203668 4280953382
0.48205271 0.066064373 0.5118773 4280821796
0.48185259 0.065313533 0.51175803 4280558881
0.48177058 0.064411044 0.51155847 4280361249
0.48169005 0.063510641 0.51135892 4280361500
0.48166996 0.062536284 0.51111925 4280098328
0.48159263 0.061640292 0.51091969 4279506961
0.48157603 0.060670748 0.51067996 4279506961
0.48150185 0.059779182 0.51048034 4279112203
0.4814887 0.058814511 0.51024061 4279046412
0.48153707 0.057777345 0.50996077 4279046412
0.48146793 0.056892693 0.50976115 4279112203
0.48146024 0.055935577 0.50952142 4279112203
0.48151451 0.054906607 0.50924146 4279112203
0.48139009 0.054103062 0.50908202 4279177996
0.4813273 0.053227231 0.50888246 4279243019
0.48132661 0.052279785 0.50864267 4279243019
0.4812063 0.051481918 0.50848317 4279045640
0.48114806 0.05061239 0.50828356 4278914573
0.48103029 0.049818099 0.50812411 4279046159
0.48097494 0.048952579 0.50792444 4279046159
0.48092109 0.048089162 0.50772482 4278915343
0.4808073 0.047300324 0.50756538 4278717964
0.48081794 0.046368644 0.50732553 4278783757
0.48070687 0.045583591 0.50716603 4278915343
0.48065895 0.044728354 0.50696641 4278717964
0.48055044 0.043946892 0.50680691 4278783757
0.48050538 0.043095648 0.50660723 4278717964
0.48046184 0.042246535 0.50640756 4278914573
0.48041981 0.041399494 0.50620788 4278914573
0.48044199 0.040483788 0.50596803 4278914826
0.48027745 0.03978233 0.50584865 4278783240
0.48017684 0.039011791 0.50568914 4278849031
0.48014057 0.038172752 0.50548947 4278717445
0.48010582 0.037335828 0.50528979 4278849031
0.48000914 0.036570728 0.50513023 4278783238
0.47997725 0.035737798 0.5049305 4278914826
0.47981942 0.035045594 0.50481111 4278914826
0.47972637 0.03428556 0.50465161 4278848780
0.4796986 0.033458278 0.50445187 4278914573
0.47967231 0.032633111 0.50425214 4279046159
0.47964755 0.031810045 0.5040524 4278848780
0.47968882 0.030920818 0.50381249 4278782987
0.47966725 0.030102164 0.50361276 4278717194
0.47958237 0.029353455 0.5034532 4278782987
0.47949874 0.028606459 0.50329363 4278914573
0.4794814 0.027793676 0.50309384 4278848782
0.47940034 0.027050242 0.50293428 4278782987
0.47938585 0.026241466 0.50273448 4278783240
0.47924179 0.025568396 0.50261509 4278717447
0.47916436 0.024829999 0.50245547 4278849033
0.47908813 0.024093285 0.50229585 4278783240
0.47901312 0.023358241 0.50213623 4278717447
0.47900549 0.022558928 0.50193644 4278717447
0.47893304 0.021827474 0.50177687 4278717447
0.47886181 0.021097675 0.50161725 4278717447
0.4787918 0.020369589 0.50145763 4278849033
0.47865623 0.019708291 0.50133818 4278717447
0.47858846 0.018983349 0.5011785 4278717447
0.47852194 0.018260077 0.50101888 4278717447
0.47838938 0.01760298 0.50089943 4278717447
0.47832513 0.016882867 0.50073981 4278783240
0.47819456 0.016228512 0.50062031 4278717194
0.47799718 0.01563926 0.50054103 4278717194
0.47793615 0.014923573 0.50038135 4278913803
0.4778083 0.014272988 0.5002619 4278848263
0.47774947 0.013560444 0.50010222 4278914056
0.47769189 0.012849584 0.49994257 4278914056
0.47756708 0.012203202 0.49982309 4278849033
0.47744316 0.011558086 0.49970362 4278717447
0.47738889 0.010851845 0.49954394 4278717447
0.47726697 0.010209471 0.49942446 4278717194
0.47714591 0.0095683485 0.49930495 4278782987
0.47702578 0.0089284778 0.49918544 4278717194
0.47697592 0.0082283467 0.49902576 4278717194
0.47685778 0.0075912029 0.49890625 4278717194
0.47681016 0.0068942159 0.49874654 4278717194
0.47669399 0.0062598139 0.49862704 4278782987
0.47664869 0.0055659711 0.49846733 4278782987
0.47653446 0.0049343109 0.49834782 4278782987
0.47642115 0.0043039024 0.49822828 4278782987
0.47637916 0.003614679 0.49806857 4278651403
0.47633839 0.0029271543 0.49790886 4278717447
0.47622812 0.0023009479 0.49778932 4278717447
0.47604787 0.0017354488 0.49770999 4278717447
0.47586825 0.001170814 0.49763063 4278717194
0.47568923 0.0006069988 0.49755126 4278717194
0.47558212 -1.4789402e-05 0.49743176 4278782987
0.47547597 -0.00063531101 0.49731219 4278651654
0.47529906 -0.0011961758 0.49723285 4278651654
0.47519454 -0.0018143952 0.49711329 4278651654
0.47494707 -0.0023153871 0.49707413 4278717447
0.47484407 -0.002931498 0.49695456 4278651654
0.47466975 -0.0034887865 0.4968752 4278585861
0.47449249 -0.0081515089 0.49575683 4278717447
0.47447205 -0.0088108927 0.49559703 4278717447
0.47445276 -0.0094685853 0.49543726 4278717447
0.474361 -0.010069147 0.49531767 4278717447
0.47434402 -0.01072368 0.49515787 4278717447
0.47418013 -0.011266477 0.49507847 4278651654
0.47409105 -0.011863261 0.49495888 4278717447
0.47392857 -0.012404151 0.49487948 4278651654
0.47376665 -0.012944214 0.49480009 4278651401
0.47360536 -0.013483435 0.49472067 4278651401
0.4734447 -0.014021814 0.49464124 4278651401
0.47335953 -0.014613122 0.49452165 4278717194
0.4732753 -0.015203178 0.49440202 4278717194
0.47319204 -0.015791968 0.49428242 4278651401
0.4731096 -0.01637949 0.4941628 4278585608
0.47295257 -0.016912833 0.49408337 4278585610
0.47287184 -0.017498054 0.49396372 4278717196
0.47279203 -0.018082008 0.49384409 4278585612
0.47263709 -0.018612392 0.4937647 4278454026
0.47255892 -0.019194044 0.49364504 4278585610
0.4724817 -0.01977443 0.49352542 4278585608
0.47232887 -0.020301878 0.49344599 4278585608
0.47225329 -0.020879954 0.49332634 4278717194
0.47210187 -0.021405511 0.49324691 4278651401
0.47202796 -0.021981262 0.49312723 4278651401
0.47187784 -0.022504941 0.4930478 4278585608
0.47180563 -0.023078389 0.49292815 4278651401
0.47165692 -0.023600161 0.49284869 4278651654
0.47158629 -0.024171293 0.49272904 4278454275
0.47143894 -0.024691179 0.49264959 4278585861
0.47121435 -0.025160447 0.49261034 4278716677
0.47114605 -0.025728434 0.49249068 4278716677
0.47100052 -0.026245788 0.49241123 4278782470
0.47085559 -0.026762322 0.49233177 4278585091
0.47071129 -0.027277999 0.49225232 4278585091
0.47056752 -0.027792841 0.49217284 4278520838
0.47042441 -0.028306842 0.49209338 4278585861
0.47028193 -0.028819993 0.49201393 4278454022
0.47021908 -0.029380418 0.49189425 4278651654
0.47007793 -0.029891692 0.49181476 4278454275
0.47001672 -0.030449793 0.49169508 4278651654
0.46987695 -0.030959167 0.49161559 4278585861
0.46981746 -0.031514965 0.49149591 4278454022
0.46975884 -0.032069489 0.49137622 4278585608
0.46962118 -0.032575928 0.49129671 4278651401
0.46956423 -0.033128157 0.49117702 4278585861
0.46942794 -0.033632696 0.49109751 4278651654
0.46937266 -0.034182601 0.49097782 4278585861
0.46923774 -0.034685254 0.49089834 4278585861
0.4691034 -0.035187073 0.49081883 4278585608
0.4689697 -0.035688043 0.49073935 4278651403
0.46891761 -0.036233537 0.49061963 4278651403
0.46870404 -0.036687464 0.49058035 4278585610
0.46857214 -0.037185907 0.49050084 4278585610
0.46844089 -0.037683517 0.49042135 4278585608
0.46839181 -0.038224809 0.49030161 4278651654
0.46818009 -0.038676202 0.49026233 4278716677
0.46813256 -0.039215401 0.49014258 4278585091
0.46800381 -0.039709434 0.49006307 4278716677
0.46787572 -0.040202625 0.48998356 4278782470
0.46774819 -0.040694982 0.48990405 4278716677
0.46770385 -0.041229762 0.4897843 4278716677
0.4675777 -0.041720226 0.48970479 4278716677
0.46745217 -0.042209841 0.48962528 4278782468
0.46732724 -0.042698622 0.48954576 4278782468
0.4672029 -0.04318656 0.48946622 4278585861
0.46699589 -0.043631449 0.48942691 4278651654
0.46687263 -0.044117913 0.4893474 4278454022
0.46674997 -0.044603541 0.48926789 4278585608
0.46654415 -0.045046747 0.48922858 4278585608
0.46633869 -0.045489535 0.48918927 4278585861
0.46621752 -0.045973063 0.48910975 4278651654
0.46601278 -0.046414793 0.48907042 4278585861
0.46589273 -0.046896845 0.4889909 4278585861
0.46577322 -0.047378063 0.48891136 4278716677
0.46565437 -0.047858439 0.48883182 4278651654
0.4654513 -0.04829786 0.48879251 4278585861
0.46533346 -0.048776768 0.48871297 4278585091
0.46521628 -0.049254827 0.48863339 4278782470
0.46509966 -0.049732044 0.48855388 4278716677
0.4649837 -0.05020842 0.48847431 4278716677
0.46478271 -0.050644904 0.48843497 4278585089
0.4646678 -0.051119812 0.48835546 4278585861
0.46455348 -0.051593885 0.48827589 4278585861
0.46435374 -0.052028671 0.48823655 4278585861
0.4641543 -0.052463055 0.48819724 4278585861
0.46404147 -0.052935019 0.48811767 4278651654
0.46384281 -0.053368352 0.48807836 4278585861
0.46373105 -0.053838849 0.48799878 4278520585
0.46361992 -0.054308504 0.48791921 4278323206
0.46342245 -0.054740146 0.4878799 4278454792
0.46331239 -0.055208333 0.48780033 4278651654
0.46320289 -0.055675671 0.48772076 4278651654
0.46309406 -0.056142181 0.48764116 4278585861
0.46298578 -0.056607842 0.48756158 4278651654
0.46287811 -0.057072662 0.48748201 4278651654
0.46277106 -0.057536647 0.48740244 4278716677
0.4626646 -0.05799979 0.48732287 4278585861
0.46255875 -0.058462091 0.48724326 4278585861
0.46245351 -0.058923542 0.48716369 4278651652
0.46234888 -0.059384175 0.48708409 4278782722
0.4621563 -0.059809089 0.48704475 4278848515
0.46214145 -0.060302891 0.48692492 4278914054
0.46194977 -0.060726546 0.48688555 4278454275
0.46193644 -0.061218232 0.48676574 4278716677
0.46174565 -0.061640635 0.48672637 4278651654
0.46155515 -0.062062617 0.48668703 4278585861
0.46136495 -0.062484171 0.48664767 4278585859
0.46117508 -0.062905304 0.48660833 4278585859
0.46098548 -0.063326031 0.48656896 4278717447
0.46079621 -0.063746318 0.48652962 4278586631
0.46060723 -0.064166188 0.48649025 4278455045
0.46041855 -0.064585648 0.48645091 4278520838
0.46013975 -0.064972341 0.4864518 4278651654
0.46004212 -0.065423295 0.4863722 4278651401
0.45976362 -0.06580957 0.4863731 4278651401
0.45957601 -0.066227555 0.48633373 4278651403
0.45929766 -0.066613622 0.48633462 4278585610
0.4591105 -0.067030981 0.48629525 4278717198
0.45901495 -0.067478985 0.48621565 4278651403
0.45892003 -0.067926154 0.48613602 4278651654
0.4587341 -0.068341821 0.48609668 4278783492
0.45854843 -0.06875708 0.48605728 4278717699
0.45854697 -0.069232382 0.48593742 4278848515
0.45836222 -0.069646373 0.48589805 4278717699
0.45827001 -0.070089757 0.48581842 4278717445
0.45808601 -0.070502698 0.48577905 4278717447
0.45790234 -0.070915207 0.48573968 4278717194
0.45762628 -0.071298122 0.48574057 4278782987
0.45753592 -0.071739003 0.48566091 4278782989
0.45726013 -0.072121486 0.4856618 4278717194
0.45707756 -0.072532535 0.48562244 4278849033
0.45689523 -0.072943166 0.48558307 4278783238
0.4567132 -0.073353373 0.48554367 4278717445
0.45653152 -0.073763162 0.4855043 4278783238
0.45644385 -0.074200243 0.48542467 4279111952
0.45635679 -0.074636482 0.48534501 4278849033
0.45636439 -0.07509917 0.48522511 4278783240
0.45627871 -0.075533524 0.48514545 4278783240
0.45609927 -0.075940154 0.48510608 4278783240
0.45601463 -0.076373033 0.48502642 4278717447
0.45583597 -0.07677862 0.48498702 4278717447
0.4556576 -0.077183783 0.48494765 4278849033
0.4554795 -0.077588528 0.48490825 4278849033
0.45530176 -0.077992857 0.48486888 4278849033
0.45512429 -0.078396752 0.48482949 4278849033
0.45494711 -0.078800231 0.48479009 4278849033
0.45457914 -0.079152927 0.48483121 4278913546
0.45440227 -0.079555981 0.48479182 4279045132
0.45412987 -0.079933852 0.48479271 4279045132
0.45385742 -0.080311716 0.48479357 4279373331
0.45368117 -0.080713928 0.4847542 4279373580
0.45360154 -0.081139877 0.48467451 4279045383
0.45352253 -0.081564993 0.48459485 4279110675
0.4533475 -0.081965521 0.48455545 4279044882
0.44978076 -0.08943674 0.48392752 4279243791
0.44971099 -0.089849032 0.48384783 4279177998
0.44954202 -0.090241164 0.4838084 4279112205
0.44927341 -0.090613775 0.48380926 4279310865
0.44920495 -0.091024168 0.48372954 4279310865
0.44883639 -0.091377683 0.4837707 4279310865
0.4485679 -0.091750093 0.48377156 4279310865
0.44839996 -0.092140757 0.48373216 4279310865
0.44833308 -0.092549041 0.48365244 4279310865
0.48321444 0.069805339 0.51311374 4287533191
0.48295155 0.069125667 0.51303422 4286809214
0.48274702 0.068369403 0.5129143 4283716686
0.48254341 0.067614377 0.51279438 4282926141
0.48239872 0.066783607 0.51263416 4281281575
0.48225528 0.065954521 0.51247382 4280952610
0.48205465 0.065203682 0.5123539 4280624417
0.48191345 0.064377755 0.51219362 4280492831
0.48183215 0.063477293 0.51199293 4280361249
0.48186988 0.062427014 0.51171154 4280164121
0.48173293 0.061606959 0.5115512 4279506191
0.48171538 0.060637459 0.51131016 4279506191
0.4816404 0.059745833 0.51110947 4279440398
0.48162633 0.058781192 0.51086837 4279177998
0.48161411 0.057819054 0.51062727 4279177998
0.48160368 0.056859449 0.51038623 4278914824
0.48159504 0.055902347 0.51014513 4278914824
0.48158827 0.054947779 0.50990403 4279112203
0.48146296 0.054143906 0.50974369 4279177996
0.48145953 0.053193957 0.50950253 4279046410
0.48139745 0.052320197 0.50930184 4279177226
0.48127621 0.051521987 0.50914145 4279243021
0.48127776 0.050578982 0.50890034 4279046412
0.4811593 0.049784571 0.50873995 4279046412
0.48104206 0.048991844 0.50857961 4278848780
0.48104846 0.048055544 0.50833845 4278848780
0.4809339 0.047266588 0.50817806 4278914573
0.48094362 0.046334937 0.50793689 4279046159
0.48083186 0.04554975 0.5077765 4278981136
0.48078308 0.044694498 0.50757575 4278783757
0.48073584 0.043841332 0.507375 4278717964
0.48069009 0.042990267 0.50717419 4278782987
0.48058361 0.042212442 0.5070138 4278914573
0.48060316 0.041294456 0.50677258 4278914573
0.48056197 0.040449709 0.50657177 4278848780
0.48045957 0.039677545 0.50641137 4278782987
0.48042125 0.038836792 0.50621057 4278782987
0.48032141 0.03806822 0.50605011 4278979849
0.48022282 0.037301332 0.50588971 4279045640
0.48018873 0.036466464 0.50568891 4278783238
0.48015618 0.035633683 0.50548804 4278783238
0.47999787 0.034941509 0.50536799 4278849031
0.47996804 0.034112513 0.50516713 4278848780
0.47987577 0.033354446 0.50500667 4278914573
0.47991294 0.032460824 0.50476545 4278914573
0.47988766 0.031638131 0.50456458 4278914573
0.47986388 0.030817553 0.50436378 4278782987
0.47984162 0.029999062 0.50416291 4278782987
0.47982091 0.029182687 0.50396204 4278848780
0.47973683 0.028435975 0.50380152 4278848782
0.47971898 0.027623579 0.50360066 4278782989
0.47963747 0.026880443 0.5034402 4278782987
0.47962248 0.02607204 0.50323927 4278783240
0.47954357 0.025332466 0.50307882 4278783240
0.47940025 0.024661094 0.50295866 4278849033
0.47932363 0.023924679 0.5027982 4278783240
0.47924817 0.023189947 0.50263768 4278717447
0.47924 0.022391006 0.50243676 4278782987
0.47916716 0.021659851 0.50227624 4278717194
0.47909552 0.020930365 0.50211573 4278717194
0.47902507 0.020202562 0.50195521 4278783240
0.47888917 0.019541487 0.50183511 4278717447
0.47882098 0.018816859 0.50167453 4278783240
0.47875404 0.018093899 0.50151402 4278717447
0.47868833 0.017372593 0.5013535 4278783240
0.47855651 0.01671721 0.50123334 4278783240
0.47842562 0.016063064 0.50111324 4278717194
0.47829562 0.0154102 0.50099307 4278717194
0.47816658 0.014758587 0.50087291 4278717194
0.47810626 0.014044866 0.50071239 4278914056
0.47804719 0.013332829 0.50055182 4278848263
0.47792116 0.012685418 0.50043166 4278848263
0.47779602 0.012039274 0.50031149 4278914056
0.47774029 0.011331871 0.50015092 4278783240
0.47761708 0.010688439 0.50003076 4278717447
0.47749484 0.010046288 0.49991059 4278848780
0.47737348 0.0094053894 0.49979043 4278914573
0.47732216 0.0087040812 0.49962986 4278782987
0.47727203 0.0080044419 0.49946928 4278717194
0.47715372 0.007367745 0.49934909 4278651401
0.47710583 0.0066712648 0.49918848 4278717194
0.47698948 0.0060373098 0.49906829 4278717194
0.47687405 0.0054046065 0.4989481 4278651401
0.47675949 0.0047731698 0.49882793 4278782987
0.47671604 0.0040827841 0.4986673 4278717196
0.47667378 0.0033940822 0.4985067 4278782989
0.47663277 0.0027070493 0.49834609 4278783240
0.47645169 0.0021408647 0.49826628 4278914826
0.47634202 0.0015161484 0.49814609 4278783240
0.47616231 0.00095185637 0.49806628 4278651654
0.47598326 0.00038841367 0.4979865 4278651401
0.47580478 -0.00017419457 0.49790668 4278717194
0.47569829 -0.00079448521 0.49778646 4278651401
0.47559267 -0.0014135242 0.49766624 4278651401
0.4748365 -0.0090784281 0.49598083 4280296729
0.47474366 -0.0096798092 0.49586055 4280230938
0.47472531 -0.010335311 0.49569988 4279308557
0.47470823 -0.010989144 0.49553919 4278979849
0.47454444 -0.01153136 0.49545932 4278717447
0.47445536 -0.012127481 0.49533904 4278585861
0.47429293 -0.01266782 0.4952592 4278651401
0.47413117 -0.013207309 0.49517936 4278651401
0.47396994 -0.013745956 0.49509948 4278651401
0.47380936 -0.014283769 0.49501961 4278585608
0.47372419 -0.014874429 0.49489933 4278651401
0.47363997 -0.015463836 0.49477905 4278651401
0.47355667 -0.016051985 0.49465877 4278585608
0.47347426 -0.016638868 0.49453849 4278585608
0.47339275 -0.017224491 0.49441817 4278585610
0.47323656 -0.017756201 0.49433827 4278717198
0.47315669 -0.018339507 0.49421799 4278585612
0.47300187 -0.018869333 0.49413812 4278717198
0.4729237 -0.019450337 0.49401778 4278585610
0.47284645 -0.020030066 0.4938975 4278651401
0.47269374 -0.020556942 0.4938176 4278585861
0.47261813 -0.021134369 0.49369729 4278651654
0.47246677 -0.021659367 0.49361742 4278651654
0.47239286 -0.022234477 0.49349707 4278585608
0.47224286 -0.022757575 0.4934172 4278585608
0.47217062 -0.023330376 0.49329686 4278585608
0.47209924 -0.02390191 0.49317652 4278651401
0.47195137 -0.024422064 0.49309662 4278454022
0.47180414 -0.024941385 0.49301672 4278585608
0.47165745 -0.025459856 0.49293682 4278782470
0.4715893 -0.026026979 0.49281648 4278782470
0.47144401 -0.026543565 0.49273658 4278782470
0.47122115 -0.027010232 0.49269712 4278585091
0.47115523 -0.027574211 0.49257675 4278585861
0.47101176 -0.028088264 0.49249685 4278585861
0.47086889 -0.028601483 0.49241692 4278454275
0.47080541 -0.029162094 0.49229658 4278585608
0.47066391 -0.029673427 0.49221665 4278651654
0.470523 -0.030183911 0.49213672 4278454275
0.47046196 -0.03074117 0.49201638 4278651654
0.47032243 -0.031249754 0.49193645 4278585608
0.47034258 -0.03185188 0.49177563 4278454022
0.47020459 -0.032358371 0.4916957 4278585610
0.47014701 -0.032910794 0.4915753 4278651401
0.47009036 -0.033461943 0.49145496 4278585608
0.46995446 -0.033965498 0.491375 4278717194
0.46981919 -0.034468211 0.49129507 4278585861
0.46976495 -0.035016 0.49117467 4278585861
0.46955043 -0.035471112 0.49113518 4278585608
0.46941692 -0.035971291 0.49105525 4278651403
0.46928406 -0.036470652 0.49097529 4278585610
0.46915179 -0.036969155 0.49089533 4278585610
0.46902013 -0.037466824 0.4908154 4278585610
0.46888909 -0.037963651 0.49073544 4278585608
0.46875864 -0.038459629 0.49065548 4278651654
0.46862879 -0.03895478 0.49057552 4278716677
0.46849957 -0.039449088 0.49049556 4278585091
0.46837091 -0.03994254 0.4904156 4278716677
0.46824291 -0.040435165 0.49033564 4278716677
0.46819779 -0.040970355 0.49021524 4278585091
0.46807113 -0.041461095 0.49013525 4278782470
0.4679451 -0.041950971 0.49005529 4278716675
0.46781963 -0.042440027 0.48997533 4278782468
0.46769479 -0.042928234 0.48989534 4278782468
0.46757054 -0.043415606 0.48981535 4278651652
0.46744692 -0.043902144 0.48973539 4278651654
0.4673239 -0.044387817 0.48965544 4278585608
0.46711802 -0.044830948 0.48961589 4278585608
0.46699604 -0.045315161 0.48953593 4278454022
0.46679091 -0.045757249 0.48949638 4278454275
0.46667001 -0.046239987 0.48941639 4278651654
0.46654969 -0.046721891 0.4893364 4278454275
0.46643001 -0.04720296 0.48925644 4278782470
0.46622655 -0.047642723 0.48921689 4278782470
0.4661079 -0.048122324 0.48913687 4278585861
0.46598989 -0.048601069 0.48905689 4278585861
0.46587247 -0.049078986 0.4889769 4278585861
0.46567068 -0.049516432 0.48893738 4278716677
0.4655543 -0.049992874 0.48885736 4278585091
0.46543857 -0.050468475 0.48877737 4278782470
0.46532345 -0.050943241 0.48869735 4278585091
0.4651233 -0.051378377 0.48865783 4278454275
0.46492344 -0.051813096 0.48861825 4278454022
0.46480981 -0.052285761 0.48853827 4278585608
0.46461073 -0.052719429 0.48849872 4278585861
0.46449816 -0.053190619 0.4884187 4278585861
0.46438619 -0.053660959 0.48833868 4278585861
0.46418834 -0.054092944 0.48829913 4278585608
0.46416408 -0.054599129 0.48817867 4278454792
0.46396714 -0.055029854 0.48813909 4278454792
0.46385747 -0.05549705 0.48805907 4278520838
0.4637484 -0.055963412 0.48797905 4278651654
0.46363989 -0.056428917 0.48789904 4278585861
0.46353203 -0.056893587 0.48781902 4278716677
0.46342474 -0.057357423 0.48773897 4278716677
0.46331811 -0.05782041 0.48765895 4278585091
0.46329993 -0.058318183 0.48753846 4278585861
0.46319464 -0.058779284 0.48745841 4278585861
0.46300176 -0.05920434 0.48741883 4278585859
0.46298587 -0.059698962 0.48729831 4278782468
0.4628824 -0.060157537 0.48721829 4278848261
0.46286815 -0.060649849 0.48709777 4278848261
0.46258849 -0.061037809 0.48709866 4278585859
0.46248668 -0.061494067 0.48701862 4278717447
0.46229637 -0.061915562 0.48697904 4278651654
0.46210638 -0.062336616 0.48693949 4278585859
0.46191666 -0.062757254 0.48689991 4278651652
0.46172729 -0.063177481 0.48686033 4278651654
0.4615382 -0.063597277 0.48682073 4278717447
0.46143925 -0.064049557 0.48674068 4278651654
0.46125096 -0.064468302 0.4867011 4278651654
0.46106291 -0.06488663 0.48666152 4278585861
0.46078491 -0.065272272 0.48666242 4278651654
0.46059734 -0.065689974 0.48662281 4278651401
0.46041006 -0.066107258 0.48658323 4278651401
0.46031386 -0.066555731 0.48650318 4278585610
0.46012732 -0.066971965 0.48646358 4278651403
0.45994115 -0.06738776 0.486424 4278651405
0.45975524 -0.067803152 0.48638442 4278782989
0.45966101 -0.068248913 0.48630434 4278651654
0.45956737 -0.068693832 0.48622426 4278717699
0.45938268 -0.069107533 0.48618466 4278782722
0.4591983 -0.069520816 0.48614508 4278782722
0.45901421 -0.06993369 0.4861055 4278717699
0.45883042 -0.070346132 0.48606589 4278585859
0.45864695 -0.070758149 0.48602629 4278717447
0.45855618 -0.071199074 0.48594621 4278717194
0.45828089 -0.071580939 0.48594707 4278782987
0.45819104 -0.072020605 0.48586702 4278782987
0.45791605 -0.072402045 0.48586789 4278913803
0.45773408 -0.072811961 0.48582828 4278783240
0.45755243 -0.07322146 0.4857887 4278783240
0.45755774 -0.073686667 0.48566809 4278783240
0.45737699 -0.074094906 0.48562849 4278783240
0.45719656 -0.074502736 0.48558891 4278914826
0.4571102 -0.074937552 0.4855088 4278783240
0.45702446 -0.075371541 0.48542869 4278914056
0.45693928 -0.075804695 0.48534858 4278783240
0.45676053 -0.076210208 0.485309 4278783240
0.45667645 -0.076641887 0.4852289 4278717447
0.45649841 -0.077046335 0.48518926 4278914826
0.45622599 -0.077424213 0.48519015 4278914826
0.45604843 -0.077828035 0.48515052 4278783240
0.45577615 -0.07820569 0.48515141 4278849033
0.45559901 -0.0786089 0.48511177 4278783240
0.45542222 -0.079011664 0.48507217 4278849033
0.45515025 -0.079388916 0.48507303 4278913546
0.45497388 -0.079791054 0.48503342 4279045132
0.45470208 -0.080168083 0.48503429 4279045132
0.45452619 -0.080569603 0.48499468 4279110929
0.45435059 -0.080970705 0.48495504 4279045385
0.45417529 -0.081371367 0.48491544 4279111176
0.45400029 -0.081771635 0.4848758 4279110927
0.45382559 -0.08217147 0.48483616 4279045134
0.45365119 -0.082570873 0.48479655 4279176201
0.45347711 -0.082969859 0.48475692 4279241992
0.45090222 -0.088904344 0.48416239 4279308814
0.45073295 -0.089296609 0.48412275 4279440400
0.45046461 -0.08966881 0.48412362 4279309584
0.45029587 -0.090060443 0.48408398 4279046412
0.45002764 -0.090432428 0.48408484 4278981387
0.44965965 -0.090785384 0.48412621 4279178766
