# .PCD v0.7 - Point Cloud Data file format
VERSION 0.7
FIELDS x y z rgb
SIZE 4 4 4 4
TYPE F F F U
COUNT 1 1 1 1
WIDTH 1044
HEIGHT 1
VIEWPOINT 0 0 0 1 0 0 0
POINTS 1044
DATA ascii
0.44970191 0.043344244 0.57119805 4280033054
0.44985586 0.043896668 0.57117891 4279836445
0.45000923 0.044448256 0.57115972 4279902751
0.45026094 0.04496517 0.57115352 4279704859
0.45051229 0.045481652 0.57114726 4280098077
0.42250746 -0.013344981 0.57255203 4284373583
0.42279309 -0.012781315 0.57254618 4284307792
0.42307839 -0.012218066 0.57254034 4284307792
0.42344648 -0.011710875 0.57254744 4284045903
0.42373133 -0.011148266 0.57254159 4284111696
0.42409927 -0.010641284 0.57254863 4284177487
0.42446724 -0.010134302 0.57255572 4284177487
0.42483518 -0.0096273348 0.57256281 4284112205
0.42520314 -0.0091203526 0.57256991 4283914569
0.42557108 -0.0086133853 0.57257694 4284110665
0.42585486 -0.0080522373 0.5725711 4284176204
0.42622265 -0.0075454637 0.57257819 4284373583
0.42659044 -0.0070387051 0.57258523 4284110665
0.44521558 0.0048431978 0.57386017 4279309582
0.4453277 0.0055081025 0.5738284 4279178768
0.44543892 0.0061717257 0.57379657 4279309331
0.4456389 0.0067874715 0.57377779 4279178517
0.44565862 0.0074952319 0.57373285 4279375126
0.44594699 0.0080626681 0.57372713 4279375126
0.44614494 0.0086756721 0.5737083 4279244310
0.44634229 0.0092878714 0.57368946 4279703315
0.44653904 0.0098992065 0.57367057 4279506191
0.44691628 0.010418974 0.57367784 4279506710
0.44711208 0.011029057 0.573659 4279309331
0.44712561 0.011728205 0.57361394 4279310616
0.44731992 0.012336202 0.57359505 4279442204
0.44760478 0.012898825 0.57358921 4279442204
0.44788933 0.013461016 0.57358336 4279507997
0.44817355 0.014022797 0.57357752 4279573790
0.44845748 0.014584161 0.57357168 4279769112
0.44905561 0.027827904 0.57275701 4279440902
0.44941992 0.028329842 0.57276398 4279178250
0.44978419 0.028831787 0.57277101 4279244043
0.44995826 0.02941189 0.5727517 4279506710
0.45022696 0.029952295 0.57274556 4279309584
0.45059082 0.030453607 0.57275254 4279506963
0.45085907 0.03099338 0.5727464 4280233252
0.45112705 0.031532712 0.57274026 4280693803
0.45139471 0.032071643 0.57273406 4283786074
0.45166206 0.032610156 0.57272792 4284047961
0.45183295 0.033185847 0.57270855 4284441436
0.45200321 0.033760704 0.57268918 4284441690
0.44896173 0.038076617 0.57206482 4284441690
0.44863603 0.038818784 0.57197934 4281413163
0.44860038 0.039450221 0.57193339 4279769365
0.44875866 0.040008523 0.57191378 4279769365
0.44891626 0.040565975 0.57189417 4279638801
0.44907331 0.041122593 0.57187456 4279704594
0.4491317 0.041713469 0.57184172 4279835149
0.44938552 0.042233318 0.57183528 4279769112
0.4495407 0.042787433 0.57181561 4280098079
0.44969529 0.04334069 0.57179594 4280163872
0.44994789 0.043858863 0.5717895 4279968031
0.4502002 0.044376604 0.57178307 4279902751
0.45035326 0.044927776 0.57176334 4279639066
0.42250055 -0.013348706 0.57317919 4284504399
0.42278618 -0.01278504 0.57317311 4284373583
0.42323732 -0.012333505 0.57319337 4284373583
0.42352265 -0.011770256 0.57318729 4284308305
0.42389089 -0.011262856 0.57319432 4284242512
0.42425916 -0.010755457 0.57320142 4284242764
0.42462742 -0.010248072 0.57320851 4284242764
0.42499566 -0.009740673 0.5732156 4283980360
0.42544776 -0.0092878714 0.57323587 4283914567
0.42590016 -0.0088346526 0.57325613 4284110663
0.42635286 -0.0083810166 0.5732764 4285688675
0.42663729 -0.0078190342 0.57327032 4286543984
0.42709029 -0.007364966 0.57329059 4284373583
0.44538683 0.0047448352 0.57453388 4279178768
0.44540989 0.0054572001 0.57448804 4279244308
0.4455213 0.0061210468 0.57445544 4279440147
0.44563174 0.0067836419 0.57442284 4279309331
0.44583109 0.0073985383 0.57440352 4279375124
0.44602981 0.00801263 0.57438421 4279375124
0.44622791 0.0086258575 0.57436484 4279375126
0.44651568 0.0091924518 0.57435882 4279768857
0.44671273 0.0098042265 0.57433945 4279703062
0.44690919 0.010415152 0.57432008 4279834907
0.44710499 0.011025243 0.57430071 4279834907
0.44730023 0.011634491 0.57428128 4279639068
0.44749486 0.012242898 0.57426184 4280165162
0.44778001 0.012805946 0.57425576 4280099882
0.44904876 0.027824216 0.57337719 4279637252
0.44931823 0.028365649 0.57337081 4279374605
0.44958743 0.028906673 0.57336438 4279440398
0.44995141 0.029408194 0.57337141 4279506961
0.45022017 0.029948607 0.57336497 4279244559
0.45048857 0.03048858 0.5733586 4279507733
0.45094782 0.030951239 0.57337898 4280824104
0.45121592 0.031490795 0.57337254 4281613620
0.45138788 0.032067962 0.57335269 4284113756
0.45175126 0.032568648 0.57335973 4284243030
0.4519223 0.033144556 0.57333982 4284965983
0.44940731 0.038526036 0.57268947 4284768355
0.44869113 0.039410688 0.57254833 4279966487
0.44865447 0.040040664 0.57250136 4279769108
0.44881195 0.040597916 0.57248122 4279507731
0.44906667 0.041119017 0.57247454 4279573778
0.4492231 0.0416748 0.57245439 4279965706
0.44937891 0.042229749 0.57243425 4279768855
0.44963241 0.042749189 0.57242751 4280098079
0.44988561 0.043268196 0.57242084 4280163872
0.45013851 0.043786786 0.5724141 4280164642
0.45029235 0.044339009 0.57239389 4279902240
0.4507423 0.044788875 0.57241416 4279835675
0.42245513 -0.014085986 0.57385302 4284374096
0.42265886 -0.013464995 0.57383323 4284308044
0.42302758 -0.012956969 0.57384032 4284308044
0.42339629 -0.012448944 0.57384741 4284308044
0.42368191 -0.011885278 0.57384109 4284242251
0.42405045 -0.011377461 0.57384813 4284242764
0.42441902 -0.010869645 0.57385522 4284176969
0.42478758 -0.010361828 0.57386231 4284308555
0.4252398 -0.0099088177 0.57388288 4283914567
0.42569238 -0.0094554052 0.57390338 4283980360
0.42614526 -0.0090015456 0.57392395 4284176717
0.4265984 -0.0085472837 0.57394451 4290360758
0.42696756 -0.0080386326 0.5739516 4290426551
0.44558144 0.0053592399 0.57516176 4279244310
0.44569314 0.0060235262 0.57512844 4279309333
0.44571429 0.0067331716 0.57508147 4279309584
0.44591376 0.0073482916 0.57506162 4279375377
0.44611263 0.007962577 0.57504177 4279375377
0.44631091 0.008576028 0.57502192 4279375126
0.44641834 0.0092344284 0.57498848 4279768859
0.44670564 0.0098004043 0.57498217 4280031261
0.44699264 0.010365956 0.57497585 4280886318
0.44727933 0.010931097 0.57496953 4280162595
0.4488526 0.027899943 0.57397008 4279637254
0.4491218 0.028440982 0.5739634 4279308812
0.44958061 0.028902985 0.57398409 4279440398
0.44994459 0.029404514 0.57399106 4279442192
0.45030856 0.029906034 0.57399809 4279376145
0.45057714 0.030446239 0.57399142 4279573526
0.450941 0.030947559 0.57399839 4281217579
0.4511134 0.031525351 0.57397807 4281480751
0.45147693 0.032026239 0.57398504 4287664272
0.45174444 0.03256496 0.57397836 4286676350
0.449038 0.039894171 0.57315695 4279965204
0.44880533 0.040594347 0.57308149 4279638547
0.44896221 0.041150756 0.57306081 4279507985
0.44921649 0.041671239 0.5730539 4279966219
0.44947046 0.042191297 0.57304692 4279768855
0.44972411 0.042710938 0.57303995 4279900441
0.45007592 0.043195687 0.57304674 4280033056
0.45013189 0.043783225 0.57301229 4280098849
0.45058203 0.0442333 0.5730328 4279836447
0.42289984 -0.01363755 0.57450199 4284308303
0.42326897 -0.013128899 0.57450908 4284242510
0.42347229 -0.012508534 0.57448882 4284373837
0.42384115 -0.0120003 0.57449591 4284176971
0.42421001 -0.011492066 0.574503 4284242762
0.42449549 -0.010928608 0.57449639 4284308555
0.42494774 -0.010475598 0.57451719 4284505934
0.42540029 -0.010022171 0.57453799 4283980360
0.42585313 -0.0095683262 0.57455879 4284111178
0.42630631 -0.0091140792 0.5745796 4284242001
0.42675978 -0.0086594 0.5746004 4290689210
0.42721355 -0.0082043037 0.57462126 4288057490
0.42800546 -0.0079638138 0.57469696 4285029468
0.44557428 0.0053553954 0.57580888 4279309333
0.44568598 0.0060196742 0.57577479 4279309333
0.4458864 0.0066360608 0.5757544 4279309584
0.44599643 0.00729803 0.57572025 4279506961
0.44610554 0.00795874 0.5756861 4279506961
0.44639391 0.0085261986 0.57567954 4279639581
0.44659173 0.0091390163 0.57565916 4280033576
0.44687933 0.0097053945 0.5756526 4284703082
0.44707608 0.010316759 0.57563215 4290295735
0.44884577 0.027896248 0.57458973 4279506186
0.44911498 0.028437294 0.57458282 4279506445
0.44947881 0.028938606 0.57458985 4279506445
0.44993776 0.029400818 0.57461077 4279638296
0.45020649 0.029941238 0.5746038 4279376407
0.45057032 0.030442543 0.57461083 4279835158
0.4508386 0.030982323 0.57460392 4281083683
0.45120227 0.031483419 0.57461089 4283254852
0.45156598 0.031984523 0.57461786 4291939792
0.45183364 0.032523461 0.57461095 4291348682
0.44944483 0.040970646 0.57373041 4279769613
0.44940585 0.041597478 0.57368129 4279900426
0.44946384 0.042187728 0.57364613 4279769106
0.44981581 0.042672686 0.57365292 4279900692
0.45036468 0.043088704 0.57368767 4279967514
0.42277116 -0.014319427 0.57516521 4284111444
0.42305815 -0.013753869 0.57515836 4284308305
0.42342761 -0.013244785 0.57516551 4284242512
0.42371416 -0.012679867 0.57515866 4284308303
0.42408347 -0.012170993 0.57516575 4284046155
0.42428631 -0.011551239 0.57514495 4284046153
0.42465532 -0.011042796 0.57515204 4284243532
0.4251079 -0.010589384 0.57517308 4284375118
0.42556074 -0.010135554 0.57519412 4284046155
0.42601389 -0.0096812919 0.57521522 4284176717
0.42646736 -0.0092266127 0.57523632 4284307794
0.42692113 -0.0087715015 0.57525736 4289043868
0.42729092 -0.0082620159 0.57526445 4287135871
0.42799848 -0.0079675689 0.57532752 4285028698
0.44585782 0.0059221312 0.57644928 4279505940
0.4459689 0.0065855905 0.57641435 4279572756
0.44607908 0.0072477683 0.57637942 4279572754
0.44627827 0.007862471 0.57635856 4279704340
0.4489336 0.027852856 0.57522362 4279638029
0.44910812 0.028433613 0.57520223 4279506961
0.449377 0.028974213 0.57519507 4279572754
0.44974071 0.029475324 0.57520205 4279769882
0.45019966 0.02993755 0.57522327 4279507995
0.45056349 0.030438863 0.57523024 4280098330
0.45073622 0.031017095 0.57520884 4281740843
0.42280617 -0.015115939 0.57585835 4284045135
0.4230116 -0.014492638 0.57583708 4284307794
0.42329907 -0.013926439 0.57582998 4284176721
0.42358622 -0.013360672 0.57582289 4284176721
0.42387307 -0.012795322 0.5758158 4284176721
0.42424268 -0.012286045 0.57582289 4284045903
0.42452908 -0.01172132 0.5758158 4284111176
0.42489856 -0.011212252 0.57582289 4284506188
0.42518449 -0.010648154 0.5758158 4284769360
0.42563748 -0.0101941 0.57583714 4284242764
0.42617464 -0.0097942278 0.57587266 4284176208
0.42662841 -0.0093391314 0.575894 4284308055
0.42699832 -0.0088294372 0.57590115 4286610557
0.42745256 -0.0083737001 0.57592249 4285426283
0.42799151 -0.007971324 0.57595807 4284700503
0.4491961 0.0283904 0.57583612 4279376660
0.44937021 0.028970532 0.57581425 4279574039
0.44973385 0.029471636 0.57582122 4279639583
0.45009756 0.02997274 0.57582819 4279639583
0.45046127 0.030473843 0.57583523 4280492328
0.42312849 -0.015346505 0.57654673 4284242514
0.42333454 -0.01472234 0.57652497 4284241999
0.42362261 -0.014155321 0.57651764 4284045133
0.42391038 -0.013588704 0.57651025 4284045133
0.42411488 -0.012966655 0.57648849 4284110674
0.42440191 -0.012401097 0.5764811 4284110926
0.42468858 -0.01183594 0.57647377 4284111430
0.42497498 -0.011271216 0.57646638 4284637259
0.42534462 -0.010761939 0.57647347 4285032017
0.42579794 -0.010307468 0.57649511 4284308042
0.42633536 -0.0099071935 0.57653117 4284110415
0.42678943 -0.0094516799 0.57655275 4284111446
0.4272438 -0.0089957342 0.57657439 4285426283
0.42761418 -0.0084853992 0.57658148 4284768353
0.42815346 -0.0080826059 0.5766176 4284569431
0.42860872 -0.0076254085 0.57663924 4284176469
0.44982213 0.029428862 0.57645512 4279639070
0.45018598 0.029930182 0.57646209 4279639070
0.45054981 0.030431487 0.57646906 4281084719
0.42324346 -0.016202904 0.57725948 4284835426
0.42336845 -0.015520357 0.57722247 4284505434
0.42365742 -0.014952071 0.5772149 4284176206
0.42386347 -0.014327936 0.5771926 4284110413
0.4239862 -0.013648532 0.57715559 4283847241
0.4243567 -0.013137989 0.57716268 4283913036
0.42456108 -0.012516148 0.57714033 4283913549
0.42484811 -0.011950575 0.57713276 4283913547
0.42521816 -0.011440672 0.57713985 4284373837
0.42550474 -0.010875739 0.57713223 4285031767
0.42595834 -0.010420851 0.5771541 4284571468
0.42641225 -0.0099655464 0.57717597 4283913034
0.42686647 -0.0095098242 0.57719785 4284110415
0.42732099 -0.0090536699 0.57721972 4284373587
0.4277758 -0.0085971132 0.5772416 4284307794
0.42831537 -0.0081939027 0.5772782 4284307794
0.42885554 -0.0077898428 0.57731485 4284308307
0.42331865 -0.016263582 0.57790756 4285032552
0.42352608 -0.015637539 0.57788479 4284505434
0.42381537 -0.015068837 0.57787699 4283979858
0.42402175 -0.014444239 0.57785416 4283716940
0.42422751 -0.013820522 0.57783133 4283585354
0.42459852 -0.013309352 0.57783848 4283846989
0.42480335 -0.012686856 0.57781565 4283649610
0.42509082 -0.012120672 0.57780778 4283518024
0.42537796 -0.011554889 0.57779992 4283913549
0.42574835 -0.011044554 0.57780701 4285032030
0.42620242 -0.010589041 0.57782912 4284704083
0.42665678 -0.01013311 0.5778513 4283912266
0.42711145 -0.0096767619 0.57787341 4283911751
0.42748231 -0.0091658011 0.57788056 4284374348
0.42793742 -0.0087088272 0.57790267 4285756001
0.42839283 -0.0082514361 0.57792485 4284241997
0.42310363 -0.016894244 0.57856429 4287203715
0.42322952 -0.016210444 0.57852578 4285690735
0.4235191 -0.015641309 0.57851768 4285492581
0.4238084 -0.015072592 0.57850957 4283585352
0.42401478 -0.014448009 0.57848626 4282795586
0.42430329 -0.01388035 0.57847816 4283190344
0.42467445 -0.013368972 0.57848531 4283386953
0.42496252 -0.012801938 0.5784772 4283451461
0.42525029 -0.012235306 0.5784691 4283452231
0.42562112 -0.011724345 0.57847619 4283913295
0.42599195 -0.011213399 0.57848334 4285163362
0.42636281 -0.010702439 0.5784905 4285097821
0.42681748 -0.010246105 0.57851285 4283912266
0.42718846 -0.0097349361 0.57852 4283846473
0.4277277 -0.0093321279 0.57855767 4284109645
0.42809904 -0.0088205412 0.57856482 4285098073
0.42847031 -0.0083089545 0.57857198 4284176206
0.42909539 -0.007958062 0.5786249 4284241231
0.42293262 -0.016783766 0.57916725 4284174921
0.42314035 -0.016157292 0.5791434 4283320897
0.4235121 -0.015645079 0.57915056 4282795064
0.42380142 -0.015076362 0.57914221 4282137388
0.42409039 -0.014508046 0.57913387 4282202931
0.42437911 -0.013940178 0.57912552 4282202931
0.42475039 -0.013428591 0.57913268 4282598207
0.42503864 -0.012861364 0.57912427 4282860861
0.42540976 -0.012349986 0.57913142 4283189311
0.42569754 -0.011783369 0.57912308 4283781450
0.42606854 -0.011272199 0.57913017 4284176208
0.42643952 -0.01076103 0.57913733 4284109643
0.42689434 -0.010304473 0.57915998 4283912266
0.42726547 -0.0097930953 0.57916713 4283716686
0.42763662 -0.0092817172 0.57917428 4283979858
0.42826062 -0.0089322701 0.57922798 4283717715
0.4286322 -0.0084202662 0.57923514 4283914324
0.42908838 -0.0079618171 0.57925785 4284110674
0.42276162 -0.016673274 0.57976919 4282990647
0.42305124 -0.016104139 0.57976055 4282531633
0.42334053 -0.015535407 0.57975197 4282268720
0.42371199 -0.015023611 0.57975912 4281873966
0.42408341 -0.014511816 0.57976627 4281808173
0.42445487 -0.014000021 0.57977343 4281742380
0.42482632 -0.013488226 0.57978052 4282136884
0.42511469 -0.01292076 0.57977194 4282334004
0.425486 -0.012409173 0.57977909 4282991162
0.42585731 -0.011897586 0.57978618 4283583299
0.42622858 -0.011386 0.57979333 4283978057
0.42651623 -0.010819606 0.57978469 4283845442
0.4269712 -0.010362826 0.57980764 4283846473
0.42734247 -0.0098512396 0.57981479 4283716686
0.42779791 -0.0093938336 0.57983768 4283979858
0.42825362 -0.0089360401 0.57986063 4283454290
0.42862523 -0.0084240362 0.57986778 4283717715
0.42916599 -0.0080191568 0.57990652 4283716686
0.42250866 -0.016505636 0.58035403 4281938994
0.42287996 -0.01599405 0.58036119 4281807910
0.42308664 -0.015369065 0.58033633 4281807658
0.42354012 -0.014914386 0.58035946 4281347620
0.42391124 -0.014403008 0.58036661 4281347622
0.42436516 -0.013947703 0.58038974 4281281829
0.42473644 -0.013436116 0.58039689 4281741867
0.42510772 -0.01292453 0.58040404 4281675302
0.42547902 -0.012412943 0.5804112 4282070060
0.42576694 -0.011846118 0.58040226 4282793531
0.42622161 -0.011389755 0.58042544 4283056703
0.42659292 -0.010878168 0.58043259 4283320127
0.42704803 -0.010421194 0.58045578 4283451715
0.4273355 -0.0098549947 0.5804469 4283650123
0.42787504 -0.009451814 0.58048612 4283781709
0.42833093 -0.0089937821 0.58050931 4283519309
0.42870265 -0.0084815696 0.58051646 4283520336
0.42924356 -0.0080764815 0.58055574 4283585357
0.42037046 -0.016554214 0.58069551 4282595903
0.42082101 -0.016103528 0.58071887 4281938994
0.42143583 -0.015766703 0.58077472 4281807408
0.42196941 -0.015371688 0.58081436 4281610277
0.42258593 -0.015032537 0.58087027 4281478693
0.42320335 -0.014692135 0.58092624 4281347107
0.42365646 -0.014237888 0.58094966 4281281829
0.42419267 -0.013839312 0.5809893 4281084450
0.42464656 -0.013384022 0.58101273 4281479208
0.42501771 -0.012872644 0.58101988 4281478695
0.42547205 -0.012416698 0.5810433 4281478695
0.42584336 -0.011905111 0.58105046 4282463802
0.42621464 -0.011393525 0.58105755 4282924353
0.4266696 -0.010936759 0.58108103 4283385670
0.42712486 -0.010479592 0.58110446 4283189061
0.42758042 -0.010021992 0.58112788 4283715918
0.42803633 -0.0095639601 0.58115137 4283715918
0.42840821 -0.009051539 0.58115852 4283585102
0.42878014 -0.0085391179 0.58116567 4283651150
0.42932117 -0.0081338212 0.58120543 4283651404
0.4201594 -0.015648521 0.58121467 4282267959
0.42069101 -0.015256248 0.58125478 4281741875
0.42138749 -0.014976956 0.58132797 4281676082
0.42208523 -0.014695995 0.58140117 4281412397
0.42270172 -0.014356874 0.58145785 4281346855
0.42315394 -0.013903879 0.58148152 4281018403
0.42377198 -0.013562642 0.5815382 4280952610
0.424308 -0.013164274 0.58157843 4281215784
0.42484462 -0.012765057 0.58161867 4280887336
0.42538187 -0.012365021 0.58165884 4280952612
0.42583638 -0.011908866 0.58168256 4281608998
0.42620766 -0.01139728 0.58168972 4281806377
0.42666262 -0.010940515 0.58171338 4283715152
0.42720169 -0.010537975 0.58175367 4283519058
0.42765743 -0.010080166 0.58177733 4283584332
0.42802933 -0.0095677301 0.58178449 4283715918
0.42848551 -0.0091092959 0.58180821 4283650377
0.42894197 -0.0086504295 0.58183193 4283717197
0.42939878 -0.0081911609 0.58185565 4283519561
0.41778666 -0.015510105 0.58149099 4285294167
0.41855964 -0.015295498 0.58158189 4285031513
0.42064136 -0.014468364 0.58180439 4284241749
0.42133769 -0.01418931 0.5818786 4282531129
0.42211771 -0.013965063 0.58196962 4282005298
0.42281663 -0.013682432 0.58204389 4281281316
0.42351675 -0.013398133 0.58211815 4281018144
0.42413524 -0.013056271 0.58217567 4280887589
0.42475462 -0.012713142 0.58223319 4280887336
0.42529172 -0.012313329 0.5822739 4280952359
0.42574605 -0.011857398 0.58229786 4281083937
0.42620069 -0.01140105 0.58232182 4281544488
0.42673931 -0.010999121 0.58236259 4283847241
0.42711091 -0.010487117 0.58236974 4283322955
0.4277344 -0.01013834 0.58242732 4283387980
0.42819059 -0.0096799061 0.58245128 4283519566
0.42856276 -0.0091670528 0.58245844 4283650375
0.42901939 -0.0087079927 0.58248246 4284176717
0.4295609 -0.0083020702 0.58252329 4283585354
0.4170506 -0.016518526 0.58209771 4284570446
0.4170897 -0.015784256 0.58203655 4285030484
0.41745371 -0.015282743 0.58204359 4285293656
0.41789937 -0.014838763 0.58206761 4285490781
0.41842717 -0.01445172 0.58210868 4285096023
0.41895556 -0.014063843 0.5821498 4285359199
0.41948462 -0.013675116 0.58219087 4285490785
0.42059022 -0.013682581 0.58235133 4283582788
0.42136884 -0.013460241 0.58244359 4282531131
0.42239675 -0.01340469 0.58258706 4281872429
0.42326158 -0.013233624 0.5826965 4281214499
0.42387959 -0.012892388 0.58275479 4280887589
0.4244985 -0.0125499 0.58281308 4281083945
0.42503515 -0.012150697 0.58285433 4280886566
0.42557237 -0.011750646 0.58289558 4281084450
0.42619371 -0.011404805 0.58295393 4281281829
0.42673233 -0.011002891 0.58299524 4282400308
0.42727154 -0.010600127 0.58303648 4283124806
0.4277274 -0.01014211 0.58306074 4283387980
0.42818359 -0.0096836761 0.58308494 4283519566
0.42872429 -0.0092787966 0.58312631 4283781711
0.42909682 -0.008765541 0.58313346 4284176721
0.42963848 -0.0083594099 0.58317482 4283715916
0.41667914 -0.017024569 0.5827114 4284044352
0.41688132 -0.016405843 0.5826838 4284109641
0.41708288 -0.015787952 0.58265626 4285029468
0.41744685 -0.015286423 0.58266324 4285358433
0.4177292 -0.014727332 0.58265299 4285687648
0.41809303 -0.014226012 0.58265996 4285358681
0.41853884 -0.013781853 0.58268428 4285556060
0.41914922 -0.013451107 0.58274317 4285819232
0.41959596 -0.013005681 0.58276749 4285885025
0.42020786 -0.012672834 0.58282644 4284700753
0.42148137 -0.012789138 0.58302385 4284306257
0.42275822 -0.012900822 0.58322138 4282595639
0.42378974 -0.012840264 0.58336699 4281346857
0.42440853 -0.012497984 0.58342606 4281346857
0.4250282 -0.012154453 0.58348513 4281018405
0.42556542 -0.011754416 0.58352691 4281018403
0.42610323 -0.011353545 0.58356869 4281215782
0.42672536 -0.011006661 0.58362782 4281545001
0.42726457 -0.010603897 0.58366966 4283058756
0.42780438 -0.010200284 0.5837115 4283256141
0.42826068 -0.0097416416 0.583736 4283519313
0.42871732 -0.0092825815 0.5837605 4283913046
0.42917424 -0.0088230893 0.583785 4283847504
0.42971605 -0.0084167644 0.58382684 4283650125
0.41630769 -0.017530628 0.58332509 4284174909
0.41659123 -0.016969867 0.5833146 4284110145
0.41687447 -0.016409539 0.58330405 4284109641
0.41707605 -0.015791632 0.58327591 4285095261
0.41727698 -0.01517456 0.58324784 4285358433
0.41747731 -0.014558338 0.58321971 4285556576
0.41784072 -0.014057659 0.58322674 4285227609
0.4182041 -0.01355698 0.58323371 4285621853
0.41848534 -0.012999363 0.58322316 4285950048
0.41901314 -0.01261232 0.58326524 4285950048
0.41954154 -0.012224443 0.58330739 4285818716
0.42007053 -0.011835746 0.58334953 4285096025
0.42167574 -0.012175374 0.58362013 4282858813
0.42311972 -0.012396954 0.58385563 4282529848
0.4240694 -0.012279056 0.58398581 4281281577
0.42477167 -0.011991821 0.58406323 4280953382
0.42547509 -0.011702918 0.58414066 4280953382
0.42609626 -0.0113573 0.58420056 4280953382
0.42663473 -0.01095558 0.58424288 4281478954
0.42717379 -0.01055304 0.5842852 4282532412
0.42771345 -0.01014965 0.58432758 4283190348
0.42825371 -0.0097454116 0.5843699 4283519313
0.42879456 -0.0093403384 0.58441228 4283650901
0.42925164 -0.0088806525 0.58443707 4283913814
0.4297936 -0.0084741339 0.58447945 4283781458
0.41625929 -0.01827196 0.58401 4284569417
0.41630083 -0.017534323 0.58394581 4284504138
0.41666543 -0.01703196 0.58395284 4284438858
0.41686764 -0.016413219 0.58392423 4284373583
0.4170692 -0.015795328 0.58389562 4284767571
0.41727015 -0.015178256 0.58386701 4285030743
0.41747051 -0.014562033 0.5838384 4285359449
0.41767025 -0.013946645 0.58380973 4285228376
0.41795135 -0.013389237 0.58379889 4285556828
0.41815004 -0.012775324 0.58377022 4285424728
0.41826582 -0.012105502 0.58372372 4285358935
0.41846311 -0.011493482 0.58369505 4286081886
0.41882497 -0.010994889 0.58370203 4285096277
0.41993144 -0.011001132 0.58386946 4284964437
0.42087489 -0.010891847 0.5840013 4283845956
0.42364725 -0.012004428 0.58452559 4282004534
0.42451513 -0.01182919 0.58463973 4281215533
0.42530146 -0.011596166 0.58473605 4280953129
0.42608929 -0.01136107 0.58483243 4280953129
0.42662776 -0.010959335 0.58487529 4281348138
0.42716679 -0.01055681 0.58491808 4281676333
0.4277904 -0.010207824 0.58497882 4282795333
0.42824671 -0.0097491816 0.58500385 4283584849
0.42887181 -0.0093981102 0.58506459 4283913816
0.42941347 -0.0089920089 0.58510751 4284176988
0.43012482 -0.0086922124 0.58518612 4284045402
0.41617167 -0.018216841 0.58461368 4284635726
0.41645581 -0.017655231 0.58460265 4284635724
0.41665858 -0.017035656 0.58457357 4284635724
0.41686079 -0.016416915 0.58454442 4284571216
0.41714373 -0.015856989 0.58453339 4284767310
0.41718179 -0.015124165 0.58446813 4284964689
0.41730034 -0.014450587 0.58442086 4285096529
0.41758162 -0.013892971 0.58440977 4285228115
0.41778058 -0.013278626 0.58438063 4285490521
0.41806108 -0.012722068 0.58436954 4285556314
0.41809446 -0.01199574 0.58430415 4285424728
0.41820908 -0.011327617 0.58425689 4285556314
0.41840529 -0.010717042 0.58422762 4285754718
0.41860092 -0.010107301 0.58419842 4285359960
0.41879594 -0.0094984248 0.58416915 4285029982
0.4197377 -0.0093914494 0.58430278 4283845708
0.42504448 -0.01143416 0.58531231 4281742647
0.42599884 -0.01130978 0.58544618 4281150510
0.42662078 -0.010963105 0.58550763 4281413933
0.42715982 -0.010560565 0.58555102 4281742126
0.42769945 -0.01015719 0.58559436 4282662717
0.42832381 -0.009807162 0.58565587 4283386440
0.42886484 -0.0094018951 0.58569932 4284308053
0.43091506 -0.008447893 0.58592021 4283782481
0.41604155 -0.018900611 0.5852831 4284898644
0.41624558 -0.018279351 0.58525348 4284898644
0.41652986 -0.017717548 0.58524221 4284898896
0.41673279 -0.017097749 0.58521259 4284898896
0.41693515 -0.016478799 0.58518296 4284635724
0.41713691 -0.015860684 0.58515328 4284767310
0.41725647 -0.015185617 0.58510536 4284833103
0.41745687 -0.014569394 0.58507568 4284899150
0.41757482 -0.013896652 0.58502764 4284965456
0.41777378 -0.013282306 0.58499795 4285358933
0.41797215 -0.012668781 0.58496827 4285490521
0.41800541 -0.011942677 0.58490187 4285424728
0.41811985 -0.011274762 0.58485377 4285490521
0.41831595 -0.010664396 0.58482403 4285885791
0.41859415 -0.010110967 0.58481264 4285623132
0.41878921 -0.0095020756 0.58478284 4285424226
0.41898364 -0.0088940188 0.5847531 4284634710
0.42582488 -0.011203431 0.58604103 4281413933
0.42661381 -0.01096686 0.58614004 4281742128
0.42715281 -0.010564335 0.58618391 4281676335
0.42786038 -0.010269783 0.58626455 4282793533
0.4284009 -0.0098651424 0.58630848 4283583049
0.42902631 -0.0095136836 0.58637077 4284308053
0.42973706 -0.0092147216 0.58645147 4284177237
0.43044901 -0.0089140907 0.58653218 4284177494
0.41631269 -0.019881882 0.58604681 4284965204
0.41611528 -0.018963359 0.58592391 4284900181
0.41631943 -0.018341877 0.58589381 4284702802
0.41660392 -0.017779849 0.58588225 4284439628
0.416807 -0.017159842 0.58585215 4284504905
0.4170095 -0.016540684 0.58582199 4284504140
0.41721141 -0.01592236 0.58579183 4284504401
0.41733116 -0.015247069 0.58574307 4284504401
0.41745001 -0.014573075 0.58569431 4284373583
0.41748619 -0.013842963 0.58562696 4284768595
0.41768503 -0.013228841 0.58559674 4285030484
0.41780114 -0.012558587 0.58554792 4285293656
0.41799861 -0.011946343 0.58551764 4285293656
0.41803062 -0.011221908 0.58545023 4285293656
0.4182266 -0.010611735 0.58541995 4285359195
0.41850466 -0.010058515 0.58540827 4285359960
0.41869956 -0.009449847 0.58537799 4285622105
0.41889381 -0.008841984 0.58534765 4285226327
0.41917068 -0.0082904473 0.58533597 4284305225
0.42515004 -0.010766812 0.58652312 4282399025
0.42652318 -0.010915793 0.58675373 4281939246
0.42722964 -0.010622732 0.58683544 4282070578
0.42776942 -0.010219134 0.58687985 4282268211
0.428478 -0.0099231228 0.58696151 4282794555
0.42927206 -0.009679459 0.58706188 4283848529
0.42998323 -0.0093798861 0.58714366 4283586897
0.43069562 -0.0090786442 0.58722544 4283981139
0.43149394 -0.0088290796 0.58732587 4283981139
0.41590363 -0.019589372 0.58657706 4284899411
0.41610843 -0.01896707 0.58654642 4285032280
0.41639334 -0.018404402 0.58653462 4284637522
0.41667795 -0.017842166 0.58652282 4284571727
0.41680014 -0.017163537 0.58647335 4284569931
0.41708386 -0.016602568 0.58646154 4284437579
0.41720456 -0.015926041 0.58641201 4284504401
0.41732433 -0.015250765 0.58636248 4284570194
0.41744322 -0.014576755 0.58631295 4284307790
0.41747934 -0.013846643 0.58624452 4284768341
0.41767821 -0.013232507 0.58621383 4285030230
0.41779435 -0.012562253 0.58616424 4285424728
0.41790956 -0.01189328 0.58611459 4285424728
0.41802385 -0.011225559 0.58606493 4285358935
0.4182198 -0.010615386 0.58603418 4285227609
0.41833246 -0.0099499896 0.58598453 4285293656
0.41860992 -0.0093976036 0.58597255 4285688152
0.41888708 -0.0088456348 0.58596063 4285291605
0.41908073 -0.008238636 0.58592981 4284633675
0.41944048 -0.0077429786 0.58593673 4282595891
0.4285551 -0.0099811181 0.58761513 4282597687
0.4293493 -0.0097372457 0.58771682 4283257162
0.430145 -0.0094912574 0.5878185 4283257934
0.43094224 -0.0092431828 0.58792019 4283783760
0.431741 -0.0089930072 0.58802193 4283849553
0.41597718 -0.019652314 0.58721918 4284241227
0.4161821 -0.019029789 0.58718807 4285162329
0.41646719 -0.018466942 0.58717602 4284572497
0.4166711 -0.017845862 0.58714485 4284571214
0.41687435 -0.017225645 0.58711368 4284504651
0.417077 -0.016606264 0.58708251 4284438858
0.4171977 -0.015929736 0.5870322 4284571216
0.41731751 -0.015254445 0.58698189 4284571216
0.4173547 -0.014522873 0.58691251 4284242251
0.41747254 -0.013850324 0.58686215 4284504399
0.41758943 -0.013179012 0.58681178 4285094991
0.41770542 -0.012508981 0.58676142 4285292624
0.41782051 -0.011840217 0.58671099 4285226831
0.41801709 -0.011229225 0.5866797 4285424726
0.41813046 -0.01056274 0.58662927 4285359449
0.41832566 -0.0099536404 0.58659798 4285227863
0.41843742 -0.0092894658 0.58654749 4285754457
0.41871426 -0.0087379292 0.58653527 4285752660
0.41899079 -0.0081868097 0.58652306 4285884246
0.41935039 -0.007691361 0.58652997 4283844926
0.4319033 -0.0091035739 0.58870041 4283783506
0.43278873 -0.0089040473 0.58882266 4283847756
0.41597033 -0.019656025 0.58784252 4282991932
0.41609466 -0.018974476 0.5877915 4284638290
0.4163796 -0.018411808 0.58777916 4284506704
0.41658333 -0.017790951 0.58774751 4284439882
0.41678643 -0.017170943 0.58771586 4284504905
0.41698897 -0.016551755 0.58768415 4284570698
0.41710955 -0.015875436 0.58763307 4284571216
0.41722918 -0.015200354 0.58758199 4284571216
0.41726625 -0.014468975 0.58751154 4284176204
0.41746575 -0.01385399 0.58747977 4284307022
0.41758263 -0.013182692 0.58742863 4284898634
0.41769862 -0.012512647 0.58737749 4284964425
0.41773146 -0.011787154 0.58730692 4285030218
0.41801029 -0.011232875 0.58729446 4285424980
0.41812369 -0.010566391 0.58724326 4285359447
0.41815346 -0.0098450854 0.58717269 4285227861
0.41834778 -0.0092372224 0.5871408 4285820250
0.41862446 -0.0086858943 0.58712834 4285950550
0.41898406 -0.0081904456 0.58713526 4285753171
0.419177 -0.007584475 0.58710337 4284371522
0.41953623 -0.0070894584 0.58711028 4283846210
0.4321503 -0.0092675015 0.58939934 4283586127
0.43295133 -0.0090141967 0.58950377 4283914065
0.41604388 -0.019718997 0.58848542 4283847752
0.41616839 -0.019037209 0.58843362 4284374096
0.41645348 -0.018474348 0.58842105 4284506958
0.41665736 -0.017853267 0.58838886 4284570698
0.41677958 -0.017174639 0.58833706 4284569931
0.41690093 -0.016497262 0.58828521 4285558109
0.41710269 -0.015879132 0.58825302 4283847241
0.41714084 -0.015146263 0.5881815 4283978827
0.41725945 -0.014472656 0.58812964 4283253831
0.41737711 -0.013800316 0.58807772 4283123266
0.41749388 -0.013129212 0.58802581 4283451965
0.41760975 -0.012459375 0.58797389 4283649592
0.41772467 -0.011790805 0.58792192 4283912764
0.4179211 -0.011180021 0.58788961 4284899411
0.41811693 -0.010570042 0.58785725 4285227611
0.41822943 -0.0099048242 0.58780527 4285096277
0.41842389 -0.0092967674 0.58777291 4285425494
0.41861773 -0.0086895302 0.58774048 4285688148
0.41897732 -0.0081940964 0.5877474 4285556562
0.41917023 -0.0075881258 0.58771503 4285030222
0.4195295 -0.0070930943 0.58772194 4284241229
0.43239731 -0.009431459 0.59009987 4283520334
0.43311393 -0.0091243759 0.59018588 4283980115
0.43400174 -0.0089215115 0.59031129 4284177746
0.41595656 -0.019663446 0.5890891 4284703565
0.41616151 -0.019040905 0.58905643 4284506186
0.41644663 -0.018478058 0.58904362 4284308807
0.41656959 -0.017798357 0.58899105 4284045383
0.41677272 -0.017178334 0.58895832 4283650112
0.4168129 -0.016442753 0.58888584 4282925367
0.41701451 -0.015824832 0.58885306 4282530110
0.41705251 -0.015092157 0.58878052 4282201145
0.41717097 -0.014418758 0.58872789 4282595905
0.41728848 -0.013746627 0.5886752 4282399807
0.41740513 -0.013075732 0.58862251 4282860348
0.41752082 -0.012406103 0.58856976 4283122746
0.41763562 -0.011737727 0.58851707 4283451711
0.41791433 -0.011183672 0.58850408 4284307794
0.41802758 -0.010517381 0.58845133 4285031263
0.41813993 -0.0098523721 0.58839858 4285293919
0.41833425 -0.009244509 0.58836567 4285227863
0.41861099 -0.008693181 0.58835268 4285754459
0.41880423 -0.0080867782 0.58831978 4285557080
0.41924679 -0.0076470301 0.5883466 4285425492
0.41943932 -0.0070416853 0.58831364 4284965202
0.41971481 -0.0064920262 0.58830065 4283844665
0.43264431 -0.0095954165 0.59080189 4283453771
0.43336135 -0.0092876926 0.59088898 4283980634
0.43399465 -0.0089253411 0.59095609 4284112990
0.43454367 -0.0085089877 0.5910033 4284177243
0.43517861 -0.0081443265 0.59107041 4281677109
0.4358145 -0.0077784136 0.59113759 4280032027
0.41594967 -0.019667156 0.58971244 4284900429
0.41615462 -0.019044615 0.58967924 4284703050
0.41635901 -0.018422909 0.58964598 4284308294
0.41656274 -0.017802052 0.58961278 4282729010
0.41676587 -0.01718203 0.58957952 4282794803
0.41680604 -0.016446434 0.58950603 4282202416
0.41692632 -0.015770502 0.58945262 4282267708
0.41704571 -0.015095837 0.58939922 4282070329
0.41708252 -0.014364861 0.58932561 4282399296
0.41728169 -0.013750292 0.58929229 4282334014
0.41739833 -0.013079397 0.58923882 4282925117
0.41743195 -0.012352817 0.58916515 4283122748
0.41762882 -0.011741392 0.58913183 4283385920
0.41782513 -0.011130787 0.58909845 4284110161
0.41802081 -0.010521032 0.58906507 4284965983
0.4181332 -0.0098560229 0.58901149 4285293919
0.41832751 -0.0092481598 0.58897811 4285293656
0.4186042 -0.0086968169 0.58896482 4285689179
0.41879746 -0.008090429 0.58893138 4285623386
0.41907343 -0.0075401291 0.58891815 4285688664
0.41934907 -0.0069902614 0.58890486 4285227861
0.41970807 -0.006495662 0.58891177 4283910971
0.43377846 -0.0095573887 0.59163404 4284046429
0.43432748 -0.0091410205 0.59168172 4284309599
0.43479198 -0.0086710826 0.5917092 4283914071
0.43534207 -0.008253254 0.59175694 4282729797
0.43597823 -0.0078869238 0.59182489 4280032029
0.41594279 -0.019670866 0.59033573 4285162831
0.41614777 -0.019048326 0.59030199 4284899659
0.41635215 -0.018426619 0.59026825 4283649596
0.41655588 -0.017805748 0.59023452 4282860346
0.41675901 -0.017185725 0.59020078 4282728760
0.41679922 -0.016450129 0.59012622 4282334004
0.4169195 -0.015774198 0.59007204 4282399545
0.41703886 -0.015099533 0.59001786 4282531131
0.41707569 -0.014368542 0.58994323 4283255114
0.41727489 -0.013753973 0.58990937 4282662464
0.41730958 -0.013025902 0.58983469 4282858811
0.41742516 -0.012356482 0.58978045 4283122235
0.41762206 -0.011745058 0.58974659 4283319614
0.41773593 -0.011077918 0.58969223 4283846473
0.4179315 -0.010468386 0.58965838 4284767573
0.41804373 -0.0098035559 0.58960402 4284964437
0.41823786 -0.0091959015 0.58957011 4285556828
0.41851443 -0.008644782 0.58955657 4285688666
0.41870755 -0.0080385879 0.5895226 4285688666
0.41906667 -0.007543765 0.58952951 4285688664
0.41925889 -0.0069388375 0.58949554 4285491035
0.41953409 -0.0063895956 0.58948201 4283978307
0.43394098 -0.0096675679 0.59232026 4284178017
0.43440533 -0.0091978237 0.59234804 4284440158
0.43504027 -0.0088331923 0.59241676 4283913044
0.4355908 -0.0084147379 0.59246498 4282926149
0.4158555 -0.019615315 0.59093839 4285294419
0.41614091 -0.019052036 0.5909248 4284965454
0.41634527 -0.018430315 0.59089053 4283714622
0.41646814 -0.017750822 0.59083563 4283189313
0.41675216 -0.017189421 0.59082198 4282926141
0.41679239 -0.016453825 0.5907464 4282990910
0.41699401 -0.015835889 0.59071213 4282728508
0.41703206 -0.015103213 0.59063649 4282925887
0.4170689 -0.014372222 0.59056079 4283649610
0.41718629 -0.013700254 0.59050584 4282794814
0.41730279 -0.013029568 0.59045076 4282793785
0.41741836 -0.012360148 0.59039569 4283122233
0.41761529 -0.011748709 0.59036136 4283319612
0.4177292 -0.011081569 0.59030622 4283780678
0.41784218 -0.010415711 0.59025115 4284504399
0.41803697 -0.0098072067 0.5902167 4284438860
0.41823113 -0.0091995522 0.59018224 4285491546
0.4185077 -0.0086484179 0.59016848 4285557080
0.41870081 -0.0080422238 0.59013402 4285491287
0.41905993 -0.0075474009 0.59014094 4285754459
0.41925216 -0.0069424734 0.59010643 4285623134
0.41961095 -0.0064480826 0.59011334 4284373065
0.43410352 -0.009777762 0.59300756 4284243810
0.43465316 -0.0093605742 0.59305632 4284374365
0.4352034 -0.0089425519 0.59310508 4283912784
0.41613403 -0.019055732 0.59154761 4285228628
0.41625768 -0.018375196 0.59149194 4284372300
0.41654217 -0.017813154 0.59147805 4284571225
0.4166643 -0.017134704 0.59142232 4284374868
0.41678554 -0.016457506 0.59136659 4285163614
0.41706848 -0.015897579 0.5913527 4283452998
0.41710669 -0.015164681 0.59127605 4283716170
0.4171437 -0.014433466 0.59119934 4283781448
0.41726127 -0.013761304 0.59114355 4282860859
0.41729599 -0.013033234 0.59106684 4282729271
0.41741157 -0.012363799 0.59101099 4283320379
0.4176085 -0.01175236 0.59097606 4283649344
0.4177224 -0.01108522 0.59092021 4284637009
0.41783541 -0.010419361 0.59086436 4284176204
0.4179475 -0.0097547397 0.59080845 4284374100
0.41822439 -0.0092031881 0.59079444 4285426784
0.41841793 -0.0085963681 0.59075946 4285491546
0.41861093 -0.0079903826 0.59072447 4285294167
0.41896987 -0.0074957833 0.59073138 4285688412
0.41916192 -0.0068910494 0.59069633 4285688925
0.41952062 -0.0063968673 0.59070325 4284898896
0.434816 -0.0094703659 0.59374517 4284242260
0.41604662 -0.019000404 0.5921492 4285885791
0.41617012 -0.018320061 0.59209275 4284438347
0.41645443 -0.017758228 0.59207863 4284570196
0.41657645 -0.017079987 0.59202212 4284438608
0.41685987 -0.016519405 0.59200799 4285097306
0.41698033 -0.015843265 0.59195149 4283650373
0.41709989 -0.015168361 0.59189492 4283584580
0.41713691 -0.014437146 0.5918172 4284373837
0.41725445 -0.013764985 0.59176064 4285425755
0.41737112 -0.01309406 0.59170407 4285425242
0.41740477 -0.012367465 0.59162629 4284438095
0.4176017 -0.011756025 0.59159082 4284767060
0.41771561 -0.011088885 0.5915342 4284899157
0.41782865 -0.010422997 0.59147757 4284372813
0.41794074 -0.0097583905 0.59142089 4284571225
0.41821763 -0.0092068389 0.59140658 4285295200
0.4184112 -0.008600004 0.59137112 4285492066
0.41868734 -0.0080494955 0.59135681 4285360480
0.41896313 -0.0074994192 0.59134251 4285556574
0.41915518 -0.0068946853 0.59130698 4285623134
0.41951388 -0.0064005032 0.59131384 4284832851
0.41624397 -0.018382587 0.59273595 4285029968
0.41644758 -0.017761923 0.59270012 4284372815
0.41665059 -0.017142095 0.5926643 4284174925
0.41685301 -0.0165231 0.59262842 4284306509
0.41705483 -0.015904956 0.5925926 4283716420
0.41709304 -0.015172042 0.59251386 4284505936
0.41721171 -0.014498405 0.59245652 4285359960
0.41732943 -0.01382602 0.59239918 4285293656
0.41744626 -0.013154887 0.59234184 4285227349
0.41748011 -0.012428083 0.59226298 4284700751
0.41759491 -0.011759691 0.59220558 4284898130
0.41779125 -0.011149071 0.59216964 4284964437
0.41790444 -0.010482989 0.59211218 4284373067
0.41801667 -0.0098181441 0.59205478 4284702552
0.41821086 -0.0092104748 0.59201878 4285294687
0.41840446 -0.0086036399 0.59198272 4285688675
0.41859743 -0.0079976544 0.59194672 4285622882
0.4189564 -0.007503055 0.59195364 4285424988
0.41923192 -0.006953381 0.59193903 4285491548
0.41950715 -0.0064041242 0.59192449 4284767062
0.41623712 -0.018386297 0.59335798 4285623132
0.41635984 -0.017706998 0.59329993 4284899411
0.41664374 -0.01714579 0.59328526 4285358681
0.41684616 -0.016526796 0.5932489 4284833105
0.41704798 -0.015908636 0.59321254 4284768847
0.41724917 -0.015291311 0.59317613 4284768847
0.41720489 -0.014502086 0.59307462 4285227599
0.41740441 -0.01388707 0.5930382 4285424980
0.41752139 -0.013215728 0.59298009 4285095761
0.41755539 -0.0124887 0.59290022 4285029970
0.41767037 -0.011820085 0.59284204 4284898384
0.41778445 -0.011152722 0.59278387 4284964439
0.41789764 -0.01048664 0.59272569 4284570194
0.41800994 -0.0098217949 0.59266746 4284964950
0.41820413 -0.0092141256 0.59263092 4285293402
0.41848069 -0.0086629763 0.59261614 4285556574
0.41875696 -0.0081122592 0.5926013 4285688160
0.41903296 -0.0075619593 0.59258652 4285686876
0.41922516 -0.0069570169 0.59254992 4285686876
0.41958398 -0.0064626262 0.59255683 4284898648
0.41635299 -0.017710693 0.59392118 4285162581
0.41655588 -0.017091058 0.59388429 4285359447
0.41683933 -0.016530491 0.59386933 4285293654
0.41712245 -0.015970327 0.59385443 4285031249
0.41716087 -0.015237205 0.5937736 4284965456
0.41727966 -0.014563344 0.59371471 4285227599
0.41739759 -0.013890751 0.59365582 4285359187
0.41751456 -0.013219394 0.59359694 4285096015
0.41763067 -0.012549318 0.59353799 4284898898
0.41774583 -0.011880495 0.59347904 4284898898
0.41786009 -0.011212923 0.59342009 4284964700
0.4179734 -0.010546602 0.59336114 4284767323
0.41808587 -0.0098815486 0.59330213 4285162331
0.41828018 -0.0092736706 0.59326506 4285030745
0.41847396 -0.0086666271 0.59322804 4285425501
0.41883337 -0.008171387 0.59323496 4285622880
0.4190262 -0.0075655952 0.59319788 4285556060
0.41938534 -0.0070707873 0.5932048 4285490267
0.41642702 -0.017773025 0.59456462 4285491033
0.41663003 -0.017153181 0.59452718 4285754205
0.41691363 -0.016592391 0.59451205 4285491035
0.41711563 -0.015974022 0.59447461 4285491035
0.41723549 -0.015298687 0.59441501 4285359449
0.41735446 -0.014624618 0.59435534 4285489751
0.41739076 -0.013894416 0.59427345 4285555544
0.41758969 -0.01328025 0.59423596 4285490521
0.41770595 -0.012609936 0.59417629 4285095763
0.41782129 -0.011940904 0.59411657 4284898384
0.41793567 -0.011273123 0.59405684 4285030232
0.41804916 -0.010606579 0.59399706 4284964700
0.41816178 -0.0099413171 0.59393728 4285162333
0.4183563 -0.0093332157 0.59389973 4284964952
0.41855019 -0.0087259635 0.59386218 4285687646
0.41882664 -0.0081750229 0.59384686 4285687646
0.41901946 -0.007569246 0.59380925 4285687646
0.41937858 -0.0070744231 0.59381616 4285293402
0.41654217 -0.017098449 0.59512573 4285688412
0.41682565 -0.016537867 0.5951103 4285490783
0.41710877 -0.015977718 0.5950948 4285490781
0.41722867 -0.015302368 0.59503442 4285359195
0.41734767 -0.014628299 0.59497398 4285358681
0.41754752 -0.014012851 0.59493601 4285424728
0.41766483 -0.013341092 0.59487557 4285556314
0.41786328 -0.012727521 0.59483755 4285292372
0.41789669 -0.012001313 0.59475458 4285160786
0.41801128 -0.011333309 0.59469408 4285161302
0.41812491 -0.010666572 0.59463352 4285096027
0.41823769 -0.010001101 0.59457302 4285227613
0.4183495 -0.0093368664 0.5945124 4285096023
0.41854343 -0.0087295994 0.59447432 4285818716
0.41890299 -0.0082341656 0.59448129 4285752923
0.41917929 -0.0076834336 0.59446567 4285687900
0.43401259 -0.010541387 0.59761494 4282268724
0.4168188 -0.016541563 0.59573072 4285359708
0.41702062 -0.015923403 0.59569228 4285491035
0.41722184 -0.015306048 0.59565383 4285491035
0.41742244 -0.014689557 0.59561533 4285425240
0.41754067 -0.014016531 0.59555411 4285424726
0.417658 -0.013344757 0.5954929 4285621589
0.41793853 -0.012788169 0.5954771 4285227601
0.41797212 -0.012061723 0.59539312 4285227601
0.41808689 -0.01139351 0.59533185 4285227349
0.41828322 -0.01078289 0.59529328 4285293404
0.41839629 -0.010116972 0.59523195 4285030745
0.41850841 -0.0094523355 0.59517062 4285227863
0.41870266 -0.0088446513 0.59513205 4285030484
0.41889626 -0.0082378015 0.59509343 4285818201
0.43345618 -0.010961987 0.59820944 4282466876
0.4339208 -0.010491855 0.59823954 4282006322
0.43447053 -0.010074474 0.59829247 4282071861
0.41709507 -0.015985094 0.59633523 4285491285
0.41721499 -0.015309744 0.59627324 4285425492
0.41749722 -0.014750831 0.59625727 4285359699
0.41761562 -0.014077596 0.59619528 4285424980
0.4177331 -0.013405599 0.59613323 4285555794
0.41793174 -0.012791835 0.59609425 4285227347
0.41804755 -0.012122147 0.5960322 4285556312
0.41824484 -0.01151026 0.5959931 4285227861
0.41844147 -0.010899223 0.59595406 4284899157
0.41855484 -0.010232888 0.59589195 4284899161
0.41866732 -0.0095678046 0.59582984 4285490267
0.41877887 -0.0089040026 0.59576774 4285358681
0.41913891 -0.008407928 0.59577465 4285688152
0.43328002 -0.010858618 0.59881026 4282862155
0.43374434 -0.010388888 0.59884059 4281744955
0.43437856 -0.010025136 0.59891707 4281942074
0.41720816 -0.015313424 0.59689265 4285359699
0.41732717 -0.01463934 0.59682989 4285293908
0.41769058 -0.014138646 0.59683692 4285425240
0.4178082 -0.013466455 0.5967741 4285555794
0.41800702 -0.012852468 0.59673458 4285358935
0.41812295 -0.012182556 0.59667176 4285622107
0.41832039 -0.011570461 0.59663218 4285162329
0.41843468 -0.010902874 0.59656936 4284899159
0.41854808 -0.010236554 0.59650648 4284964954
0.41874337 -0.0096273795 0.59646684 4285556062
0.41902101 -0.009074755 0.59645051 4285358683
0.43310389 -0.010755248 0.59941 4284046947
0.43365255 -0.010339342 0.59946388 4281876545
0.43420184 -0.0099226162 0.59951782 4282335811
0.43475169 -0.009505026 0.59957176 4282926921
0.41732037 -0.014643021 0.59744853 4285293908
0.41760197 -0.014084943 0.59743202 4285293654
0.41771948 -0.01341296 0.59736848 4285293908
0.41800019 -0.012856148 0.59735191 4285227609
0.41819838 -0.01224298 0.59731185 4285490781
0.41831359 -0.011574127 0.59724826 4285293917
0.41851044 -0.010962881 0.59720814 4285359458
0.41870666 -0.010352455 0.59716803 4285293665
0.43280172 -0.011335604 0.60007209 4283126612
0.43301225 -0.010705478 0.60003227 4285100402
0.43356079 -0.010289796 0.60008669 4282598213
0.43402508 -0.0098200664 0.60011756 4282992716
0.43457466 -0.0094029233 0.60017204 4282926153
0.43512484 -0.0089849308 0.60022646 4282006325
0.41779459 -0.013473801 0.59800982 4285227861
0.41807544 -0.012916781 0.59799308 4285096023
0.41827381 -0.012303419 0.59795249 4285424988
0.41847152 -0.011690892 0.59791183 4285293402
0.41858613 -0.011022873 0.59784746 4285425505
0.43224674 -0.011754297 0.60066324 4282861387
0.43254161 -0.011177994 0.60064673 4283257683
0.43300515 -0.010709323 0.60067785 4283915613
0.433469 -0.010240234 0.60070896 4282598983
0.43393314 -0.0097707286 0.60074008 4282926921
0.43456751 -0.0094067678 0.60081887 4282597188
0.43503261 -0.0089360103 0.60085005 4281941302
0.43186039 -0.012280636 0.60130155 4283256644
0.43207124 -0.011650078 0.60126072 4283190342
0.4326188 -0.011235662 0.60131615 4283716686
0.432998 -0.010713167 0.60132343 4284111444
0.43346184 -0.010244079 0.60135484 4283059010
0.43392605 -0.0097745731 0.60138619 4282729791
0.43439049 -0.0093046352 0.6014176 4282268991
0.43502545 -0.0089398548 0.60149717 4282007097
0.43164182 -0.012915872 0.60198849 4282861888
0.43185326 -0.01228448 0.60194713 4283256387
0.4322325 -0.011761986 0.60195446 4283452744
0.4326117 -0.011239491 0.60196173 4283255619
0.43299091 -0.010717012 0.601969 4283189826
0.43337011 -0.010194518 0.60197634 4283321410
0.43391889 -0.0097784176 0.6020323 4282598459
0.4342984 -0.0092555061 0.60203958 4282137662
0.4350183 -0.0089437142 0.6021443 4282137660
0.43150637 -0.01360663 0.60270107 4283386951
0.43171859 -0.012974165 0.60265923 4282926654
0.43201423 -0.012396805 0.60264194 4283321412
0.43230954 -0.011819862 0.6026246 4283650125
0.43260455 -0.011243336 0.60260731 4283387205
0.4328993 -0.010667227 0.60259002 4283124033
0.4334476 -0.010251768 0.60264653 4283255617
0.43374217 -0.0096758679 0.60262918 4282466619
0.43437624 -0.0093123391 0.60271031 4282071869
0.43501118 -0.0089475587 0.60279149 4282137660
0.43556178 -0.0085289404 0.60284799 4282137660
0.43166667 -0.013719819 0.60339767 4283320645
0.43187919 -0.013086937 0.60335529 4283188030
0.43200707 -0.012400649 0.60328805 4283451200
0.43238658 -0.011877738 0.60329533 4283321158
0.43259746 -0.01124718 0.60325289 4283321158
0.43297666 -0.010724686 0.60326022 4283123779
0.43335587 -0.010202207 0.60326749 4283124031
0.43390465 -0.0097861066 0.60332453 4282465849
0.43436909 -0.0093161836 0.60335666 4282269242
0.43500406 -0.0089514181 0.60343862 4282795586
0.43195593 -0.013145246 0.60402727 4283122496
0.43225202 -0.012567259 0.60400945 4283319875
0.43246365 -0.011935629 0.60396653 4283321158
0.43275899 -0.011358686 0.60394871 4283255365
0.433054 -0.010782145 0.60393089 4283057986
