# .PCD v0.7 - Point Cloud Data file format
VERSION 0.7
FIELDS x y z rgb
SIZE 4 4 4 4
TYPE F F F U
COUNT 1 1 1 1
WIDTH 1047
HEIGHT 1
VIEWPOINT 0 0 0 1 0 0 0
POINTS 1047
DATA ascii
0.46350241 -0.023709983 0.59768468 4283846975
0.46282035 -0.023699954 0.59763896 4283649081
0.46213931 -0.023690239 0.59759325 4283517495
0.46142486 -0.023774639 0.59752327 4283845174
0.46074602 -0.023765638 0.59747756 4284634177
0.46006817 -0.023756966 0.59743184 4284765763
0.4593913 -0.023748606 0.59738612 4284832069
0.45868203 -0.023834676 0.59731615 4284438335
0.4580074 -0.023827016 0.59727037 4284438335
0.45730084 -0.023913965 0.59720039 4284240956
0.45659575 -0.02400139 0.59713042 4284306749
0.45595697 -0.023900434 0.5971089 4284504128
0.45525438 -0.023988649 0.59703887 4284306747
0.45458513 -0.023982733 0.59699309 4284438333
0.45385358 -0.02416651 0.59689885 4284503874
0.45318681 -0.024161384 0.59685308 4284043837
0.45248988 -0.024251431 0.59678304 4284307009
0.45179442 -0.024341941 0.59671301 4284373317
0.45110044 -0.024432927 0.59664297 4283979077
0.45043838 -0.024429336 0.59659719 4284110663
0.44974709 -0.024521217 0.5965271 4284306759
0.44908726 -0.024518341 0.59648132 4284043587
0.44842839 -0.024515763 0.59643549 4284108348
0.44779995 -0.02441816 0.59641391 4284174393
0.44717205 -0.024320692 0.59639233 4283977014
0.44654459 -0.024223387 0.59637076 4284108346
0.44588894 -0.024221867 0.59632498 4284174139
0.4452627 -0.024124965 0.5963034 4284371522
0.44460878 -0.024123982 0.59625757 4283910971
0.44392788 -0.024219185 0.59618741 4283781182
0.44327617 -0.024218932 0.59614158 4283452733
0.44259796 -0.024315014 0.59607148 4282860859
0.44194847 -0.024315476 0.59602565 4282663480
0.44127297 -0.024412423 0.59595549 4282400310
0.44059896 -0.024509862 0.59588534 4282334517
0.43995294 -0.024511412 0.5958395 4282466873
0.43930787 -0.024513304 0.5957936 4282466871
0.43866381 -0.024515525 0.59574771 4282795836
0.43802074 -0.024518043 0.59570187 4282927674
0.43740416 -0.024424255 0.59568024 4283189561
0.43681329 -0.024233878 0.59568286 4283123770
0.43619746 -0.024140283 0.59566128 4282926137
0.43558207 -0.024046883 0.59563965 4282991930
0.43499172 -0.02385667 0.59564233 4283386172
0.43442565 -0.02356939 0.59566921 4283452217
0.43383503 -0.023379087 0.59567189 4283255354
0.43322068 -0.023286015 0.59565026 4283386690
0.4326303 -0.023095787 0.59565288 4284110413
0.46957427 -0.024098709 0.59867036 4285228393
0.46892118 -0.023993134 0.59864867 4284701780
0.46823174 -0.023980722 0.59860247 4284635724
0.46757987 -0.023875549 0.59858072 4284373319
0.46689215 -0.023863703 0.59853452 4284110147
0.46620542 -0.02385214 0.59848833 4283517243
0.46548381 -0.02393423 0.59841764 4283649081
0.46487054 -0.023736611 0.59842038 4283978559
0.46418652 -0.023725957 0.59837419 4283912514
0.46350348 -0.0237156 0.59832793 4283846721
0.46278659 -0.023799196 0.59825724 4283649083
0.46210575 -0.02378957 0.59821099 4283583288
0.46142593 -0.023780242 0.59816474 4283779383
0.46074709 -0.023771241 0.59811848 4284634177
0.46006924 -0.023762569 0.59807229 4284765763
0.45935875 -0.023848236 0.59800154 4284701253
0.4586831 -0.023840263 0.59795523 4284438081
0.45800847 -0.023832604 0.59790897 4284438081
0.45730191 -0.023919538 0.59783822 4284240956
0.45659682 -0.024006948 0.59776747 4284175163
0.45595804 -0.023905993 0.59774566 4284240702
0.45525542 -0.023994207 0.59767491 4283846196
0.45455429 -0.024082884 0.5976041 4284175415
0.45385465 -0.024172053 0.59753335 4284438081
0.45315647 -0.024261668 0.59746253 4284175425
0.45245975 -0.024351791 0.59739172 4284307011
0.45176455 -0.02444239 0.59732091 4284175425
0.45107082 -0.024533436 0.5972501 4284044354
0.450409 -0.024529919 0.59720373 4284110917
0.44974816 -0.024526715 0.59715742 4284371520
0.44905835 -0.024619043 0.59708661 4284305727
0.44842947 -0.024521261 0.59706479 4284173880
0.44780102 -0.024423644 0.59704292 4283845426
0.44714388 -0.024421632 0.59699661 4283845946
0.44651669 -0.024324417 0.59697479 4283976510
0.44588998 -0.024227351 0.59695297 4283976510
0.44523531 -0.024226144 0.5969066 4284108350
0.44458163 -0.02422525 0.59686023 4283977532
0.44392893 -0.024224654 0.59681386 4283912253
0.44324946 -0.024320334 0.59674299 4283583803
0.442599 -0.024320483 0.59669662 4283386942
0.44194952 -0.02432093 0.59665024 4283189563
0.44130099 -0.02432169 0.59660387 4283124022
0.44062674 -0.024419039 0.59653294 4282730547
0.43995398 -0.024516851 0.59646207 4282730550
0.43930894 -0.024518743 0.59641564 4283255869
0.43866485 -0.024520963 0.59636927 4283190076
0.43802178 -0.024523467 0.59632283 4283254838
0.43740517 -0.024429679 0.59630096 4283385909
0.43681434 -0.024239302 0.59630364 4283188278
0.43619847 -0.024145707 0.59628177 4283056953
0.43555835 -0.024149194 0.59623533 4283122746
0.43499276 -0.023862094 0.59626251 4283254586
0.43437815 -0.023768902 0.59624064 4283254838
0.43378803 -0.023578763 0.59624326 4283255354
0.43319792 -0.023388624 0.59624594 4283189313
0.43260783 -0.023198485 0.59624857 4284636759
0.46888515 -0.024091691 0.59927082 4284833886
0.46819597 -0.024079368 0.59922409 4284439378
0.46754435 -0.02397427 0.59920216 4284110663
0.4668569 -0.023962468 0.59915543 4284110663
0.4661704 -0.023951009 0.5991087 4283452733
0.46548492 -0.023939848 0.59906197 4283386940
0.464836 -0.023835644 0.59903997 4284044100
0.46411687 -0.023918509 0.59896845 4284043587
0.46346945 -0.023814768 0.59894645 4283846208
0.46278766 -0.023804814 0.59889972 4283648829
0.46207222 -0.023888886 0.59882826 4283583036
0.46139264 -0.023879647 0.59878147 4283648315
0.46071404 -0.023870707 0.59873474 4284568899
0.46003643 -0.023862109 0.59868795 4284832071
0.45935982 -0.023853824 0.59864116 4284701255
0.45868418 -0.023845837 0.59859437 4284438083
0.4579764 -0.023932368 0.59852284 4284306497
0.45730299 -0.023925111 0.59847605 4284108866
0.45663056 -0.023918182 0.59842926 4283977280
0.45595911 -0.023911551 0.59838247 4284109120
0.45528865 -0.023905247 0.59833568 4283780405
0.45458728 -0.02399385 0.59826416 4284043829
0.45388737 -0.024082914 0.59819257 4284438335
0.45318896 -0.024172455 0.59812099 4284175423
0.45246083 -0.024357319 0.59802461 4284307009
0.45179653 -0.024352998 0.59797782 4284043839
0.45110255 -0.024443969 0.59790623 4284044352
0.4504405 -0.024440378 0.59785938 4284110145
0.44977939 -0.0244371 0.59781253 4284436802
0.44908935 -0.024529353 0.59774089 4284371009
0.44843051 -0.02452676 0.59769404 4284239419
0.44780207 -0.024429142 0.59767199 4283713842
0.44714493 -0.024427131 0.59762514 4283845694
0.44651774 -0.024329916 0.59760302 4283845696
0.44586232 -0.024328455 0.59755617 4283845696
0.44523636 -0.024231628 0.59753406 4284108096
0.44458267 -0.024230719 0.59748721 4283977534
0.44390202 -0.024325997 0.59741557 4283912255
0.44325054 -0.024325803 0.59736866 4283583036
0.44260004 -0.024325937 0.59732175 4283452733
0.44195056 -0.024326384 0.5972749 4283321147
0.44130206 -0.024327144 0.59722799 4283189813
0.44062778 -0.024424493 0.59715629 4283059510
0.43998152 -0.024425983 0.59710938 4282927926
0.43933621 -0.024427772 0.59706247 4283518526
0.43869188 -0.024429888 0.59701556 4283452733
0.43804857 -0.024432331 0.59696865 4283385909
0.43740621 -0.024435103 0.59692168 4283583026
0.43679011 -0.024341419 0.59689957 4283320118
0.43617451 -0.024247944 0.59687746 4283056692
0.43555939 -0.024154603 0.59685528 4283188278
0.43494478 -0.024061427 0.59683317 4283319864
0.43437919 -0.023774326 0.59686059 4283254838
0.43376505 -0.023681313 0.59683847 4283386424
0.43317521 -0.023491248 0.5968411 4283650375
0.46819705 -0.024085 0.5998702 4284834136
0.46750885 -0.02407299 0.599823 4284241999
0.46682161 -0.024061248 0.59977579 4284176206
0.46613538 -0.024049863 0.59972852 4284242510
0.46545014 -0.024038807 0.59968126 4283913547
0.46473026 -0.024121419 0.59960902 4284175175
0.46411794 -0.023924127 0.59961176 4284174913
0.46343541 -0.023913935 0.59956449 4284043327
0.46271896 -0.023997679 0.59949219 4283978048
0.46203867 -0.023988187 0.59944493 4283648831
0.46135932 -0.023979008 0.59939766 4283845958
0.46068099 -0.023970172 0.59935039 4284569165
0.46000361 -0.023961633 0.59930313 4284766544
0.4593609 -0.023859411 0.59928083 4284635472
0.45868525 -0.023851424 0.59923351 4284306759
0.45801061 -0.023843765 0.59918624 4284503626
0.45730406 -0.023930684 0.59911394 4283976260
0.4566316 -0.023923755 0.59906662 4283976260
0.45596018 -0.023917124 0.59901929 4284174659
0.45528972 -0.023910806 0.59897196 4283714358
0.45462024 -0.023904815 0.59892464 4283977782
0.4539201 -0.02399382 0.59885234 4283649331
0.45322144 -0.024083287 0.59877998 4283846458
0.45252424 -0.024173215 0.59870762 4284043837
0.45182854 -0.024263635 0.5986352 4283977532
0.45116499 -0.024259552 0.59858787 4283845946
0.450472 -0.024350837 0.59851551 4283912253
0.44978046 -0.024442598 0.59844309 4284108350
0.44912034 -0.024439633 0.59839576 4284108350
0.44846123 -0.024436966 0.59834838 4283779385
0.44780314 -0.024434641 0.59830099 4283648567
0.447146 -0.024432614 0.59825361 4283649083
0.44651878 -0.024335399 0.59823132 4283846208
0.44586337 -0.024333939 0.59818393 4283846208
0.44520894 -0.024332777 0.59813654 4283977794
0.44458371 -0.024236202 0.59811413 4283846975
0.44393101 -0.024235606 0.59806675 4283583803
0.44325158 -0.024331272 0.59799433 4283583290
0.44260108 -0.024331406 0.59794688 4283583803
0.4419516 -0.024331838 0.5978995 4283452217
0.4413031 -0.024332598 0.59785211 4283452215
0.44065559 -0.024333686 0.59780467 4283649079
0.44000906 -0.024335101 0.59775722 4283781178
0.43936348 -0.0243368 0.59770983 4283978307
0.43871891 -0.024338841 0.59766239 4283780928
0.43807536 -0.024341196 0.59761494 4283583290
0.43743277 -0.024343863 0.5975675 4283780153
0.43681642 -0.024250135 0.59754509 4283845946
0.43620056 -0.024156541 0.59752274 4283714358
0.4355852 -0.02406314 0.59750032 4283648565
0.43499485 -0.023872927 0.59750295 4283649083
0.43438023 -0.02377975 0.59748054 4283452733
0.4337661 -0.023686722 0.59745818 4283518010
0.43317622 -0.023496658 0.59746081 4286939510
0.46747333 -0.02417168 0.60044336 4284506454
0.46678635 -0.024160042 0.60039556 4284243282
0.46610034 -0.024148718 0.60034782 4284046160
0.46541536 -0.024137735 0.60030007 4284045133
0.46473134 -0.024127036 0.60025227 4284372554
0.4640483 -0.02411668 0.60020453 4284371522
0.46336624 -0.024106637 0.60015672 4284305729
0.4626852 -0.024096906 0.60010892 4284174659
0.46203974 -0.02399379 0.60008639 4283714370
0.46132603 -0.024078399 0.60001338 4283911753
0.46068206 -0.023975775 0.59999079 4284503888
0.46000469 -0.023967221 0.59994304 4284635474
0.45936197 -0.023864999 0.59992045 4284569679
0.45868632 -0.023857012 0.59987265 4284175175
0.45801169 -0.023849338 0.59982485 4284437833
0.45733804 -0.023842007 0.59977704 4284041540
0.45666534 -0.023834974 0.59972918 4284041540
0.45599365 -0.023828268 0.59968138 4284306247
0.45532295 -0.02382189 0.59963351 4283714360
0.45465323 -0.023815811 0.59958571 4283912505
0.45395285 -0.023904711 0.59951258 4283583538
0.45325392 -0.023994088 0.59943944 4283846458
0.45258766 -0.023989111 0.59939158 4284043837
0.45189145 -0.024079368 0.59931844 4283780155
0.4512274 -0.024075121 0.59927058 4283845946
0.45053393 -0.024166241 0.59919745 4283846460
0.44984189 -0.024257839 0.59912425 4283845178
0.44918129 -0.024254709 0.59907639 4283976764
0.44849199 -0.024347201 0.5990032 4283582006
0.44783363 -0.024344757 0.59895533 4283648567
0.44717625 -0.024342656 0.59890741 4283714874
0.44651985 -0.024340883 0.59885955 4283912255
0.44586444 -0.024339437 0.59881163 4283649083
0.44523847 -0.024242595 0.59878904 4283977794
0.44458479 -0.024241671 0.59874111 4283846975
0.44393206 -0.024241075 0.59869319 4283583801
0.44328034 -0.024240807 0.59864527 4283386424
0.44262964 -0.024240866 0.59859735 4283649596
0.44197989 -0.024241209 0.59854943 4283649596
0.44133115 -0.024241894 0.5985015 4283649594
0.44068336 -0.024242893 0.59845358 4283714874
0.44003657 -0.024244204 0.5984056 4283912255
0.43939078 -0.024245843 0.59835768 4284044354
0.43874598 -0.024247795 0.59830976 4283846975
0.43810213 -0.02425006 0.59826177 4283714876
0.43745929 -0.024252653 0.59821379 4283845948
0.43681747 -0.024255559 0.59816587 4284109120
0.43622661 -0.024065182 0.59816849 4283714874
0.43558624 -0.024068564 0.59812051 4283714874
0.43499589 -0.023878336 0.59812319 4283649083
0.43438125 -0.023785159 0.59810054 4283650112
0.43379116 -0.02359502 0.59810317 4283583549
0.46678743 -0.024165675 0.60104042 4284704361
0.46606532 -0.024247587 0.60096663 4284309852
0.46538055 -0.024236649 0.60091835 4284505686
0.46469679 -0.02422604 0.60087001 4284635472
0.46401399 -0.024215758 0.60082173 4284438093
0.46333221 -0.024205789 0.60077345 4284174921
0.46268627 -0.024102524 0.60075068 4284307794
0.46197155 -0.02418679 0.60067683 4283978575
0.46129271 -0.024177775 0.6006285 4284110161
0.46064901 -0.024075225 0.60060573 4284242001
0.45997187 -0.024066761 0.60055739 4284439380
0.45929575 -0.02405861 0.60050905 4284373583
0.45865399 -0.023956701 0.60048628 4284176204
0.45801276 -0.023854926 0.60046345 4284307274
0.45733908 -0.02384758 0.60041511 4284108614
0.45666641 -0.023840547 0.60036677 4284108614
0.45599473 -0.023833841 0.60031843 4284371270
0.45535618 -0.023732945 0.6002956 4283780155
0.45468622 -0.023726776 0.60024726 4283846973
0.45401722 -0.02372095 0.60019892 4283649844
0.45331782 -0.023810163 0.60012501 4283912764
0.45265108 -0.023805037 0.60007662 4283978557
0.4519853 -0.023800209 0.60002828 4283714622
0.4513205 -0.023795739 0.59997988 4283714622
0.45065671 -0.023791566 0.59993148 4283714876
0.44996372 -0.023882851 0.59985757 4283713590
0.44927219 -0.023974597 0.5997836 4283976762
0.44861186 -0.023971528 0.5997352 4283647797
0.44792303 -0.024064153 0.59966129 4283583290
0.44726491 -0.024061814 0.59961289 4283846973
0.44660777 -0.024059787 0.59956443 4283912255
0.44595161 -0.024058074 0.59951603 4283846462
0.44529644 -0.024056688 0.59946764 4284109120
0.44461405 -0.02415137 0.59939361 4283846973
0.44396108 -0.024150714 0.59934521 4283583801
0.44330913 -0.024150357 0.59929675 4283452215
0.44268563 -0.024054319 0.59927386 4283649594
0.44200817 -0.024150595 0.59919989 4283781180
0.44135916 -0.024151191 0.59915143 4283912766
0.44073787 -0.024055853 0.59912854 4283714876
0.4400906 -0.024057016 0.59908009 4283846462
0.4394443 -0.024058476 0.59903163 4283847745
0.43879899 -0.024060279 0.59898317 4283847745
0.4381547 -0.02406238 0.59893471 4283650112
0.43748584 -0.024161443 0.59886062 4284043587
0.43686903 -0.024067551 0.59883773 4284043841
0.43622765 -0.024070606 0.59878927 4283912253
0.43561205 -0.023977086 0.59876633 4283978046
0.43502146 -0.023786798 0.59876901 4283780928
0.43440658 -0.023693547 0.59874606 4283649860
0.43381622 -0.023503318 0.59874868 4285427558
0.46606642 -0.024253219 0.60161066 4284968301
0.4653458 -0.024335578 0.6015361 4283914841
0.46466225 -0.024325043 0.60148728 4284505686
0.4640151 -0.024221376 0.60146427 4284636757
0.46333328 -0.024211407 0.6014154 4284241999
0.46265244 -0.024201736 0.60136658 4284308053
0.46193802 -0.024286091 0.60129201 4284176467
0.46129379 -0.024183378 0.60126895 4284373846
0.46061593 -0.02417466 0.60122013 4284308053
0.45993906 -0.024166286 0.60117126 4284571225
0.45929682 -0.024064198 0.60114819 4284505686
0.45865506 -0.023962289 0.60112512 4284242512
0.45801383 -0.023860499 0.60110211 4284241997
0.45734015 -0.023853153 0.60105324 4284306507
0.45666748 -0.023846105 0.60100436 4284174921
0.45602819 -0.023744985 0.6009813 4284174659
0.45535725 -0.023738503 0.60093242 4283714876
0.45471919 -0.023637787 0.60090935 4283846973
0.45404997 -0.023631856 0.60086048 4283781432
0.45338172 -0.023626238 0.6008116 4284109632
0.45274565 -0.023526147 0.60078853 4284109632
0.45207915 -0.023521096 0.6007396 4283714876
0.4514136 -0.023516372 0.60069072 4283714622
0.4507795 -0.023416892 0.60066766 4283714876
0.45008552 -0.023507848 0.60059291 4283845176
0.44942296 -0.023504078 0.60054404 4284174141
0.44873169 -0.023595899 0.60046929 4283319602
0.44804189 -0.023688197 0.60039461 4283122737
0.44735357 -0.023780987 0.60031986 4283847743
0.44666672 -0.023874223 0.60024512 4283846973
0.44601008 -0.023872361 0.60019618 4283781180
0.4453544 -0.023870811 0.60014725 4284109120
0.44469973 -0.023869574 0.60009831 4283716157
0.44401807 -0.023964494 0.60002351 4283190326
0.44333789 -0.024059892 0.59994876 4283321399
0.44268668 -0.024059787 0.59989983 4283452985
0.44206366 -0.023963898 0.59987664 4283715907
0.44138718 -0.024060473 0.5998019 4283518274
0.44076568 -0.023965076 0.59977871 4283583803
0.44011813 -0.023966134 0.59972978 4283847745
0.43949783 -0.023871139 0.59970659 4283781698
0.43885204 -0.023872748 0.5996576 4283847491
0.43818149 -0.023971245 0.59958279 4283585604
0.43756339 -0.023876965 0.59955966 4283781698
0.43689531 -0.023976251 0.5994848 4284044350
0.4362787 -0.023882434 0.59946167 4283978559
0.4356626 -0.023788765 0.59943849 4283978559
0.435047 -0.023695275 0.5994153 4283518526
0.43443188 -0.023601919 0.59939212 4285362790
0.46534687 -0.024341196 0.60217941 4287863708
0.46466333 -0.024330661 0.60213006 4287799198
0.46394542 -0.024413913 0.60205466 4287337613
0.46329924 -0.024310544 0.60203135 4286877062
0.46261865 -0.024300963 0.601982 4285495146
0.4619391 -0.024291679 0.60193264 4285296995
0.46129486 -0.024188966 0.6019094 4284836444
0.46061701 -0.024180248 0.60186005 4284048213
0.45994014 -0.024171874 0.60181063 4284442971
0.45933154 -0.023975775 0.60181338 4284113495
0.45868954 -0.023873761 0.60179007 4284177748
0.45801491 -0.023866072 0.60174072 4284570194
0.45734122 -0.023858726 0.60169131 4284504401
0.45670122 -0.023757353 0.601668 4284372815
0.45602927 -0.023750558 0.60161865 4284307272
0.45542264 -0.0235551 0.60162133 4283978561
0.4547841 -0.023454204 0.60159802 4284110145
0.45414603 -0.023353457 0.60157466 4284044350
0.45347705 -0.023347601 0.60152531 4283912764
0.45284024 -0.023247272 0.60150194 4284307526
0.45220393 -0.023147091 0.60147858 4283846975
0.4515374 -0.023142055 0.60142916 4283846462
0.45090231 -0.023042262 0.60140586 4283912255
0.45023751 -0.023037776 0.60135645 4283912253
0.44954377 -0.023128793 0.60128093 4283978046
0.44888121 -0.023124993 0.60123152 4283846712
0.44816074 -0.023312271 0.60112995 4283847225
0.44747144 -0.023404717 0.60105443 4283979581
0.4467836 -0.023497656 0.60097891 4283716155
0.44609725 -0.023591071 0.60090339 4283518776
0.4454124 -0.023684934 0.60082787 4284043323
0.444729 -0.023779303 0.60075235 4283649592
0.44404709 -0.023874149 0.60067683 4283190324
0.44336668 -0.023969457 0.60060126 4283321397
0.4427152 -0.023969248 0.60055178 4283518776
0.44209194 -0.023873284 0.60052842 4283518274
0.44144219 -0.023873642 0.60047889 4283452481
0.44076672 -0.023970529 0.60040337 4283518526
0.44014567 -0.023875281 0.60037994 4283847745
0.43952513 -0.023780182 0.60035652 4283518526
0.43890509 -0.023685262 0.60033309 4283847491
0.43825978 -0.023687035 0.60028362 4283585602
0.43758994 -0.023785755 0.60020804 4283781952
0.43697211 -0.023691535 0.60018462 4283913788
0.43632978 -0.023694262 0.60013509 4284044350
0.43571317 -0.023600459 0.60011166 4283912764
0.43509707 -0.02350679 0.60008824 4286019175
0.46398187 -0.024326056 0.60272294 4288257951
0.46326518 -0.024409682 0.60264683 4288257951
0.46258485 -0.02440016 0.60259694 4288060570
0.46190554 -0.024390981 0.60254705 4287863191
0.46126157 -0.024288341 0.60252351 4288059800
0.46058396 -0.024279714 0.60247362 4287600019
0.45994121 -0.024177462 0.60245007 4287600019
0.45933262 -0.023981363 0.60245275 4287797398
0.45869061 -0.023879349 0.60242921 4287993490
0.45801598 -0.02387166 0.60237932 4288190869
0.4573752 -0.023770049 0.60235572 4288782753
0.45673493 -0.023668602 0.60233217 4289506476
0.45609516 -0.023567304 0.60230857 4283912003
0.45545587 -0.02346617 0.60228497 4283977280
0.454849 -0.023270622 0.60228771 4283847491
0.45424211 -0.023075074 0.60229045 4283979077
0.4536038 -0.022974268 0.60226685 4284176456
0.452966 -0.02287361 0.60224324 4284044102
0.45229778 -0.022868007 0.60219336 4283583288
0.45169187 -0.022672787 0.60219604 4283517747
0.45105556 -0.022572577 0.60217243 4283846458
0.45035934 -0.022662804 0.6020962 4283714872
0.44969457 -0.022658318 0.60204625 4283583290
0.44897136 -0.022844672 0.60194367 4283780928
0.44830906 -0.022840977 0.60189372 4283649596
0.44758931 -0.023028478 0.60179114 4283912764
0.44687152 -0.023216605 0.6016885 4283781178
0.44618446 -0.023309767 0.60161221 4283583799
0.44547039 -0.023499072 0.60150957 4284240702
0.44481471 -0.023497522 0.60145962 4284174909
0.44410411 -0.023687944 0.60135698 4283978298
0.44342318 -0.023783088 0.60128063 4283846712
0.44274372 -0.023878723 0.60120434 4283846712
0.44209301 -0.023878753 0.60115433 4284109380
0.44147024 -0.023782939 0.60113066 4284044354
0.44082123 -0.023783535 0.60108066 4284044354
0.4401997 -0.023688093 0.60105699 4283978825
0.43955243 -0.02368924 0.60100698 4283650879
0.43893212 -0.023594216 0.60098332 4283914051
0.43828657 -0.023595929 0.60093331 4283717442
0.43764201 -0.023597941 0.60088325 4283847745
0.43702367 -0.023503557 0.60085958 4283847745
0.43638083 -0.02350612 0.60080957 4285361763
0.43576375 -0.023412138 0.60078585 4287335553
0.46190661 -0.024396583 0.6031875 4288060574
0.46122825 -0.024387702 0.60313714 4288060574
0.46058503 -0.024285302 0.60311329 4288059804
0.45994228 -0.02418305 0.60308945 4288059804
0.45933369 -0.023986951 0.60309219 4288256413
0.45869169 -0.023884937 0.60306835 4288256413
0.45805019 -0.023783088 0.60304451 4288124573
0.45740917 -0.023681372 0.60302067 4287862171
0.45676866 -0.023579836 0.60299683 4287138448
0.45616105 -0.023384064 0.60299957 4283976778
0.45555341 -0.023188278 0.60300231 4284108616
0.45497772 -0.022897929 0.60303158 4284702032
0.45433819 -0.02279672 0.60300773 4285492318
0.45373058 -0.022600934 0.60301048 4285952869
0.4530918 -0.022499964 0.60298663 4284767571
0.45245349 -0.022399142 0.60296279 4283583288
0.45181569 -0.022298485 0.60293889 4283517747
0.45114794 -0.022293031 0.60288846 4283583286
0.45051137 -0.022192761 0.60286462 4283451700
0.44984534 -0.022187844 0.6028142 4283122739
0.44915062 -0.022278547 0.60273713 4283451965
0.44842792 -0.022465095 0.60263354 4283123770
0.44770718 -0.022652239 0.60252988 4283517756
0.4469884 -0.022840038 0.60242623 4283517497
0.44630036 -0.022932872 0.60234916 4283649083
0.44558528 -0.023121879 0.60224551 4284109120
0.4448722 -0.023311496 0.60214186 4284108350
0.44416109 -0.023501754 0.60203815 4284109118
0.44342422 -0.023788571 0.60190785 4284109116
0.44274479 -0.023884192 0.60183078 4284109116
0.44212127 -0.023788154 0.60180682 4284306499
0.44149828 -0.02369225 0.60178292 4284044354
0.44084901 -0.023692757 0.60173237 4284110147
0.44022724 -0.023597255 0.60170847 4284241227
0.43960595 -0.023501903 0.60168457 4283846469
0.43895918 -0.023503199 0.60163403 4284111176
0.43833911 -0.023408264 0.60161006 4283914567
0.43769407 -0.023410127 0.60155952 4283715905
0.43704998 -0.023412302 0.60150898 4285558372
0.43643191 -0.023317993 0.60148507 4287137928
0.45385733 -0.022227645 0.60375619 4285159769
0.45321757 -0.022126332 0.60373205 4284897362
0.45254737 -0.022120073 0.60368115 4284438085
0.45187813 -0.022114143 0.60363019 4283386422
0.4512403 -0.022013471 0.60360605 4283254584
0.4506332 -0.021817848 0.60360879 4283254584
0.44993624 -0.021907821 0.603531 4282925619
0.44927046 -0.021903008 0.60348004 4283123000
0.44857621 -0.021993831 0.6034022 4283056953
0.44788346 -0.02208516 0.60332441 4282926139
0.44716322 -0.022272468 0.60321975 4282991932
0.44641626 -0.022556022 0.6030882 4283583299
0.4457002 -0.022744671 0.60298347 4284897362
0.44498613 -0.02293399 0.60287881 4285095511
0.44424605 -0.023219749 0.6027472 4287400324
0.44348073 -0.023602247 0.60258877 4287730313
0.44277331 -0.023793668 0.60248405 4287927692
0.44214955 -0.02369754 0.60245991 4286744445
0.44149932 -0.023697719 0.60240889 4286086261
0.44087678 -0.023601979 0.60238469 4286348658
0.44025478 -0.023506418 0.60236049 4286414703
0.43963325 -0.023410991 0.60233629 4286809461
0.43898621 -0.023412198 0.60228527 4286743671
0.43834016 -0.023413718 0.60223418 4287598982
0.43774611 -0.023222297 0.60223687 4287401353
0.43710154 -0.023224324 0.60218579 4287203974
0.45398411 -0.021854356 0.60450393 4284304714
0.45334333 -0.02175273 0.60447961 4284370505
0.45267215 -0.021746159 0.60442811 4283910206
0.45203263 -0.021644935 0.60440373 4283122737
0.45136315 -0.021638915 0.6043523 4283057459
0.45075503 -0.021442965 0.60435504 4283057459
0.45005709 -0.02153261 0.60427648 4282859828
0.44936064 -0.021622732 0.60419786 4282991414
0.44869509 -0.021617979 0.60414636 4282991160
0.44800135 -0.02170898 0.6040678 4282728760
0.44730908 -0.021800458 0.60398918 4282991932
0.44658959 -0.021988004 0.6038835 4283122748
0.44587207 -0.022176161 0.60377777 4287200115
0.44217783 -0.023606941 0.60311341 4287337100
0.44155434 -0.023510888 0.60308897 4287139470
0.44093132 -0.023414999 0.60306454 4287008135
0.44030881 -0.023319259 0.6030401 4287533707
0.43966055 -0.023320079 0.60298854 4287467914
0.43903926 -0.023224726 0.6029641 4287467914
0.43841848 -0.023129523 0.60293967 4287467914
0.43777266 -0.023131132 0.60288811 4287533456
0.45411089 -0.021481082 0.60525382 4286541926
0.45346913 -0.021379158 0.6052292 4285029200
0.45279694 -0.021372229 0.60517722 4284634442
0.45215642 -0.021270692 0.60515261 4283319602
0.45151639 -0.021169305 0.60512799 4282925871
0.45084667 -0.02116321 0.60507596 4282925871
0.45014799 -0.021252617 0.60499662 4282925621
0.4494805 -0.021247193 0.60494465 4282925367
0.44881397 -0.021242127 0.60489267 4282991160
0.44811922 -0.0213328 0.60481328 4282860344
0.44745493 -0.021328449 0.6047613 4282991930
0.44095913 -0.023324236 0.6037181 4287206546
0.44033635 -0.023228422 0.60369343 4287534741
0.45356375 -0.021100372 0.60595322 4285555290
0.45289081 -0.02109322 0.60590076 4284831821
0.45221886 -0.02108638 0.60584825 4283779383
0.45154792 -0.021079868 0.60579574 4283188528
0.45087793 -0.021073669 0.60574329 4283056942
0.45020896 -0.021067798 0.60569078 4282925619
0.44954097 -0.021062255 0.60563827 4283056953
0.44893286 -0.02086632 0.60564101 4282991930
0.44826633 -0.020861208 0.6055885 4282860859
0.44760078 -0.020856455 0.60553592 4283058238
0.44693625 -0.020852014 0.60548341 4282926139
0.45436442 -0.020734593 0.60675973 4287725682
0.45362717 -0.020916387 0.60665095 4285685845
0.45295376 -0.020909086 0.60659796 4284897612
0.4522813 -0.020902082 0.60654497 4283780151
0.45160985 -0.020895407 0.60649198 4283254834
0.45093942 -0.020889059 0.60643893 4282991662
0.45026994 -0.020883009 0.60638589 4282991666
0.44960141 -0.020877287 0.6063329 4283057207
0.44896337 -0.02077654 0.60630774 4282991930
0.44832581 -0.020675957 0.60628259 4282926650
0.44768876 -0.020575508 0.60625744 4283189822
0.44705218 -0.020475224 0.60623229 4282794553
0.45369062 -0.020732418 0.60734975 4285883476
0.45295483 -0.020914689 0.60723996 4285159238
0.45231307 -0.02081275 0.60721457 4283911219
0.45161092 -0.020900995 0.60713291 4283254834
0.45094049 -0.020894647 0.60707939 4283254834
0.45030093 -0.020793408 0.607054 4282991412
0.4496322 -0.020787612 0.60700041 4283188280
0.44902337 -0.020591438 0.60700315 4283254586
0.4483853 -0.020490676 0.60697776 4283189563
0.44774774 -0.020390078 0.60695237 4283255356
0.44711065 -0.02028966 0.60692692 4282859315
0.44658795 -0.019806728 0.60701406 4286477164
0.45372286 -0.020643249 0.60802114 4285949269
0.45298684 -0.020825431 0.60791034 4285290564
0.45231414 -0.020818353 0.60785627 4284042546
0.45164245 -0.020811588 0.60780227 4283386420
0.45097175 -0.02080512 0.60774821 4283254834
0.450302 -0.020799011 0.60769415 4282991414
0.44963327 -0.0207932 0.60764009 4283188026
0.44902444 -0.020597026 0.60764283 4283385405
0.44838637 -0.020496264 0.60761714 4283255102
0.44774881 -0.020395666 0.60759145 4283189309
0.44714046 -0.020199642 0.60759419 4283319612
0.44656056 -0.019907966 0.60762537 4286806645
0.45381749 -0.020364523 0.6087504 4285817683
0.45304978 -0.020641312 0.60860991 4285290562
0.45231524 -0.020823956 0.60849804 4284174130
0.45164353 -0.02081719 0.60844344 4283451954
0.45097283 -0.020810723 0.6083889 4283320368
0.45030308 -0.020804599 0.6083343 4283057207
0.44966406 -0.020703524 0.60830837 4283319866
0.44902551 -0.020602614 0.60828245 4283450684
0.44835824 -0.020597264 0.60822791 4283320379
0.44774988 -0.020401254 0.60823059 4282925621
0.44717023 -0.020109653 0.608262 4282990135
0.44656163 -0.019913554 0.60826474 4287069827
0.44598126 -0.019621715 0.60829616 4286874251
0.45234698 -0.020734623 0.60916865 4284174132
0.45167506 -0.020727769 0.60911357 4283845167
0.4509739 -0.020816326 0.60902959 4283451438
0.4503341 -0.020715013 0.60900342 4283122739
0.44966513 -0.020709112 0.60894829 4283319604
0.44905603 -0.020512849 0.60895103 4283450168
0.44838852 -0.02050744 0.6088959 4283320118
0.44777989 -0.020311341 0.60889864 4282991153
0.4471713 -0.020115241 0.60890138 4282858549
0.44653425 -0.020014793 0.60887522 4285556075
0.44598234 -0.019627318 0.60893577 4286808708
0.45237875 -0.020645291 0.6098398 4284108598
0.45170656 -0.020638362 0.60978419 4283845426
0.45100516 -0.02072683 0.60969943 4283385129
0.45036513 -0.020625427 0.60967302 4283384877
0.44969589 -0.020619452 0.60961741 4283450670
0.4490571 -0.020518437 0.60959095 4283384623
0.4484188 -0.020417616 0.60956448 4283253809
0.44778097 -0.020316929 0.60953808 4283122223
0.4472011 -0.020025253 0.60956997 4282464307
0.44656378 -0.01992473 0.6095435 4284963422
0.44598341 -0.019632906 0.60957545 4286807936
0.45234913 -0.020745844 0.61045265 4283846462
0.45170763 -0.020643964 0.61042595 4283517497
0.45103642 -0.020637348 0.6103698 4283320116
0.45039615 -0.020535856 0.6103431 4283188014
0.44969696 -0.02062504 0.61025757 4283254059
0.44908762 -0.020428702 0.61026031 4283188530
0.44844908 -0.020327777 0.6102336 4283319604
0.44781101 -0.02022703 0.6102069 4283188018
0.44723088 -0.019935265 0.61023909 4282792756
0.44656485 -0.019930318 0.61018294 4286542705
0.44598448 -0.019638494 0.61021507 4286806653
0.45308504 -0.020568907 0.61121058 4284765261
0.4523809 -0.020656511 0.61112428 4283846208
0.45173916 -0.020554557 0.61109734 4283517243
0.4510375 -0.020642951 0.61101103 4283319864
0.45042717 -0.020446301 0.61101377 4282991149
0.44972774 -0.02053538 0.6109274 4283254059
0.44911814 -0.020338967 0.61093014 4283320118
0.44847935 -0.020237967 0.6109032 4283385911
0.44787002 -0.02004163 0.61090595 4283188278
0.44723195 -0.019940853 0.610879 4283253559
0.44659439 -0.019840255 0.610852 4286345580
0.44601378 -0.019548342 0.61088443 4286872448
0.45382288 -0.020392656 0.61197066 4285422423
0.45308611 -0.020574525 0.61185366 4284634958
0.45241266 -0.020567194 0.6117965 4283518276
0.45177066 -0.02046515 0.61176932 4283320897
0.45109898 -0.020458356 0.61171216 4282926643
0.45042825 -0.020451903 0.611655 4282926123
0.44978821 -0.020350471 0.61162776 4283188266
0.44914868 -0.020249218 0.61160058 4283319352
0.44850963 -0.020148143 0.61157334 4283450938
0.44787109 -0.020047218 0.6115461 4283450938
0.44726175 -0.01985088 0.61154884 4283187512
0.44662392 -0.019750178 0.6115216 4284831058
0.4460713 -0.019362479 0.61158431 4287397763
0.45382398 -0.020398289 0.61261475 4285422421
0.45311812 -0.020485297 0.61252689 4284701005
0.45244443 -0.020477876 0.6124692 4283386438
0.45180219 -0.020375744 0.61244178 4283320645
0.45113024 -0.020368889 0.61238408 4282861109
0.45045927 -0.020362318 0.61232638 4282860076
0.449819 -0.020260841 0.61229891 4283057196
0.44917923 -0.020159498 0.61227143 4283188028
0.44853991 -0.020058319 0.61224401 4283319614
0.44790113 -0.019957319 0.61221647 4283319612
0.44729155 -0.019760907 0.61221921 4283055926
0.44668195 -0.019564494 0.61222196 4284370505
0.45379385 -0.020498678 0.61322832 4285356882
0.45308828 -0.02058576 0.61313969 4284634958
0.4524762 -0.020388559 0.61314243 4283452233
0.45177284 -0.020476371 0.6130538 4283320647
0.45113131 -0.020374492 0.61302602 4282926650
0.45046034 -0.02036792 0.61296785 4282400297
0.44984978 -0.020171195 0.61297059 4282925873
0.44918031 -0.020165101 0.61291242 4283123000
0.44854099 -0.020063922 0.61288464 4283254586
0.44793117 -0.01986742 0.61288738 4283123000
0.44729263 -0.01976651 0.61285967 4282530611
0.44671151 -0.019474432 0.61289287 4285555294
0.45376375 -0.020599067 0.61384141 4285094226
0.45308936 -0.020591378 0.6137827 4284306511
0.45244658 -0.020489112 0.61375475 4283452485
0.45177391 -0.020481974 0.61369604 4283320899
0.45113239 -0.020380095 0.61366802 4282926139
0.45046142 -0.020373523 0.61360931 4282859315
0.44982114 -0.020272046 0.6135813 4282925108
0.44918138 -0.020170704 0.61355335 4283057205
0.44857126 -0.019974127 0.61355609 4283254584
0.44793224 -0.019873023 0.61352807 4283385659
0.4473224 -0.019676521 0.61353081 4284503886
0.44674104 -0.019384399 0.61356431 4289042319
0.45422024 -0.021275476 0.61432725 4286279519
0.45376483 -0.020604685 0.61448491 4284897360
0.45305949 -0.020691857 0.61439472 4284109645
0.45241699 -0.02058965 0.61436653 4283320899
0.45174453 -0.020582601 0.61430728 4283255106
0.45107308 -0.020575866 0.61424804 4282860344
0.45043254 -0.0204743 0.61421978 4282990901
0.44982222 -0.020277649 0.61422253 4283056694
0.44918245 -0.020176291 0.61419427 4283122487
0.44854316 -0.020075113 0.61416602 4283319866
0.44796228 -0.019783139 0.61419976 4283648063
0.4473522 -0.019586563 0.6142025 4284174407
0.44677058 -0.019294366 0.61423624 4289437849
0.45425275 -0.021186411 0.61500078 4283983703
0.45370355 -0.020799831 0.61506599 4283849549
0.45302963 -0.020792305 0.61500627 4283454021
0.4523567 -0.020785108 0.61494654 4282927422
0.45168471 -0.020778209 0.61488676 4282730043
0.45104396 -0.020676568 0.61485827 4282532921
0.45040369 -0.020575047 0.61482978 4282532916
0.44979358 -0.02037847 0.61483252 4282729271
0.44915405 -0.020277217 0.61480403 4282729271
0.44857344 -0.019985318 0.614838 4282729271
0.44793439 -0.019884214 0.61480945 4282926904
0.44735327 -0.019592166 0.61484349 4283386940
0.44680014 -0.019204333 0.6149087 4287662463
0.45431668 -0.021002665 0.61570626 4282867021
0.45367345 -0.02090022 0.61567754 4282339390
0.4529379 -0.021082446 0.61555427 4282075445
0.45232707 -0.020885631 0.61555701 4282140214
0.45165536 -0.020878822 0.61549675 4282140214
0.45101482 -0.020777225 0.61546797 4281746228
0.45037481 -0.020675808 0.61543918 4281943607
0.44973525 -0.020574555 0.61541045 4281614640
0.44912568 -0.020378143 0.61541319 4281549101
0.44854531 -0.020086318 0.6154474 4281680687
0.44793546 -0.019889817 0.61545014 4282074675
0.44735435 -0.019597769 0.61548442 4283257664
0.45431775 -0.021008283 0.61634928 4282342990
0.45364335 -0.021000594 0.61628854 4281289532
0.45293897 -0.021088049 0.61619598 4280961589
0.45223606 -0.021175981 0.61610347 4281026614
0.45159554 -0.021074384 0.61607444 4280107826
0.4509857 -0.020877898 0.61607718 4280107826
0.45034593 -0.02077657 0.6160481 4280108340
0.44973633 -0.020580143 0.61605084 4280304944
0.44912675 -0.020383731 0.61605358 4280303657
0.44851714 -0.020187318 0.61605632 4280435243
0.44790757 -0.019990891 0.61605906 4280830001
0.44735542 -0.019603372 0.61612535 4281618233
0.45287815 -0.021283329 0.61677366 4280634420
0.45220646 -0.021276489 0.61671239 4280698932
0.4515357 -0.021269992 0.61665106 4279846198
0.45092636 -0.021073654 0.6166538 4279649072
0.45025712 -0.021067619 0.61659247 4279650355
0.44964829 -0.020871446 0.61659521 4279781678
0.4490689 -0.020579949 0.61662996 4279845418
0.4484598 -0.020383686 0.6166327 4279911211
0.44787967 -0.020091966 0.61666751 4280371764
0.44729906 -0.019800082 0.61670226 4281028667
0.45284829 -0.021383747 0.61738259 4280242481
0.45217684 -0.021377012 0.61732078 4280109612
0.45150635 -0.02137056 0.61725897 4279649840
0.45086706 -0.021269396 0.6172294 4279584047
0.4502582 -0.021073207 0.61723214 4279453744
0.44961965 -0.020972252 0.61720258 4279650605
0.4490405 -0.02068086 0.61723763 4279518506
0.44840246 -0.020580068 0.61720806 4279911981
0.44782281 -0.020288497 0.61724305 4280240946
0.45281842 -0.021484181 0.61799103 4279980844
0.45214722 -0.021477506 0.61792868 4279717418
0.45147699 -0.021471158 0.61786634 4279585064
0.45086813 -0.021274984 0.61786908 4279585064
0.45022932 -0.021173939 0.61783928 4279388455
0.44959101 -0.021073073 0.61780947 4279453994
0.44898266 -0.020877048 0.61781216 4279453996
0.44834509 -0.020776421 0.61778235 4279519789
0.44776595 -0.020485014 0.61781764 4279782961
0.45278856 -0.021584615 0.61859888 4279783979
0.45214829 -0.021483108 0.61856884 4279586346
0.45147806 -0.021476746 0.61850595 4279388453
0.45083898 -0.021375626 0.61847591 4279454246
0.45023039 -0.021179527 0.61847866 4279388455
0.44956237 -0.021173894 0.61841577 4279257129
0.44895428 -0.020977944 0.61841851 4279322926
0.44831696 -0.020877376 0.61838841 4279585584
0.45352396 -0.021407634 0.61936879 4280571444
0.45285153 -0.021400556 0.61930543 4279915311
0.45214936 -0.021488696 0.61920899 4279389998
0.45150957 -0.021387339 0.61917871 4279127080
0.45084006 -0.021381214 0.61911529 4279192873
0.45020151 -0.021280259 0.61908495 4279257644
0.44953376 -0.021274671 0.61902159 4279060015
0.44889644 -0.021174118 0.61899126 4279322674
0.4482888 -0.020978332 0.618994 4279651637
0.45432425 -0.021041989 0.62020743 4281492811
0.45355624 -0.02131851 0.62004358 4280440371
0.45285261 -0.021406144 0.61994636 4279850285
0.45221183 -0.021304473 0.61991584 4279390000
0.45151064 -0.021392927 0.61981863 4279127080
0.45084113 -0.021386802 0.61975467 4279127080
0.45020258 -0.021285847 0.61972409 4279061035
0.44953483 -0.021280259 0.6196602 4279059762
0.44889748 -0.021179691 0.61962962 4279322674
0.44828987 -0.020983905 0.61963236 4279586098
0.45432532 -0.021047607 0.62085044 4281558350
0.45355731 -0.021324113 0.62068534 4280375348
0.45285368 -0.021411747 0.62058735 4279719469
0.4522129 -0.021310076 0.62055653 4279390511
0.45151171 -0.021398515 0.62045854 4279061800
0.45087242 -0.021297336 0.62042767 4279061800
0.45020366 -0.02129142 0.62036324 4279061548
0.44953591 -0.021285832 0.62029886 4278929712
0.44889855 -0.021185264 0.62026799 4279453744
0.44829094 -0.020989493 0.62027073 4279716916
0.45435783 -0.020958558 0.62152731 4281558091
0.45362076 -0.021140233 0.62139469 4280440625
0.45288569 -0.021322548 0.62126213 4279981871
0.45221397 -0.021315664 0.62119722 4279389734
0.45151278 -0.021404117 0.6210984 4279127078
0.45087349 -0.021302924 0.62106735 4279127078
0.45020473 -0.021297008 0.62100238 4278995503
0.44953695 -0.02129142 0.62093747 4278929710
0.44889963 -0.021190852 0.62090635 4279387951
0.44829202 -0.020995066 0.62090909 4279585083
0.44771338 -0.020703837 0.62094563 4279979841
0.45435891 -0.02096419 0.62217057 4281162561
0.45359066 -0.021240592 0.62200284 4280505903
0.4529177 -0.02123332 0.62193745 4280047149
0.45221505 -0.021321267 0.62183791 4279586598
0.45154431 -0.021314725 0.62177247 4279257896
0.45087457 -0.021308511 0.62170696 4279323689
0.4502058 -0.021302596 0.62164152 4279126325
0.44953802 -0.021296993 0.62157607 4278994739
0.44893017 -0.021101132 0.62157881 4279322674
0.44829309 -0.021000639 0.6215474 4279454009
0.44768548 -0.020804867 0.62155014 4279848767
0.45432854 -0.02106446 0.62277949 4281754448
0.45359173 -0.021246195 0.62264484 4280309303
0.45291877 -0.021238923 0.62257886 4279850285
0.45218542 -0.021421775 0.62244421 4279587113
0.45154539 -0.021320328 0.62241262 4279388717
0.45087564 -0.021314099 0.62234664 4279388717
0.45017692 -0.021403328 0.62224633 4279323187
0.4495391 -0.021302581 0.62221467 4278928176
0.44890177 -0.021201998 0.62218308 4279388214
0.44823572 -0.021196961 0.62211704 4279322674
0.44768655 -0.02081044 0.62218851 4279914811
0.45359281 -0.021251813 0.62328684 4280309307
0.45285797 -0.021434143 0.62315112 4279719217
0.45221719 -0.021332458 0.62311929 4279456045
0.451516 -0.021420881 0.62301815 4279389230
0.45087671 -0.021319687 0.62298626 4279323437
0.45017797 -0.021408901 0.62288517 4279257646
0.44951046 -0.021403357 0.62281871 4278928429
0.44890285 -0.021207571 0.62282139 4279388729
0.44826603 -0.021107182 0.6227895 4279257394
0.44765866 -0.02091147 0.62279224 4279783738
0.45356271 -0.021352142 0.62389398 4280243260
0.45285904 -0.021439746 0.62379211 4279587640
0.45215687 -0.021527842 0.62369025 4279390261
0.45148662 -0.021521449 0.62362319 4279258162
0.45084757 -0.021420315 0.62359107 4279192369
0.45017904 -0.021414489 0.62352407 4279126830
0.44951153 -0.02140893 0.62345707 4278929199
0.44887444 -0.021308452 0.62342489 4279061049
0.4482671 -0.021112755 0.62342763 4279388729
0.44765973 -0.020917043 0.62343037 4279849280
0.4534702 -0.021641925 0.6244303 4280177469
0.45279825 -0.021634966 0.62436277 4279456056
0.45215794 -0.021533445 0.6243304 4279062066
0.45148769 -0.021527037 0.62426287 4279258416
0.45084864 -0.021425903 0.62423044 4279192623
0.45018011 -0.021420062 0.62416291 4279126830
0.4495126 -0.021414518 0.62409538 4278995244
0.44893444 -0.021123454 0.62413323 4279061298
0.44829738 -0.021022946 0.62410086 4279454007
0.44768977 -0.020827174 0.62410361 4279848765
0.44711086 -0.020535871 0.62414145 4283792495
0.45347127 -0.021647528 0.62507123 4280111937
0.45273742 -0.021830171 0.62493241 4279521596
0.45212832 -0.021633908 0.62493515 4279259447
0.45148876 -0.021532625 0.62490249 4279193136
0.45084971 -0.021431491 0.62486982 4279061550
0.45018119 -0.02142565 0.62480181 4279126830
0.44954339 -0.021324888 0.62476915 4279061037
0.44896498 -0.021033764 0.62480724 4279060785
0.44832766 -0.020933166 0.62477463 4279585593
0.44769084 -0.020832747 0.62474191 4279848765
0.44714066 -0.020445943 0.62481546 4282280541
0.45344114 -0.021747842 0.62567657 4279981367
0.45273849 -0.021835759 0.62557232 4279521847
0.45212939 -0.021639511 0.62557507 4279062068
0.45148984 -0.021538213 0.62554216 4279192621
0.45085078 -0.021437079 0.62550926 4279126828
0.45018226 -0.021431223 0.62544066 4279520816
0.44951475 -0.021425664 0.62537211 4279257392
0.44893658 -0.021134615 0.6254105 4279191601
0.44832873 -0.020938754 0.62541324 4279388980
0.44772089 -0.020742893 0.62541592 4279717945
0.44717047 -0.020355999 0.62549001 4282084445
0.45344222 -0.021753445 0.62631726 4279719217
0.45273957 -0.021841347 0.62621224 4279653174
0.45213047 -0.021645099 0.62621498 4279192884
0.45146045 -0.021638766 0.6261459 4279192621
0.45085186 -0.021442667 0.62614864 4279061035
0.45021331 -0.021341681 0.6261155 4279520816
0.44954553 -0.021336049 0.62604636 4279257644
0.44893765 -0.021140188 0.6260491 4279191340
0.44838825 -0.020753622 0.62612367 4279257133
0.44775093 -0.020653054 0.62609047 4279652404
0.44720024 -0.020266071 0.62616503 4282084445
0.45344332 -0.021759033 0.62695795 4279981617
0.45274064 -0.02184695 0.62685215 4280046645
0.45213154 -0.021650687 0.6268549 4279520566
0.45149198 -0.021549404 0.62682146 4279323439
0.45085293 -0.021448255 0.62678802 4279323439
0.45021439 -0.021347269 0.62675458 4279389230
0.44954661 -0.021341637 0.62668502 4279388201
0.44893873 -0.021145776 0.62668771 4279715883
0.44838932 -0.02075921 0.62676281 4279913262
0.44778097 -0.020563185 0.62676555 4280110641
0.44720131 -0.020271659 0.62680447 4283529574
0.45344439 -0.021764636 0.62759864 4280767540
0.45277265 -0.021757737 0.62752849 4280636469
0.45216331 -0.021561399 0.62753123 4280044852
0.45149305 -0.021554992 0.62746114 4279716400
0.45088422 -0.021358803 0.62746388 4279716400
0.45021546 -0.021352842 0.62739372 4279716398
0.4496071 -0.021156833 0.62739646 4279584810
0.44899875 -0.020960808 0.62739921 4279846699
0.44839039 -0.020764798 0.62740195 4280044078
0.44775307 -0.020664215 0.62736821 4280241457
0.44720238 -0.020277247 0.62744385 4282607699
0.45347664 -0.021675527 0.62827599 4284243014
0.45280468 -0.021668538 0.62820536 4283193924
0.45216438 -0.021567002 0.62817144 4282077755
0.45152459 -0.021465614 0.62813747 4282078525
0.45091552 -0.021269351 0.62814021 4281881146
0.45027643 -0.021168217 0.62810624 4281748790
0.44963789 -0.021067232 0.62807226 4281551157
0.44902927 -0.020871133 0.628075 4281551157
0.44842067 -0.020675033 0.62807775 4281419571
0.44778311 -0.020574361 0.62804377 4282405437
0.44723219 -0.020187318 0.62811995 4284901469
0.45350891 -0.021586433 0.62895387 4285226827
0.45283669 -0.02157934 0.62888277 4284569671
0.45219615 -0.021477729 0.62884855 4283126078
0.45155612 -0.021376252 0.62881434 4283060285
0.45094678 -0.021179914 0.62881708 4282863676
0.45030749 -0.021078691 0.62878287 4282534972
0.44966868 -0.020977631 0.62874866 4282403386
0.44905981 -0.020781443 0.6287514 4282927929
0.44845098 -0.020585269 0.62875414 4282993722
0.44781315 -0.020484522 0.62871987 4284241481
0.44726199 -0.02009739 0.62879652 4286344297
0.45357239 -0.021402597 0.62966949 4285226314
0.45289966 -0.02139537 0.62959784 4284634694
0.45225865 -0.021293566 0.62956339 4283520063
0.45158765 -0.021286905 0.62949169 4283322684
0.45097804 -0.021090478 0.62949443 4282994494
0.45033851 -0.020989165 0.62945998 4282534974
0.44972917 -0.020792827 0.62946272 4282600252
0.44909036 -0.020691752 0.62942827 4283190076
0.44845206 -0.020590857 0.62939376 4283190076
0.44787216 -0.020299241 0.62943369 4284109382
0.45360464 -0.021313503 0.63034868 4284897866
0.4529317 -0.021306187 0.6302765 4284306247
0.45229042 -0.021204323 0.63024175 4283650366
0.45164964 -0.021102592 0.63020706 4283518780
0.45097914 -0.021096081 0.63013488 4283124281
0.45036954 -0.020899668 0.63013762 4282861886
0.44975996 -0.020703241 0.63014036 4282731070
0.44912091 -0.020602092 0.63010561 4282862658
0.44851154 -0.020405754 0.63010836 4283060037
0.4479022 -0.020209417 0.6301111 4284109641
0.45363691 -0.021224394 0.63102841 4285094993
0.45296371 -0.021217003 0.6309557 4284372300
0.45232219 -0.02111505 0.63092071 4283781182
0.4517116 -0.02091831 0.63092345 4283583803
0.45104063 -0.020911619 0.63085073 4283123768
0.45040059 -0.020810142 0.63081574 4283058238
0.44979075 -0.020613641 0.63081849 4282993472
0.44915146 -0.020512432 0.6307835 4282994244
0.44854185 -0.020316005 0.63078624 4283125830
0.44793227 -0.020119593 0.63078898 4284241997
0.4544065 -0.020953864 0.63185775 4286343775
0.45366919 -0.021135315 0.63170862 4285291605
0.45299572 -0.021127835 0.63163537 4284438095
0.45232326 -0.021120653 0.63156217 4283781182
0.4517127 -0.020923927 0.63156492 4283583803
0.45107192 -0.020822212 0.63152969 4283189563
0.45040166 -0.020815745 0.63145643 4283189311
0.44982153 -0.02052407 0.63149714 4283190594
0.44918197 -0.020422742 0.63146192 4283190596
0.44857216 -0.020226255 0.63146466 4283453768
0.44799131 -0.019934341 0.63150537 4284372813
0.44740993 -0.019642293 0.63154614 4286082658
0.4544076 -0.020959496 0.6325013 4286343775
0.45370147 -0.021046221 0.63238937 4285291605
0.45302776 -0.021038651 0.63231564 4284438095
0.45238575 -0.020936549 0.63228011 4283781182
0.45177469 -0.02073966 0.63228285 4283583803
0.45107299 -0.020827815 0.63217092 4283189563
0.45043269 -0.020726249 0.63213539 4283189311
0.4498226 -0.020529673 0.63213813 4283190594
0.44918305 -0.020428345 0.63210261 4283190596
0.44857323 -0.020231843 0.63210535 4283453768
0.44796339 -0.020035356 0.63210809 4284372813
0.447411 -0.019647881 0.63218737 4286082658
0.45444012 -0.020870492 0.63318336 4286343775
0.45370254 -0.021051839 0.63303208 4285291605
0.45305979 -0.020949483 0.63299638 4284438095
0.45235613 -0.021037012 0.63288361 4283781182
0.4517453 -0.020840198 0.63288635 4283583803
0.45107406 -0.020833418 0.63281208 4283189563
0.45043376 -0.020731851 0.63277632 4283189311
0.44982368 -0.020535275 0.63277906 4283190594
0.44921359 -0.020338699 0.6327818 4283190596
0.4485743 -0.020237446 0.63274604 4283453768
0.44799346 -0.019945547 0.63278729 4284372813
0.44744083 -0.019557983 0.63286704 4286082658
0.45444119 -0.020876125 0.63382715 4286343775
0.45370361 -0.021057457 0.63367486 4285291605
0.45306087 -0.020955101 0.63363886 4284438095
0.4523572 -0.021042615 0.63352531 4283781182
0.45177683 -0.020750865 0.63356686 4283583803
0.45110536 -0.020743996 0.63349205 4283189563
0.45043483 -0.020737439 0.63341731 4283189311
0.44982475 -0.020540863 0.63342005 4283190594
0.44924414 -0.020249054 0.63346153 4283190596
0.44863382 -0.020052403 0.63346428 4283453768
0.44799453 -0.019951135 0.63342828 4284372813
0.44747064 -0.019468099 0.63354731 4285161556
0.45444226 -0.020881742 0.63447094 4286343775
0.45373589 -0.020968363 0.63435662 4285291605
