# .PCD v0.7 - Point Cloud Data file format
VERSION 0.7
FIELDS x y z rgb
SIZE 4 4 4 4
TYPE F F F U
COUNT 1 1 1 1
WIDTH 1053
HEIGHT 1
VIEWPOINT 0 0 0 1 0 0 0
POINTS 1053
DATA ascii
0.42406267 -0.08651159 0.54072857 4278915093
0.42406315 -0.085887983 0.54073089 4278783507
0.42406362 -0.08526437 0.54073322 4278915347
0.4240641 -0.084640764 0.54073554 4279045389
0.42406455 -0.08401715 0.54073787 4279111952
0.42406499 -0.083393537 0.54074019 4279046159
0.42415118 -0.082792044 0.5406909 4279046161
0.42415166 -0.082168177 0.54069322 4279111954
0.42415214 -0.08154431 0.54069555 4278914573
0.42423832 -0.080941781 0.54064626 4278981138
0.4242388 -0.080317654 0.54064858 4278783759
0.42423925 -0.079693519 0.5406509 4278718479
0.42423972 -0.079069391 0.54065323 4278915345
0.42424017 -0.078445263 0.54065555 4278914575
0.42424065 -0.077821136 0.54065788 4278914575
0.42424113 -0.077197008 0.5406602 4278914575
0.42432731 -0.076592408 0.54061097 4278915345
0.42432779 -0.07596802 0.54061329 4278783761
0.42441398 -0.075362638 0.54056406 4278915343
0.42441443 -0.074737996 0.54056638 4278915343
0.4244149 -0.074113339 0.54056871 4278914573
0.42450109 -0.073506936 0.54051942 4278783759
0.42450154 -0.072882026 0.54052174 4278783507
0.42450202 -0.072257124 0.54052413 4278717966
0.4245882 -0.071649671 0.54047483 4278717966
0.42458868 -0.0710245 0.54047716 4278717966
0.42458913 -0.070399337 0.54047954 4278783759
0.4245896 -0.069774173 0.54048181 4278652688
0.42459005 -0.069149002 0.54048419 4278652684
0.42459053 -0.068523839 0.54048651 4278718477
0.424591 -0.067898676 0.54048884 4278717964
0.42459148 -0.067273512 0.54049116 4278783757
0.42459193 -0.066648342 0.54049349 4278914826
0.42459241 -0.066023178 0.54049581 4279242764
0.42459285 -0.065398008 0.54049814 4279111178
0.42467904 -0.064787462 0.5404489 4278848780
0.42476526 -0.064176381 0.54039967 4278914573
0.42476571 -0.063550703 0.540402 4278782987
0.42485189 -0.062938847 0.54035276 4278914573
0.42485237 -0.062312901 0.54035509 4279111954
0.42485285 -0.061686963 0.54035741 4279046929
0.42493904 -0.061074071 0.54030818 4279243791
0.42493951 -0.060447868 0.5403105 4279112975
0.42493999 -0.059821665 0.54031289 4279047182
0.42485473 -0.059183188 0.54036677 4279176975
0.42485517 -0.058557246 0.54036909 4278914573
0.42476994 -0.057919547 0.54042298 4278914575
0.42477041 -0.057293862 0.5404253 4278914575
0.42468512 -0.056656938 0.54047918 4278782989
0.4246856 -0.056031514 0.54048151 4279046412
0.42468607 -0.05540609 0.54048383 4279309584
0.42468655 -0.054780662 0.54048616 4279243540
0.424687 -0.054155238 0.54048848 4279045389
0.42468745 -0.053529814 0.54049081 4279045389
0.42468792 -0.05290439 0.54049313 4279045642
0.42477411 -0.052288391 0.5404439 4278979598
0.42468888 -0.051653542 0.54049778 4278914573
0.42468935 -0.051028118 0.54050016 4278914826
0.42460406 -0.050394043 0.54055399 4279046412
0.42443308 -0.049752101 0.54065943 4279704342
0.42443356 -0.049127452 0.54066175 4279573277
0.42426255 -0.04848706 0.54076713 4278717966
0.42400584 -0.047840096 0.54092407 4278652173
0.42357767 -0.047179975 0.54118407 4278652173
0.42314947 -0.04652245 0.54144406 4278586380
0.42289275 -0.045881182 0.54160094 4278586382
0.42237878 -0.045221746 0.54191244 4278586382
0.42169341 -0.044552777 0.54232699 4278717966
0.42100802 -0.043887958 0.54274154 4278849033
0.42032263 -0.043227285 0.54315609 4279638549
0.41963723 -0.042570755 0.54357058 4282203433
0.41903758 -0.04192365 0.54393351 4283582772
0.41860935 -0.041290216 0.54419345 4284043837
0.41818115 -0.040659375 0.54445332 4284110913
0.41801012 -0.040044636 0.54455864 4284176706
0.41783911 -0.039430927 0.54466391 4284439878
0.41775385 -0.038822249 0.54471767 4284439880
0.41766858 -0.038214084 0.54477149 4284440132
0.41775477 -0.03761337 0.5447222 4284243266
0.41775519 -0.03700893 0.54472446 4283716670
0.41784137 -0.036407441 0.54467517 4283650877
0.41784182 -0.035802741 0.54467744 4282466603
0.41878536 -0.03522478 0.54411304 4281940009
0.42332971 -0.034732331 0.54138494 4280624149
0.42367315 -0.034118704 0.54118121 4279176199
0.42384505 -0.033499695 0.54108047 4279177226
0.42401701 -0.032879651 0.54097974 4279112205
0.42418894 -0.03225857 0.54087907 4278849033
0.42436087 -0.03163645 0.54077834 4278914575
0.42453283 -0.031013297 0.54067767 4278848782
0.42470473 -0.030389106 0.54057699 4278848780
0.42487669 -0.029763879 0.54047632 4278848780
0.42496288 -0.029137777 0.54042709 4279045389
0.4250491 -0.028511155 0.54037797 4278717966
0.42513531 -0.027884018 0.54032874 4278652175
0.42513579 -0.027257297 0.54033113 4278782987
0.42513624 -0.026630577 0.54033345 4278782987
0.42513672 -0.026003856 0.54033577 4279045642
0.42513716 -0.025377138 0.5403381 4278849033
0.42513764 -0.024750417 0.54034042 4278848780
0.42513812 -0.024123697 0.54034275 4278783757
0.42513859 -0.023496976 0.54034507 4278717964
0.42513907 -0.022870257 0.54034746 4278783759
0.42513952 -0.022243537 0.54034978 4278783759
0.42522573 -0.021613548 0.54030061 4278783761
0.42522621 -0.020986568 0.54030293 4278848784
0.42522666 -0.020359591 0.54030526 4278782991
0.42522714 -0.019732609 0.54030764 4278717964
0.42522758 -0.019105632 0.54030997 4278521868
0.42522806 -0.018478652 0.54031229 4278652937
0.42531428 -0.017846851 0.54026312 4278849031
0.42531475 -0.017219611 0.54026544 4278783238
0.42522949 -0.016597714 0.54031926 4278915596
0.42522994 -0.015970735 0.54032159 4278717964
0.42523041 -0.015343756 0.54032397 4279046412
0.42523086 -0.014716778 0.5403263 4278979590
0.42514563 -0.014096177 0.54038012 4278979590
0.42506033 -0.013476092 0.54043394 4278717447
0.42488933 -0.012863427 0.54053921 4278520838
0.42471829 -0.012251792 0.54064453 4278520587
0.42446154 -0.011648612 0.54080129 4278520335
0.42437625 -0.011031637 0.54085511 4278520335
0.42403376 -0.010438979 0.54106331 4278520335
0.42369127 -0.0098483972 0.54127157 4278586378
0.42326301 -0.0092683341 0.54153126 4278520838
0.42257756 -0.0087169912 0.5419454 4278782991
0.42172056 -0.0081877317 0.54246241 4280493605
0.42077786 -0.0076728836 0.54303092 4281019949
0.41949219 -0.0072016828 0.5438053 4282203951
0.41889244 -0.0066602845 0.54416788 4283321149
0.41837841 -0.0061125085 0.54447895 4283716672
0.41803589 -0.0055473149 0.54468709 4283848254
0.4179506 -0.0049526207 0.5447408 4283847741
0.41786531 -0.0043584462 0.54479456 4284307526
0.41778004 -0.0037647877 0.54484826 4284439112
0.41778049 -0.0031603519 0.54485047 4284767823
0.41778094 -0.0025559086 0.54485273 4284767823
0.41778138 -0.0019514691 0.544855 4284504905
0.41778183 -0.0013470333 0.54485726 4284307526
0.41786802 -0.00073025934 0.54480803 4283320627
0.4252454 0.0047195759 0.54039866 4278979849
0.42541736 0.0053753722 0.5402981 4278652173
0.42558932 0.0060322043 0.54019755 4278652434
0.42567551 0.0066751484 0.54014838 4278981399
0.42567599 0.007303426 0.54015076 4278652686
0.42576224 0.0079471413 0.54010165 4278850067
0.42584842 0.0085913856 0.54005253 4278849033
0.4258489 0.0092201773 0.54005486 4279111954
0.42584938 0.0098489728 0.54005718 4279177747
0.4259356 0.010494238 0.54000807 4278914323
0.42593604 0.01112329 0.54001045 4278848782
0.42593652 0.011752347 0.54001278 4278652171
0.42602277 0.012398658 0.53996372 4278915343
0.42602324 0.013027972 0.53996605 4278783757
0.42602369 0.013657277 0.53996837 4278848782
0.42602417 0.014286591 0.5399707 4278783759
0.42602462 0.014915904 0.53997308 4278850835
0.42602509 0.015545217 0.5399754 4279179802
0.42602557 0.016174523 0.53997773 4278916630
0.42611182 0.016822906 0.53992867 4279179032
0.42611226 0.017452477 0.539931 4279638300
0.42611274 0.018082047 0.53993332 4279505685
0.42619896 0.018731466 0.53988427 4278981138
0.42619944 0.019361297 0.53988659 4279112724
0.42619988 0.019991128 0.53988898 4279047192
0.42620036 0.020620955 0.5398913 4278915860
0.42628658 0.021271667 0.53984219 4278914826
0.42628706 0.021901758 0.53984457 4278914826
0.42637327 0.022553248 0.53979546 4278783240
0.42637375 0.023183597 0.53979778 4279046410
0.4263742 0.023813942 0.53980017 4278849285
0.42646044 0.024466475 0.53975105 4278914824
0.42646092 0.025097081 0.53975344 4279046410
0.4264614 0.025727687 0.53975576 4278783507
0.42646188 0.026358297 0.53975815 4278783761
0.42646232 0.026988899 0.53976047 4278848782
0.4264628 0.027619509 0.53976285 4278783759
0.42646325 0.028250115 0.53976518 4279046931
0.42646372 0.028880721 0.5397675 4278979600
0.4264642 0.029511323 0.53976989 4279176975
0.42637891 0.030117413 0.53982365 4279046412
0.42637938 0.030747762 0.53982598 4279177226
0.42637986 0.031378113 0.5398283 4279308812
0.42629457 0.031983167 0.53988206 4278914824
0.42629504 0.032613255 0.53988445 4279112205
0.42629552 0.033243336 0.53988677 4278913803
0.426296 0.033873431 0.5398891 4278717966
0.4262107 0.034477189 0.53994286 4278981138
0.42621118 0.035107017 0.53994524 4278652171
0.42621166 0.035736851 0.53994757 4278718481
0.42612636 0.036339574 0.54000133 4278848780
0.42612684 0.036969148 0.54000366 4279242762
0.42612731 0.037598722 0.54000604 4279308555
0.42604202 0.038200393 0.54005975 4278979847
0.4260425 0.038829707 0.54006213 4279046159
0.42604297 0.039459012 0.54006445 4278914323
0.42604345 0.040088333 0.54006678 4278915596
0.4260439 0.040717646 0.54006916 4278981389
0.42604437 0.041346952 0.54007149 4278914826
0.42604485 0.041976266 0.54007381 4278981136
0.4260453 0.042605579 0.54007614 4279176979
0.42604578 0.043234885 0.54007852 4279111956
0.42604625 0.043864198 0.54008085 4279111956
0.42604673 0.044493504 0.54008317 4279046161
0.42604721 0.04512281 0.54008555 4279439373
0.42604768 0.04575213 0.54008788 4279110925
0.42604813 0.046381436 0.5400902 4279177998
0.42604861 0.04701075 0.54009259 4279112205
0.42604905 0.047640055 0.54009491 4278783757
0.4261353 0.048301406 0.54004586 4279177998
0.42613578 0.04893098 0.54004824 4279309085
0.426222 0.049593084 0.53999919 4279441187
0.42639399 0.050288521 0.53989875 4279506980
0.42648023 0.050951928 0.5398497 4279835679
0.42665222 0.05164919 0.53974926 4280098077
0.42682421 0.052347466 0.53964889 4280163870
0.4269962 0.053046793 0.53954846 4279966491
0.42716819 0.053747155 0.53944802 4280098328
0.42734021 0.054448552 0.53934765 4280032532
0.42759794 0.055185609 0.5391959 4280032532
0.42768419 0.055854462 0.53914684 4280032278
0.42794195 0.056594096 0.53899509 4279900692
0.42802817 0.057264499 0.53894609 4279900951
0.42820019 0.05797109 0.53884566 4279900951
0.42828643 0.058642782 0.53879666 4280099100
0.42837268 0.059315003 0.53874767 4279967514
0.42845887 0.059987739 0.53869867 4280033307
0.42845935 0.060624301 0.53870106 4279967512
0.42854559 0.061297826 0.53865206 4280099352
0.42863184 0.061971858 0.53860307 4280954659
0.42693573 -0.10490287 0.53966224 4282138180
0.42676452 -0.10421014 0.53976738 4281281594
0.42676499 -0.10357927 0.53976971 4280098601
0.42659378 -0.1028881 0.53987485 4280032808
0.42659426 -0.10225776 0.53987718 4279769632
0.42642301 -0.10156813 0.53998232 4279704093
0.42625183 -0.10087956 0.54008746 4279704093
0.42625231 -0.10025026 0.54008979 4279834907
0.42608106 -0.099563219 0.54019493 4279769114
0.42590985 -0.098877229 0.54030007 4279900698
0.42573863 -0.098192275 0.54040515 4279638296
0.42556742 -0.097508349 0.5405103 4279573273
0.4253962 -0.096825473 0.54061538 4279507480
0.42522496 -0.096143633 0.54072052 4279441687
0.42496789 -0.095435515 0.54087698 4279507480
0.42488253 -0.094783045 0.54093069 4279573273
0.42471129 -0.09410432 0.54103577 4279573526
0.42471176 -0.093479663 0.5410381 4279638547
0.42462641 -0.092828751 0.5410918 4279703572
0.424541 -0.09217836 0.5411455 4279769365
0.42454147 -0.091554224 0.54114783 4279243538
0.42454195 -0.090930097 0.54115015 4278981389
0.42454243 -0.090305962 0.54115248 4279047182
0.42454287 -0.089681834 0.5411548 4279047182
0.42445749 -0.089032993 0.54120851 4278915343
0.42445797 -0.088409126 0.54121083 4278915347
0.42445844 -0.087785259 0.54121315 4278783761
0.42445889 -0.087161385 0.54121548 4278915608
0.42445934 -0.086537518 0.5412178 4278849815
0.42445982 -0.085913643 0.54122013 4278783509
0.42446029 -0.085289776 0.54122245 4278915347
0.42446077 -0.084665909 0.54122478 4278914573
0.42446125 -0.084042035 0.5412271 4279111952
0.42446169 -0.083418161 0.54122943 4279111952
0.42446214 -0.082794294 0.54123175 4279046159
0.42446262 -0.082170427 0.54123408 4278915343
0.42454892 -0.081568159 0.54118502 4278784010
0.4245494 -0.080944024 0.54118735 4278915856
0.42454988 -0.080319896 0.54118967 4278850063
0.42455035 -0.079695761 0.541192 4278915856
0.4245508 -0.079071641 0.54119432 4279046161
0.42455125 -0.078447506 0.54119664 4278783759
0.42455173 -0.077823378 0.54119897 4278914575
0.4245522 -0.07719925 0.54120129 4278914575
0.42463851 -0.076594651 0.54115224 4278915345
0.42463899 -0.07597027 0.54115462 4278915347
0.42472529 -0.075364888 0.54110557 4278915343
0.42472577 -0.074740246 0.54110789 4278915343
0.42472625 -0.074115589 0.54111022 4278914573
0.42481256 -0.073509187 0.54106116 4278915343
0.42481303 -0.072884277 0.54106355 4278915093
0.42489934 -0.072277084 0.54101449 4278915343
0.42489982 -0.071651921 0.54101682 4278783757
0.42490026 -0.07102675 0.54101914 4278784010
0.42490071 -0.070401594 0.54102147 4278783757
0.42490119 -0.069776423 0.54102379 4278783507
0.42490166 -0.06915126 0.54102612 4278848780
0.42490214 -0.068526089 0.5410285 4278914573
0.42498845 -0.067916833 0.54097944 4278717964
0.42498893 -0.067291409 0.54098177 4278914573
0.42490351 -0.066650599 0.54103547 4278849033
0.42498985 -0.066040561 0.54098642 4279045642
0.42499033 -0.065415129 0.5409888 4279177228
0.42499077 -0.064789712 0.54099107 4278914575
0.42507711 -0.064178631 0.54094207 4279046159
0.42516345 -0.063567042 0.54089308 4278782987
0.42516389 -0.062941097 0.5408954 4278848780
0.42516437 -0.062315151 0.54089773 4279046159
0.42516482 -0.061689213 0.54090005 4278915347
0.42525116 -0.061076328 0.54085106 4278981389
0.42525163 -0.060450122 0.54085338 4278981389
0.42525208 -0.059823919 0.54085577 4278981389
0.42516673 -0.059185445 0.54090941 4279177228
0.42516717 -0.0585595 0.54091173 4279111952
0.42508179 -0.057921797 0.54096538 4279111702
0.42508227 -0.057296112 0.5409677 4278914575
0.42508271 -0.056670431 0.54097003 4278848782
0.42499733 -0.056033768 0.54102373 4279111952
0.42499781 -0.055408344 0.54102606 4279243540
0.42499828 -0.054782916 0.54102838 4279243538
0.42499873 -0.054157492 0.5410307 4279045389
0.42499918 -0.053532068 0.54103303 4279045389
0.42499965 -0.052906644 0.54103535 4279045642
0.42508599 -0.052290644 0.54098636 4278913805
0.42508644 -0.051664963 0.54098868 4278914573
0.42500108 -0.051030368 0.54104233 4278914826
0.42491567 -0.050396293 0.54109597 4279046412
0.42483029 -0.049762741 0.54114962 4279572756
0.4247449 -0.049129702 0.54120326 4279442202
0.42457366 -0.04848931 0.54130822 4278717964
0.42431653 -0.047842339 0.54146445 4278652173
0.42397356 -0.047189571 0.54167205 4278652173
0.4235447 -0.046531782 0.54193091 4278586380
0.42303002 -0.045869745 0.54224104 4278586382
0.42268705 -0.045223974 0.54244858 4278717196
0.42208648 -0.044561315 0.54281002 4278848780
0.42131418 -0.043890171 0.5432741 4278849031
0.42062777 -0.043229491 0.54368681 4279704340
0.41994137 -0.042572953 0.54409951 4282202920
0.41942662 -0.041931123 0.54440963 4283910967
0.41891193 -0.041292403 0.5447197 4284175423
0.41856891 -0.040666319 0.54492718 4284110143
0.41831177 -0.040046815 0.54508328 4284242753
0.41822636 -0.03943735 0.54513687 4284374339
0.41814095 -0.03882841 0.54519039 4284439878
0.41805559 -0.038219985 0.54524398 4284374339
0.41814187 -0.037619013 0.54519492 4284177473
0.41814232 -0.037014313 0.54519719 4283716668
0.4181428 -0.036409616 0.54519939 4283585082
0.41814321 -0.03580492 0.54520166 4282466603
0.41831541 -0.035205085 0.54510134 4281808675
0.42338181 -0.03472805 0.54207742 4280558608
0.42398334 -0.034120943 0.54172069 4279110658
0.4241555 -0.033501938 0.54162043 4279177226
0.4243277 -0.032881893 0.54152018 4279177226
0.4244999 -0.032260813 0.54141992 4278979847
0.4246721 -0.031638697 0.54131967 4278848780
0.42484429 -0.031015547 0.54121941 4278782987
0.42501646 -0.030391358 0.54111916 4278914826
0.42518866 -0.029766133 0.54101896 4278849033
0.42527503 -0.029140031 0.54096997 4278848780
0.42536134 -0.028513411 0.54092103 4278717968
0.4254477 -0.027886273 0.5408721 4278652173
0.42544815 -0.027259553 0.54087442 4278783240
0.42544863 -0.026632834 0.54087675 4278783240
0.42544907 -0.026006114 0.54087907 4279045642
0.42544955 -0.025379393 0.5408814 4278849033
0.42545003 -0.024752673 0.54088378 4278914573
0.4254505 -0.024125954 0.5408861 4278915343
0.42545098 -0.023499232 0.54088843 4278717964
0.42545143 -0.022872513 0.54089075 4278783757
0.42553777 -0.022242785 0.54084182 4278783757
0.42553824 -0.021615805 0.54084414 4278783761
0.42553872 -0.020988826 0.54084647 4278717968
0.42562503 -0.020358061 0.54079753 4278586382
0.4256255 -0.019730823 0.54079992 4278783757
0.42562598 -0.019103585 0.54080224 4278652684
0.42562646 -0.018476347 0.54080456 4278587144
0.42562693 -0.01784911 0.54080689 4278718215
0.42562738 -0.01722187 0.54080921 4278718215
0.42562786 -0.016594632 0.54081154 4278784010
0.4256283 -0.015967391 0.54081392 4278717966
0.42562878 -0.015340155 0.54081625 4279046159
0.42554337 -0.014719035 0.54086983 4278914056
0.42545798 -0.014098434 0.54092342 4278979849
0.42537257 -0.013478348 0.540977 4278717447
0.4252013 -0.012865681 0.54108185 4278520838
0.42503002 -0.012254044 0.54118669 4278586382
0.42477289 -0.011650862 0.54134279 4278520337
0.4246875 -0.011033885 0.54139638 4278520337
0.42434448 -0.010441223 0.54160374 4278520335
0.42391557 -0.0098588262 0.54186231 4278520587
0.42365843 -0.0092621185 0.54201841 4278520585
0.42288604 -0.0087192189 0.54248196 4278717968
0.42202777 -0.0081899501 0.54299676 4280691237
0.41936713 -0.0066429805 0.54459226 4283517756
0.41868061 -0.0061146915 0.54500455 4283782465
0.41833755 -0.0055494923 0.54521179 4283914047
0.41825214 -0.0049548 0.54526526 4283847741
0.41825259 -0.0043498427 0.54526752 4283913534
0.41799542 -0.0037780032 0.54542351 4284308294
0.41799587 -0.0031738244 0.54542577 4284637007
0.41799635 -0.0025696438 0.54542798 4284637007
0.41808265 -0.0019536447 0.54537898 4284504651
0.4180831 -0.0013492089 0.54538125 4284307272
0.4182553 -0.00072010048 0.54528105 4283254834
0.42607269 0.0041736793 0.54063249 4278913799
0.42607313 0.004802214 0.54063481 4278914054
0.42607361 0.005430745 0.5406372 4278586378
0.42607409 0.0060592797 0.54063952 4278717714
0.42616045 0.0067027416 0.54059064 4278915093
0.4261609 0.0073315371 0.54059297 4278717966
0.42616138 0.0079603251 0.54059529 4278717968
0.42624772 0.0086048227 0.54054642 4278783240
0.42624819 0.0092338715 0.54054874 4279111956
0.42624867 0.0098629277 0.54055113 4279177749
0.42633501 0.010508461 0.54050225 4278914325
0.42633548 0.01113777 0.54050457 4278782987
0.42633593 0.011767084 0.5405069 4278652424
0.42633641 0.012396393 0.54050928 4278784010
0.42633688 0.013025707 0.54051161 4278784010
0.42633736 0.013655012 0.54051393 4278783240
0.42633784 0.014284326 0.54051626 4278717966
0.42642418 0.014931934 0.54046744 4278850065
0.42642465 0.015561504 0.54046977 4279113239
0.42642513 0.016191071 0.54047209 4279047446
0.42651147 0.016839711 0.54042327 4279310618
0.42651194 0.017469542 0.5404256 4279573277
0.42651242 0.018099369 0.54042792 4279504913
0.42659876 0.018749049 0.54037905 4278981136
0.4265992 0.019379137 0.54038143 4278981136
0.42659968 0.020009225 0.54038376 4278981653
0.42660016 0.020639313 0.54038608 4278915856
0.42668653 0.021290282 0.54033726 4278914826
0.426687 0.021920634 0.54033959 4278914056
0.42677334 0.022572385 0.54029071 4278914056
0.42677382 0.023202995 0.5402931 4279045640
0.42686015 0.023855517 0.54024422 4278980101
0.42686063 0.024486387 0.54024661 4278783238
0.42686111 0.02511725 0.54024893 4279046410
0.42686158 0.025748113 0.54025126 4278717966
0.42694795 0.026401939 0.54020244 4278717966
0.4269484 0.027033063 0.54020476 4278782989
0.42686298 0.027640713 0.54025829 4278717964
0.42686346 0.028271576 0.54026067 4278981136
0.42686394 0.028902447 0.540263 4278848784
0.42686439 0.029533306 0.54026538 4278914573
0.42686486 0.030164169 0.54026771 4278914573
0.42677945 0.030770266 0.54032123 4278914824
0.42677993 0.031400874 0.54032362 4279112203
0.4267804 0.032031476 0.54032594 4278914826
0.42669499 0.032636531 0.54037952 4279046412
0.42669547 0.03326688 0.54038185 4278914056
0.42661005 0.033871159 0.54043537 4278783759
0.42661053 0.034501247 0.5404377 4278981138
0.42661101 0.035131328 0.54044008 4278782987
0.42652556 0.035734586 0.54049361 4278850067
0.42652604 0.036364406 0.54049593 4278717964
0.42652652 0.036994241 0.54049826 4278914826
0.4264411 0.037596457 0.54055178 4279046412
0.42644158 0.038226023 0.54055417 4278849033
0.42644203 0.03885559 0.54055649 4278914575
0.42635661 0.039456747 0.54061002 4278914323
0.42644298 0.040114731 0.5405612 4278784010
0.42644346 0.040744305 0.54056352 4278915596
0.42644393 0.041373871 0.54056585 4278784010
0.42644441 0.042003438 0.54056823 4278981136
0.42644489 0.042633012 0.54057056 4279046161
0.42644534 0.043262579 0.54057288 4279242513
0.42653167 0.043922365 0.54052407 4279242513
0.42653215 0.044552185 0.54052645 4278914573
0.42653263 0.045182012 0.54052877 4279373580
0.4265331 0.045811847 0.5405311 4279045389
0.42653358 0.046441674 0.54053348 4279112205
0.42653406 0.047071509 0.54053581 4279112205
0.42662039 0.047733091 0.54048699 4278783757
0.42662087 0.048363179 0.54048932 4279177998
0.42670721 0.049025558 0.5404405 4279178267
0.42679358 0.049688451 0.54039168 4279375655
0.42687994 0.050351858 0.54034287 4279441448
0.4270522 0.051048845 0.54024291 4279638818
0.42713857 0.051713556 0.54019409 4279835677
0.42731082 0.052412361 0.54009414 4280033054
0.42748308 0.053112194 0.53999418 4279835675
0.42765534 0.053813078 0.53989422 4279835926
0.4278276 0.054514989 0.53979427 4280032532
0.42799982 0.055217944 0.53969431 4280163864
0.42817208 0.055921927 0.53959441 4280032280
0.42834434 0.056626946 0.53949445 4279834901
0.42851663 0.057333007 0.5393945 4279704342
0.42868888 0.058040105 0.5392946 4279770135
0.42877522 0.058712326 0.53924578 4280099100
0.4287757 0.059348896 0.53924817 4279835928
0.42886207 0.060021877 0.53919935 4279967514
0.42886254 0.060658701 0.53920174 4280033305
0.42894891 0.061332479 0.53915298 4280099098
0.42894939 0.061969563 0.53915536 4281020450
0.42742237 -0.104967 0.54010725 4282271303
0.42725092 -0.10427377 0.54021192 4281610811
0.4272514 -0.10364238 0.5402143 4280098597
0.42716587 -0.10298083 0.54026783 4279967011
0.42708039 -0.10231981 0.54032135 4279769632
0.42690891 -0.10162967 0.54042602 4279704093
0.42673743 -0.10094058 0.54053068 4279638300
0.42665192 -0.10028163 0.54058421 4279638300
0.42656642 -0.099623203 0.54063773 4279572507
0.42639494 -0.098936684 0.5407424 4279834907
0.42630944 -0.098279558 0.54079592 4279704089
0.42605197 -0.097566776 0.54095173 4279573273
0.42588052 -0.096883371 0.54105639 4279375894
0.42570904 -0.096201017 0.54116106 4279375894
0.42545158 -0.095492378 0.54131687 4279375894
0.42536607 -0.094839394 0.54137033 4279442202
0.42519459 -0.09416014 0.541475 4279442200
0.42510909 -0.093508437 0.54152846 4279703570
0.42502359 -0.092857264 0.54158199 4279703570
0.42502403 -0.092232622 0.54158431 4279637779
0.42493856 -0.091582224 0.54163778 4279440147
0.42485303 -0.090932347 0.54169124 4279243791
0.4248535 -0.090308212 0.54169357 4279177998
0.42485398 -0.089684077 0.54169589 4279112205
0.42485443 -0.089059949 0.54169822 4278915596
0.42485487 -0.088435821 0.54170054 4278915343
0.42485535 -0.087811694 0.54170287 4278784010
0.42485583 -0.087187566 0.54170519 4278850063
0.42485631 -0.086563431 0.54170752 4278850063
0.42485675 -0.085939303 0.54170984 4278783757
0.42485723 -0.085315175 0.54171216 4278915345
0.42485768 -0.084691048 0.54171449 4278783759
0.42485815 -0.08406692 0.54171681 4279046931
0.42485863 -0.083442792 0.54171914 4278915345
0.42485911 -0.082818657 0.54172146 4279045391
0.42485955 -0.082194529 0.54172379 4279046412
0.42486 -0.081570402 0.54172611 4278914826
0.42486048 -0.080946274 0.54172844 4278981136
0.42486095 -0.080322146 0.54173076 4278915343
0.42486143 -0.079698011 0.54173309 4278915343
0.42486191 -0.079073884 0.54173541 4278914577
0.42486235 -0.078449756 0.54173774 4278848784
0.42494881 -0.077845678 0.54168892 4278914577
0.42494926 -0.077221289 0.54169124 4278914573
0.42494974 -0.076596901 0.54169357 4278915343
0.42503619 -0.075991787 0.54164475 4278783759
0.42503664 -0.075367138 0.54164708 4278784010
0.42503712 -0.074742496 0.5416494 4278784010
0.42512357 -0.074136339 0.54160058 4278718217
0.42512405 -0.073511437 0.54160297 4278915343
0.4251245 -0.072886527 0.54160529 4278915347
0.42521092 -0.072279334 0.54155648 4278783757
0.4252114 -0.071654171 0.5415588 4278783757
0.42521185 -0.071029 0.54156113 4278718217
0.42521232 -0.070403844 0.54156345 4278783759
0.4252128 -0.069778673 0.54156578 4278783761
0.42529923 -0.069169931 0.54151702 4278848780
0.4252997 -0.068544507 0.54151934 4278914573
0.42530018 -0.067919083 0.54152167 4278848780
0.42530066 -0.067293659 0.54152399 4278783757
0.42530113 -0.066668235 0.54152632 4278784010
0.42530158 -0.066042811 0.54152864 4278914826
0.42530203 -0.065417379 0.54153097 4279046412
0.42538851 -0.064806573 0.54148221 4278784010
0.42538896 -0.064180888 0.54148453 4278915596
0.42547542 -0.063569292 0.54143572 4278717964
0.4254759 -0.062943354 0.54143804 4278717964
0.42547637 -0.062317409 0.54144037 4278783757
0.42547682 -0.06169147 0.54144275 4278783759
0.42556328 -0.061078578 0.54139394 4278784010
0.42556375 -0.060452379 0.54139626 4278784010
0.42556423 -0.059826173 0.54139864 4278915596
0.4254787 -0.059187695 0.54145205 4279046412
0.42547917 -0.05856175 0.54145437 4279112205
0.42539364 -0.057924051 0.54150784 4278981138
0.42539412 -0.057298366 0.54151016 4279046161
0.42539459 -0.056672685 0.54151249 4279046161
0.42539504 -0.056047 0.54151481 4279046931
0.42539552 -0.055421315 0.54151714 4279178519
0.42539597 -0.05479563 0.54151946 4279046929
0.42539644 -0.054169949 0.54152179 4278914826
0.42539692 -0.053544264 0.54152411 4278849033
0.4253974 -0.052918579 0.54152644 4278914826
0.42539784 -0.052292898 0.54152876 4278848782
0.42539832 -0.051667213 0.54153109 4278914573
0.42531279 -0.051032621 0.54158455 4278914826
0.42522728 -0.050398543 0.54163796 4279046412
0.42514175 -0.049764991 0.54169136 4279178250
0.42505622 -0.049131952 0.54174477 4279113227
0.42488474 -0.048491552 0.54184926 4278849031
0.42462721 -0.047844581 0.54200488 4278652424
0.42436975 -0.047199167 0.54216045 4278652424
0.42385423 -0.046534017 0.54246926 4278586378
0.42351079 -0.045885645 0.54267591 4278652171
0.42273733 -0.045206465 0.54313797 4278848263
0.42230785 -0.044557214 0.5433957 4278849033
0.42162037 -0.04389238 0.54380661 4278979596
0.4210189 -0.043237492 0.54416651 4279637526
0.42041743 -0.04258623 0.54452634 4282334002
0.41990197 -0.041943878 0.54483503 4283714872
0.41938645 -0.041304637 0.54514378 4284043323
0.41904294 -0.040678032 0.54535037 4284110397
0.41869944 -0.040053498 0.5455569 4284241981
0.4185279 -0.039439529 0.54566133 4284307774
0.41852838 -0.038834572 0.5456636 4284308544
0.41844282 -0.038225889 0.54571688 4284309057
0.41844326 -0.037621189 0.54571915 4284177725
0.4186157 -0.037022911 0.54561925 4283716920
0.41861618 -0.036417697 0.54562151 4283585334
0.41844463 -0.035807095 0.54572588 4282467373
0.41861707 -0.035207264 0.54562604 4281545249
0.42429352 -0.034123182 0.54226017 4279110658
0.42437994 -0.033502523 0.54221141 4279046664
0.42463839 -0.03288414 0.54206055 4278784010
0.42481086 -0.032263059 0.54196078 4278718217
0.4250693 -0.031641826 0.54180992 4278782987
0.42515576 -0.031017797 0.54176116 4278848263
0.4253282 -0.03039361 0.54166138 4278849033
0.42550066 -0.029768387 0.5415616 4278849033
0.42558712 -0.029142287 0.54151285 4278783761
0.42575958 -0.028515249 0.54141307 4278651923
0.42576006 -0.027888529 0.54141539 4278652173
0.42584652 -0.027260873 0.5413667 4278783238
0.42584699 -0.026633896 0.54136902 4278783238
0.42576146 -0.026008369 0.54142243 4279045640
0.42576194 -0.025381651 0.54142475 4278849031
0.42576241 -0.02475493 0.54142708 4278848782
0.42584884 -0.024125978 0.54137838 4278783757
0.42576334 -0.023501489 0.54143178 4278717964
0.4258498 -0.02287202 0.54138303 4278717964
0.42585027 -0.022245042 0.54138535 4278717964
0.42593673 -0.021614796 0.54133666 4278717964
0.42593721 -0.020987557 0.54133898 4278848780
0.42593765 -0.020360321 0.5413413 4278782987
0.42602414 -0.019729037 0.54129261 4278782987
0.42602459 -0.019101538 0.54129493 4278652171
0.42602506 -0.018474042 0.54129732 4278652171
0.42602551 -0.017846545 0.54129964 4278718217
0.42602599 -0.017219048 0.54130197 4278718217
0.42602646 -0.016591551 0.54130429 4278784010
0.42602694 -0.015964054 0.54130661 4278652686
0.42594141 -0.015342413 0.54136002 4278718479
0.42594188 -0.014715175 0.54136235 4278652171
0.42585635 -0.014094314 0.54141569 4278717964
0.42568481 -0.013480604 0.54152012 4278520585
0.42559928 -0.012861039 0.54157352 4278651401
0.42542773 -0.012249142 0.54167789 4278717714
0.42517024 -0.011645697 0.54183328 4278520335
0.4249987 -0.011036133 0.54193771 4278520335
0.42465514 -0.010443468 0.54214412 4278651151
0.42422563 -0.0098610651 0.54240161 4278586380
0.42388207 -0.0092728063 0.54260802 4278586378
0.42336655 -0.0087040309 0.54291648 4278914573
0.42242098 -0.0081832036 0.5434801 4280821794
0.41967034 -0.006645171 0.54511964 4283649081
0.41898277 -0.0061168727 0.54553008 4283847743
0.41863921 -0.0055516716 0.54573643 4283782461
0.41855365 -0.0049569774 0.54578972 4284111167
0.41846812 -0.0043628011 0.54584301 4284111680
0.41846856 -0.0037581027 0.54584527 4284243266
0.418383 -0.003164703 0.5458985 4284439880
0.41838348 -0.0025602598 0.54590076 4284571468
0.41829792 -0.0019676387 0.54595405 4284243016
0.41838437 -0.0013513844 0.54590523 4284045637
0.42664349 0.0035837758 0.541022 4279045642
0.42655796 0.0041992012 0.54107535 4278848263
0.42655843 0.00482825 0.54107773 4278914824
0.42655891 0.0054573026 0.54108006 4278718215
0.42647338 0.0060716849 0.5411334 4278717714
0.42664587 0.0067303311 0.54103374 4278915093
0.42664632 0.0073596444 0.54103607 4278783759
0.4266468 0.0079889502 0.54103839 4278784010
0.42664725 0.0086182635 0.54104078 4278979847
0.42664772 0.0092475731 0.5410431 4278981138
0.4266482 0.0098768901 0.54104543 4279046931
0.42664868 0.010506196 0.54104781 4278915093
0.42664915 0.011135506 0.54105014 4278849033
0.42664963 0.011764819 0.54105246 4278652422
0.42665011 0.012394128 0.54105484 4278784010
0.42665055 0.013023442 0.54105717 4278718217
0.42665103 0.013652747 0.54105949 4278784008
0.42673749 0.014300095 0.54101086 4278717964
0.42673796 0.014929665 0.54101324 4278652434
0.42673844 0.015559236 0.54101557 4278915858
0.42682493 0.016207615 0.54096693 4278981651
0.4268254 0.016837446 0.54096925 4279310618
0.42691186 0.017486604 0.54092062 4279442200
0.42691234 0.018116692 0.54092294 4279177228
0.42691278 0.01874678 0.54092532 4279046410
0.42699927 0.01939697 0.54087669 4279046410
0.42699975 0.020027323 0.54087901 4278915594
0.42700022 0.020657668 0.5408814 4278915596
0.42708671 0.021308901 0.54083276 4279045389
0.4271732 0.021960652 0.54078412 4278913805
0.42717367 0.022591515 0.54078645 4278913805
0.42726016 0.023244048 0.54073781 4278981387
0.42726064 0.023875168 0.54074019 4279308812
0.42726108 0.024506295 0.54074252 4278914826
0.42726156 0.025137419 0.5407449 4279112205
0.42734805 0.025791241 0.54069626 4278783761
0.42734852 0.026422625 0.54069859 4278783761
0.42734897 0.027054006 0.54070097 4278783757
0.42734945 0.027685395 0.5407033 4278784008
0.42734993 0.028316775 0.54070568 4278915594
0.42726439 0.028924169 0.54075897 4278849033
0.42726487 0.029555289 0.54076135 4278914573
0.42726535 0.030186413 0.54076368 4278915345
0.42726582 0.03081754 0.540766 4278914575
0.42718026 0.031423628 0.54081935 4279111954
0.42718074 0.032054499 0.54082167 4279046159
0.42709517 0.032659814 0.54087502 4279111952
0.42700964 0.033264607 0.5409283 4278783507
0.42701012 0.033894956 0.54093063 4278915347
0.42692459 0.034498982 0.54098397 4278981140
0.42692503 0.035129063 0.5409863 4278718217
0.42692551 0.035759158 0.54098868 4279046933
0.42683995 0.036362134 0.54104197 4278718477
0.42684042 0.036991969 0.54104429 4278784010
0.4268409 0.037621804 0.54104662 4278915596
0.42684138 0.038251624 0.541049 4278784010
0.42684186 0.038881458 0.54105133 4279112474
0.42675632 0.039482892 0.54110461 4279111702
0.42684281 0.040141113 0.54105604 4278783757
0.42684326 0.040770948 0.54105836 4278915343
0.42684373 0.041400768 0.54106075 4278784010
0.42684418 0.042030595 0.54106307 4279112722
0.42693067 0.042690128 0.54101443 4279112205
0.42693114 0.043320209 0.54101682 4279308557
0.42693162 0.043950304 0.54101914 4279242764
0.42701811 0.044610858 0.54097056 4278914826
0.42701858 0.045241199 0.54097289 4279177998
0.42701906 0.045871556 0.54097527 4278914575
0.42701954 0.046501905 0.5409776 4278981387
0.42710602 0.047163747 0.54092902 4278981387
0.4271065 0.047794357 0.54093134 4278784262
0.42710698 0.048424967 0.54093373 4279112457
0.42719346 0.049087867 0.54088509 4279375644
0.42727995 0.049751274 0.54083651 4279441950
0.42736644 0.050415188 0.54078794 4279507743
0.42753893 0.051112711 0.5406884 4279638816
0.42771143 0.051811248 0.54058892 4279639066
0.42788398 0.05251082 0.54048938 4279835675
0.42805648 0.053211443 0.5403899 4279835675
0.42822897 0.053913087 0.54029036 4279770135
0.4284015 0.054615773 0.54019088 4279770133
0.42857403 0.055319503 0.5400914 4279835675
0.42874652 0.056024268 0.53999186 4279573273
0.42891905 0.056730069 0.53989238 4279507480
0.42900556 0.057401493 0.53984386 4279441687
0.42909205 0.058073469 0.53979528 4279573526
0.42917854 0.058745943 0.53974676 4279902491
0.42926502 0.059418924 0.53969818 4279704859
0.42935151 0.060092442 0.53964961 4279704859
0.42935199 0.060729787 0.53965199 4279836445
0.4294385 0.061404087 0.53960347 4279968031
0.42782342 -0.10500021 0.54060411 4282272071
0.4276517 -0.10430671 0.54070836 4281676856
0.42773828 -0.10370548 0.54065979 4280229413
0.42765266 -0.10304342 0.54071307 4280097827
0.42756701 -0.10238189 0.54076636 4279769886
0.42748138 -0.10172085 0.54081964 4279769886
0.42730963 -0.10103098 0.54092389 4279638300
0.42713791 -0.10034213 0.54102814 4279704093
0.42705229 -0.09968318 0.54108143 4279572507
0.42688057 -0.098996155 0.54118562 4279769114
0.42679495 -0.098338515 0.5412389 4279638296
0.4265371 -0.097625203 0.54139405 4279638296
0.42636535 -0.096941277 0.5414983 4279375124
0.42619362 -0.096258402 0.54160249 4279375124
0.42593578 -0.095549241 0.54175764 4279244308
0.42576402 -0.09486869 0.54186183 4279376411
0.4256784 -0.094215967 0.54191512 4279376409
0.42550665 -0.093537211 0.54201931 4279506963
0.42542103 -0.092885785 0.54207253 4279506963
0.42533541 -0.092234872 0.54212582 4279506710
0.42533585 -0.091610216 0.54212815 4279505940
0.42525023 -0.090960078 0.54218137 4279243791
0.42525068 -0.090335689 0.5421837 4279177998
0.42516506 -0.089686327 0.54223698 4279112205
0.4251655 -0.089062199 0.54223931 4278981389
0.42516598 -0.088438064 0.54224163 4278915858
0.42516643 -0.087813944 0.54224396 4278850316
0.4251669 -0.087189808 0.54224628 4278850316
0.42516738 -0.086565681 0.54224861 4278850316
0.42516786 -0.085941553 0.54225093 4278914573
0.42516831 -0.085317425 0.54225326 4278915345
0.42525488 -0.084716201 0.54220462 4278783759
0.42516923 -0.084069163 0.54225791 4279046931
0.42516971 -0.083445035 0.54226023 4278915345
0.42517018 -0.0828209 0.54226255 4278914575
0.42517066 -0.08219678 0.54226488 4279046412
0.42517111 -0.081572652 0.5422672 4278914573
0.42525768 -0.08096987 0.54221857 4279177749
0.42525816 -0.080345482 0.54222095 4279046163
0.42525861 -0.079721086 0.54222322 4278981138
0.42517298 -0.079076134 0.5422765 4279242518
0.42525953 -0.078472316 0.54222786 4278914577
0.42526001 -0.077847928 0.54223025 4278914577
0.42534658 -0.077243328 0.54218161 4278914573
0.42534706 -0.076618679 0.542184 4278915343
0.42534751 -0.075994037 0.54218632 4278915856
0.42534798 -0.075369388 0.54218864 4278784010
0.42543456 -0.074763499 0.54214007 4278784010
0.42543504 -0.074138589 0.54214239 4278784010
0.42552161 -0.073531918 0.54209381 4278915343
0.42552206 -0.072906755 0.54209614 4278915345
0.42552254 -0.072281584 0.54209846 4278784010
0.42552298 -0.071656421 0.54210079 4278784010
0.42552346 -0.07103125 0.54210311 4278718217
0.42561004 -0.070423037 0.54205453 4278783761
0.42561051 -0.069797613 0.54205686 4278915093
0.42561096 -0.069172189 0.54205918 4278783759
0.42569757 -0.068562925 0.54201061 4278783759
0.42561191 -0.067921333 0.54206383 4278717964
0.42569849 -0.067311563 0.54201531 4278783757
0.42569897 -0.066685878 0.54201764 4278915596
0.42569941 -0.066060193 0.54201996 4278915596
0.42569989 -0.065434508 0.54202229 4278981389
0.42570037 -0.064808831 0.54202461 4278784010
0.42578694 -0.064197496 0.54197603 4278981389
0.42578739 -0.06357155 0.54197836 4278718217
0.42578787 -0.062945604 0.54198074 4278784010
0.42578834 -0.062319659 0.54198301 4278850063
0.42578882 -0.061693721 0.54198539 4278718479
0.4258754 -0.061080836 0.54193681 4278784010
0.42587584 -0.060454629 0.54193914 4278784010
0.42579022 -0.059815891 0.54199237 4278784010
0.42579067 -0.059189949 0.54199469 4278914826
0.42587727 -0.058576025 0.54194617 4279046159
0.42579162 -0.057938062 0.54199934 4278915343
0.4257921 -0.05731212 0.54200166 4279046161
0.42570645 -0.056674935 0.54205489 4279111954
0.42570692 -0.056049254 0.54205722 4279112724
0.42570737 -0.055423573 0.54205954 4279178519
0.42570782 -0.054797888 0.54206187 4279046929
0.42570829 -0.054172203 0.54206419 4278784010
0.42570877 -0.053546518 0.54206657 4278784010
0.42570925 -0.052920833 0.5420689 4278914826
0.42570972 -0.052295148 0.54207122 4278717964
0.42579627 -0.051678635 0.54202265 4278914573
0.42571065 -0.051043786 0.54207587 4278914826
0.425625 -0.050409447 0.54212904 4278914826
0.42545325 -0.049767241 0.54223311 4279112203
0.42536759 -0.049134199 0.54228634 4279047434
0.42528194 -0.048501678 0.5423395 4278718215
0.42502403 -0.047854442 0.54249442 4278586378
0.42468005 -0.04720141 0.54270017 4278586378
0.42433602 -0.046550445 0.54290593 4278586378
0.42381978 -0.04588788 0.54321343 4278717964
0.42321742 -0.045221847 0.54357171 4278913546
0.42261505 -0.044559434 0.54393005 4278783240
0.42201269 -0.043900654 0.54428834 4278848780
0.42132419 -0.043239698 0.54469746 4279506710
0.42080793 -0.042593971 0.54500484 4282597435
0.42020553 -0.041946072 0.54536313 4283714876
0.4196893 -0.041306823 0.54567051 4283912253
0.41934526 -0.040680215 0.54587615 4284241729
0.41900122 -0.040055677 0.54608184 4284307776
0.41891557 -0.039445955 0.54613495 4284307776
0.41882989 -0.038836751 0.546188 4284242751
0.41883034 -0.038231794 0.54619026 4284506436
0.41883081 -0.037626836 0.54619253 4284243264
0.41883123 -0.037021879 0.54619479 4283782715
0.41883171 -0.036416922 0.54619706 4283585336
0.41883215 -0.035811964 0.54619932 4282663982
0.41891873 -0.035209443 0.54615068 4281874468
0.42443144 -0.034121595 0.5429014 4279110658
0.42469028 -0.033504765 0.54275119 4278914826
0.42494911 -0.032886382 0.54260099 4278850316
0.42512178 -0.032265306 0.54250163 4278587144
0.42529452 -0.031643193 0.54240227 4278652171
0.42546725 -0.031020047 0.54230291 4278848263
0.42563993 -0.030395862 0.54220361 4278849033
0.42581266 -0.029770641 0.54210424 4278849033
0.42598537 -0.029144384 0.54200488 4278914575
0.42607197 -0.028517505 0.54195642 4278651923
0.42615855 -0.02789011 0.54190791 4278652173
0.42615902 -0.027263131 0.54191023 4278849033
0.4261595 -0.026636153 0.54191256 4278717447
0.42615998 -0.026009172 0.54191494 4279045640
0.42616042 -0.025382195 0.54191726 4278783240
0.4261609 -0.024755215 0.54191959 4278717968
0.42616135 -0.024128236 0.54192191 4278783759
0.42616183 -0.023501256 0.54192424 4278717966
0.4261623 -0.022874277 0.54192656 4278783759
0.42624891 -0.022244291 0.5418781 4278717964
0.42624938 -0.021617053 0.54188043 4278848780
0.42633593 -0.020986289 0.54183197 4278848780
0.42633641 -0.020358793 0.54183429 4278782987
0.42633688 -0.019731296 0.54183662 4278782987
0.42642349 -0.019099496 0.54178816 4278717966
0.42642397 -0.01847174 0.54179049 4278783757
0.42642444 -0.017843984 0.54179281 4278717964
0.42642489 -0.017216228 0.54179513 4278717964
0.42642534 -0.016588472 0.54179752 4278915343
0.42642581 -0.015960716 0.54179984 4278717966
0.42634016 -0.015338815 0.54185295 4278783759
0.42634064 -0.014711318 0.54185534 4278717966
0.42625499 -0.014090196 0.54190844 4278717964
0.42608321 -0.013476226 0.54201239 4278520585
0.42591143 -0.012863293 0.54211634 4278454792
0.42573962 -0.012251396 0.54222029 4278848532
0.42548171 -0.011647947 0.54237509 4278586128
0.4253099 -0.011038382 0.54247898 4278520335
0.42487973 -0.010453643 0.54273534 4278585612
0.42444956 -0.0098714959 0.5429917 4278586380
0.42419159 -0.0092750415 0.54314637 4278586378
0.42358917 -0.0087149702 0.54350436 4278914826
0.42307287 -0.0081495568 0.54381144 4280952862
0.41988742 -0.0066571049 0.54569787 4283649081
0.41928494 -0.0061190557 0.54605567 4283912766
0.419027 -0.0055435896 0.54621035 4283847741
0.41885519 -0.0049591549 0.54631418 4284110913
0.41876951 -0.0043649785 0.54636723 4284176960
0.41885608 -0.0037492402 0.54631865 4284308546
0.41877043 -0.0031555835 0.5463717 4284570694
0.41868475 -0.0025624391 0.54642475 4284702282
0.41859907 -0.0019698143 0.54647779 4284176708
0.41877177 -0.0013414901 0.54637849 4283913536
0.42695719 0.0035815109 0.54156756 4279176975
0.42695764 0.0042108241 0.54156995 4278848010
0.42695811 0.0048401337 0.54157227 4278914824
0.42695859 0.005469447 0.5415746 4278718215
0.42695904 0.0060987566 0.54157698 4278717966
0.42695951 0.0067280661 0.54157931 4278915345
0.42695999 0.0073573794 0.54158163 4278915343
0.42696047 0.0079866853 0.54158401 4278915594
0.42696095 0.0086159986 0.54158634 4278914054
0.42696142 0.0092453081 0.54158866 4278915345
0.42696187 0.0098746251 0.54159105 4278981138
0.42696235 0.010503931 0.54159337 4279046163
0.42696279 0.011133241 0.5415957 4278979849
0.42696327 0.011762554 0.54159808 4278587144
0.42696375 0.012391863 0.54160041 4278718477
0.42696422 0.013021177 0.54160273 4278652684
0.42705083 0.013668256 0.54155433 4278850314
0.42705131 0.01429783 0.54155666 4278717964
0.42713791 0.014945691 0.54150826 4278652688
0.42713839 0.015575523 0.54151058 4278718479
0.42722499 0.016224159 0.54146218 4278850065
0.42722544 0.016854243 0.54146451 4279179030
0.42722592 0.017484335 0.54146683 4279442202
0.42731252 0.018134011 0.54141843 4279046159
0.427313 0.018764356 0.54142082 4278915594
0.42731345 0.019394701 0.54142314 4278915594
0.42740008 0.02004542 0.54137474 4278915594
0.42740053 0.020676026 0.54137707 4278784008
0.42748716 0.021327512 0.54132867 4279045389
0.42748761 0.021958379 0.54133099 4279045389
0.42757425 0.022610648 0.54128259 4278782991
0.42757472 0.023241775 0.54128498 4278981136
0.42757517 0.023872895 0.5412873 4279111952
0.42766181 0.024526203 0.5412389 4278848780
0.42766225 0.025157588 0.54124129 4279046159
0.42766273 0.025788968 0.54124361 4278652434
0.42766321 0.026420353 0.54124594 4278849813
0.42766368 0.027051734 0.54124832 4278783759
0.42766416 0.027683122 0.54125065 4278784008
0.42766464 0.028314503 0.54125303 4278784008
0.42766511 0.028945887 0.54125535 4278849031
0.42766559 0.029577268 0.54125774 4278783759
0.42766604 0.030208653 0.54126006 4279046161
0.42758036 0.030815268 0.54131317 4279241741
0.42758083 0.03144639 0.5413155 4279373327
0.42749518 0.032052226 0.5413686 4279045391
0.42749566 0.032683089 0.54137093 4278915345
0.42740998 0.033288144 0.54142404 4278651921
0.4273243 0.033892684 0.54147714 4278783759
0.42732477 0.03452304 0.54147947 4278783759
0.42723909 0.035126798 0.54153258 4278718217
0.42723957 0.035756893 0.5415349 4279046929
0.42724001 0.036386974 0.54153723 4278914826
0.42724049 0.03701707 0.54153961 4278914826
0.42724097 0.037647158 0.54154193 4278914826
0.42715532 0.038249359 0.54159504 4278914826
0.42715579 0.038879193 0.54159737 4279243542
0.42715624 0.039509013 0.54159969 4279045911
0.42724288 0.040167503 0.54155135 4278783757
0.42724332 0.040797599 0.54155368 4278915343
0.4272438 0.041427679 0.541556 4278783759
0.42724428 0.042057768 0.54155838 4278915596
0.42733088 0.042717554 0.54150999 4279243021
0.42741752 0.043377846 0.54146159 4279046412
0.42741799 0.044008456 0.54146397 4279046412
0.42741844 0.044639058 0.5414663 4278914575
0.42750508 0.045300394 0.54141796 4279111954
0.42750555 0.045931265 0.54142028 4278914573
0.42750603 0.046562128 0.54142261 4278915594
0.42759264 0.047224499 0.54137427 4278981387
0.42767924 0.047887385 0.54132593 4279047432
0.42767972 0.048518769 0.54132825 4279440645
0.42776632 0.049182437 0.54127991 4279572507
0.42785296 0.049846627 0.54123151 4279638300
0.42793956 0.050511323 0.54118317 4279507995
0.42811233 0.051209606 0.54108411 4279573275
0.42828512 0.051908933 0.54098505 4279704089
0.42837173 0.052575707 0.54093671 4279769634
0.42854452 0.053276829 0.54083765 4279769634
0.42871726 0.053979002 0.54073858 4279506714
0.42889005 0.054682203 0.54063952 4279769114
0.42914897 0.055421069 0.54048979 4279573275
0.42932177 0.056126609 0.54039073 4279376407
0.42932224 0.056762904 0.54039311 4279376407
0.42949498 0.057469994 0.54029405 4279442200
0.42958161 0.058142476 0.54024571 4279507993
0.42966825 0.058815464 0.54019743 4279639581
0.42975485 0.059488975 0.54014909 4279639581
0.42975533 0.06012658 0.54015148 4279442972
0.429842 0.060800873 0.54010314 4279771685
0.4299286 0.061475679 0.5400548 4280362793
0.42831099 -0.10506435 0.54105067 4283061068
0.42813897 -0.10437033 0.5411545 4281545527
0.42813945 -0.10373817 0.54115683 4280164390
0.42805371 -0.10307585 0.54120994 4279835425
0.4281404 -0.10247385 0.54116154 4279704091
0.42796844 -0.1017824 0.54126537 4279704091
0.42779642 -0.10109201 0.54136914 4279638298
0.42771065 -0.10043176 0.54142219 4279704091
0.42753869 -0.09974318 0.54152602 4279572505
0.42736667 -0.099055618 0.54162979 4279703319
0.42719471 -0.098369114 0.54173356 4279572507
0.4270227 -0.097683631 0.54183733 4279441689
0.42676449 -0.096971363 0.54199183 4279375124
0.42659247 -0.096288219 0.54209554 4279375124
0.42642051 -0.095606111 0.54219931 4279244312
0.42624849 -0.094925039 0.54230309 4279375646
0.42607647 -0.094245009 0.5424068 4279375896
0.42599073 -0.093592525 0.54245985 4279506963
0.42581874 -0.092914298 0.54256362 4279506963
0.42573297 -0.092263125 0.54261667 4279375377
0.4256472 -0.091612466 0.54266965 4279637779
0.42564768 -0.090987824 0.54267198 4279440398
0.4255619 -0.09033794 0.54272503 4279374605
0.42556238 -0.089713551 0.54272735 4279243019
0.42556283 -0.089089163 0.54272968 4279046929
0.42556328 -0.088464774 0.542732 4278981653
0.42556375 -0.087840393 0.54273432 4278981136
0.42556423 -0.087215997 0.54273665 4278915596
0.42556471 -0.086591609 0.54273897 4278784010
0.42556518 -0.08596722 0.5427413 4278914826
0.42556563 -0.085342832 0.54274362 4278915343
0.42556608 -0.084718451 0.54274595 4278915093
0.42556655 -0.084094055 0.54274827 4278981140
0.42556703 -0.083469674 0.5427506 4278783761
0.42556751 -0.082845278 0.54275292 4278914577
0.42556795 -0.082220897 0.54275525 4279046412
0.42565465 -0.081618115 0.54270691 4278914573
0.42556888 -0.08097212 0.5427599 4279111702
0.42556936 -0.080347732 0.54276222 4278914323
0.42556983 -0.079723336 0.54276454 4278981140
0.42557031 -0.079098955 0.54276687 4279242772
0.42557076 -0.078474566 0.54276919 4279045391
0.4255712 -0.077850178 0.54277152 4279045391
0.42565793 -0.077245578 0.54272318 4278914573
0.4256584 -0.076620929 0.5427255 4278915343
0.42565888 -0.075996287 0.54272783 4278915343
0.42574558 -0.075390652 0.54267949 4278783757
0.42583227 -0.074784502 0.54263115 4278783757
0.42583275 -0.074159332 0.54263341 4278717964
0.4258332 -0.073534168 0.5426358 4278718479
0.42591989 -0.072926983 0.5425874 4278915343
0.42592037 -0.072301559 0.54258978 4278784010
0.42592084 -0.071676135 0.54259211 4278784010
0.42592132 -0.071050711 0.54259443 4278718217
0.42592177 -0.070425287 0.54259676 4278717964
0.42592224 -0.069799863 0.54259908 4278718481
