# .PCD v0.7 - Point Cloud Data file format
VERSION 0.7
FIELDS x y z rgb
SIZE 4 4 4 4
TYPE F F F U
COUNT 1 1 1 1
WIDTH 1057
HEIGHT 1
VIEWPOINT 0 0 0 1 0 0 0
POINTS 1057
DATA ascii
0.47955817 -0.053474471 0.50643086 4279834129
0.47970107 -0.054285675 0.50658989 4279899922
0.47979146 -0.055180922 0.50678891 4279504913
0.47993699 -0.055995658 0.50694799 4279768855
0.48008376 -0.056812093 0.50710708 4279570197
0.48012519 -0.057796121 0.50734603 4279570197
0.48027471 -0.058616295 0.50750512 4280030746
0.48037252 -0.059521496 0.50770414 4279767825
0.48052469 -0.060345218 0.50786316 4280030997
0.48057273 -0.061338171 0.50810212 4279965204
0.48067516 -0.062249631 0.50830114 4279899411
0.48077911 -0.063163161 0.5085001 4279636239
0.4808324 -0.064163193 0.50873905 4280030997
0.48093963 -0.065081105 0.50893807 4279570706
0.48104841 -0.066001073 0.50913703 4280097050
0.4811587 -0.066923141 0.50933605 4279769365
0.48127055 -0.067847267 0.50953501 4279703062
0.48138395 -0.068773493 0.50973403 4279965464
0.4814989 -0.069701791 0.50993299 4279899671
0.48161539 -0.070632175 0.51013196 4279504653
0.48173341 -0.07156463 0.51033092 4279635986
0.48180217 -0.072585449 0.51056987 4279834131
0.48192343 -0.0735223 0.51076883 4279636752
0.48194519 -0.074634612 0.51104766 4279373580
0.48201948 -0.075662926 0.51128662 4279966742
0.48204541 -0.076780871 0.51156545 4279440143
0.48212358 -0.0778144 0.51180434 4279769108
0.48225352 -0.078762874 0.5120033 4279768859
0.4822855 -0.07988891 0.51228213 4280228661
0.48236918 -0.080929935 0.51252103 4279637528
0.48245478 -0.081973419 0.51275992 4279834907
0.48254222 -0.083019421 0.51299876 4279440151
0.4826315 -0.084067896 0.51323766 4279769114
0.48277164 -0.085030094 0.51343656 4279769112
0.44501773 0.064427674 0.48863596 4279572253
0.44530544 0.064040445 0.48863536 4279769886
0.44559315 0.063653223 0.48863474 4279572507
0.44588089 0.063266002 0.48863411 4279704093
0.44608325 0.062839136 0.48867375 4279638300
0.44637111 0.062451705 0.48867315 4279572507
0.44657394 0.062024213 0.48871279 4279638300
0.44686198 0.061636575 0.48871219 4279505692
0.44698054 0.061168 0.48879206 4279637278
0.44735342 0.060820624 0.4887512 4279374106
0.44755721 0.060391888 0.48879084 4279505690
0.44776124 0.059962735 0.48883048 4279505942
0.44804972 0.05957447 0.48882985 4279638296
0.44833824 0.059186205 0.48882926 4279638296
0.44862673 0.058797941 0.48882863 4279177745
0.44899887 0.058451608 0.48878777 4279111956
0.44937068 0.058105677 0.48874688 4279111702
0.44982556 0.057802513 0.48866579 4279045909
0.45019662 0.057457626 0.48862493 4279177495
0.45056736 0.057113163 0.48858407 4279046163
0.45093781 0.056769103 0.48854321 4279046161
0.45130795 0.05642546 0.48850235 4279243540
0.45176032 0.056125626 0.48842126 4279309333
0.45204729 0.05573944 0.48842064 4279111954
0.45233423 0.055353254 0.48842001 4278914575
0.45270327 0.055011071 0.48837918 4278848782
0.45299006 0.054625094 0.48837855 4279177749
0.45319504 0.054194696 0.48841819 4279046933
0.45340034 0.053763881 0.48845783 4279046933
0.45360595 0.053332657 0.48849744 4278981140
0.45389321 0.052946053 0.48849684 4279112726
0.4540993 0.05251421 0.48853648 4278915347
0.45430565 0.052081943 0.48857611 4278981140
0.45451236 0.051649258 0.48861572 4278981140
0.45471936 0.051216155 0.48865536 4278915093
0.45492667 0.050782636 0.488695 4278915093
0.45513427 0.050348707 0.4887346 4279046679
0.45534223 0.04991436 0.48877424 4279112472
0.45555043 0.049479596 0.48881388 4279046679
0.45583895 0.049091332 0.48881325 4279112472
0.45604765 0.048655942 0.48885286 4279112472
0.45633629 0.048267469 0.48885226 4279178265
0.45662493 0.047879003 0.48885164 4279112472
0.45683426 0.047442786 0.48889127 4279046679
0.45704389 0.047006153 0.48893088 4279046681
0.45725381 0.046569094 0.48897052 4278980888
0.45746404 0.046131626 0.48901013 4279112474
0.45780694 0.045206659 0.4891296 4279178267
0.4575257 0.043885581 0.48957098 4279506462
0.45711434 0.043048672 0.48993248 4279507232
0.45622218 0.041313797 0.49069571 4279178265
0.45744941 0.04151617 0.49021226 4279244058
0.45774329 0.041120626 0.49021164 4279244060
0.45788258 0.040624179 0.49029148 4279572255
0.45802248 0.040126912 0.49037132 4279638046
0.45831698 0.039730534 0.49037069 4279506464
0.45853466 0.039283082 0.4904103 4279309085
0.45867589 0.03878393 0.49049014 4279374876
0.45897087 0.038386934 0.49048951 4279441439
0.45911306 0.037886538 0.49056935 4279441439
0.45933217 0.037437223 0.49060893 4279441439
0.45947543 0.036935374 0.49068877 4279375646
0.45969528 0.036485009 0.49072838 4279638048
0.45991537 0.036034234 0.49076799 4279703841
0.46013582 0.035583034 0.49080759 4279703841
0.46035659 0.035131432 0.49084717 4279572255
0.46050233 0.034626253 0.49092701 4279967013
0.46072388 0.034173608 0.49096662 4279967013
0.46094573 0.033720545 0.4910062 4280427564
0.46109301 0.033213288 0.49108604 4280624943
0.46124092 0.032705195 0.49116588 4280295978
0.46138945 0.032196268 0.49124569 4280559150
0.46153861 0.03168653 0.4913255 4280690736
0.4616884 0.031175941 0.49140531 4280690736
0.46191284 0.03071934 0.49144492 4280888115
0.4620637 0.030207299 0.49152473 4280690734
0.46221519 0.029694423 0.49160457 4280624943
0.46244085 0.02923616 0.49164414 4280164912
0.46259344 0.028721839 0.49172395 4280296498
0.46274659 0.028206676 0.49180377 4279901738
0.4629004 0.027690679 0.49188358 4279966761
0.46305478 0.027173854 0.49196339 4279967531
0.46320981 0.026656203 0.4920432 4279901738
0.46343815 0.026194409 0.49208277 4279572773
0.46352172 0.025618397 0.49220282 4279901738
0.4636786 0.025098242 0.49228263 4279572773
0.46390831 0.02463457 0.49232221 4279704361
0.46406627 0.02411297 0.49240199 4279572775
0.46415296 0.0235328 0.49252203 4279835945
0.46431231 0.023009315 0.49260181 4279901992
0.46440071 0.022426873 0.49272186 4279834655
0.46449 0.021843165 0.49284187 4279768862
0.46458021 0.021258213 0.49296188 4279703069
0.46474248 0.020730779 0.49304169 4279769116
0.46483445 0.020143546 0.49316168 4279440151
0.46492726 0.019555062 0.49328172 4279505944
0.4651624 0.019084111 0.49332127 4279439897
0.46532732 0.018553138 0.49340105 4279374104
0.46549284 0.018021353 0.49348086 4279506714
0.46565902 0.017488718 0.49356061 4279243542
0.46589583 0.017015487 0.49360019 4279309333
0.46606305 0.0164814 0.49367997 4279177747
0.46623093 0.015946493 0.49375975 4279177747
0.4663994 0.015410736 0.49383953 4279374356
0.46656847 0.01487416 0.49391931 4279176977
0.4666689 0.014275476 0.49403933 4279308565
0.46683937 0.013737038 0.49411911 4279308565
0.46701047 0.01319775 0.49419886 4279242768
0.46718219 0.012657627 0.49427864 4279374354
0.46735454 0.012116678 0.49435842 4279111952
0.46752748 0.011574909 0.49443817 4279375894
0.46763268 0.010969788 0.49455816 4279046931
0.46787524 0.010488853 0.49459773 4279046931
0.46798199 0.0098816454 0.49471772 4278915347
0.46815759 0.0093363374 0.49479747 4278783507
0.46833378 0.008790195 0.49487722 4278915347
0.46851057 0.0082432181 0.494957 4279046163
0.4686206 0.0076316446 0.49507695 4279111956
0.46873152 0.0070188195 0.49519694 4279046163
0.46891052 0.0064689368 0.49527669 4279046161
0.4690901 0.0059182048 0.49535644 4279046161
0.46920347 0.0053020567 0.49547642 4279111954
0.46938449 0.0047494769 0.49555618 4279177747
0.46949959 0.004131034 0.49567616 4279177747
0.46968198 0.0035765767 0.49575591 4278914575
0.46979877 0.0029558688 0.49587587 4279177747
0.46991652 0.0023338944 0.49599582 4279046159
0.47003514 0.0017106682 0.49611577 4279177745
0.47022045 0.0011522621 0.49619552 4279046159
0.47040641 0.00059300661 0.49627525 4279177998
0.47059298 3.2931566e-05 0.496355 4279309584
0.47071484 -0.00059466064 0.49647495 4279046412
0.47083768 -0.0012234747 0.49659491 4279045642
0.47096145 -0.0018535554 0.49671483 4279308814
0.47115093 -0.0024175942 0.49679458 4279243021
0.4712764 -0.0030499548 0.49691451 4279177228
0.47146726 -0.0036158562 0.49699426 4278979600
0.47159439 -0.0042505115 0.49711418 4278979600
0.47172248 -0.0048864186 0.49723414 4279176979
0.47185153 -0.0055235624 0.49735406 4278979346
0.47198147 -0.006161958 0.49747401 4279176979
0.4721123 -0.0068016052 0.49759394 4279242768
0.47224411 -0.0074424893 0.49771386 4279045389
0.47237682 -0.0080846399 0.49783379 4278979596
0.47251046 -0.0087280422 0.49795371 4279111954
0.47264504 -0.0093726665 0.49807364 4279046159
0.47278056 -0.010018542 0.49819356 4279112205
0.47291696 -0.01066567 0.49831349 4278914826
0.47305435 -0.011314049 0.49843338 4278979849
0.47319263 -0.01196368 0.49855331 4279242511
0.47333184 -0.012614548 0.4986732 4279308561
0.47353414 -0.013195843 0.49875292 4278979596
0.47367507 -0.013849005 0.49887282 4279176725
0.47387874 -0.014432177 0.49895254 4279242518
0.47408307 -0.015016168 0.49903226 4279505690
0.47428802 -0.015600994 0.49911195 4279242518
0.47449356 -0.016186655 0.49919164 4279308563
0.47469974 -0.016773149 0.49927133 4279308304
0.47502869 -0.017215893 0.49927065 4279505936
0.47529674 -0.017731145 0.49931014 4279439373
0.47550431 -0.018319502 0.49938983 4279241994
0.47577313 -0.018835783 0.49942935 4279636501
0.47610271 -0.019279361 0.49942863 4279242511
0.476372 -0.019796267 0.49946815 4279505683
0.47527367 -0.028979018 0.50223529 4279242764
0.4755553 -0.029512569 0.50227475 4279308557
0.47577864 -0.030122131 0.50235444 4279571727
0.47606105 -0.030656725 0.5023939 4279703313
0.47628543 -0.031267762 0.50247353 4279571727
0.47656861 -0.031803384 0.50251305 4279242764
0.4767361 -0.03249231 0.50263286 4280096790
0.47690451 -0.033182487 0.50275272 4279570193
0.47707385 -0.033873916 0.50287259 4279570193
0.47724414 -0.034566596 0.50299239 4279636501
0.47735792 -0.035337791 0.50315249 4279636501
0.47753021 -0.036033168 0.50327229 4279571476
0.47764635 -0.036807492 0.50343233 4279505683
0.47770679 -0.037661374 0.50363255 4279571476
0.47782555 -0.038439229 0.50379258 4279439892
0.47800216 -0.039140433 0.50391239 4279570197
0.47812325 -0.039921403 0.50407243 4279569943
0.47818923 -0.040782779 0.50427264 4279504150
0.47825682 -0.041646227 0.50447285 4279898641
0.4783259 -0.042511746 0.50467306 4279767307
0.47845238 -0.043300003 0.50483304 4279834383
0.47863579 -0.044010356 0.50495291 4279702797
0.47876459 -0.044801727 0.50511289 4279571727
0.47883925 -0.045674741 0.50531304 4279505940
0.47891545 -0.046549842 0.50551325 4279438607
0.47904828 -0.047346622 0.50567323 4279635986
0.47918233 -0.048145071 0.50583327 4279635467
0.47931761 -0.048945174 0.50599325 4279767053
0.47945416 -0.049746946 0.50615323 4279965715
0.47959191 -0.050550371 0.5063132 4279899922
0.4796766 -0.051436901 0.50651336 4279769106
0.47976288 -0.052325532 0.50671357 4279769106
0.47985068 -0.053216204 0.50691372 4279702543
0.47999382 -0.054026917 0.5070737 4279636750
0.4800846 -0.054921553 0.50727385 4279374350
0.48023036 -0.055735812 0.50743377 4279439890
0.48032406 -0.056634411 0.50763392 4279570710
0.48036605 -0.057617977 0.50787425 4279439124
0.48051602 -0.058437839 0.50803423 4279833880
0.48061433 -0.059342667 0.50823438 4279636750
0.48076692 -0.060166076 0.50839436 4280228376
0.48081559 -0.061158583 0.50863463 4279767055
0.48091853 -0.062069669 0.50883478 4279767055
0.48102301 -0.062982813 0.50903493 4279635469
0.4810769 -0.063982382 0.5092752 4279899411
0.48118463 -0.064899921 0.50947535 4279571727
0.48124209 -0.065904275 0.50971562 4279703313
0.48135304 -0.066826165 0.50991577 4279308812
0.48146558 -0.067750141 0.51011586 4279636752
0.48152828 -0.068761557 0.51035613 4279701779
0.48169526 -0.069604293 0.51051605 4279899158
0.48181242 -0.070534497 0.51071614 4279504400
0.48188022 -0.071552798 0.51095641 4279636239
0.4819499 -0.072573587 0.51119673 4279702543
0.482072 -0.073510453 0.51139677 4279899922
0.48214519 -0.07453604 0.51163709 4279702545
0.48222029 -0.075564101 0.5118773 4279834901
0.48224708 -0.076681718 0.51215774 4279570193
0.48232603 -0.077714965 0.512398 4279767572
0.48240682 -0.078750774 0.51263827 4279703064
0.48248947 -0.079789013 0.51287848 4279768107
0.48257396 -0.080829769 0.51311874 4279768859
0.48266029 -0.081873015 0.51335895 4279834652
0.48274851 -0.082918778 0.51359922 4279571478
0.48283857 -0.083967015 0.51383942 4280032029
0.48293048 -0.085017756 0.51407963 4279834905
0.44555253 0.064724103 0.48889369 4279835679
0.44583964 0.064337708 0.48889306 4279704091
0.44604117 0.063912168 0.48893294 4279704091
0.44624305 0.063486218 0.48897278 4279704091
0.44653046 0.063099407 0.48897219 4279375126
0.44673276 0.062672839 0.48901203 4279505942
0.44693539 0.062245838 0.48905191 4279703321
0.44713831 0.061818428 0.48909175 4279505690
0.44734156 0.061390601 0.48913163 4279768862
0.44762957 0.061002962 0.48913103 4279374106
0.4478333 0.060574517 0.48917088 4279374106
0.44812146 0.060186669 0.48917025 4279439897
0.44832563 0.05975759 0.48921013 4279375126
0.44869781 0.059410967 0.48916903 4279375126
0.44898599 0.059023127 0.48916841 4279309333
0.44935772 0.058677115 0.48912734 4279374874
0.44972914 0.058331534 0.48908624 4278914323
0.45034999 0.058113158 0.48892373 4279111702
0.45088649 0.057853967 0.48880172 4279111702
0.45142204 0.057596035 0.48867968 4278914323
0.45179117 0.057253569 0.48863861 4278914577
0.45215997 0.056911521 0.48859751 4279242772
0.45236349 0.056483276 0.48863739 4279308563
0.45264965 0.056098133 0.48863676 4278979598
0.45293584 0.055712983 0.48863617 4279177747
0.45322201 0.05532784 0.48863554 4279111954
0.45342633 0.054898567 0.48867542 4278783761
0.45363098 0.054468863 0.48871526 4279112726
0.4538359 0.054038748 0.48875514 4279046933
0.45404115 0.053608224 0.48879498 4278981140
0.45432794 0.053222246 0.48879439 4279046933
0.45453364 0.052791096 0.48883423 4278981140
0.45473969 0.052359529 0.48887408 4278981140
0.45494601 0.051927537 0.48891395 4278981140
0.45515263 0.051495142 0.4889538 4279112726
0.45535961 0.051062331 0.48899364 4278981399
0.45556685 0.050629094 0.48903352 4279047192
0.45577443 0.050195448 0.48907337 4279047192
0.45606232 0.049808018 0.48907274 4278981399
0.45627034 0.049373738 0.48911262 4278981399
0.45647866 0.048939057 0.48915243 4279046679
0.45668733 0.04850395 0.48919231 4279046679
0.45697564 0.048115894 0.48919168 4279046679
0.45726398 0.047727838 0.48919109 4278848530
0.45755231 0.047339782 0.48919046 4279112472
0.45776173 0.04690364 0.4892303 4279045909
0.45797145 0.046467081 0.48927015 4279177495
0.45810291 0.045981608 0.48935047 4279178267
0.45831341 0.045544006 0.48939031 4279046681
0.45852423 0.045105986 0.48943016 4279112472
0.45881349 0.044716686 0.48942953 4279112472
0.4588688 0.04417938 0.48955029 4279178265
0.4590807 0.0437399 0.48959017 4279244058
0.45921522 0.043250278 0.48967046 4279112472
0.45873019 0.042360134 0.49007446 4279112474
0.45871246 0.041766837 0.49023569 4279178267
0.45869595 0.041171886 0.49039689 4279375646
0.45891187 0.040727004 0.49043673 4279638046
0.45905119 0.040230922 0.49051702 4279506460
0.45911434 0.039683007 0.49063778 4279506460
0.45933166 0.039236262 0.4906776 4279703839
0.45947284 0.038737677 0.49075788 4279441437
0.45969093 0.038289897 0.49079773 4279309081
0.45983315 0.037789851 0.49087799 4279572253
0.45997602 0.037288986 0.4909583 4279441437
0.46027115 0.036891781 0.49095768 4279573023
0.46041498 0.036389671 0.49103794 4279375644
0.46063489 0.035939381 0.49107778 4279768864
0.46085513 0.035488687 0.4911176 4279768864
0.46107566 0.03503757 0.49115741 4280097829
0.46129653 0.034586035 0.49119726 4279769634
0.4614428 0.034080595 0.49127752 4280098599
0.46158969 0.033574313 0.4913578 4280295978
0.46181178 0.033121124 0.49139762 4280558380
0.46188533 0.032559276 0.49151838 4280755759
0.46210831 0.032104827 0.49155819 4280821552
0.46225753 0.031595439 0.49163845 4280558380
0.46240735 0.031085208 0.49171871 4280426794
0.46255779 0.030574165 0.491799 4280558380
0.46278253 0.03011743 0.49183881 4280230187
0.46293405 0.029604919 0.49191907 4280098347
0.46308619 0.029091567 0.49199933 4279835175
0.46323895 0.028577395 0.49207962 4279638566
0.46346536 0.028118379 0.49211943 4279638566
0.46361923 0.027602747 0.49219969 4279836458
0.46377367 0.02708628 0.49227995 4279836458
0.46392876 0.026568979 0.4923602 4279639079
0.46401203 0.02599404 0.49248093 4279770665
0.46416849 0.025474869 0.49256116 4279902251
0.46432558 0.02495487 0.49264145 4279639079
0.46448329 0.02443403 0.49272168 4279836458
0.46456981 0.023854725 0.49284238 4279375907
0.46472889 0.023332022 0.49292263 4279638048
0.46481711 0.022750415 0.49304333 4279703069
0.46497759 0.022225842 0.49312359 4279637276
0.46506751 0.021641955 0.49324429 4279572253
0.46515834 0.021056809 0.49336499 4279572507
0.465321 0.02052933 0.49344522 4279506712
0.46548426 0.020001009 0.49352545 4279572505
0.4655776 0.019412547 0.49364614 4279638300
0.46581268 0.018941879 0.49368593 4279375128
0.46597779 0.01841107 0.49376619 4279177749
0.46614352 0.017879419 0.49384642 4279375126
0.46630991 0.017346948 0.49392664 4279309333
0.46647686 0.016813636 0.49400687 4279177749
0.46671408 0.016340062 0.49404669 4279111956
0.46688214 0.015805297 0.49412692 4279243540
0.46705085 0.015269712 0.49420714 4279506712
0.46715093 0.014672086 0.49432781 4279308563
0.46732101 0.014134616 0.49440804 4279176975
0.46749169 0.013596311 0.49448827 4279243538
0.46766299 0.013057187 0.4945685 4279177745
0.46783492 0.012517221 0.49464869 4279046929
0.46793905 0.011914194 0.49476939 4279046931
0.46811235 0.011372373 0.49484962 4278981138
0.46828628 0.010829702 0.49492982 4278717968
0.46846083 0.010286197 0.49501005 4278652175
0.46863601 0.0097418725 0.49509025 4279046163
0.46881178 0.0091966987 0.49517047 4279111954
0.46892071 0.0085872412 0.49529111 4279111954
0.46903056 0.0079765171 0.49541178 4279111954
0.46920851 0.0074284375 0.49549198 4279243540
0.46932006 0.0068154335 0.49561265 4278981138
0.46949941 0.0062655061 0.49569285 4279046931
0.46961266 0.0056501925 0.49581349 4278981138
0.46979338 0.0050983876 0.49589372 4278981138
0.46990833 0.004480809 0.49601436 4278914575
0.4700242 0.0038619787 0.496135 4278914577
0.4702071 0.0033072382 0.49621516 4279243538
0.47025874 0.0026205778 0.49637625 4279046159
0.47044319 0.0020637661 0.49645644 4278848780
0.4706282 0.0015061349 0.49653664 4279046159
0.47074842 0.00088147819 0.49665728 4279112205
0.47093487 0.00032196939 0.49673748 4279309584
0.47105676 -0.00030498207 0.49685812 4279046412
0.4711796 -0.00093315542 0.49697873 4279046412
0.47136822 -0.0014955848 0.4970589 4279045385
0.47149274 -0.002126053 0.49717954 4279242764
0.47168273 -0.00269036 0.49725974 4279243021
0.47180897 -0.003323108 0.49738032 4279308814
0.47200036 -0.0038892776 0.49746051 4278914575
0.47212827 -0.0045243353 0.49758112 4278848782
0.47219321 -0.0052288771 0.49774218 4279177747
0.47238693 -0.005798161 0.49782234 4279046161
0.47245401 -0.0065056384 0.4979834 4278914575
0.4725858 -0.0071458817 0.49810398 4278914575
0.47271854 -0.0077873915 0.49822462 4278914575
0.47291535 -0.008360818 0.49830478 4278848782
0.47298676 -0.0090741068 0.49846581 4278783759
0.47312224 -0.0097193569 0.49858642 4279046412
0.47325867 -0.010365844 0.498707 4278849033
0.47339603 -0.011013582 0.49882758 4279177228
0.47359669 -0.011592224 0.49890774 4279440400
0.47373575 -0.012242243 0.49902833 4279637526
0.47387573 -0.012893513 0.49914894 4279176975
0.47401667 -0.013546035 0.49926952 4279243288
0.47422025 -0.01412864 0.49934965 4279111956
0.47442445 -0.014712051 0.49942982 4279045393
0.47462928 -0.01529631 0.49950999 4279176977
0.47483474 -0.015881404 0.49959013 4279242770
0.47504079 -0.016467333 0.4996703 4279111178
0.47536945 -0.016909674 0.49966958 4279373327
0.47569811 -0.017352 0.4996689 4279241994
0.4759661 -0.017866969 0.49970862 4279439373
0.47629493 -0.018309504 0.49970791 4279636499
0.47662374 -0.018752053 0.49970722 4279373327
0.47689235 -0.019267842 0.49974692 4279439890
0.47584048 -0.02926971 0.50273103 4279374350
0.47606385 -0.029878944 0.50281113 4279374350
0.47628784 -0.030488983 0.50289124 4279440143
0.47662887 -0.030947968 0.50289053 4279308557
0.47685379 -0.031559259 0.50297064 4279504653
0.47702146 -0.032247737 0.50309116 4279767825
0.47718999 -0.032937482 0.50321174 4279702545
0.47735947 -0.033628479 0.50333226 4279702545
0.47752991 -0.034320727 0.50345278 4279570957
0.47770125 -0.035014197 0.5035733 4279438860
0.4778164 -0.035786361 0.50373423 4279570959
0.47787583 -0.036637768 0.50393558 4279439120
0.47799361 -0.037413448 0.50409651 4279373327
0.47811264 -0.038190797 0.50425744 4279767324
0.47823286 -0.038969815 0.50441837 4279702042
0.47835436 -0.039750472 0.50457925 4280031261
0.47847706 -0.040532812 0.50474018 4280031261
0.47854501 -0.041395664 0.50494152 4280030227
0.47861445 -0.042260617 0.50514287 4279767823
0.4787412 -0.043048337 0.50530374 4279767823
0.47892475 -0.043758273 0.50542426 4279504651
0.47899839 -0.044628814 0.50562561 4279570957
0.47912884 -0.045421556 0.50578648 4279570959
0.4792605 -0.046215937 0.50594735 4279701009
0.47933847 -0.047092333 0.5061487 4279635216
0.47941798 -0.047970787 0.50634998 4280227604
0.4795537 -0.048770592 0.50651091 4279702543
0.47969061 -0.049572051 0.50667179 4279900694
0.47988313 -0.050294027 0.50679225 4279703315
0.47991401 -0.051261336 0.50703394 4279636752
0.48005483 -0.05206801 0.50719488 4279702545
0.48014298 -0.052958116 0.5073961 4279571729
0.48028642 -0.053768322 0.50755703 4279242764
0.4803775 -0.054662362 0.50775826 4279834899
0.48052353 -0.055476099 0.50791919 4279834899
0.48061758 -0.056374118 0.50812042 4279374099
0.48066005 -0.057357013 0.50836211 4279571478
0.48075733 -0.058259383 0.5085634 4279636501
0.48085615 -0.059163824 0.50876462 4279834131
0.48100913 -0.059986934 0.5089255 4279570446
0.48105842 -0.060978994 0.50916719 4279767572
0.48116186 -0.061889693 0.50936842 4279767572
0.48126686 -0.062802449 0.5095697 4279964951
0.48126936 -0.063885853 0.50985175 4279899671
0.48142964 -0.064718738 0.51001257 4279965969
0.48143598 -0.065807328 0.51029468 4279702797
0.48154765 -0.066729024 0.5104959 4279505416
0.48166084 -0.067652822 0.51069713 4279570698
0.48172432 -0.068663999 0.51093876 4279701779
0.48189184 -0.06950666 0.51109958 4279899158
0.48200968 -0.070436686 0.5113008 4280294429
0.48207825 -0.071454734 0.51154244 4280229657
0.48214868 -0.072475284 0.51178408 4279769106
0.48222095 -0.073498324 0.51202565 4279440141
0.48234543 -0.074437305 0.51222688 4279504917
0.48237109 -0.075551897 0.51250887 4279439122
0.48244894 -0.076582402 0.51275051 4279703570
0.48252866 -0.077615425 0.51299208 4280164121
0.48261023 -0.078650951 0.51323372 4279900441
0.48269364 -0.079688966 0.5134753 4279702562
0.48277891 -0.08072947 0.51371688 4279768605
0.48286602 -0.081772476 0.51395845 4279439640
0.48290592 -0.082906201 0.51424044 4279505687
0.48299688 -0.083954409 0.51448202 4279439894
0.44571415 0.065367036 0.48919088 4279572253
0.44625807 0.065097228 0.48906815 4279769116
0.44637302 0.06463436 0.48914897 4279769114
0.44657403 0.064209729 0.48918906 4279375377
0.44694597 0.06386324 0.48914772 4279506710
0.44714731 0.063438192 0.48918784 4279309331
0.44743395 0.063052423 0.48918724 4279506710
0.44755089 0.062586859 0.489268 4279375126
0.44783786 0.062200673 0.48926741 4279375128
0.44795573 0.061733849 0.4893482 4279375128
0.44824299 0.061347246 0.48934758 4279309083
0.44827759 0.060838461 0.48946908 4279243288
0.4485653 0.060451232 0.48946846 4279177495
0.44902086 0.060146302 0.48938644 4279309331
0.45105129 0.059570678 0.48881483 4279308831
0.45158643 0.059312724 0.4886921 4279308311
0.45187122 0.058929451 0.48869151 4279045391
0.45223898 0.058588572 0.4886502 4279242772
0.45244077 0.058162898 0.48869032 4279242772
0.45272556 0.057779625 0.48868969 4279045139
0.45301032 0.057396352 0.48868909 4279111954
0.45321274 0.056969851 0.48872918 4279111954
0.45349768 0.05658637 0.48872858 4279046161
0.4536185 0.056115605 0.48880935 4279177747
0.45382184 0.055687852 0.48884943 4278981138
0.45402551 0.05525969 0.48888952 4278980886
0.45414788 0.054786839 0.48897031 4279111702
0.45435232 0.05435764 0.48901039 4279177495
0.454557 0.053928018 0.48905048 4279046163
0.45476207 0.053497985 0.48909056 4279046929
0.45496741 0.053067528 0.48913065 4279178517
0.45517308 0.052636661 0.48917073 4279178517
0.45537907 0.052205369 0.48921081 4279046931
0.45558533 0.051773682 0.4892509 4278915347
0.45579192 0.051341556 0.48929098 4278981653
0.45599881 0.050909027 0.48933107 4279046933
0.45620602 0.050476082 0.48937112 4278981140
0.45641354 0.050042719 0.48941121 4278849813
0.45662135 0.049608938 0.48945129 4278915093
0.45690906 0.049221717 0.48945069 4279112222
0.45711738 0.048787311 0.48949075 4279046679
0.45740524 0.048399881 0.48949015 4279046679
0.457614 0.047964849 0.48953021 4278980886
0.45782304 0.047529407 0.48957029 4279111702
0.45803243 0.047093548 0.48961037 4279243288
0.45832074 0.046705492 0.48960975 4279309081
0.4585306 0.046269007 0.48964983 4279243288
0.45874071 0.045832112 0.48968989 4279178265
0.45895118 0.045394801 0.48972997 4279112472
0.45916194 0.044957064 0.48977005 4279243538
0.45929512 0.044469655 0.48985079 4279375124
0.45942894 0.043981418 0.48993155 4279375126
0.45956337 0.043492347 0.49001232 4279244312
0.45969841 0.043002456 0.49009305 4279178015
0.45975679 0.042461626 0.4902145 4279112222
0.45958477 0.04176867 0.49045801 4279112474
0.45956856 0.041174218 0.49062014 4279374876
0.45970714 0.040679529 0.49070087 4279505692
0.45976973 0.040133096 0.49082229 4279637278
0.45990968 0.039636545 0.49090302 4279374874
0.46012664 0.039190494 0.4909431 4279441437
0.46019149 0.038640931 0.49106452 4279441437
0.4604094 0.038193643 0.49110457 4279244058
0.46062756 0.037745923 0.49114463 4279375644
0.46077034 0.037245631 0.49122536 4279573277
0.4609893 0.036796875 0.49126542 4279507997
0.46120852 0.036347702 0.49130547 4279769632
0.46142811 0.035898112 0.49134552 4279638046
0.46164799 0.035448119 0.49138558 4279572253
0.46179324 0.034944497 0.49146631 4279967013
0.4620139 0.034493454 0.49150637 4280229415
0.4621602 0.033988371 0.4915871 4280361001
0.46230713 0.033482455 0.49166784 4280558378
0.46245468 0.032975711 0.49174857 4280558378
0.46260285 0.032468133 0.49182928 4280887343
0.46282569 0.032014191 0.49186933 4280624171
0.46297494 0.031505153 0.49195004 4280426792
0.46312481 0.030995287 0.49203077 4280295206
0.46327531 0.030484587 0.4921115 4280163620
0.46342641 0.029973067 0.49219221 4280032806
0.46357813 0.029460698 0.49227291 4279769634
0.46380359 0.02900321 0.49231297 4279835427
0.46395639 0.028489396 0.49239367 4279704613
0.46410984 0.02797474 0.49247441 4279442470
0.46426386 0.027459271 0.49255511 4279377190
0.46441853 0.026942953 0.49263585 4279442983
0.4645738 0.026425816 0.49271655 4279639849
0.46465755 0.025850877 0.49283791 4279573286
0.46481425 0.02533187 0.49291864 4279573286
0.46497151 0.02481202 0.49299935 4279770665
0.46505773 0.024233766 0.49312073 4279375907
0.4652164 0.023712046 0.49320143 4279507234
0.46537572 0.0231895 0.49328211 4279638046
0.46546441 0.022607915 0.49340349 4279572253
0.465554 0.022025086 0.49352488 4279506462
0.46571547 0.021499626 0.49360555 4279441689
0.46580678 0.02091451 0.49372694 4279244308
0.46596962 0.020387165 0.49380764 4279112722
0.46613309 0.019859001 0.49388832 4279244308
0.46622688 0.019270562 0.49400967 4279047444
0.4664619 0.018800184 0.4940497 4278981651
0.46662724 0.018269509 0.4941304 4279112724
0.46679318 0.017738022 0.49421108 4278981138
0.46695971 0.017205693 0.49429178 4278915093
0.46712691 0.016672552 0.49437246 4279243542
0.46729469 0.016138554 0.49445313 4279309333
0.46753234 0.015664637 0.49449316 4279375126
0.46770123 0.015129194 0.49457383 4279375124
0.46780181 0.014531605 0.49469519 4279242768
0.4679721 0.013994284 0.49477586 4279374354
0.46814299 0.013456136 0.49485654 4279242768
0.46824604 0.012855209 0.49497789 4279046159
0.4684183 0.012315199 0.49505857 4279177745
0.46852306 0.011711985 0.49517989 4278914573
0.46869671 0.011170089 0.49526057 4279046159
0.468871 0.010627374 0.49534124 4278914573
0.46904594 0.010083809 0.49542192 4279242768
0.46922144 0.0095394254 0.49550259 4279177745
0.46933022 0.0089308023 0.49562392 4279046933
0.46950716 0.0083845407 0.49570459 4279178519
0.46968466 0.0078374594 0.49578524 4279046931
0.46972901 0.0071614832 0.49594724 4278915858
0.46990806 0.0066123158 0.49602789 4278718479
0.47008777 0.0060623139 0.49610853 4278718479
0.47013521 0.0053821951 0.49627054 4278783759
0.47031644 0.0048301071 0.49635118 4278981138
0.470366 0.0041470677 0.49651316 4279111952
0.47054881 0.0035929084 0.49659383 4279309333
0.47073221 0.0030379146 0.49667448 4279177747
0.47085056 0.002416417 0.49679577 4278848782
0.47096986 0.0017936379 0.4969171 4279045389
0.47115541 0.0012357384 0.49699774 4279046410
0.47127637 0.00061069429 0.49711904 4279112203
0.47146335 5.0917268e-05 0.49719968 4279112203
0.47158599 -0.00057640672 0.49732098 4278915343
0.47170961 -0.0012049973 0.49744231 4278914575
0.47183415 -0.0018348247 0.49756357 4279243540
0.47202402 -0.0023985505 0.49764422 4278914826
0.47221455 -0.0029631108 0.49772486 4279177998
0.47234157 -0.0035962611 0.49784613 4279046929
0.47246948 -0.0042306632 0.49796742 4278915343
0.47259834 -0.0048663169 0.49808872 4278783759
0.47272813 -0.0055032223 0.49821001 4278717966
0.47285885 -0.0061413795 0.49833131 4278914575
0.47299045 -0.0067807734 0.49845257 4278914575
0.47312301 -0.0074214041 0.49857384 4278782989
0.47325653 -0.0080633163 0.49869514 4278848784
0.47332805 -0.0087758899 0.49885708 4279176725
0.47346354 -0.0094204694 0.49897835 4279242768
0.47359997 -0.010066316 0.49909961 4278979596
0.47379977 -0.010643363 0.49918023 4279308306
0.47393787 -0.011291474 0.49930149 4279440147
0.47407693 -0.011940852 0.49942279 4279242770
0.47421691 -0.012591496 0.49954402 4279176977
0.47441965 -0.013172477 0.49962464 4279046163
0.47456133 -0.013825387 0.49974591 4278913807
0.47476542 -0.014408246 0.49982652 4279110927
0.4750315 -0.014920443 0.49986646 4279374099
0.4751755 -0.015576467 0.49998772 4279374099
0.47544253 -0.016089901 0.50002766 4279834648
0.47577071 -0.016531602 0.50002694 4279703062
0.47603819 -0.017045647 0.50006694 4279308557
0.47636655 -0.017487571 0.50006622 4279308557
0.47669491 -0.017929494 0.50006551 4279439371
0.47696298 -0.018444374 0.5001055 4279438858
0.47735161 -0.018813327 0.50006413 4279570708
0.47767997 -0.019255236 0.50006342 4279900443
0.4760083 -0.029177547 0.50326812 4279570957
0.47629046 -0.029711351 0.50330806 4279439371
0.4765729 -0.030245587 0.50334799 4279636752
0.47685567 -0.030780226 0.50338793 4279636752
0.47713876 -0.031315282 0.5034278 4279570957
0.47730654 -0.032003328 0.50354904 4279636491
0.47747526 -0.032692641 0.50367022 4279570446
0.47764492 -0.033383206 0.50379145 4279307274
0.47781551 -0.034075007 0.50391263 4279439112
0.47798699 -0.034768045 0.5040338 4279701510
0.47810239 -0.035539687 0.50419569 4280030477
0.47816217 -0.036390513 0.50439817 4279834129
0.47828022 -0.037165686 0.50455999 4279899922
0.47834295 -0.038020477 0.50476247 4279373856
0.47852001 -0.03872101 0.50488365 4279308311
0.47864175 -0.03950116 0.50504547 4279833880
0.47876471 -0.040282995 0.5052073 4279702294
0.47883299 -0.041145265 0.50540972 4279832846
0.47890282 -0.042009622 0.50561219 4279570444
0.4790298 -0.04279685 0.50577402 4279504402
0.47915804 -0.043585747 0.50593579 4279635988
0.47928751 -0.044376299 0.50609761 4279899411
0.47941822 -0.045168519 0.50625944 4279965717
0.47949514 -0.046042427 0.50646186 4279899924
0.47957361 -0.046918437 0.50666434 4280031510
0.47965363 -0.047796518 0.50686675 4279702543
0.47978973 -0.04859601 0.50702852 4279702543
0.47992709 -0.049397171 0.50719035 4279505433
0.48006567 -0.0502 0.50735211 4279439640
0.48015141 -0.05108577 0.50755453 4279504917
0.48023871 -0.051973641 0.50775695 4279374097
0.48038131 -0.052781865 0.50791872 4279703062
0.48052514 -0.053591773 0.50808048 4279703062
0.48061675 -0.054485425 0.5082829 4279832846
0.4807632 -0.05529885 0.50844467 4279373580
0.48085776 -0.056196496 0.50864708 4279570444
0.48090085 -0.057178944 0.50889015 4279702030
0.48099864 -0.058080927 0.50909251 4279504913
0.48109797 -0.058984995 0.50929493 4279636499
0.48125136 -0.059807792 0.50945669 4280097052
0.48130125 -0.06079939 0.5096997 4279702821
0.48135298 -0.061793476 0.50994271 4279505442
0.48145866 -0.062706098 0.51014507 4279373856
0.48151395 -0.063704953 0.51038814 4279505442
0.48162287 -0.06462194 0.51059049 4279965464
0.4816817 -0.065625593 0.5108335 4279702292
0.48179388 -0.066546932 0.51103586 4280555291
0.48185626 -0.067555368 0.51127887 4280555024
0.48192051 -0.068566293 0.51152182 4280030227
0.48208863 -0.069408864 0.51168358 4279832848
0.48220712 -0.070338726 0.51188588 4279241491
0.48227647 -0.071356505 0.51212889 4279506193
0.48234767 -0.072376817 0.51237184 4279440141
0.48242074 -0.073399618 0.51261485 4279571727
0.48249564 -0.074424878 0.51285779 4279769617
0.48257241 -0.075452685 0.51310074 4279769356
0.48265103 -0.076482952 0.51334369 4279375627
0.48273152 -0.077515721 0.51358664 4279375627
0.48276424 -0.078638315 0.51387024 4279570193
0.48284858 -0.079676285 0.51411319 4279701792
0.48288548 -0.080804497 0.51439679 4279506993
0.48302281 -0.081759706 0.51459908 4279046442
0.48311272 -0.082805187 0.51484203 4279900448
0.48315564 -0.083941475 0.51512557 4279966744
0.44641966 0.065738231 0.48936337 4279507484
0.4468767 0.065430857 0.48928088 4279441689
0.44716209 0.065046757 0.48928028 4279441689
0.44736212 0.064623654 0.48932061 4279506193
0.44773287 0.064278543 0.48927906 4279375377
0.44801828 0.063894436 0.48927844 4279309584
0.4483037 0.063510329 0.48927784 4279112472
0.44858909 0.063126229 0.48927724 4279112724
0.44887447 0.062742122 0.48927662 4279111954
0.44924432 0.062398255 0.4892351 4279505942
0.44986665 0.062176153 0.48907077 4279440149
0.45015126 0.061793089 0.48907018 4279440151
0.45051986 0.061450884 0.48902863 4279374358
0.45105574 0.061191246 0.48890525 4279374358
0.45200896 0.061139248 0.48857725 4279243288
0.45262572 0.060924634 0.48841295 4279506210
0.45299122 0.060586594 0.48837143 4279243038
0.45327324 0.060207061 0.48837084 4279309085
0.4534722 0.059785418 0.48841113 4279308563
0.45367146 0.059363358 0.48845148 4279242770
0.45354015 0.058770768 0.48865551 4279308311
0.45374066 0.058347054 0.4886958 4279242518
0.45394146 0.057922915 0.48873612 4278848780
0.45406035 0.057455212 0.48881736 4278848780
0.45426193 0.057030037 0.48885769 4279046161
0.45438188 0.056560874 0.48893893 4279046161
0.45458424 0.056134649 0.48897922 4279112726
0.4547869 0.055708021 0.48901954 4279047192
0.45490843 0.055236787 0.48910078 4279047194
0.45511186 0.054809108 0.48914111 4279111956
0.45523441 0.054336414 0.48922235 4279111956
0.45543864 0.0539077 0.48926264 4279046931
0.45564318 0.053478569 0.48930293 4279308563
0.45576727 0.053003795 0.48938417 4279243538
0.45597261 0.052573636 0.48942447 4279177745
0.45617819 0.052143045 0.48946479 4279374354
0.45630386 0.051666193 0.489546 4278981401
0.45651025 0.051234566 0.48958632 4278915606
0.45671695 0.050802529 0.48962665 4278915606
0.45692396 0.050370075 0.48966694 4278915608
0.45713127 0.049937204 0.48970723 4278981401
0.45733887 0.049503908 0.48974755 4279112989
0.4575468 0.049070209 0.48978785 4279046679
0.45775503 0.048636094 0.48982814 4279178265
0.45804259 0.048249081 0.48982754 4279242770
0.4582513 0.047814332 0.48986784 4279046161
0.4584603 0.047379173 0.48990816 4279046679
0.45866963 0.04694359 0.48994845 4279178519
0.45887923 0.046507604 0.48998874 4279244312
0.45908919 0.046071194 0.49002904 4279046679
0.45929945 0.045634374 0.49006933 4278981140
0.45950997 0.045197137 0.49010962 4279244058
0.45964307 0.044710301 0.49019086 4279112472
0.45977676 0.044222631 0.49027205 4279112726
0.45998856 0.043783732 0.49031234 4279046933
0.46020067 0.043344408 0.49035263 4279112474
0.46025875 0.042804651 0.49047476 4279178267
0.46031776 0.042263635 0.49059689 4279375648
0.46030086 0.041670941 0.49075991 4279769382
0.46028519 0.041076593 0.49092293 4279505692
0.46042383 0.040582277 0.49100411 4279703071
0.46056306 0.040087111 0.49108532 4279637528
0.46062672 0.039539874 0.49120742 4279178519
0.46076739 0.039042838 0.4912886 4279046679
0.46098459 0.03859666 0.4913289 4279178265
0.46120209 0.038150065 0.49136919 4279441437
0.46134427 0.03765095 0.49145037 4279047194
0.46156257 0.037203319 0.49149066 4279441691
0.46170586 0.03670276 0.49157184 4279834909
0.46192491 0.036254078 0.49161211 4279703323
0.46214426 0.035804987 0.4916524 4280033058
0.46228909 0.035302341 0.49173358 4280098851
0.46243453 0.034798868 0.49181476 4280163620
0.46265513 0.034348108 0.49185503 4280295206
0.46280167 0.033843182 0.49193621 4280360999
0.46302304 0.033391394 0.4919765 4280426792
0.46317065 0.032885 0.49205768 4280558378
0.46331885 0.032377787 0.49213886 4280164390
0.46346772 0.031869732 0.49222004 4280230183
0.46361718 0.031360857 0.4923012 4280163874
0.46376723 0.030851141 0.49238238 4280098851
0.46391794 0.030340597 0.49246353 4279835677
0.46414241 0.029884644 0.49250382 4279704091
0.4642942 0.029372633 0.49258497 4279638298
0.4644466 0.028859809 0.49266616 4279967011
0.46459961 0.028346144 0.49274731 4279638816
0.46475324 0.027831651 0.49282849 4279311136
0.4649075 0.027316317 0.49290964 4279508515
0.46499014 0.026743494 0.49303171 4279376929
0.46521786 0.026283167 0.49307197 4279573538
0.46530205 0.025708258 0.49319404 4279638050
0.46545893 0.025189392 0.4932752 4279638050
0.46554482 0.024612203 0.49339724 4279375144
0.4657031 0.024091467 0.49347842 4279375907
0.46579069 0.023511976 0.49360046 4279178015
0.46595037 0.022989385 0.49368161 4279243808
0.46611065 0.022465937 0.49376276 4279178528
0.46620071 0.02188313 0.4938848 4279244312
0.46636239 0.021357819 0.49396595 4279310614
0.46652466 0.020831682 0.49404711 4278916630
0.46661723 0.020245537 0.49416915 4278785044
0.4667809 0.019717522 0.4942503 4278982171
0.46694517 0.01918868 0.49433142 4279046679
0.4671101 0.018659003 0.49441257 4279506714
0.46734539 0.018188499 0.49445283 4279375128
0.4674418 0.017597154 0.49457484 4279177749
0.46760854 0.017064981 0.494656 4279373847
0.46777594 0.016531967 0.49473715 4279374356
0.46794397 0.01599814 0.49481827 4279374356
0.46811256 0.015463471 0.49489939 4279177998
0.46828181 0.014927968 0.49498051 4279176975
0.46838301 0.014330193 0.49510255 4278979346
0.46855366 0.013792813 0.49518368 4279308304
0.46865654 0.013192743 0.49530572 4279242511
0.46882856 0.0126535 0.49538684 4279308561
0.4690012 0.01211343 0.49546796 4279177745
0.46917444 0.011572525 0.49554908 4279243538
0.4692806 0.010968074 0.49567109 4279309331
0.46945524 0.010425299 0.49575222 4279112205
0.46956307 0.0098185688 0.49587423 4279046161
0.46973911 0.0092739314 0.49595535 4278914325
0.46991578 0.0087284297 0.49603647 4278848532
0.47002608 0.0081183761 0.49615848 4278979600
0.47020411 0.0075710416 0.49623957 4278915347
0.47031614 0.0069586933 0.49636158 4278848780
0.47042909 0.0063451082 0.49648356 4279243538
0.47060931 0.0057948381 0.49656469 4279111952
0.47065777 0.0051141828 0.49672759 4279111956
0.4708395 0.0045618415 0.49680868 4278915345
0.470956 0.0039434731 0.49693066 4279046931
0.47113913 0.0033892542 0.49701178 4278981138
0.47125733 0.002768591 0.49713376 4278783511
0.47137648 0.0021466911 0.49725574 4278717714
0.47149652 0.0015235245 0.49737772 4278915343
0.47161746 0.00089912117 0.4974997 4278915343
0.47180432 0.00033991039 0.4975808 4278783757
0.47192702 -0.00028677285 0.49770278 4279047182
0.47205061 -0.00091472268 0.49782476 4279046664
0.47217512 -0.0015439093 0.49794674 4279178250
0.47236496 -0.0021070689 0.4980278 4278784010
0.47255534 -0.002671048 0.49810892 4279112205
0.47274637 -0.0032358766 0.49818999 4278915345
0.47287416 -0.0038694292 0.49831197 4278848784
0.47300285 -0.0045042187 0.49843392 4278782991
0.47313246 -0.0051402748 0.4985559 4278652173
0.47326303 -0.0057775676 0.49867785 4278915343
0.47339451 -0.0064161122 0.4987998 4278915343
0.47346383 -0.0071248561 0.49896264 4278915343
0.47359729 -0.0077660829 0.49908459 4278981136
0.47373173 -0.0084085912 0.49920654 4278981136
0.47386706 -0.0090523362 0.49932849 4279176975
0.47400334 -0.0096973181 0.49945045 4278979596
0.47414052 -0.010343567 0.4995724 4279439120
0.47427869 -0.010991067 0.49969435 4279374097
0.47441772 -0.011639789 0.4998163 4279177495
0.4745577 -0.012289777 0.49993825 4279309081
0.4746986 -0.012941003 0.5000602 4278783511
0.474902 -0.013522461 0.50014126 4279439894
0.475106 -0.014104739 0.50022233 4279504915
0.47531062 -0.014687881 0.50030333 4279374101
0.47551587 -0.015271828 0.50038439 4279308308
0.47578266 -0.01578477 0.50042456 4279243538
0.47611055 -0.016226068 0.50042391 4279046412
0.47637784 -0.016739622 0.50046408 4279373578
0.47670588 -0.017181113 0.50046337 4279439371
0.47703391 -0.01762262 0.50046265 4279570694
0.47736198 -0.018064126 0.50046194 4279570444
0.47769001 -0.018505633 0.50046128 4279636501
0.47801805 -0.018947139 0.50046057 4280557601
0.47623482 -0.029010043 0.50376487 4279702030
0.47657537 -0.029468387 0.50376409 4279636752
0.47679961 -0.030077919 0.50384516 4280097303
0.47714049 -0.030536681 0.50384438 4280097303
0.47736567 -0.031147465 0.50392544 4279636750
0.47759145 -0.031759083 0.50400645 4279439625
0.47776031 -0.032447949 0.50412834 4279505166
0.47793013 -0.033138067 0.50425017 4279570959
0.47810087 -0.033829436 0.50437206 4279438858
0.47827253 -0.034522042 0.50449395 4279701510
0.47838819 -0.035293177 0.50465667 4279965452
0.47844833 -0.036143407 0.50486028 4279965969
0.47851002 -0.036995754 0.50506389 4280097555
0.47862968 -0.037772268 0.50522661 4279308056
0.47875062 -0.038550466 0.50538933 4279570710
0.47892892 -0.039252013 0.50551116 4279372044
0.47905213 -0.040033326 0.50567394 4279569423
0.47912079 -0.040895015 0.50587749 4280094991
0.47919095 -0.041758791 0.5060811 4280096018
0.4793182 -0.042545497 0.50624382 4279635988
0.47939134 -0.043413222 0.50644737 4279635988
0.47952121 -0.044203475 0.5066101 4280031259
0.47965232 -0.044995382 0.50677282 4279571480
0.47978467 -0.045788959 0.50693548 4279965464
0.47986349 -0.046664372 0.50713909 4279636499
0.47994387 -0.047541857 0.50734264 4279570444
0.4800258 -0.048421443 0.50754619 4279702543
0.48016357 -0.049222291 0.50770891 4279439894
0.48030257 -0.050024822 0.50787157 4279966238
0.48038882 -0.050910205 0.50807512 4279571230
0.48047662 -0.051797703 0.50827867 4279898390
0.48061961 -0.052605614 0.50844133 4279898378
0.48076385 -0.053415209 0.50860405 4279832585
0.480856 -0.054308489 0.50880754 4280029450
0.48100287 -0.055121616 0.50897026 4279570698
0.48109794 -0.056018874 0.50917375 4279899409
0.48114163 -0.057000861 0.50941813 4279965202
0.48123991 -0.05790247 0.50962168 4279965717
0.48128718 -0.058889255 0.50986606 4279833880
0.48144117 -0.059711948 0.51002872 4279899421
0.48154411 -0.060619801 0.51023221 4279965741
0.48154432 -0.06169714 0.51051748 4279636776
0.48165065 -0.062609568 0.51072097 4279373604
0.48170674 -0.063608184 0.51096535 4279373854
0.48181629 -0.064525008 0.51116884 4279834398
0.48187593 -0.065528408 0.51141316 4279900191
0.48198873 -0.066449568 0.51161665 4280161562
0.48205191 -0.067457765 0.51186103 4280292624
0.48211694 -0.068468451 0.51210535 4279898889
0.48228562 -0.069310889 0.51226795 4280030475
0.48240477 -0.070240602 0.51247144 4279570957
0.48247489 -0.071258143 0.51271582 4279835410
0.48254687 -0.072278216 0.51296014 4279966739
0.48262069 -0.073300734 0.51320446 4279571981
0.48264626 -0.074412182 0.5134896 4279702797
0.48272395 -0.07543993 0.51373392 4279506184
0.48275369 -0.076556996 0.51401907 4279244039
0.48288488 -0.077502906 0.5142225 4279244039
0.48291865 -0.078625366 0.51450765 4279899671
0.48300391 -0.079663321 0.51475197 4279505188
0.48304182 -0.080791384 0.51503712 4279768882
0.48313099 -0.08183451 0.51528144 4279637296
0.48322195 -0.082880154 0.5155257 4279768862
0.48331478 -0.083928272 0.51576996 4280097301
0.44703826 0.066070214 0.48957425 4279244310
0.44766539 0.065840736 0.48940903 4279244310
0.44794971 0.065458089 0.48940843 4279441689
0.44823402 0.065075435 0.48940784 4279178515
0.44860345 0.064731911 0.48936608 4279375124
0.44897255 0.064388804 0.48932433 4279375646
0.44934136 0.064046115 0.48928255 4279112474
0.44970983 0.063703835 0.4892408 4278981399
0.45007801 0.063361973 0.48919904 4279440149
0.45086747 0.06322135 0.48895153 4279637528
0.45165509 0.063083209 0.48870403 4279438870
0.45227283 0.06286642 0.4885388 4279309085
0.45263779 0.062528923 0.48849708 4279506464
0.45319963 0.061772779 0.48849586 4279112222
0.45364732 0.061477527 0.48841298 4279243292
0.45392793 0.061099865 0.48841235 4279177495
0.45404238 0.060638554 0.48849407 4279374874
0.45424035 0.060218446 0.48853463 4279375124
0.4542731 0.059713431 0.48865747 4279308561
0.45438939 0.059249625 0.48873916 4279177747
0.45442384 0.058742322 0.48886201 4279111954
0.45437688 0.058190905 0.48902601 4279046161
0.45457762 0.057767048 0.48906654 4278914575
0.45469671 0.057299502 0.48914823 4278782739
0.4548164 0.056831114 0.48922992 4278914325
0.45501843 0.056405604 0.48927045 4278783761
0.45522073 0.055979669 0.48931098 4278915347
0.45542336 0.055553317 0.48935154 4278915347
0.45562628 0.055126548 0.48939207 4279242768
0.4558295 0.054699369 0.48943263 4279045389
0.45603308 0.05427178 0.48947316 4279111952
0.45615616 0.05379881 0.48955482 4278979849
0.4564411 0.053415328 0.48955423 4279176975
0.45656511 0.052941129 0.48963591 4278979596
0.45677006 0.052511655 0.48967645 4279374358
0.45689514 0.052035995 0.48975813 4278915093
0.45710087 0.051605485 0.48979867 4278915606
0.45722705 0.051128365 0.48988032 4278915095
0.45743352 0.05069682 0.48992085 4279046681
0.45764032 0.050264858 0.48996139 4278849813
0.45784742 0.049832478 0.49000192 4278980888
0.45805484 0.049399674 0.49004245 4279176725
0.45826256 0.048966467 0.49008298 4279045139
0.45847058 0.048532844 0.49012351 4279177495
0.45867893 0.048098795 0.49016404 4279243288
0.45888758 0.047664337 0.49020457 4279112472
0.45909655 0.047229469 0.4902451 4279046931
0.45930579 0.046794176 0.49028563 4279112724
0.45951539 0.046358466 0.49032617 4279112724
0.45964727 0.045873649 0.49040782 4278915345
0.45985764 0.045436904 0.49044833 4279178265
0.46006829 0.044999741 0.49048886 4279441437
0.46027923 0.044562161 0.49052936 4279112474
0.46041316 0.044074647 0.49061105 4279045911
0.46054769 0.043586291 0.49069268 4279178267
0.46068281 0.043097116 0.49077436 4279373847
0.4607417 0.042556964 0.49089715 4279505433
0.46087819 0.042065904 0.49097878 4279111704
0.46093875 0.041523457 0.49110159 4279243540
0.46100026 0.040979758 0.49122438 4279703062
0.46113896 0.040485807 0.49130601 4279768855
0.46127826 0.039991006 0.49138767 4279375126
0.46134222 0.039443985 0.49151045 4279112989
0.46148291 0.038947314 0.49159211 4279311138
0.4616999 0.038501635 0.49163258 4279047966
0.4618417 0.038003504 0.49171424 4279311136
0.46205947 0.037556782 0.49175474 4279506714
0.46227753 0.037109628 0.49179524 4279244058
0.46242088 0.036609426 0.4918769 4279375644
0.46263972 0.036161244 0.4919174 4279639070
0.46278414 0.035659589 0.49199903 4279769884
0.46292919 0.035157099 0.49208069 4279900698
0.46314925 0.034707248 0.49212116 4280163870
0.46329534 0.034203298 0.49220282 4280229663
0.46351624 0.033752412 0.49224332 4280427816
0.46366343 0.033247016 0.49232495 4280559150
0.46381122 0.032740787 0.49240655 4279966243
0.46403334 0.032288231 0.49244708 4280295208
0.46410871 0.031725816 0.4925698 4279834909
0.46425837 0.031217083 0.49265146 4279573277
0.4644087 0.030707531 0.49273306 4279508513
0.46455956 0.030197136 0.49281469 4279507743
0.46471107 0.029685907 0.49289632 4279310364
0.46493596 0.029229611 0.49293682 4279638300
0.46501601 0.028660968 0.49305955 4279639068
0.46516937 0.028147243 0.49314117 4279573536
0.46539563 0.027689077 0.49318165 4279376157
0.46555009 0.027173899 0.49326327 4279639331
0.46563321 0.026601091 0.49338603 4279639331
0.46578905 0.026084051 0.49346763 4279507495
0.46587387 0.025508948 0.49359035 4279375909
0.4660311 0.024990022 0.49367198 4279506210
0.46618897 0.024470285 0.49375358 4279374626
0.46634746 0.023949698 0.49383518 4279112224
0.46643549 0.023370236 0.49395794 4279112222
0.46659535 0.022847772 0.49403954 4279046429
0.46668512 0.02226603 0.49416226 4279309081
0.46684641 0.021741703 0.49424386 4279243290
