# .PCD v0.7 - Point Cloud Data file format
VERSION 0.7
FIELDS x y z rgb
SIZE 4 4 4 4
TYPE F F F U
COUNT 1 1 1 1
WIDTH 1070
HEIGHT 1
VIEWPOINT 0 0 0 1 0 0 0
POINTS 1070
DATA ascii
0.42104098 0.064322338 0.52264464 4279374605
0.42154658 0.064157233 0.52264869 4279177998
0.4220522 0.063992143 0.52265275 4279046412
0.42252585 0.063759029 0.52258599 4279112205
0.42299998 0.063525751 0.52251923 4279112205
0.42347461 0.06329231 0.52245253 4279243538
0.42388728 0.062922195 0.52224427 4279177745
0.42436337 0.062688276 0.52217758 4279177747
0.42484 0.062454194 0.52211088 4279177747
0.42531711 0.062219962 0.52204418 4279439892
0.43134585 0.058603838 0.52061152 4279439892
0.43196702 0.058714822 0.52089858 4279374354
0.43247902 0.058547631 0.52090269 4279375377
0.43309721 0.058659568 0.52118975 4279112205
0.43368715 0.058702305 0.52140605 4279178515
0.43430167 0.058815449 0.52169299 4279112722
0.43483678 0.058719173 0.52176785 4279571476
0.43542254 0.058763281 0.5219841 4279178515
0.43600678 0.058807835 0.52220035 4279374874
0.43656451 0.058782622 0.52234584 4279309335
0.43714607 0.058828101 0.52256203 4279440151
0.43770158 0.058803603 0.52270758 4279440151
0.43825608 0.058779433 0.52285302 4279637528
0.43878555 0.05868502 0.52292776 4279637528
0.43933833 0.058661416 0.52307326 4279244310
0.43991375 0.058708876 0.52328944 4279179281
0.44048768 0.058756828 0.52350557 4279047695
0.44103703 0.058734357 0.523651 4279047695
0.44158536 0.058712199 0.52379644 4279375377
0.44215536 0.058761448 0.52401257 4279375128
0.44272387 0.058811158 0.52422869 4279637528
0.443313 0.058932602 0.52451551 4279440149
0.44390017 0.059054673 0.52480233 4279440149
0.4444854 0.059177399 0.52508909 4279440149
0.44504726 0.059229285 0.52530515 4279637779
0.44560763 0.059281662 0.52552116 4279769363
0.44616652 0.059334517 0.52573723 4279703572
0.44670331 0.059316143 0.5258826 4279506460
0.4472391 0.059298098 0.52602792 4279506460
0.44777393 0.059280366 0.52617323 4279506712
0.44832766 0.059334919 0.52638924 4279703572
0.44886026 0.059317902 0.52653456 4279703313
0.44937247 0.059229106 0.52660918 4279769106
0.44990334 0.05921267 0.52675444 4279571727
0.45041433 0.059124261 0.52682906 4279637777
0.45092481 0.059036031 0.52690369 4279703570
0.45145324 0.059020385 0.52704895 4279703319
0.45198065 0.059005067 0.52719426 4279506445
0.45248917 0.058917478 0.52726883 4279638031
0.45301488 0.058902696 0.52741408 4279638031
0.45355701 0.058961049 0.52762997 4279506963
0.45406333 0.05887416 0.52770454 4279506712
0.45458609 0.058860376 0.52784979 4279572503
0.45510784 0.058846891 0.52799499 4279572756
0.45562863 0.058833748 0.52814019 4279572756
0.45614842 0.058820933 0.52828544 4279244561
0.45668319 0.058881685 0.52850127 4279441689
0.45720077 0.05886957 0.52864647 4279375124
0.45771736 0.058857784 0.52879167 4279637528
0.45823297 0.05884634 0.5289368 4279703315
0.4587326 0.058761626 0.52901137 4279571729
0.45924649 0.058750734 0.52915651 4279637004
0.45977387 0.058813885 0.52937227 4279703062
0.46028554 0.058803722 0.52951741 4279440151
0.46079621 0.058793873 0.52966255 4279505944
0.46130592 0.058784351 0.52980769 4279440151
0.46180114 0.058701083 0.52988219 4279505683
0.46230912 0.058692127 0.53002727 4279374605
0.46282908 0.058757678 0.53024298 4279179281
0.46330935 0.058600873 0.53024685 4279244308
0.46381462 0.058592781 0.53039193 4279244308
0.46430662 0.058510587 0.53046644 4279308809
0.46479815 0.058428526 0.53054082 4279044867
0.4652774 0.058272034 0.5305447 4278651401
0.46575665 0.058115527 0.53054851 4278585608
0.47203344 0.065009594 0.53863817 4279309335
0.4724932 0.064937904 0.53871238 4279505692
0.47292748 0.064639196 0.53857481 4279637278
0.47337893 0.064491794 0.53857845 4279703323
0.47383034 0.064344391 0.53858209 4279768855
0.47426662 0.064045027 0.53844452 4279900698
0.47471121 0.06382139 0.53837752 4280164390
0.47514918 0.06352146 0.53824002 4280164390
0.475595 0.063297436 0.53817308 4280033058
0.4760347 0.062996954 0.53803551 4280361251
0.47648177 0.062772527 0.53796864 4280163870
0.4769232 0.062471479 0.53783107 4280163870
0.47734219 0.061863929 0.53741133 4280295456
0.418966 0.064797446 0.52315891 4279769114
0.41950485 0.064700097 0.52323353 4279572756
0.42000997 0.064535156 0.52323759 4279506963
0.42054808 0.06443803 0.52331221 4279506963
0.42105296 0.064273164 0.5233162 4279505934
0.42155784 0.064108312 0.52332026 4279374348
0.4220627 0.063943446 0.52332431 4279177228
0.42253557 0.063710466 0.52325779 4279308561
0.42300892 0.063477293 0.52319127 4279242768
0.42348278 0.063243985 0.52312481 4279177495
0.42392588 0.062942117 0.52298772 4279046929
0.42440093 0.062708393 0.52292126 4279177745
0.42484576 0.062405974 0.52278423 4279177745
0.43260637 0.058850184 0.52193254 4279243538
0.43319619 0.058893368 0.52214813 4279374605
0.43373182 0.058797047 0.52222276 4279506961
0.43431917 0.058841035 0.52243835 4279243789
0.43485335 0.058745191 0.52251291 4279505940
0.43541262 0.058719724 0.52265799 4279243542
0.43599629 0.05876492 0.52287352 4279309081
0.43655336 0.058740214 0.5230186 4279440151
0.43710944 0.058715805 0.52316368 4279439892
0.43766451 0.058691725 0.52330869 4279505685
0.43821862 0.058667973 0.52345371 4279571476
0.43877175 0.058644533 0.52359879 4279505940
0.4393239 0.058621421 0.52374375 4279505942
0.43989867 0.058669493 0.52395928 4279178766
0.44044861 0.058647111 0.52410424 4279112973
0.4410207 0.058696076 0.52431977 4279047693
0.4415684 0.05867441 0.52446473 4279375375
0.44216043 0.058795452 0.52475065 4279309584
0.44272807 0.058845863 0.52496606 4279637779
0.4433164 0.058968112 0.52525198 4279440147
0.44388086 0.059019566 0.5254674 4279440147
0.44446546 0.059143022 0.52575326 4279506193
0.4450053 0.059123918 0.52589816 4279506710
0.44556531 0.059176847 0.52611351 4279638549
0.44612384 0.059230223 0.52632892 4279638549
0.4466809 0.059284091 0.52654427 4279375894
0.44721606 0.059266537 0.52668917 4279178515
0.44775021 0.059249297 0.52683401 4279375896
0.44828337 0.059232369 0.52697885 4279703313
0.44879588 0.059143603 0.5270533 4279703570
0.44932735 0.059127256 0.52719814 4279637777
0.4498578 0.059111223 0.52734298 4279637777
0.4503873 0.059095502 0.52748781 4279507215
0.45091578 0.059080109 0.52763265 4279507215
0.45142484 0.058992475 0.52770698 4279506710
0.45193338 0.058904991 0.52778137 4279506714
0.45245942 0.058890417 0.52792621 4279375375
0.45298448 0.058876142 0.52807099 4279506961
0.45352602 0.058935076 0.52828622 4279375375
0.45404887 0.058921531 0.528431 4279375377
0.45457071 0.058908299 0.52857578 4279572505
0.45509157 0.058895409 0.5287205 4279637779
0.45561144 0.058882833 0.52886528 4279637779
0.45613033 0.058870569 0.52901006 4279244559
0.45666423 0.058932006 0.52922523 4279375894
0.45716518 0.058847025 0.5292995 4279178768
0.45768112 0.05883573 0.52944422 4279506193
0.45819604 0.058824763 0.52958894 4279570957
0.45869502 0.058740422 0.52966321 4279636750
0.45920825 0.058730021 0.52980793 4279571211
0.45972049 0.058719933 0.52995265 4279506193
0.46024603 0.058784097 0.53016776 4279309584
0.46075603 0.05877474 0.53031242 4279374607
0.46125132 0.058691606 0.53038669 4279308814
0.4617596 0.058682799 0.53053135 4279440400
0.46226692 0.058674335 0.53067601 4279374605
0.46276021 0.058591858 0.53075027 4279244561
0.46326581 0.058583945 0.53089488 4279375894
0.46377042 0.058576331 0.53103954 4279308555
0.46424943 0.058419928 0.53104335 4279045383
0.46474051 0.05833815 0.53111762 4278913281
0.46521926 0.058181822 0.53112143 4278716424
0.47196534 0.064859644 0.53911895 4279703315
0.47241628 0.06471239 0.53912258 4279637779
0.47285047 0.064413443 0.53898549 4279637779
0.47330192 0.064266026 0.53898907 4279704342
0.47374547 0.064042598 0.53892231 4279966744
0.47418952 0.063819006 0.53885561 4280164123
0.47463405 0.06359525 0.53878886 4280361251
0.47507909 0.063371345 0.53872216 4280295458
0.47552463 0.063147277 0.5386554 4280098847
0.47596401 0.062846616 0.53851831 4280164640
0.47641078 0.062622145 0.53845161 4280098847
0.47683343 0.062091187 0.53810352 4280098847
0.41898113 0.064747825 0.52382964 4279769112
0.4195528 0.064718589 0.52397436 4279507215
0.42002365 0.064486116 0.52390808 4279506710
0.42056108 0.064389348 0.52398247 4279506710
0.42106521 0.064224735 0.52398646 4279505942
0.42156935 0.064060107 0.52399051 4279374356
0.42207348 0.063895494 0.52399457 4279308812
0.42254555 0.063662633 0.52392828 4279242768
0.42304993 0.063497931 0.52393234 4279242768
0.42352277 0.063264817 0.52386606 4279308311
0.42399609 0.063031524 0.52379978 4279046929
0.4244388 0.062729493 0.52366316 4278981389
0.42491338 0.062495813 0.52359688 4279177749
0.43262687 0.058874905 0.52267766 4279243538
0.43316254 0.058778718 0.52275205 4279636750
0.43372414 0.05875279 0.52289665 4279506191
0.43431085 0.058797374 0.52311158 4279440400
0.43487024 0.058772177 0.52325618 4279506193
0.43540299 0.058676958 0.52333057 4279177749
0.43601143 0.058793187 0.52361572 4279309335
0.43656757 0.058769017 0.52376032 4279570708
0.43712276 0.058745191 0.52390492 4279439890
0.43767697 0.058721676 0.52404952 4279505683
0.43820575 0.05862774 0.52412379 4279571476
0.43878239 0.058675632 0.5243386 4279440147
0.43930972 0.058582172 0.52441293 4279702292
0.43986022 0.058559865 0.52455747 4279375627
0.44043314 0.058608949 0.52477229 4279309834
0.44100463 0.05865854 0.5249871 4279178766
0.44155169 0.058637351 0.52513158 4279309836
0.44214311 0.058759138 0.52541661 4279244561
0.44271016 0.058810145 0.52563137 4279506191
0.44327572 0.058861658 0.52584612 4279309331
0.44388372 0.059056759 0.52620137 4279309331
0.44444579 0.05910939 0.52641606 4279375375
0.44498497 0.059090793 0.52656054 4279506710
0.44554439 0.059144303 0.52677524 4279703319
0.44610229 0.059198305 0.52698994 4279375124
0.44663802 0.059180826 0.52713436 4279572505
0.44717276 0.059163675 0.52727878 4279375126
0.44772676 0.059218958 0.52749348 4279506710
0.44823927 0.059130311 0.52756763 4279375124
0.44877106 0.059114113 0.52771199 4279637779
0.44930187 0.059098259 0.52785641 4279637777
0.44981244 0.059010267 0.52793062 4279506191
0.45034152 0.058994964 0.52807498 4279507213
0.45086959 0.058979958 0.52821934 4279506443
0.4513782 0.058892608 0.52829349 4279506710
0.45190457 0.058878183 0.52843785 4279506460
0.45242995 0.058864087 0.52858222 4279572756
0.45297211 0.05892323 0.52879679 4279638549
0.45349526 0.058909863 0.52894109 4279506963
0.45403472 0.058969885 0.52915561 4279309582
0.45455566 0.058957234 0.52929997 4279506710
0.45507562 0.058944896 0.52944422 4279375375
0.4555946 0.058932886 0.52958858 4279506961
0.45609632 0.0588478 0.52966267 4279375375
0.4566296 0.058909833 0.52987713 4279178515
0.45714563 0.058898792 0.53002143 4279178515
0.45764512 0.058814406 0.53009546 4279375377
0.45815942 0.058803931 0.53023976 4279440652
0.45867273 0.058793768 0.530384 4279440652
0.45917025 0.058710039 0.53045809 4279440652
0.45968184 0.058700442 0.53060234 4279506445
0.46020675 0.058765203 0.53081673 4279376399
0.46071613 0.058756337 0.53096098 4279178515
0.4612245 0.058747783 0.53110516 4278981136
0.46171832 0.058665276 0.53117919 4279309584
0.46222499 0.058657289 0.53132343 4279440398
0.46271759 0.058575138 0.5313974 4279440400
0.46320969 0.058493197 0.53147143 4279309584
0.46371388 0.058486015 0.53161561 4279045385
0.46420476 0.058404446 0.53168964 4278913799
0.46468303 0.058248267 0.53169346 4278585089
0.47143748 0.064781368 0.53952557 4280096522
0.4718973 0.064709932 0.5395993 4279900174
0.47233933 0.064486876 0.53953278 4279769358
0.4727819 0.064263657 0.53946626 4279769358
0.47322491 0.064040273 0.53939974 4279770387
0.47367632 0.063892856 0.53940332 4280098582
0.47411242 0.063593 0.53926671 4280295450
0.4745495 0.063292816 0.53913009 4280427042
0.47499475 0.063068703 0.53906357 4280427042
0.47544047 0.06284444 0.53899705 4280427042
0.4758867 0.062619984 0.53893054 4280427042
0.47633341 0.062395394 0.53886402 4280098847
0.47674349 0.061710402 0.53837681 4280033054
0.41896266 0.06463109 0.5244289 4279769365
0.41950038 0.064534381 0.52450311 4279442192
0.42003757 0.064437822 0.52457726 4279244308
0.42054123 0.064273357 0.52458125 4279375894
0.42104486 0.064108908 0.52458531 4279375126
0.42158109 0.064012676 0.52465945 4279243540
0.42211682 0.063916609 0.52473354 4279374605
0.42258787 0.063683927 0.5246675 4279308557
0.42305943 0.063451067 0.52460146 4279242764
0.42353147 0.063218072 0.52453536 4279308311
0.42403537 0.063053533 0.52453941 4278981136
0.42447704 0.062751591 0.52440321 4279046929
0.42498142 0.062586889 0.52440727 4279111702
0.42542458 0.062284455 0.52427113 4279177495
0.42589906 0.062050655 0.52420509 4279177749
0.42628372 0.061609596 0.52392876 4279111954
0.42673007 0.061306119 0.52379262 4279243538
0.42720702 0.061071515 0.52372664 4279111952
0.4276551 0.060767472 0.52359056 4278914051
0.43211246 0.058996543 0.52334684 4279177745
0.43262076 0.058830559 0.52335095 4279309331
0.43318245 0.058804885 0.52349514 4279636750
0.43374312 0.058779508 0.52363932 4279571727
0.43430284 0.058754489 0.52378345 4279440400
0.43486154 0.058729768 0.52392769 4279440400
0.43541926 0.058705389 0.52407181 4279308561
0.435976 0.058681309 0.52421594 4279309335
0.43653175 0.058657557 0.52436012 4279570706
0.4371115 0.058704853 0.52457428 4279440143
0.43766502 0.058681831 0.5247184 4279440143
0.43819311 0.058588251 0.52479255 4279571476
0.43874493 0.058565781 0.52493662 4279440147
0.43927181 0.058472618 0.5250107 4279702292
0.43984562 0.058521837 0.5252248 4279375629
0.44041795 0.058571547 0.52543896 4279112973
0.44096556 0.058550447 0.52558303 4279178766
0.44155818 0.058672398 0.52586716 4279178766
0.44212607 0.058723539 0.52608126 4279178515
0.44271499 0.058846697 0.5263654 4279375375
0.44327968 0.058898911 0.52657944 4279309584
0.44388688 0.059094936 0.52693355 4279375375
0.44442639 0.059076503 0.52707756 4279375375
0.44496492 0.059058383 0.52722156 4279506710
0.44552371 0.059112504 0.5274356 4279703062
0.44606 0.059095114 0.52757961 4279506710
0.44661608 0.05915013 0.52779359 4279506714
0.44715017 0.059133455 0.52793753 4279375128
0.44766298 0.059044853 0.5280115 4279506712
0.44819534 0.05902876 0.52815545 4279309333
0.44872671 0.059012964 0.52829945 4279637526
0.44923759 0.058925033 0.52837336 4279506191
0.44978651 0.058982372 0.52858734 4279506443
0.4502959 0.058894902 0.52866125 4279506443
0.45082358 0.058880314 0.52880514 4279440650
0.45135027 0.058866069 0.52894908 4279637779
0.45189428 0.058925018 0.529163 4279572507
0.45241877 0.058911473 0.52930689 4279704089
0.45296007 0.058971316 0.52952075 4279638296
0.45348233 0.058958516 0.52966464 4279506460
0.45402092 0.059019223 0.5298785 4279506193
0.45452389 0.058933854 0.52995235 4279506963
0.4550432 0.058922008 0.53009623 4279309584
0.45556152 0.058910489 0.53024006 4279309584
0.45606253 0.058825746 0.53031397 4279375377
0.45659521 0.058888391 0.53052771 4279178517
0.45711058 0.058877841 0.53067154 4279178768
0.45760939 0.058793828 0.53074539 4279178768
0.45812303 0.058783829 0.53088921 4279309582
0.45862058 0.058700234 0.53096306 4279309582
0.45913249 0.058690801 0.53110683 4279309836
0.45964342 0.058681682 0.5312506 4279375629
0.46015337 0.05867289 0.53139442 4279375894
0.46066234 0.058664426 0.53153819 4279112726
0.46117032 0.05865629 0.53168195 4279112722
0.46166369 0.058574051 0.53175575 4279244308
0.46216995 0.058566466 0.53189951 4279309584
0.46266207 0.058484614 0.5319733 4279309331
0.46315372 0.058402956 0.53204709 4279177745
0.46365753 0.058396176 0.5321908 4278848263
0.46414796 0.05831489 0.53226459 4278782470
0.47091904 0.064778879 0.54000205 4279571979
0.47136974 0.064631715 0.54000568 4280096268
0.47181147 0.0644086 0.53993934 4279900176
0.47226241 0.064261362 0.53994298 4279769106
0.47271335 0.064114109 0.53994656 4279769106
0.4731397 0.063738316 0.53974044 4280033305
0.4735834 0.06351456 0.53967416 4279967766
0.47403532 0.063366994 0.5396778 4280361243
0.47447234 0.063066572 0.5395416 4280427295
0.47491753 0.062842324 0.53947532 4280361502
0.47536322 0.062617928 0.53940904 4280230433
0.4758094 0.062393367 0.53934276 4280361249
0.47624961 0.062091902 0.53920662 4280229916
0.47667831 0.061636463 0.53893065 4280229916
0.47710901 0.061180368 0.53865469 4280164121
0.41951525 0.064486459 0.5251711 4279442192
0.42005175 0.064390257 0.52524507 4279376147
0.42055467 0.064226046 0.52524906 4279375894
0.42105758 0.064061821 0.52525306 4279244308
0.4215931 0.063965961 0.52532703 4279309333
0.42209575 0.063801825 0.52533102 4279440141
0.42259842 0.063637689 0.52533507 4279308306
0.42310107 0.063473567 0.52533913 4279242513
0.42357206 0.063240752 0.5252732 4279242518
0.4240436 0.063007787 0.5252074 4278981136
0.4245156 0.062774673 0.52514154 4279046929
0.42498809 0.062541381 0.52507573 4279111956
0.42543042 0.062238932 0.52494001 4279111956
0.42587373 0.061936185 0.52480435 4279177749
0.42631802 0.061633095 0.52466863 4279112724
0.4267633 0.061329693 0.52453291 4279112726
0.4271799 0.060956657 0.5243274 4279112726
0.43047285 0.059170395 0.52372718 4279243021
0.43157232 0.059048384 0.52394485 4279374607
0.43208015 0.058882549 0.52394891 4279308814
0.43261495 0.058786914 0.52402282 4279243791
0.43317595 0.058761731 0.52416658 4279440143
0.43370953 0.058666512 0.52424049 4279505934
0.4342688 0.058641881 0.5243842 4279440143
0.43482712 0.058617577 0.52452791 4279440143
0.43538442 0.058593586 0.52467161 4279374354
0.43596625 0.058640614 0.52488518 4279440147
0.43652135 0.058617339 0.52502888 4279374607
0.43710047 0.058665261 0.52524239 4279374605
0.43765333 0.058642715 0.52538604 4279308812
0.43818074 0.058549508 0.52545989 4279637777
0.43873191 0.058527529 0.52560353 4279440398
0.43930608 0.058577046 0.52581704 4279703313
0.43985504 0.058555782 0.52596068 4279309582
0.4404265 0.058606192 0.52617413 4279243789
0.4409965 0.058657065 0.52638757 4279309582
0.44156501 0.058708414 0.52660096 4279440400
0.44213206 0.058760256 0.5268144 4279243538
0.44269761 0.058812603 0.52702779 4279375375
0.44326171 0.058865383 0.52724117 4279375375
0.44384634 0.058990493 0.52752435 4279703567
0.44438544 0.058972463 0.52766788 4279835153
0.4449451 0.059026718 0.52788126 4279637530
0.44548199 0.059009403 0.52802479 4279571478
0.4460389 0.059064537 0.52823818 4279375126
0.44657359 0.059047952 0.52838171 4279375128
0.44710726 0.05903171 0.52852517 4279309335
0.44761962 0.058943391 0.5285989 4279505942
0.44815159 0.058927685 0.52874243 4279506712
0.44868255 0.058912322 0.52888596 4279244310
0.44921252 0.058897257 0.52902943 4279375124
0.44974151 0.05888252 0.5291729 4279375375
0.45028862 0.058940887 0.52938616 4279375375
0.45079657 0.058854014 0.52945983 4279506188
0.45134118 0.058913171 0.5296731 4279571727
0.451866 0.058899805 0.52981651 4279572505
0.45238984 0.058886766 0.52995998 4279638298
0.45293051 0.058947206 0.53017318 4279638298
0.45345211 0.058934882 0.53031659 4279506462
0.4539901 0.058996215 0.5305298 4279505940
0.4545095 0.058984622 0.53067321 4279375126
0.45501104 0.05889985 0.53074682 4279309331
0.45551208 0.058815241 0.53082049 4279309584
0.456029 0.058804438 0.53096384 4279309584
0.45656109 0.058867693 0.53117698 4279440400
0.45705992 0.058783814 0.5312506 4279309582
0.45757389 0.058773994 0.531394 4279244561
0.4580715 0.058690503 0.53146756 4279309584
0.45858374 0.058681235 0.53161097 4279309584
0.4590801 0.058598146 0.53168452 4279440400
0.45959061 0.058589458 0.53182787 4279375124
0.46011457 0.058655381 0.53204095 4279310618
0.46060872 0.058573022 0.53211451 4279047192
0.4611024 0.058490828 0.53218812 4279310616
0.46160921 0.058483317 0.53233141 4279376409
0.46210164 0.058401525 0.53240496 4279112724
0.46259359 0.058319896 0.53247857 4278915343
0.46309796 0.058313206 0.53262186 4278783759
0.46360132 0.058306828 0.53276509 4278650376
0.47041091 0.064852297 0.54054785 4279506961
0.47085163 0.064629391 0.54048175 4279375375
0.47130209 0.064482301 0.54048538 4279899663
0.47173455 0.064183086 0.54034954 4279571981
0.47218549 0.064035833 0.54035318 4280032031
0.47261944 0.063736156 0.5402174 4280229410
0.47307089 0.063588738 0.54022104 4280229667
0.47350633 0.063288555 0.54008526 4280163872
0.47395051 0.063064501 0.54001921 4280361251
0.47439516 0.062840313 0.53995311 4280361249
0.47483304 0.062539324 0.53981739 4280361249
0.47527894 0.062314704 0.53975135 4280230686
0.47571856 0.062013164 0.53961563 4280295709
0.47616568 0.061788172 0.53954959 4280426266
0.47658193 0.061178237 0.53913516 4280557852
0.41949672 0.064371124 0.52576816 4279310865
0.4200328 0.06427522 0.52584183 4279376145
0.42056835 0.06417948 0.5259155 4279375894
0.42107052 0.064015493 0.52591956 4279244308
0.42157269 0.06385152 0.52592361 4279375124
0.42207485 0.063687548 0.5259276 4279440141
0.42260918 0.063592196 0.52600127 4279374097
0.42307916 0.063359603 0.52593565 4279045139
0.42354965 0.063126832 0.52587003 4279176725
0.42405206 0.06296277 0.52587402 4279111952
0.42449209 0.062660813 0.52573878 4279046929
0.42496404 0.062427565 0.52567315 4279242768
0.4254058 0.062125042 0.52553791 4279242768
0.42584854 0.061822191 0.52540267 4279111954
0.42626205 0.061449751 0.52519774 4279112724
0.42667705 0.061076835 0.52499288 4279243540
0.42715296 0.060842305 0.52492732 4279309333
0.43148571 0.058794409 0.52440679 4279308563
0.43204802 0.058769062 0.52455008 4279242770
0.43258238 0.05867371 0.52462381 4279243791
0.43311623 0.058578536 0.52469748 4279440143
0.43367606 0.058553994 0.52484071 4279505936
0.43423498 0.058529779 0.524984 4279440141
0.43479285 0.058505863 0.52512729 4279440141
0.43537554 0.058553025 0.52534014 4279440400
0.43595675 0.058600649 0.52555299 4279243791
0.43653646 0.058648765 0.52576584 4279440398
0.43711472 0.058697358 0.52597868 4279374605
0.43764192 0.058604345 0.5260523 4279505934
0.43819317 0.058582619 0.52619553 4279571727
0.43874341 0.058561221 0.5263387 4279440398
0.43931675 0.058611408 0.52655149 4279571727
0.4398886 0.058662102 0.52676427 4279178766
0.44043541 0.058641821 0.52690744 4279243789
0.44100454 0.058693379 0.52712023 4279309582
0.44157219 0.058745444 0.52733296 4279505934
0.44213837 0.05879797 0.52754569 4279309582
0.44268051 0.05877921 0.52768886 4279375375
0.44324398 0.058832645 0.52790153 4279506963
0.44380599 0.058886543 0.52811426 4279703313
0.44436648 0.058940917 0.52832693 4279834899
0.44490394 0.058923706 0.52847004 4279637530
0.44546175 0.05897896 0.52868271 4279374874
0.445997 0.058962464 0.52882576 4279244312
0.44653124 0.058946297 0.52896887 4279375128
0.4470439 0.058858022 0.52904236 4279309335
0.44757643 0.058842406 0.52918541 4279505942
0.4481281 0.058899701 0.52939808 4279506710
0.44865841 0.058884799 0.52954113 4279375896
0.44916812 0.058797494 0.52961457 4279244310
0.44969669 0.058783159 0.52975762 4279506193
0.45022431 0.058769166 0.52990067 4279506193
0.45076978 0.058828458 0.53011322 4279767823
0.45131382 0.058888212 0.53032577 4279571727
0.45183796 0.058875337 0.53046876 4279572503
0.45237929 0.058936015 0.53068125 4279572505
0.45290121 0.058923841 0.53082424 4279572507
0.45342216 0.058912009 0.53096724 4279375128
0.45394212 0.05890049 0.53111017 4279505940
0.45446113 0.058889315 0.53125316 4279375126
0.45496219 0.05880481 0.53132659 4279309333
0.45547947 0.058794186 0.53146946 4279375124
0.45597932 0.058710098 0.5315429 4279309331
0.45651102 0.05877389 0.53175539 4279505936
0.45702532 0.058764234 0.53189826 4279309582
0.45752299 0.058680877 0.53197169 4279178768
0.45802012 0.058597669 0.53204507 4279571729
0.45854715 0.058662996 0.53225744 4279571729
0.45902789 0.058506012 0.53226131 4279440400
0.45953801 0.058497712 0.53240418 4279309331
0.46006158 0.058564171 0.53261662 4279244312
0.46055529 0.058482081 0.53268993 4279505690
0.46106243 0.058474749 0.5328328 4279375896
0.46155491 0.058393091 0.53290617 4279507482
0.46204689 0.058311567 0.53297949 4279047182
0.46253839 0.058230236 0.5330528 4278914824
0.46304235 0.058223948 0.53319567 4278652173
0.47034389 0.064703122 0.54102683 4279572754
0.47078431 0.064480156 0.54096097 4279375375
0.47122523 0.064257041 0.5408951 4279768077
0.47166666 0.064033762 0.54082924 4279703572
0.47210857 0.063810319 0.54076338 4280033058
0.47254243 0.063510388 0.54062808 4280098851
0.4729856 0.063286543 0.54056221 4280164644
0.47342923 0.063062534 0.54049635 4280164644
0.47386557 0.062761784 0.54036105 4280230435
0.47430289 0.062460706 0.54022574 4280230433
0.47474849 0.062236056 0.54015994 4280230433
0.47519457 0.062011257 0.54009414 4280099100
0.47563437 0.061709389 0.53995883 4280229914
0.42004743 0.064229026 0.5265072 4279506961
0.42054909 0.064065203 0.52651119 4279375896
0.42105079 0.063901395 0.52651525 4279178517
0.42155245 0.063737586 0.52651924 4279244308
0.42205411 0.063573763 0.52652323 4279440141
0.42258799 0.063478693 0.52659672 4279308557
0.42308944 0.063314959 0.52660072 4279110927
0.42352739 0.063013405 0.52646589 4279242513
0.42399782 0.062780514 0.52640051 4279243021
0.42446876 0.06254746 0.52633512 4279111952
0.4249092 0.062245086 0.52620029 4279308557
0.42535064 0.061942413 0.52606547 4279308557
0.42579305 0.061639398 0.52593064 4279439890
0.42620617 0.061266676 0.52572644 4279309331
0.42665079 0.06096293 0.52559161 4279308565
0.42709643 0.060658872 0.52545691 4279374358
0.43252292 0.058490559 0.52515447 4279112975
0.43305656 0.058395579 0.5252279 4279505164
0.4336428 0.058441982 0.5254401 4279636752
0.43420127 0.058418155 0.52558297 4279440141
0.43481088 0.058536202 0.52586454 4279440141
0.43541852 0.058654889 0.52614611 4279440141
0.43597305 0.058632344 0.52628887 4279375124
0.43655193 0.05868116 0.52650106 4279506191
0.43710423 0.05865936 0.52664387 4279506193
0.43768039 0.058709025 0.52685595 4279768077
0.4382059 0.058616713 0.52692938 4279899663
0.43875527 0.058595881 0.52707207 4279440141
0.43932775 0.058646768 0.5272842 4279506191
0.43989873 0.058698148 0.52749634 4279375128
0.44046822 0.058750004 0.52770841 4279309331
0.44098955 0.058659047 0.52778172 4279375124
0.4415566 0.058711708 0.5279938 4279505936
0.44214502 0.058836654 0.52827525 4279243789
0.44268626 0.058818474 0.52841794 4279375375
0.44322652 0.058800623 0.52856058 4279375896
0.4437879 0.058855131 0.52877259 4279375377
0.4443478 0.058910117 0.52898461 4279572756
0.4448846 0.058893383 0.52912724 4279505940
0.44542041 0.058876976 0.52926993 4279375126
0.44595525 0.058860883 0.52941251 4279178517
0.44646817 0.058772653 0.52948582 4279375898
0.44702193 0.058829665 0.52969778 4279571478
0.44753343 0.058741927 0.52977109 4279571478
0.44806457 0.058727041 0.52991366 4279375894
0.4486146 0.058785245 0.53012562 4279506710
0.44914353 0.058771089 0.53026819 4279637779
0.44967145 0.05875726 0.53041077 4279703313
0.45019841 0.05874373 0.53055334 4279703313
0.45074329 0.058803618 0.53076518 4279833878
0.45126802 0.058790833 0.53090775 4279571729
0.45181018 0.058851629 0.53111964 4279506961
0.45233271 0.058839545 0.53126216 4279375898
0.45285422 0.058827803 0.53140467 4279703321
0.45337477 0.058816373 0.53154719 4279440149
0.45389432 0.058805272 0.53168976 4279767572
0.45441291 0.058794469 0.53183222 4279637530
0.45493048 0.058784008 0.53197473 4279244310
0.45543039 0.05870004 0.53204787 4279178515
0.45594627 0.058690146 0.53219038 4279178515
0.45644492 0.058606595 0.53226358 4279440400
0.45695907 0.058597267 0.53240603 4279374605
0.45747223 0.058588237 0.53254849 4279309331
0.45796892 0.058505327 0.53262162 4279506193
0.45848036 0.058496878 0.53276408 4279637779
0.45897582 0.058414355 0.53283721 4279375126
0.45947081 0.058332011 0.53291035 4279309331
0.45997977 0.058324367 0.5330528 4279375126
0.460502 0.058391646 0.53326452 4283058762
0.46099475 0.058310032 0.53333759 4280032278
0.46150076 0.058303356 0.53348005 4279374348
0.46199229 0.058222115 0.53355312 4278980099
0.46248335 0.058141053 0.53362626 4278717699
0.47027692 0.064554155 0.5415054 4279572754
0.47071707 0.064331159 0.54143977 4279375375
0.47115773 0.064107999 0.54137409 4279835153
0.47158977 0.063808352 0.5412392 4279900951
0.47202283 0.063508421 0.54110432 4279968031
0.47246543 0.063284621 0.54103869 4279968031
0.47290853 0.063060656 0.54097307 4280033826
0.47334406 0.062759891 0.54083824 4279968033
0.47378838 0.062535524 0.54077262 4280033054
0.47421801 0.062157393 0.54056853 4280230433
0.47464916 0.061778814 0.54036444 4280098847
0.47509596 0.061553642 0.54029882 4280033054
0.47553638 0.061251268 0.54016405 4280229665
0.47597781 0.060948581 0.54002923 4280624166
0.41999534 0.064046606 0.52703273 4279244559
0.42053002 0.063951433 0.52710599 4279244308
0.42099819 0.063719139 0.52704084 4279178515
0.42153236 0.063624129 0.52711403 4279244308
0.42206603 0.063529253 0.52718723 4279374354
0.42256698 0.063365683 0.52719128 4279242768
0.42303592 0.063133165 0.52712607 4279110927
0.42353708 0.062969521 0.52713013 4279308306
0.42397523 0.062667623 0.52699572 4279308814
0.42444563 0.062434599 0.52693051 4279242768
0.42485446 0.062062874 0.52672696 4279308557
0.42529553 0.061760023 0.52659255 4279308557
0.42570707 0.061387405 0.526389 4279374350
0.4261201 0.06101431 0.52618545 4279374356
0.42656463 0.060710326 0.52605116 4279308565
0.42698038 0.060336336 0.52584761 4279374358
0.43299699 0.058212876 0.52575791 4279570959
0.43360969 0.058330432 0.52603865 4279505683
0.43480316 0.058496609 0.52653086 4279440141
0.43538436 0.058545053 0.52674234 4279374348
0.43601531 0.058736101 0.52709216 4279505944
0.43659309 0.058785662 0.52730358 4279571729
0.43714425 0.058764502 0.52744591 4279703313
0.43769443 0.058743671 0.52758825 4279637004
0.43821901 0.058651805 0.52766138 4279702797
0.43876746 0.058631539 0.52780366 4279440141
0.43933907 0.058683112 0.52801514 4279637777
0.43990919 0.058735192 0.52822649 4279375126
0.44043055 0.058644339 0.52829969 4279440149
0.44158757 0.058822423 0.52879161 4279506193
0.44212914 0.058804408 0.52893382 4279243789
0.44266969 0.05878672 0.52907604 4279375375
0.4432317 0.058841437 0.5292874 4279375894
0.44377005 0.05882445 0.52942961 4279244308
0.44430745 0.058807805 0.52957183 4279441687
0.44484383 0.058791474 0.52971405 4279375124
0.44537923 0.05877547 0.5298562 4279505940
0.44589248 0.058687285 0.52992928 4279178515
0.44644707 0.058744431 0.53014058 4279375898
0.44697952 0.058729395 0.53028274 4279571478
0.44751099 0.058714658 0.53042489 4279571478
0.44802129 0.058627442 0.53049791 4279506712
0.44857097 0.058686197 0.53070915 4279571476
0.44909948 0.058672443 0.5308513 4279506191
0.44964647 0.058732048 0.53106254 4279900176
0.45019194 0.058792174 0.53127378 4279834383
0.45071703 0.058779553 0.53141588 4279833880
0.45125979 0.058840528 0.53162706 4279506193
0.4517642 0.058755249 0.53170007 4279375375
0.45230451 0.058817044 0.53191125 4279441691
0.4528254 0.058805779 0.53205335 4279703319
0.45334527 0.058794841 0.53219539 4279637526
0.45386419 0.058784232 0.53233743 4279702545
0.45436487 0.058700144 0.53241038 4279571480
0.45488206 0.058690086 0.53255242 4279375126
0.45538151 0.058606401 0.53262538 4279178515
0.45589694 0.058596909 0.53276742 4279178515
0.45639518 0.058513656 0.53284037 4279375124
0.45690891 0.058504716 0.53298235 4279243789
0.45740589 0.05842185 0.53305531 4279309331
0.4579024 0.058339119 0.53312826 4279375377
0.45841366 0.058330998 0.53327024 4279309331
0.45890892 0.058248699 0.53334314 4279375124
0.45941848 0.058241144 0.53348517 4279375124
0.45992702 0.058233887 0.53362709 4279243808
0.46043462 0.058226973 0.53376907 4284310369
0.4609412 0.058220372 0.53391105 4279571981
0.46141922 0.058064282 0.53391486 4279308809
0.46192434 0.058058172 0.53405678 4278979840
0.46933183 0.064851046 0.54211438 4279375124
0.4697707 0.064628333 0.54204893 4279244312
0.47021008 0.064405456 0.54198349 4279376399
0.4706403 0.064106137 0.54184902 4279244813
0.47107157 0.063806504 0.54171461 4280098582
0.47151288 0.063582972 0.54164922 4280098328
0.47195473 0.06335929 0.54158378 4280164640
0.47238842 0.063058853 0.54144937 4280098847
0.47282311 0.062758088 0.54131496 4280033826
0.4732669 0.062533751 0.54124951 4279968033
0.47369546 0.062155589 0.54104614 4279967261
0.47412547 0.061776951 0.54084271 4280230433
0.47456434 0.061474815 0.5407083 4280098847
0.4750042 0.061172351 0.54057395 4280230433
0.47543815 0.060792431 0.54037058 4280295206
0.47588024 0.060489267 0.54023623 4280558380
0.47631049 0.060031116 0.53996384 4280426794
0.42001039 0.064001635 0.52769589 4279375894
0.42051107 0.063838139 0.52769989 4279179281
0.42101178 0.063674644 0.52770388 4279113488
0.42151245 0.063511148 0.52770787 4279179028
0.42201313 0.063347653 0.52771187 4279178515
0.42254612 0.063253164 0.52778488 4279112722
0.42301452 0.063020676 0.52771991 4279176975
0.42348337 0.06278801 0.52765495 4279176975
0.42395276 0.062555224 0.52759004 4279242770
0.4243913 0.062252924 0.52745605 4279176975
0.42486191 0.062019691 0.52739108 4279177226
0.42527133 0.061647356 0.52718818 4279177226
0.42568228 0.061274529 0.52698529 4279243021
0.42609468 0.06090121 0.52678245 4279308561
0.42650855 0.060527429 0.52657962 4279308561
0.433045 0.058313504 0.52656323 4279374607
0.43363005 0.058361098 0.52677405 4279309335
0.4360067 0.058698714 0.52775526 4279440400
0.43663466 0.058891416 0.52810395 4279505934
0.43715951 0.058799565 0.5281769 4279702797
0.4377088 0.058779299 0.5283187 4279506445
0.43823242 0.058687866 0.52839166 4279506445
0.43877998 0.058668166 0.52853346 4279440652
0.43935072 0.05872044 0.52874422 4279375629
0.43987215 0.058629736 0.52881712 4279506191
0.4404878 0.058826432 0.52916569 4279440147
0.44103065 0.058808267 0.52930748 4279505683
0.44157255 0.058790416 0.52944928 4279505683
0.44213641 0.058844939 0.52965999 4279309584
0.44265339 0.058755681 0.52973282 4279506963
0.44321477 0.058811009 0.52994353 4279376147
0.44375247 0.058794528 0.53008533 4279309584
0.44428921 0.05877836 0.53022707 4279375377
0.44482493 0.058762521 0.5303688 4279375124
0.44535968 0.058747008 0.53051054 4279505940
0.44587222 0.058659196 0.53058338 4279309584
0.44640526 0.05864425 0.53072506 4279178517
0.44695804 0.058702365 0.53093565 4279440151
0.44746834 0.058615282 0.53100848 4279505944
0.44799843 0.058601305 0.53115022 4279506710
0.44854751 0.058660656 0.53136075 4279506193
0.44907534 0.058647379 0.53150243 4279506193
0.44960222 0.05863443 0.53164411 4279637777
0.45014736 0.058695078 0.53185463 4279637777
0.45069101 0.058756188 0.53206515 4279505690
0.45121443 0.058744371 0.53220683 4279309331
0.45173687 0.058732867 0.53234845 4279309582
0.45225832 0.058721691 0.53249013 4279375896
0.45277879 0.058710843 0.53263175 4279440398
0.45328051 0.058626562 0.53270447 4279637777
0.45379925 0.058616266 0.53284609 4279440650
0.45429972 0.058532387 0.53291881 4279505940
0.45481673 0.058522657 0.53306043 4279506193
0.45531598 0.058439195 0.53313315 4279244058
0.45583129 0.058430031 0.53327471 4279178265
0.45632929 0.058346957 0.53334743 4279178517
0.45684287 0.058338359 0.53348899 4279374607
0.45733964 0.058255687 0.53356171 4279440141
0.45783594 0.05817318 0.53363442 4279375124
0.45833173 0.058090836 0.53370708 4279244310
0.45882705 0.058008656 0.5337798 4279375896
0.45935148 0.058076024 0.53399014 4279375896
0.45985988 0.05806911 0.53413171 4279506980
0.46036729 0.058062524 0.53427321 4279834657
0.46087372 0.05805625 0.53441471 4279439625
0.46881691 0.064849198 0.542588 4279309584
0.46925524 0.064626515 0.54252279 4279506963
0.46969408 0.064403683 0.54245758 4279179548
0.47013339 0.064180687 0.54239237 4279311386
0.47057322 0.063957512 0.54232717 4279442972
0.47099471 0.063581228 0.54212439 4279968284
0.47143602 0.063357577 0.54205918 4280033305
0.4718689 0.06305714 0.54192519 4280099617
0.47230276 0.06275636 0.5417912 4280099617
0.47273761 0.062455267 0.54165721 4280165412
0.47317344 0.062153861 0.54152328 4280165414
0.47361028 0.061852112 0.54138935 4280098849
0.47403273 0.061395988 0.54111779 4280098849
0.47447202 0.06109345 0.54098386 4280098849
0.47491229 0.060790583 0.54084992 4280296228
0.47533965 0.06033285 0.54057848 4280098851
0.47577572 0.059951827 0.54037577 4280427564
0.47620034 0.059415415 0.54003555 4280295978
0.42049232 0.063725337 0.52829289 4279179028
0.42099252 0.063562021 0.52829689 4279113235
0.42149273 0.063398674 0.52830088 4279179032
0.4220255 0.06330438 0.52837366 4279113235
0.42252544 0.063141137 0.52837765 4279112975
0.4230575 0.063047096 0.52845043 4279308814
0.42352533 0.062814638 0.52838564 4279243021
0.42396209 0.062512651 0.52825212 4279176977
0.42443115 0.062279806 0.52818739 4279045389
0.42483851 0.061907738 0.52798522 4279177226
0.42524734 0.061535195 0.52778292 4279045640
0.42562702 0.061092466 0.52751195 4279045894
0.42603904 0.060718864 0.52730978 4279243019
0.42645255 0.060344785 0.5271076 4279243019
0.42683765 0.059900299 0.52683669 4279243019
0.43295884 0.058060884 0.52702272 4279374607
0.43370408 0.058534697 0.52764517 4279112222
0.43607539 0.058875963 0.52862322 4279309584
0.4366512 0.058927 0.52883333 4279309331
0.43717512 0.058835596 0.52890599 4279506191
0.43772349 0.058815911 0.52904743 4279375377
0.4382709 0.05879654 0.52918881 4279309584
0.43881729 0.058777481 0.52933019 4279309584
0.43936273 0.058758751 0.52947158 4279375629
0.43993112 0.058812201 0.52968162 4279375627
0.44047433 0.0587942 0.52982295 4279440147
0.44101655 0.058776513 0.52996433 4279374356
0.44155779 0.058759138 0.53010565 4279440149
0.44212103 0.058814272 0.53031564 4279309331
0.44266006 0.058797643 0.53045702 4279244561
0.44319808 0.058781326 0.53059828 4279244559
0.44373515 0.058765337 0.53073961 4279374605
0.44424921 0.058677152 0.53081226 4279506191
0.44478452 0.058661714 0.53095353 4279506191
0.44531888 0.058646619 0.53109479 4279440400
0.44585225 0.058631822 0.53123605 4279440400
0.44638461 0.058617353 0.53137732 4279440147
0.44691598 0.058603197 0.53151858 4279309333
0.44744641 0.058589384 0.53165984 4279309333
0.44797581 0.058575884 0.5318011 4279376147
0.44852427 0.058635846 0.53201103 4279244561
0.44903168 0.058549836 0.53208357 4279375124
0.44959724 0.058683902 0.5323621 4279506193
0.45012221 0.058671847 0.53250331 4279440151
0.45066524 0.058733582 0.53271317 4279440151
0.45116922 0.058648705 0.53278571 4279243538
0.45169124 0.058637604 0.53292692 4279309584
0.45221227 0.058626845 0.53306806 4279375126
0.45273235 0.0586164 0.5332092 4279375375
0.4532336 0.058532402 0.53328174 4279375375
0.45375195 0.058522522 0.53342289 4279375375
0.45423466 0.058364898 0.53342676 4279374874
0.45475149 0.058355495 0.53356791 4279506710
0.45525056 0.058272228 0.53364038 4279506712
0.45574909 0.058189124 0.53371292 4279309333
0.45626348 0.058180511 0.53385401 4279506712
0.45676082 0.05809781 0.53392649 4279571476
0.45727348 0.058089778 0.53406763 4279571727
0.45776957 0.058007479 0.53414011 4279309081
0.45826516 0.057925329 0.53421259 4279244312
0.45876026 0.057843342 0.53428507 4279507484
0.45926973 0.057836339 0.53442609 4279046933
0.46831346 0.064923555 0.54312974 4279375375
0.46875101 0.064700991 0.54306477 4279309582
0.46918908 0.064478263 0.54299974 4279375894
0.46961743 0.064179018 0.54286623 4279441950
0.47004679 0.063879445 0.5427326 4279902755
0.47048679 0.063656092 0.54266763 4279902755
0.47092733 0.063432559 0.54260266 4279968546
0.47135913 0.063132182 0.54246914 4279836958
0.47179192 0.062831491 0.54233563 4280100132
0.47221699 0.062453642 0.54213351 4279968546
0.47265202 0.062152222 0.542 4280100134
0.47308803 0.061850473 0.54186648 4280034341
0.47351703 0.061471328 0.54166442 4280099621
0.47394755 0.061091706 0.54146236 4280165414
0.47437951 0.060711592 0.5412603 4280033828
0.47481298 0.060331017 0.5410583 4280165414
0.47524092 0.059872523 0.5407877 4280033574
0.47568431 0.05956836 0.54065424 4280099367
0.47610274 0.058953628 0.54024661 4280099369
0.47653663 0.058493212 0.53997606 4280033576
0.42107281 0.063656881 0.52909458 4279113488
0.42157179 0.063493952 0.52909857 4279244310
0.42210338 0.063400194 0.52917111 4279178515
0.42260209 0.063237354 0.5291751 4279309584
0.4231008 0.063074499 0.5291791 4279308812
0.42356762 0.062842235 0.5291146 4279243019
0.42412987 0.062818274 0.52925563 4279177228
0.42462835 0.062655509 0.52925962 4279242764
0.4250645 0.062353447 0.52912658 4279177226
0.42537802 0.061772153 0.52871943 4279177480
0.42575583 0.061329499 0.52844936 4279177480
0.42586184 0.060257211 0.52756262 4279243273
0.43556869 0.059003279 0.52927899 4279178768
0.43614462 0.059054688 0.52948844 4279112722
0.43669358 0.059035078 0.52962941 4279309331
0.43721631 0.058944225 0.52970183 4279506191
0.43773854 0.058853507 0.52977431 4279375377
0.43826029 0.058762953 0.52984679 4279178768
0.43880603 0.058744401 0.52998769 4279178768
0.43935078 0.058726162 0.5301286 4279244813
0.43989459 0.058708236 0.5302695 4279244813
0.44043738 0.058690637 0.53041041 4279440400
0.44097918 0.058673352 0.53055131 4279309333
0.44152004 0.058656394 0.53069222 4279309333
0.44205987 0.058639765 0.53083313 4279178517
0.44262153 0.058695838 0.53104246 4279178768
0.44315913 0.058679923 0.53118324 4279178766
0.44369578 0.058664337 0.53132415 4279440398
0.44423145 0.058649078 0.53146499 4279375375
0.4447661 0.058634132 0.53160584 4279375375
0.4452998 0.058619499 0.53174663 4279309331
0.44583249 0.058605194 0.53188747 4279309331
0.44636422 0.058591217 0.53202826 4279309584
0.44689494 0.058577567 0.5321691 4279375124
0.44742471 0.058564216 0.53230989 4279375124
0.44795346 0.058551207 0.53245068 4279244308
0.44850129 0.058611766 0.53265989 4279178768
0.44900802 0.058526143 0.53273225 4279375124
0.4495534 0.058587506 0.53294146 4279571729
0.45005864 0.058502361 0.53301376 4279505683
0.45060158 0.058564529 0.53322291 4279439890
0.45112419 0.058553532 0.5333637 4279243538
0.45162719 0.058469102 0.533436 4279309331
0.45214808 0.058458656 0.53357673 4279506193
0.45266798 0.058448538 0.53371739 4279375629
0.45315117 0.05829075 0.53372133 4279375629
0.45366961 0.058281109 0.53386199 4279375375
0.45416966 0.058197632 0.5339343 4279374876
0.45466924 0.058114335 0.5340066 4279375894
0.45516834 0.058031186 0.53407884 4279506963
0.45568353 0.058022603 0.5342195 4279309584
0.45618141 0.057939842 0.5342918 4279506963
0.4566949 0.057931826 0.53443247 4279571729
0.45719153 0.057849482 0.53450471 4279571727
0.45770329 0.057842016 0.53464538 4279309083
0.45818329 0.057685286 0.53464919 4279244312
0.45869356 0.057678297 0.53478986 4279244312
0.46781117 0.06499809 0.54367065 4279375375
0.46824795 0.064775631 0.54360586 4279375375
0.46866381 0.06440039 0.54340434 4279309582
0.46910205 0.064177454 0.54333961 4279507484
0.4695408 0.063954368 0.54327482 4279639070
0.46998003 0.063731119 0.54321009 4280099619
0.47041005 0.063431069 0.54307699 4280099619
0.47084105 0.063130692 0.54294384 4280165412
0.47127301 0.062829986 0.5428108 4280165412
0.47169697 0.062452078 0.54260933 4280100132
0.47213116 0.062150657 0.54247624 4280034339
0.47256634 0.061848909 0.5423432 4280100132
0.47299427 0.061469719 0.5421418 4280034341
0.47342363 0.061090037 0.54194039 4280099621
0.47385451 0.060709894 0.54173899 4280165414
0.47428685 0.060329229 0.54153764 4280033828
0.47472066 0.059948131 0.5413363 4280099621
0.47514895 0.059488982 0.54106659 4280033574
0.4755792 0.059029222 0.54079694 4280165160
0.47601143 0.058568791 0.54052728 4280165162
0.47643933 0.05802995 0.54018939 4280034089
0.47687575 0.057568148 0.53991973 4280034087
0.4773199 0.057183653 0.53971845 4280034087
0.42158544 0.06345205 0.52975744 4279440400
0.42211634 0.06335865 0.52982974 4279573008
0.42261431 0.063196033 0.52983373 4279506445
0.42314446 0.063102886 0.52990603 4279374859
0.42367411 0.063009888 0.52997833 4279243273
0.42423499 0.062986672 0.53011894 4279177480
0.42482629 0.063033462 0.5303278 4279242762
0.42526016 0.062731862 0.53019518 4279243019
0.4255093 0.06201084 0.52965271 4279045642
0.43561375 0.059111178 0.530074 4278981649
0.43616277 0.059091821 0.53021443 4279047442
0.43671083 0.059072763 0.53035498 4279178766
0.43720734 0.058910638 0.53035891 4279375375
0.43775392 0.058892086 0.53049946 4279244308
0.43827471 0.058801994 0.53057164 4279244308
0.43879503 0.05871205 0.53064388 4279244308
0.43933913 0.058694288 0.53078437 4279178766
0.4398582 0.058604762 0.53085655 4279179020
0.4404006 0.058587566 0.53099698 4279505934
0.44094199 0.058570698 0.53113747 4279309331
0.44148242 0.058554143 0.53127789 4279243538
0.44204491 0.058610335 0.53148651 4279112724
0.44260597 0.058667019 0.53169519 4279112724
0.44312036 0.058579013 0.53176737 4279112975
0.44367892 0.058636501 0.53197598 4279637528
0.44419184 0.058548972 0.53204817 4279243540
0.44474792 0.05860725 0.53225678 4279309333
0.44528097 0.058593109 0.53239715 4279243538
0.445813 0.058579311 0.53253752 4279112722
0.44634408 0.05856581 0.53267789 4279309331
0.44687414 0.058552638 0.5328182 4279375126
0.44740325 0.058539793 0.53295857 4279375126
0.44793135 0.058527261 0.53309894 4279244310
0.44845846 0.058515057 0.53323925 4279244308
0.44898462 0.058503166 0.53337955 4279375377
0.44950977 0.058491603 0.53351986 4279636752
0.45003393 0.058480367 0.53366017 4279439890
0.45055711 0.058469445 0.53380048 4279439890
0.45106041 0.058385059 0.53387254 4279374354
0.45158187 0.058374688 0.53401279 4279309331
0.45208395 0.05829072 0.53408492 4279637004
0.4526037 0.058280915 0.53422517 4279571727
0.45310456 0.058197334 0.53429723 4279703313
0.45358723 0.05803971 0.5343011 4279638031
0.45410478 0.05803065 0.53444135 4279375377
0.45460415 0.057947531 0.53451341 4279244561
0.45510304 0.057864591 0.53458548 4279637777
0.45561808 0.057856321 0.53472567 4279440398
0.45611572 0.057773784 0.53479773 4279571981
0.45661288 0.057691395 0.53486979 4279440398
0.45710954 0.057609186 0.53494179 4279374607
0.4576214 0.057601973 0.53508198 4279178515
0.46642756 0.065440893 0.54427159 4279571727
0.4668628 0.065218836 0.54420704 4279506186
0.46728706 0.064920381 0.54407436 4279638031
0.46773481 0.064774171 0.54407793 4279506191
0.46816054 0.064475238 0.54394519 4279506191
0.46858725 0.064175978 0.54381251 4279770135
0.46902546 0.063952923 0.54374802 4279968546
0.46946418 0.063729718 0.54368347 4279902753
0.46988332 0.063352957 0.54348266 4280296228
0.47032353 0.063129261 0.54341817 4280427814
0.47075468 0.062828556 0.54328549 4280427044
0.47117752 0.062450618 0.54308474 4280427814
0.4716109 0.062149182 0.54295206 4280296228
0.47204524 0.061847433 0.54281944 4280296228
0.47247204 0.061468184 0.54261869 4280427814
0.47290033 0.061088473 0.542418 4280296228
0.47333008 0.060708255 0.54221725 4280230435
0.47376132 0.060327575 0.54201657 4280230435
0.47419402 0.059946403 0.54181588 4280164642
0.47462091 0.059487179 0.54154706 4280230435
0.47505683 0.059104949 0.54134643 4280230435
0.47549421 0.058722258 0.5411458 4280230435
0.47592652 0.05826126 0.54087698 4280230435
0.47635445 0.057721719 0.54054022 4280033826
0.47680309 0.057415307 0.54040766 4280165412
0.47724104 0.056952477 0.54013896 4280165412
0.42173117 0.063688204 0.53068727 4279506961
0.42222768 0.063526079 0.53069127 4279573008
0.42275664 0.063433453 0.53076333 4279703567
0.42328513 0.063340977 0.53083539 4279374859
0.42384505 0.063318327 0.53097552 4279374605
0.4244675 0.063435465 0.53125179 4279243019
0.42505649 0.063483432 0.53146005 4279242768
0.42555028 0.063322186 0.53146398 4279176975
0.42579612 0.062601134 0.53092337 4279045389
0.43503138 0.059024826 0.53052253 4279309584
0.43560708 0.059077129 0.53073061 4278981902
0.43615547 0.059058264 0.53087068 4279047695
0.43667728 0.058967948 0.53094268 4279178766
0.43719861 0.058877826 0.53101468 4279376145
0.43771946 0.058787838 0.53108668 4279244308
0.43823981 0.058698028 0.53115869 4279244308
0.43875965 0.058608368 0.53123069 4279178515
0.43930337 0.058591023 0.53137064 4279309582
0.4398461 0.058574006 0.53151071 4279375629
0.44038782 0.058557287 0.53165066 4279505934
0.44090497 0.058468521 0.53172266 4279440400
0.44144499 0.058452383 0.53186262 4279440400
0.44200712 0.058509111 0.53207064 4279178265
0.44254491 0.058493689 0.53221059 4279046931
0.44310436 0.058551297 0.53241855 4279047182
0.44361755 0.058463827 0.53249049 4279375126
0.44417453 0.058522224 0.53269845 4279243540
0.44470814 0.058508173 0.53283834 4279309333
0.44524077 0.058494449 0.5329783 4279112722
0.44577241 0.058481053 0.53311825 4279112722
0.44630304 0.058467954 0.53325808 4279309333
0.44683272 0.058455184 0.53339803 4279375128
0.44736141 0.058442757 0.53353792 4279375128
