# .PCD v0.7 - Point Cloud Data file format
VERSION 0.7
FIELDS x y z rgb
SIZE 4 4 4 4
TYPE F F F U
COUNT 1 1 1 1
WIDTH 1070
HEIGHT 1
VIEWPOINT 0 0 0 1 0 0 0
POINTS 1070
DATA ascii
0.42236879 0.067275807 0.51827478 4278783757
0.42282248 0.067131966 0.518278 4278850063
0.42327613 0.066988125 0.51828122 4278915858
0.42369452 0.066768423 0.51834083 4278915858
0.42414844 0.066624507 0.51834404 4279113239
0.42460233 0.066480577 0.51834726 4279047446
0.42509079 0.066412747 0.5182941 4279113239
0.42554447 0.066268891 0.51829737 4279112985
0.42599815 0.06612505 0.51830059 4279112985
0.4264518 0.065981209 0.51830381 4279179032
0.42693904 0.065913767 0.51825064 4279376411
0.42742577 0.065846458 0.51819748 4279310618
0.42787895 0.065702781 0.5182007 4279047446
0.42833212 0.065559089 0.51820391 4278850067
0.42881787 0.065492108 0.51815081 4278520587
0.4292708 0.065348506 0.51815403 4278520589
0.42972374 0.065204889 0.51815724 4278520589
0.43095717 0.064465657 0.51839238 4279112724
0.43134889 0.064167365 0.51850837 4279047444
0.43177247 0.063946053 0.51856798 4278916376
0.4322271 0.063801885 0.5185712 4278916376
0.43262109 0.063502908 0.51868725 4278982423
0.43307623 0.06335859 0.51869047 4279047442
0.43353137 0.063214287 0.51869369 4278981651
0.43398654 0.063069969 0.5186969 4279047446
0.43452975 0.06315881 0.51853096 4278981653
0.43501329 0.063092545 0.5184778 4279113237
0.43552518 0.063104317 0.51836824 4279047444
0.43600747 0.063038439 0.51831508 4279047444
0.43648925 0.06297271 0.51826185 4278981651
0.4369987 0.062985271 0.5181523 4278981651
0.43750712 0.062998116 0.51804268 4278981651
0.43795931 0.062854737 0.5180459 4279047444
0.4384115 0.062711358 0.51804912 4279112724
0.43886369 0.062567994 0.51805234 4279243540
0.43934277 0.062503129 0.51799911 4279112722
0.43979469 0.062359825 0.51800233 4279046929
0.44024664 0.062216535 0.51800555 4278981389
0.44072473 0.062151983 0.51795232 4278981649
0.44117641 0.062008768 0.51795554 4278981649
0.44165376 0.061944455 0.51790231 4278915856
0.44213063 0.061880305 0.51784909 4278915856
0.44260699 0.06181629 0.51779586 4278915858
0.44305795 0.061673298 0.51779908 4279046931
0.44360757 0.06184718 0.51757658 4278850063
0.44408193 0.061783805 0.51752335 4278915856
0.44458002 0.061799958 0.51741368 4278915856
0.44510102 0.061895877 0.51724756 4278850063
0.44562054 0.061992258 0.51708144 4279046161
0.44613859 0.0620891 0.51691532 4278981138
0.44663197 0.062106743 0.51680559 4278981138
0.44712433 0.062124684 0.51669592 4278915345
0.44763842 0.062222794 0.51652974 4278915345
0.44812858 0.062241465 0.51642001 4278850065
0.44861776 0.062260419 0.51631027 4278850063
0.44910595 0.062279701 0.51620054 4279046929
0.44961485 0.06237945 0.51603436 4279112205
0.45007935 0.062319219 0.51598102 4279047182
0.45056459 0.06233944 0.51587129 4278981389
0.45106977 0.062440351 0.51570505 4278915343
0.45153207 0.062380821 0.5156517 4278915343
0.45201433 0.062401995 0.51554191 4278915856
0.45247537 0.062342837 0.51548862 4278915856
0.4529559 0.062364548 0.51537883 4278915856
0.45343545 0.062386572 0.51526904 4278915856
0.45389453 0.062328041 0.51521569 4278981649
0.45439157 0.062431559 0.5150494 4278981389
0.45486814 0.062454522 0.51493955 4279112203
0.45532501 0.062396705 0.5148862 4278915594
0.45579985 0.062420219 0.51477635 4278981387
0.4562737 0.062444031 0.51466656 4278915594
0.45674658 0.062468186 0.51455671 4278783757
0.45723623 0.062574044 0.51439035 4278915594
0.45772439 0.062680349 0.51422399 4278915594
0.45821106 0.06278716 0.51405764 4278981387
0.45867926 0.06281279 0.51394778 4278915594
0.45916319 0.062920451 0.51378137 4278915594
0.45962918 0.062946767 0.51367152 4278915594
0.46009412 0.062973425 0.51356161 4279046410
0.46055812 0.063000381 0.5134517 4279112203
0.46100533 0.062945619 0.51339823 4279112203
0.46145207 0.062891006 0.51334482 4279046412
0.46185246 0.062589988 0.51346087 4278915343
0.46228388 0.062453181 0.51346391 4278915596
0.46271533 0.062316388 0.51346701 4278784010
0.46317586 0.062344447 0.51335704 4278784010
0.41903505 0.068057597 0.51900566 4279507997
0.41952768 0.067988306 0.51895231 4279310618
0.42001981 0.067919165 0.51889902 4279179032
0.42051142 0.067850173 0.51884568 4279243540
0.42100257 0.067781344 0.51879233 4278915343
0.42145675 0.067637354 0.51879555 4278783757
0.42191091 0.067493349 0.51879877 4278914573
0.42232907 0.067273855 0.51885855 4278915343
0.42278349 0.067129776 0.51886177 4278850063
0.4232024 0.066910058 0.51892161 4278915856
0.42365706 0.066765904 0.51892483 4278981649
0.42411169 0.066621736 0.51892805 4278982421
0.42453161 0.066401705 0.51898789 4278982421
0.42498651 0.066257477 0.51899111 4278982423
0.42544141 0.066113248 0.51899433 4279113239
0.42593032 0.06604512 0.51894099 4279179032
0.42638499 0.065900952 0.5189442 4279310614
0.4269067 0.065909341 0.51883423 4279376407
0.42742741 0.065918058 0.51872432 4279442200
0.42791408 0.065850645 0.51867092 4279047446
0.42836753 0.065706879 0.51867414 4278850067
0.42878842 0.065486521 0.51873398 4278782989
0.42927435 0.065419346 0.51868057 4278586380
0.42969573 0.065198824 0.51874042 4278454796
0.43005404 0.064824507 0.51891345 4278651403
0.43129304 0.064084053 0.51914954 4278981651
0.43171763 0.063862517 0.51920938 4279113239
0.43217328 0.063718051 0.5192126 4279113239
0.43259862 0.063496307 0.51927245 4279113239
0.43302444 0.063274369 0.51933235 4279047442
0.43351039 0.063207194 0.51927894 4278981653
0.43399587 0.063140169 0.5192256 4279047192
0.43451017 0.063150913 0.51911557 4278981399
0.43499437 0.063084289 0.51906216 4279047444
0.43550694 0.063095555 0.51895213 4278981651
0.43598995 0.063029319 0.51889879 4278981651
0.4365291 0.063119084 0.51873207 4278981902
0.43701062 0.06305331 0.51867867 4278981902
0.43749163 0.0629877 0.51862526 4278981900
0.43797216 0.062922254 0.51857185 4279047695
0.4383975 0.06270048 0.5186317 4279047446
0.4387691 0.062321946 0.51880485 4279112726
0.43933019 0.062491655 0.51858151 4279112726
0.43978286 0.062348127 0.51858473 4279112722
0.44023556 0.062204584 0.51858795 4279047182
0.44071436 0.062139675 0.51853454 4278981902
0.44116679 0.061996222 0.51853776 4278915858
0.44164482 0.061931536 0.51848429 4278915858
0.4421224 0.061867028 0.51843083 4278981136
0.44257432 0.061723724 0.51843405 4278981136
0.44307601 0.061738476 0.51832396 4278981140
0.44357672 0.061753511 0.51821387 4278981651
0.44407645 0.061768875 0.51810378 4278850063
0.44459933 0.06186378 0.517937 4278915856
0.44509682 0.061879858 0.51782686 4278850063
0.44559333 0.06189622 0.51771671 4279046161
0.44608885 0.061912909 0.51760662 4278981138
0.44660652 0.062009469 0.51743978 4278981140
0.44712272 0.06210652 0.51727295 4278981140
0.44761479 0.062124297 0.5171628 4278915347
0.44810587 0.062142402 0.51705265 4278981138
0.44861811 0.06224069 0.51688576 4278915856
0.4491289 0.06233944 0.51671892 4278981136
0.44957316 0.062198579 0.51672208 4279046929
0.45008171 0.06229803 0.51655519 4278981136
0.4505676 0.062317774 0.51644498 4278981136
0.45103157 0.062257573 0.51639146 4278915343
0.45151573 0.062277868 0.51628125 4278915343
0.45197847 0.062218055 0.51622772 4278915856
0.45246091 0.062238872 0.51611745 4278850316
0.45294237 0.062260032 0.51600724 4278850316
0.45342281 0.062281504 0.51589698 4278916109
0.45388284 0.06222254 0.51584339 4278915596
0.45436156 0.062244564 0.51573318 4279112205
0.45483929 0.062266871 0.51562291 4279111952
0.45529735 0.062208548 0.51556933 4279177745
0.45579183 0.062312469 0.51540232 4279112205
0.45626658 0.062335745 0.51529205 4278915596
0.45675835 0.062440529 0.51512504 4278718477
0.45724863 0.062545791 0.51495808 4278718728
0.45775488 0.06273289 0.51473433 4278916361
0.45824194 0.06283915 0.51456732 4278850568
0.45872751 0.062945887 0.51440024 4278981389
0.45919487 0.062971517 0.51428992 4278915594
0.45966125 0.062997445 0.51417959 4278915594
0.46009418 0.062860176 0.51418269 4278981389
0.46059105 0.06305024 0.51395887 4278981389
0.46102297 0.062913284 0.51396197 4278981389
0.46147043 0.062858313 0.51390827 4278915347
0.46191737 0.062803507 0.51385462 4278783757
0.46234879 0.062666714 0.51385772 4278784010
0.46276549 0.062447697 0.51391751 4278784010
0.41902816 0.068133205 0.51953465 4279442204
0.41952124 0.068063647 0.51948106 4279310618
0.41997665 0.067919254 0.51948434 4279179032
0.42046899 0.067849919 0.51943076 4279243538
0.42096081 0.067780748 0.51937723 4279046159
0.42145216 0.067711711 0.51932365 4278914573
0.42187062 0.067492276 0.51938367 4278914826
0.42228958 0.067272663 0.51944369 4278850316
0.42274472 0.067128345 0.51944691 4278915856
0.42312896 0.066832975 0.51956379 4278915856
0.42358458 0.066688508 0.51956701 4278981649
0.42400527 0.066468358 0.51962703 4278982421
0.42442644 0.066248044 0.51968712 4278982421
0.42488259 0.066103414 0.51969033 4278982421
0.4253045 0.065882877 0.51975036 4278916628
0.42576087 0.065738171 0.51975363 4279179030
0.42621726 0.065593466 0.51975685 4279507733
0.42674062 0.065601066 0.51964647 4279442200
0.42722976 0.065532744 0.51959288 4279507993
0.4277184 0.065464586 0.5195393 4279047446
0.42817378 0.065320194 0.51954257 4278850067
0.42859668 0.065099329 0.5196026 4278782989
0.42895558 0.064725235 0.51977634 4278586380
0.43117547 0.06384784 0.51990616 4278981653
0.43169388 0.063856989 0.51979578 4279113239
0.43211976 0.063635185 0.51985586 4279113239
0.43257639 0.063490406 0.51985908 4279113237
0.43300298 0.063268393 0.51991916 4279047442
0.43348965 0.063200846 0.51986557 4278981651
0.43394628 0.063056052 0.51986879 4279112726
0.43449077 0.06314373 0.51970154 4279112726
0.43497571 0.063076735 0.5196479 4279178519
0.43546015 0.063009903 0.51959431 4279178519
0.43600118 0.063098669 0.51942694 4279046931
0.43642753 0.062876731 0.51948702 4279047182
0.43739295 0.062744141 0.51937979 4278981641
0.43921059 0.062167823 0.51939273 4279112724
0.43974471 0.06225878 0.51922536 4279112722
0.44022468 0.062193364 0.51917171 4279046929
0.44067812 0.062049598 0.51917493 4279112975
0.44115737 0.061984405 0.51912129 4278981136
0.44163612 0.061919376 0.51906765 4278981136
0.44211438 0.061854511 0.51901394 4279046929
0.44259214 0.061789781 0.5189603 4278981136
0.44306943 0.061725214 0.51890665 4278981140
0.44359538 0.061818764 0.51873922 4278981651
0.44409552 0.061833709 0.51862866 4278915856
0.44459468 0.061848998 0.51851809 4278915856
0.4451167 0.061943769 0.51835066 4278981136
0.44559002 0.061880469 0.51829696 4279111954
0.44610956 0.06197603 0.51812947 4279046931
0.44660452 0.06199263 0.51801884 4278980886
0.44709849 0.062009558 0.51790828 4279046679
0.44761407 0.062106386 0.51774079 4278981140
0.44810581 0.062123999 0.51763016 4278915343
0.44859657 0.062141925 0.51751953 4278850316
0.44908634 0.062160179 0.51740891 4278916109
0.44957513 0.062178731 0.51729828 4278981389
0.4500843 0.062277585 0.51713073 4278981389
0.45054972 0.062216789 0.51707697 4278981136
0.45101464 0.062156141 0.51702321 4278915345
0.4514997 0.062175885 0.51691258 4278915343
0.45196339 0.062115625 0.51685882 4278915856
0.45244676 0.062135905 0.51674813 4278915856
0.45292911 0.062156513 0.51663744 4278915596
0.45341048 0.062177405 0.51652676 4279112205
0.45387146 0.062118009 0.51647294 4278981389
0.4543511 0.062139481 0.51636225 4278981389
0.45481083 0.062080473 0.51630849 4278981136
0.45528874 0.062102482 0.51619774 4279046929
0.45576566 0.062124789 0.51608706 4279046929
0.45624161 0.062147424 0.51597631 4279046412
0.45671657 0.062170371 0.51586556 4278784008
0.45720819 0.062274799 0.5156979 4278784262
0.45769835 0.062379673 0.51553023 4278981641
0.45870811 0.062753662 0.51508099 4279112203
0.45917663 0.062778637 0.51497018 4278915078
0.46105656 0.062963486 0.51447004 4278915596
0.46150446 0.062908247 0.51441616 4278915347
0.46193662 0.062771201 0.51441926 4278915596
0.46236882 0.06263417 0.5144223 4278784008
0.46280101 0.062497139 0.5144254 4278784008
0.41902143 0.068209335 0.52006453 4279573275
0.41951495 0.068139479 0.52001077 4279375898
0.41997084 0.067994937 0.52001399 4279244310
0.42046362 0.067925304 0.51996022 4279243540
0.4209193 0.067780837 0.51996344 4278915596
0.42137492 0.067636371 0.51996672 4278915596
0.42179441 0.067416742 0.52002692 4278914826
0.4222503 0.067272186 0.5200302 4278718477
0.42267051 0.06705232 0.52009046 4278981649
0.42305583 0.066756874 0.52020776 4278785040
0.42347726 0.06653662 0.52026802 4278850833
0.42389923 0.066316202 0.52032828 4278982421
0.42432165 0.06609562 0.52038854 4278916628
0.42477906 0.065950602 0.52039182 4279048214
0.42516804 0.06565398 0.52050912 4278982421
0.42559195 0.065432951 0.52056944 4279375896
0.43105835 0.063613087 0.52066553 4279047444
0.43283182 0.062877491 0.52079272 4279047442
0.43329066 0.062732011 0.52079594 4278981653
0.43380851 0.062741086 0.52068508 4279047446
0.4343546 0.06282784 0.52051711 4279047444
0.43487024 0.062837631 0.52040619 4279113237
0.43541363 0.06292522 0.52023822 4279113239
0.4358415 0.062702924 0.52029854 4279112724
0.43922538 0.062236458 0.5199216 4279112724
0.4397068 0.062170431 0.51986778 4279112722
0.44018775 0.062104568 0.5198139 4279112722
0.44066823 0.062038869 0.51976001 4279112722
0.44114816 0.061973318 0.51970619 4278981138
0.44165316 0.061986476 0.51959521 4278981138
0.44213188 0.061921313 0.51954132 4279046931
0.44261011 0.061856329 0.51948744 4278981138
0.44308785 0.061791494 0.51943356 4278981140
0.44361418 0.061884493 0.51926541 4278981651
0.44409043 0.06182012 0.51921153 4278915858
0.44461432 0.061913922 0.51904345 4278981651
0.44511291 0.061929107 0.5189324 4278915856
0.44561049 0.061944604 0.51882136 4279111954
0.44608378 0.061881155 0.51876748 4279112726
0.44660273 0.061976537 0.51859933 4278915606
0.44709736 0.061992973 0.51848829 4278915606
0.44759101 0.062009707 0.51837724 4278981138
0.44808367 0.062026769 0.51826614 4278981136
0.4485974 0.06212379 0.518098 4278850316
0.44906601 0.062061831 0.51804399 4278916109
0.4495773 0.062159628 0.51787579 4278981389
0.45004439 0.06209816 0.51782185 4278981389
0.45053211 0.062116772 0.51771075 4279111952
0.45101884 0.062135726 0.51759964 4278981138
0.45148399 0.06207487 0.5175457 4278915343
0.45194861 0.062014192 0.5174917 4279047182
0.45243287 0.062033907 0.5173806 4278981389
0.45291615 0.062053934 0.51726943 4278915596
0.45337883 0.061993882 0.51721549 4279112205
0.45386037 0.062014475 0.51710433 4279112205
0.45434093 0.062035367 0.51699317 4279112205
0.45480162 0.061975926 0.51693916 4278981138
0.45528042 0.061997384 0.516828 4279046931
0.45575827 0.06201914 0.51671684 4278981136
0.45621699 0.061960325 0.51666284 4278981387
0.45669311 0.061982647 0.51655167 4278915594
0.45716822 0.062005252 0.51644045 4278915848
0.45765975 0.062109321 0.51627213 4278981641
0.45814979 0.062213838 0.51610374 4278915848
0.46057782 0.0627435 0.51526183 4278981389
0.46102762 0.062687501 0.51520777 4278915596
0.46147695 0.062631667 0.51515365 4278915347
0.46195614 0.06273964 0.5149852 4278784010
0.46234429 0.062356666 0.51515979 4278718215
0.46277794 0.062219158 0.51516289 4278718215
0.4632549 0.062327832 0.51499444 4278718215
0.46370202 0.062272698 0.51494032 4278915596
0.46412075 0.062053308 0.51500058 4278914826
0.41848248 0.068281725 0.52070653 4280033307
0.41901481 0.068285927 0.52059531 4279704342
0.41947144 0.068141147 0.52059853 4279507480
0.41992807 0.067996353 0.52060181 4279441687
0.42045844 0.068001196 0.52049059 4279178515
0.42091459 0.06785658 0.52049381 4278915596
0.42133436 0.067636982 0.5205543 4278915596
0.4217546 0.067417219 0.52061474 4278784010
0.42217535 0.067197323 0.5206753 4278783759
0.42259663 0.066977262 0.52073574 4278915856
0.42298296 0.066681758 0.52085352 4278915856
0.42340547 0.066461295 0.52091402 4278850833
0.42382842 0.066240698 0.52097452 4278982421
0.42425188 0.066019922 0.52103508 4279113237
0.42464146 0.065723389 0.52115285 4279048214
0.43479419 0.062677279 0.52110994 4279047444
0.43924034 0.06230554 0.52045143 4279046931
0.43972224 0.062239259 0.52039737 4279046931
0.44017738 0.062094942 0.52040058 4279046929
0.44068453 0.062107131 0.52028918 4279112722
0.44116494 0.062041298 0.52023506 4278915347
0.44167036 0.062054053 0.52012366 4279046933
0.44214955 0.061988622 0.5200696 4279046931
0.44262823 0.061923355 0.52001548 4278981138
0.44313118 0.061936885 0.51990402 4278981138
0.44360864 0.061872005 0.5198499 4278981138
0.44410986 0.061886057 0.51973844 4278981138
0.44461009 0.061900452 0.51962703 4278981138
0.44510934 0.061915174 0.51951557 4278981136
0.4456076 0.06193018 0.51940405 4279177745
0.44610488 0.061945513 0.51929259 4279046679
0.44657812 0.061881959 0.51923847 4278981401
0.44707367 0.061897829 0.51912695 4278981401
0.44759077 0.061993375 0.51895815 4279177747
0.44808409 0.062009946 0.51884663 4278916109
0.44857642 0.062026858 0.51873511 4278981900
0.44906777 0.062044054 0.51862359 4278915858
0.44955814 0.062061593 0.51851207 4278981651
0.45004749 0.06207943 0.51840055 4278981138
0.45053589 0.062097564 0.51828897 4279111952
0.45100248 0.062036127 0.51823479 4278981140
0.45146856 0.061974838 0.51818061 4278850065
0.45195445 0.061993778 0.51806903 4278981649
0.4524394 0.062013015 0.51795751 4278981649
0.45290351 0.061952367 0.51790327 4279046410
0.45336711 0.061891869 0.51784909 4279046410
0.45384958 0.061911896 0.51773751 4279046410
0.45431197 0.061851785 0.51768327 4279112205
0.45479268 0.061872363 0.51757169 4279046412
0.45527244 0.061893269 0.51746005 4279046929
0.45573282 0.061833784 0.51740581 4278981138
0.45621085 0.061855212 0.51729423 4278915596
0.45668787 0.061876968 0.51718259 4278981387
0.4571639 0.061899021 0.51707095 4278981136
0.45762157 0.061840415 0.51701671 4278981136
0.46056375 0.062551051 0.51594502 4278850316
0.46101475 0.062494531 0.51589072 4278718477
0.4614653 0.062438175 0.51583642 4278718481
0.46236485 0.062325954 0.51572782 4278718215
0.46285784 0.062515661 0.51550126 4278718215
0.46329126 0.062378228 0.51550436 4278652422
0.46369636 0.062076777 0.51562226 4278915343
0.46413028 0.061939195 0.51562536 4278915596
0.41847563 0.068359211 0.52123868 4279967512
0.41893324 0.068214118 0.5212419 4279638547
0.41942817 0.068143561 0.52118772 4279442200
0.41988555 0.067998543 0.52119094 4279376407
0.42037976 0.06792821 0.52113676 4279113235
0.42083687 0.067783266 0.52113998 4278915856
0.421294 0.067638338 0.52114326 4278850063
0.42171505 0.067418471 0.52120394 4278915596
0.42210072 0.067123428 0.52132213 4278915345
0.42252302 0.066903189 0.52138287 4278915856
0.42291042 0.066607609 0.52150112 4278981649
0.42333394 0.066386953 0.52156186 4279047442
0.42375791 0.066166162 0.5216226 4279047442
0.42414781 0.065869823 0.52174079 4279179030
0.42453867 0.065573141 0.52185905 4279113237
0.42489642 0.065200612 0.52203476 4279310616
0.42528954 0.064903244 0.52215302 4279375894
0.4260453 0.064231783 0.52244705 4279507482
0.42650789 0.064085126 0.52245033 4279507482
0.43008375 0.061310366 0.52357256 4279047446
0.43058166 0.061238855 0.52351838 4279112726
0.43104866 0.061090782 0.52352172 4279243542
0.43160614 0.061173126 0.52335244 4279047442
0.43201259 0.060871527 0.52347082 4279047442
0.43874565 0.062364042 0.52109396 4279112722
0.43925545 0.062375143 0.52098215 4279046931
0.4397378 0.06230855 0.52092785 4279046931
0.44019344 0.062164083 0.52093112 4279046929
0.44070101 0.062175885 0.52081925 4279112722
0.44118187 0.062109798 0.52076495 4278981138
0.44171318 0.062200412 0.52059549 4278981138
0.44219255 0.062134787 0.52054119 4279112722
0.44267148 0.062069312 0.52048683 4278981138
0.44314986 0.062004 0.52043253 4278981138
0.44365224 0.062017441 0.52032065 4278915345
0.44412941 0.061952516 0.52026629 4278981138
0.44460607 0.061887726 0.52021194 4278981136
0.445106 0.061901957 0.52010006 4279046929
0.44558144 0.061837569 0.5200457 4279243538
0.44607961 0.061852351 0.51993376 4278981653
0.4465768 0.061867431 0.51982182 4278915860
0.44707301 0.061882839 0.51970989 4278981401
0.44756824 0.061898544 0.51959795 4279111956
0.44806248 0.061914578 0.51948601 4278981902
0.44857776 0.062010288 0.51931649 4278981900
0.44906977 0.062027022 0.5192045 4278915858
0.44956079 0.062044054 0.51909256 4278981651
0.45005083 0.062061429 0.51898056 4279111952
0.45053989 0.062079087 0.51886857 4278981136
0.45102793 0.062097058 0.51875657 4278915858
0.45147395 0.061955646 0.51875973 4278850065
0.45196053 0.061974108 0.51864773 4278981649
0.45242608 0.06191285 0.51859331 4278981649
0.45291093 0.061931863 0.51848131 4278915594
0.45337525 0.061871007 0.5184269 4279046410
0.45385838 0.061890557 0.51831484 4279046410
0.45432144 0.061830074 0.51826042 4279112205
0.45478407 0.061769783 0.518206 4279046412
0.45526472 0.061790109 0.51809394 4278981649
0.45572606 0.061730191 0.51803946 4278915856
0.45618692 0.061670437 0.51798499 4278981138
0.45664731 0.061610833 0.51793057 4278981389
0.45710719 0.061551392 0.51787609 4278981389
0.45760119 0.061653838 0.51770639 4278981389
0.4580425 0.061513916 0.51770955 4278915594
0.45957881 0.062149569 0.51696998 4278718477
0.46008125 0.0623357 0.51674265 4278850316
0.46051836 0.062197104 0.51674575 4278850316
0.46097109 0.062139943 0.51669121 4278718477
0.46140796 0.062001422 0.51669431 4278718481
0.46192032 0.062270805 0.51640928 4278718730
0.46238565 0.062295988 0.51629716 4278784008
0.46283543 0.062239736 0.51624262 4278718215
0.46327031 0.062101841 0.51624572 4278652422
0.46371934 0.062045842 0.51619118 4278915345
0.46415398 0.061908036 0.51619422 4278915343
0.46462947 0.062016368 0.51602447 4278915594
0.41850668 0.068511441 0.52171403 4280099350
0.41892701 0.068291947 0.52177501 4279770385
0.41984326 0.068001434 0.5217815 4279245591
0.42033815 0.067930743 0.52172703 4279113235
0.42079601 0.067785561 0.5217303 4279179028
0.42125389 0.067640394 0.52173352 4278850063
0.42163965 0.067345619 0.5218522 4278915343
0.42206219 0.06712541 0.52191317 4278914575
0.42244968 0.066830084 0.52203178 4279111952
0.4228735 0.066609487 0.52209276 4279111952
0.42326272 0.066313609 0.52221143 4279047442
0.42368773 0.06609261 0.52227241 4279047442
0.4240441 0.065720916 0.52244884 4279179028
0.4244706 0.06549944 0.52250981 4279179028
0.42482945 0.065126985 0.52268618 4279376409
0.42522362 0.064829543 0.52280492 4279442202
0.42561877 0.064531788 0.52292365 4279441689
0.4260149 0.06423372 0.52304238 4279573275
0.42641202 0.063935354 0.52316105 4279902240
0.42674446 0.063485011 0.5233953 4280296228
0.42707884 0.063034058 0.52362943 4280164642
0.42744759 0.062658444 0.52380598 4279835677
0.42918897 0.060467899 0.52491945 4278717964
0.42975277 0.060547829 0.52474958 4279112722
0.43013138 0.060169086 0.52492613 4279112724
0.43063295 0.060096294 0.52487177 4279177747
0.43107378 0.059870288 0.52493286 4279309333
0.43187365 0.060565233 0.52430099 4279112724
0.43240142 0.060570359 0.52418888 4279047444
0.43803197 0.061803192 0.52220041 4279046929
0.43865281 0.062123731 0.52185714 4279112722
0.43916401 0.062134117 0.52174485 4279046929
0.43972707 0.062300503 0.52151704 4279046929
0.44020963 0.062233731 0.5214625 4279047182
0.44074357 0.062323138 0.52129239 4279112975
0.44122463 0.062256843 0.52123785 4279046929
0.44173065 0.062268853 0.52112556 4279046929
0.4422105 0.06220293 0.52107102 4279046929
0.44268984 0.062137187 0.52101648 4278981136
0.44319338 0.062150002 0.52090412 4278915856
0.44367149 0.062084645 0.52084959 4278916109
0.44414911 0.062019423 0.52079499 4278916109
0.44462624 0.061954379 0.52074045 4278916109
0.44510287 0.061889485 0.52068585 4278981902
0.44557899 0.061824739 0.52063131 4279112975
0.44607785 0.061839029 0.52051896 4278981651
0.44657573 0.061853647 0.52040654 4278915858
0.4470726 0.061868563 0.52029419 4278981399
0.44756851 0.061883807 0.52018178 4278981399
0.4480634 0.061899349 0.52006942 4278981651
0.44855732 0.061915204 0.51995701 4278981902
0.44905025 0.061931387 0.51984459 4278981389
0.44956365 0.062027276 0.51967436 4278981389
0.45003313 0.061964646 0.51961976 4278981389
0.45054409 0.06206134 0.51944953 4278981387
0.45103282 0.062078848 0.51933706 4278981389
0.45150006 0.062016919 0.51928246 4278915343
0.45196682 0.061955169 0.5192278 4278981136
0.45245308 0.061973453 0.51911533 4279047182
0.45291859 0.06191209 0.51906073 4278981641
0.45338362 0.061850861 0.51900607 4279046410
0.45384815 0.061789811 0.51895142 4279112203
0.45433119 0.061809123 0.51883888 4279112205
0.4547945 0.061748445 0.51878422 4279112205
0.4552758 0.061768293 0.51867175 4278981649
0.45573786 0.061708033 0.51861709 4278915856
0.45619944 0.061647922 0.51856244 4278915856
0.45664275 0.061507359 0.51856554 4278915856
0.45710355 0.061447471 0.51851088 4278981649
0.45758116 0.061468512 0.51839834 4278981136
0.45804077 0.061409026 0.51834369 4278915594
0.45851666 0.061430588 0.51823115 4278914826
0.45899156 0.061452478 0.51811862 4278915594
0.45948175 0.061555743 0.51794821 4278915343
0.45998654 0.061740622 0.51771998 4278783757
0.46045771 0.061763689 0.51760745 4278784010
0.46092793 0.061787069 0.51749486 4278783757
0.46139714 0.061810747 0.51738226 4278783759
0.46192563 0.062160581 0.51703829 4278784010
0.46243632 0.062429816 0.51675212 4278718730
0.46284258 0.062128529 0.51687098 4278652937
0.46330711 0.062153727 0.51675832 4278718217
0.46375656 0.06209743 0.51670361 4278784010
0.4641917 0.06195946 0.51670665 4278915596
0.46464044 0.061903402 0.51665187 4278915594
0.41842458 0.068441525 0.52236354 4279771416
0.41888344 0.06829603 0.52236682 4279770385
0.41980115 0.068005055 0.52237332 4279245591
0.42026001 0.067859575 0.5223766 4279244308
0.42071885 0.06771408 0.52237988 4279244308
0.42117772 0.0675686 0.52238309 4278915856
0.42160055 0.067348436 0.52244431 4278718477
0.42202389 0.067128122 0.52250546 4278914575
0.42241222 0.066832796 0.52262461 4279111952
0.42280149 0.066537172 0.5227437 4279111952
0.4232268 0.066316217 0.52280492 4279047442
0.42365259 0.066095114 0.52286613 4279047442
0.42400983 0.065723553 0.52304322 4279179030
0.42443711 0.065501973 0.52310443 4279179030
0.42483085 0.065204933 0.52322358 4279442202
0.42519179 0.064832196 0.52340066 4279507995
0.4256213 0.064609915 0.52346194 4279507482
0.426018 0.064311951 0.52358109 4279573275
0.42638263 0.063938022 0.52375823 4280099619
0.42678156 0.063639358 0.52387744 4280230435
0.42711636 0.063188806 0.52411252 4280164642
0.42748544 0.062813476 0.52428967 4279967263
0.42775983 0.062209904 0.52464068 4278914573
0.42810079 0.061757386 0.52487582 4278783757
0.42847532 0.061380357 0.52505302 4278915343
0.42885131 0.061002851 0.52523023 4278783757
0.42922878 0.060624853 0.52540749 4278717964
0.42966941 0.060399055 0.52546877 4278783757
0.43014109 0.060249507 0.52547216 4279112722
0.4306128 0.060099944 0.5254755 4279243538
0.43114468 0.060103491 0.52536291 4279309331
0.43158603 0.05987744 0.52542424 4279112722
0.43238303 0.060571834 0.52478987 4279113237
0.43291044 0.060576797 0.52467728 4279047192
0.43361148 0.061043307 0.52421683 4279047192
0.43518043 0.06106241 0.52387887 4278915856
0.43561712 0.060837865 0.52394021 4278981649
0.43619359 0.060999483 0.52371156 4278981649
0.43674049 0.06108436 0.52354091 4278915856
0.4372859 0.061169729 0.52337021 4279046929
0.43782985 0.061255559 0.52319956 4279046929
0.43845293 0.061574578 0.52285492 4279046929
0.43909967 0.061972201 0.52245224 4279046929
0.43971658 0.062293187 0.52210754 4279112722
0.44022599 0.062303856 0.52199477 4279047182
0.44076028 0.062392756 0.52182406 4279178768
0.44126746 0.062404141 0.52171129 4279046929
0.44174826 0.062337786 0.52165651 4279046929
0.44225371 0.062349722 0.52154374 4279047182
0.44270834 0.062205568 0.52154696 4279046931
0.44321233 0.062217966 0.52143419 4278915856
0.4436909 0.062152326 0.52137941 4278916107
0.44416898 0.06208685 0.52132463 4278916107
0.44462264 0.061942995 0.52132785 4278916109
0.44509998 0.061877757 0.52127308 4278915856
0.44557682 0.061812654 0.5212183 4279047442
0.44607633 0.061826468 0.52110547 4278981653
0.44657487 0.061840579 0.52099264 4278981653
0.44704974 0.061776116 0.52093786 4278915606
0.44754654 0.061790809 0.52082503 4278981399
0.44804236 0.061805785 0.52071214 4278981651
0.44853717 0.061821088 0.52059931 4278916109
0.44905272 0.061915919 0.52042842 4278981389
0.44954532 0.061931923 0.52031559 4278981389
0.45005813 0.062027618 0.5201447 4278981389
0.45054853 0.062044337 0.52003181 4278981387
0.45103791 0.062061355 0.51991892 4279047180
0.45150587 0.061999083 0.51986408 4278915596
0.45199353 0.062016666 0.51975119 4278981389
0.45246026 0.061954767 0.5196963 4278981389
0.45292646 0.061893046 0.51964146 4279112203
0.45341167 0.061911389 0.51952851 4278981389
0.45387664 0.061850056 0.51947367 4279112203
0.45436013 0.061868966 0.51936072 4279112205
0.45482388 0.06180802 0.51930583 4279046412
0.45528713 0.061747238 0.51925093 4278981649
0.4557499 0.061686605 0.51919603 4278915856
0.45621216 0.061626136 0.51914114 4278915856
0.45667395 0.061565802 0.51908624 4278981136
0.45713523 0.061505646 0.51903135 4279046929
0.457596 0.061445653 0.51897645 4278981136
0.45807332 0.0614665 0.5188635 4279243019
0.45854962 0.06148769 0.51875049 4279046410
0.45902494 0.061509162 0.51863754 4279046410
0.45953178 0.061692864 0.51840842 4279046410
0.46000463 0.061715126 0.51829541 4278915343
0.46047649 0.061737716 0.5181824 4278718217
0.46094736 0.061760589 0.51806939 4278784010
0.46143252 0.061865076 0.51789826 4279046412
0.46194625 0.062132671 0.51761103 4278784010
0.46241316 0.062156811 0.51749802 4278784010
0.46286458 0.0620998 0.517443 4278718730
0.46332976 0.062124491 0.51732993 4279046412
0.46377993 0.062067851 0.51727498 4278914826
0.46422961 0.062011376 0.51721996 4278914826
0.46466523 0.061873257 0.51722306 4279046410
0.41841823 0.06852062 0.52289861 4280297509
0.42021888 0.067863718 0.52296984 4279376147
0.42064202 0.067643598 0.52303123 4279244561
0.42110187 0.06749779 0.52303451 4278981902
0.42152572 0.067277431 0.52309591 4278850063
0.42191434 0.066982284 0.52321547 4278915345
0.42233944 0.066761523 0.52327693 4279046931
0.42280027 0.066615418 0.5232802 4279046931
0.42319113 0.06631957 0.52339977 4279047446
0.42361769 0.066098347 0.52346122 4278982423
0.42401028 0.065801948 0.52358079 4279376411
0.42443809 0.065580323 0.52364224 4279376411
0.4248324 0.065283388 0.52376187 4279507997
0.42526144 0.065061375 0.52382332 4279507997
0.42565751 0.064763874 0.52394295 4279639581
0.42605451 0.064466074 0.52406257 4279836960
0.4264195 0.064092442 0.52424037 4280296998
0.42681876 0.063793927 0.52436 4280494377
0.42715394 0.063343808 0.52459604 4280561966
0.42749113 0.062893033 0.52483201 4280693552
0.42779824 0.062365845 0.52512622 4278785557
0.42810783 0.061837852 0.52542043 4278783759
0.42848295 0.061461017 0.52559835 4278848782
0.42885956 0.061083719 0.52577621 4278914575
0.42923763 0.060705945 0.52595413 4279046161
0.4296788 0.060480118 0.52601564 4279046159
0.43015099 0.060330406 0.52601898 4279112722
0.43062317 0.060180679 0.52602237 4279243538
0.4311254 0.060107395 0.52596754 4279243538
0.43165696 0.060110778 0.52585453 4279112724
0.43218753 0.060114488 0.52574146 4279178515
0.43283436 0.060425192 0.52539563 4279047446
0.43342006 0.060583338 0.52516615 4279047446
0.43394619 0.060588434 0.52505308 4279047444
0.43438563 0.060363144 0.5251146 4278915858
0.43502378 0.060676575 0.52476871 4278915856
0.43568707 0.061068028 0.52436459 4279047442
0.43617994 0.06099771 0.52430969 4278916626
0.43669987 0.061004788 0.52419657 4278981136
0.43724617 0.061089471 0.5240252 4278981136
0.43776387 0.061097234 0.52391213 4278981136
0.43828061 0.061105341 0.52379894 4279046929
0.4417153 0.062251359 0.52230483 4279047182
0.44227189 0.062418744 0.52207518 4279047182
0.44272703 0.062274426 0.52207839 4279046931
0.4432314 0.062286422 0.52196515 4279046929
0.44368607 0.062142268 0.52196836 4278916109
0.44416484 0.06207642 0.52191341 4278916109
0.44461927 0.06193234 0.52191663 4278916109
0.4450973 0.06186673 0.52186161 4278915856
0.44559821 0.061879843 0.52174836 4279047442
0.44607502 0.061814636 0.52169335 4278981653
0.44657424 0.061828271 0.5215801 4278981653
0.4470498 0.061763451 0.52152503 4278915860
0.44754726 0.061777636 0.52141178 4278981653
0.44804376 0.06179215 0.52129847 4279046931
0.44853926 0.061806977 0.52118522 4278981389
0.4490554 0.061901212 0.52101362 4279047182
0.44954866 0.061916724 0.52090037 4278981389
0.45004097 0.061932564 0.520787 4278981389
0.45055318 0.06202805 0.52061546 4278981387
0.45102257 0.061965182 0.52056038 4279047180
0.45151189 0.061981961 0.52044702 4278915596
0.45200023 0.061999053 0.52033371 4278915596
0.45248759 0.062016472 0.52022034 4278981389
0.45295423 0.061954468 0.52016526 4279177996
0.45342043 0.061892614 0.52011019 4279047180
0.45390531 0.061910793 0.51999682 4279046410
0.45437026 0.061849341 0.51994169 4279112203
0.4548347 0.061788037 0.51988661 4279046412
0.45531711 0.061807007 0.51977319 4279046929
0.45578033 0.061746106 0.51971811 4278915856
0.45624307 0.061685354 0.51966298 4278915856
0.4567053 0.06162475 0.51960784 4278915343
0.45716703 0.061564311 0.51955271 4279112722
0.45762828 0.061504021 0.51949763 4278981136
0.45810601 0.061524495 0.51938421 4279243019
0.45856601 0.061464593 0.51932907 4279046410
0.45905846 0.061566353 0.51915735 4278914824
0.45953321 0.061587751 0.51904392 4279046410
0.46003893 0.061771259 0.51881385 4278915343
0.46051121 0.061793447 0.51870042 4278717964
0.4609825 0.061815947 0.51858693 4278783757
0.46145281 0.061838731 0.51847351 4278914826
0.46190715 0.061780646 0.51841831 4278784010
0.46236098 0.061722726 0.51836312 4278784010
0.46282881 0.061746299 0.51824963 4278850316
0.46335265 0.062096 0.51790291 4279046412
0.46378952 0.061957479 0.51790601 4278915596
0.41841197 0.068600193 0.52343458 4281483582
0.41883439 0.068380415 0.52349627 4279968284
0.41971764 0.068014547 0.52356112 4279507480
0.42014128 0.067794383 0.52362275 4279376147
0.42060187 0.067648351 0.52362603 4279376147
0.42102629 0.067427948 0.52368772 4279047695
0.42145115 0.067207396 0.52374935 4279047182
0.42187655 0.066986695 0.52381098 4278915858
0.42230242 0.066765845 0.52387261 4278915858
0.42272881 0.066544816 0.5239343 4279046931
0.42315567 0.066323638 0.523996 4279047192
0.42358303 0.066102311 0.52405763 4278916376
0.42397642 0.065805912 0.52417767 4279310618
0.42443922 0.06565918 0.52418095 4279179032
0.42486805 0.065437362 0.52424264 4279507997
0.42526367 0.065140277 0.52436268 4279507997
0.42569375 0.064918086 0.52442437 4279836447
0.4260911 0.064620435 0.52454448 4279968033
0.42645645 0.064247102 0.52472299 4280297509
0.42682329 0.063873306 0.52490145 4280560932
0.42719162 0.063499033 0.52507997 4281219894
0.42749694 0.062973067 0.52537531 4281285687
0.42783672 0.062522009 0.52561224 4280430644
0.42808327 0.061843038 0.5260244 4278913807
0.42845926 0.061466336 0.52620292 4278979598
0.42886794 0.061165094 0.52632308 4279045391
0.42924663 0.060787529 0.52650166 4279242770
0.42968833 0.060561642 0.52656347 4279046159
0.430161 0.060411781 0.5265668 4279046929
0.43063369 0.060261905 0.52657014 4279178515
0.43116641 0.060264662 0.52645671 4279112722
0.43166837 0.060191333 0.52640164 4279112724
0.43216982 0.060118169 0.52634656 4279178515
0.43272933 0.060198247 0.52617466 4279047444
0.43325835 0.060202166 0.52606112 4279047444
0.43393028 0.060589939 0.52565551 4279047444
0.43445605 0.060594887 0.52554196 4278915858
0.4349243 0.060446426 0.5255453 4278981649
0.43556076 0.060759589 0.52519804 4279047442
0.4360553 0.06068863 0.52514291 4279047442
0.43668708 0.061003283 0.52479565 4278981136
0.43715212 0.060855836 0.52479893 4279046929
0.43772534 0.061017409 0.5245685 4279112722
0.438243 0.061024934 0.52445489 4279046929
0.44170794 0.062243715 0.52289653 4279046929
0.44226512 0.06241037 0.52266592 4279112975
0.44274583 0.062343761 0.52261072 4278981138
0.44322607 0.062277332 0.52255547 4278981136
0.44368148 0.06213294 0.52255875 4279046929
0.44416094 0.062066749 0.5225035 4278916109
0.44463995 0.062000707 0.5224483 4278916109
0.44511843 0.061934814 0.52239305 4278981653
0.44559646 0.06186907 0.52233779 4279047444
0.44607395 0.061803505 0.5222826 4278981651
0.44657382 0.061816677 0.52216887 4278915858
0.44707268 0.061830163 0.52205515 4278915858
0.44754821 0.061765224 0.5219999 4278981651
0.44804537 0.061779246 0.52188617 4278981649
0.44854152 0.061793581 0.52177244 4279177998
0.44901508 0.061729267 0.52171719 4279177998
0.4495309 0.061823204 0.52154493 4279112205
0.45004523 0.061917618 0.52137268 4278981389
0.45053717 0.061933294 0.52125895 4278981387
0.45102817 0.061949283 0.52114516 4278981387
0.45151815 0.061965585 0.52103138 4278981389
0.45200714 0.061982185 0.52091759 4279047182
0.45247525 0.0619196 0.52086228 4278981387
0.45296255 0.061936751 0.5207485 4279112203
0.45344883 0.06195423 0.52063465 4279047180
0.45391497 0.061892271 0.52057934 4279046410
0.45439953 0.061910287 0.52046555 4279112203
0.45486444 0.0618487 0.52041018 4279112203
0.45534727 0.061867282 0.52029639 4278981136
0.45581093 0.061806083 0.52024102 4278981389
0.45627412 0.061745048 0.52018571 4278981136
0.45675448 0.061764419 0.52007186 4279046931
0.45721644 0.061703771 0.52001649 4279046931
0.45767787 0.061643288 0.51996112 4279112205
0.45815575 0.061663419 0.51984727 4279112203
0.45863268 0.061683863 0.51973343 4279046410
0.45910859 0.061704636 0.51961952 4278981387
0.45959967 0.061806411 0.51944715 4278915594
0.46007338 0.061827868 0.51933324 4278915343
0.46054608 0.061849669 0.51921934 4278783759
0.46100235 0.061790824 0.51916397 4279046159
0.46147332 0.061813161 0.51905 4278914573
0.4619433 0.061835796 0.5189361 4278915596
0.46239758 0.061777577 0.51888072 4278981389
0.46286583 0.061800763 0.51876676 4278718730
0.4633047 0.061661616 0.51876986 4278784010
0.46372959 0.061441064 0.51883155 4278915596
0.46419612 0.061464816 0.51871759 4279112205
0.46516585 0.061758146 0.51831406 4279112205
0.41886622 0.0685343 0.52397472 4280034588
0.41967621 0.068020374 0.52415705 4279704089
0.42010066 0.067800105 0.52421892 4279638296
0.42048919 0.067505524 0.52433938 4279441687
0.42095101 0.067359105 0.52434266 4279113235
0.42137691 0.067138359 0.52440453 4279112722
0.42180333 0.066917449 0.52446645 4278981138
0.42226565 0.066770867 0.52446973 4278981138
0.42269278 0.066549748 0.5245316 4279046931
0.42312044 0.066328451 0.52459353 4278981653
0.42358324 0.066181719 0.52459681 4279047446
0.42401162 0.065960184 0.52465868 4279375898
0.4244405 0.065738499 0.52472061 4279244312
0.42490381 0.065591604 0.52472389 4279573277
0.42529973 0.065294698 0.52484441 4279573277
0.42573011 0.065072536 0.52490634 4279902240
0.42609459 0.064699873 0.52508545 4280033826
0.42646053 0.064326748 0.52526462 4280494377
0.42682797 0.063953161 0.52544379 4281153071
0.42719692 0.063579097 0.52562302 4281483066
0.42750293 0.063053593 0.52591944 4281483066
0.42784333 0.062602863 0.52615726 4280364851
0.42815405 0.062075868 0.52645373 4279243540
0.42853013 0.061699539 0.52663302 4278979598
0.42887649 0.061246946 0.52687085 4279045391
0.42928675 0.060945466 0.52699149 4279242770
0.42972872 0.060719654 0.52705348 4279046159
0.43020165 0.060569689 0.52705687 4279046929
0.43067458 0.060419738 0.52706021 4279178515
0.4311775 0.060345978 0.52700496 4279112722
0.4316799 0.060272366 0.52694964 4279112724
0.43221131 0.060275272 0.52683568 4279178515
0.43274173 0.060278475 0.52672178 4279047444
0.43330014 0.060358524 0.52654916 4279047446
0.43385708 0.06043902 0.52637655 4279047446
0.43438402 0.060443327 0.52626258 4278915858
0.43491 0.060447946 0.52614862 4278981651
0.43557498 0.060836971 0.52574134 4279047442
0.43609774 0.060842603 0.52562737 4278981649
0.43664703 0.060925543 0.5254547 4279046929
0.43714029 0.060854837 0.52539933 4279112722
0.4376871 0.060938552 0.52522665 4279112722
0.43823242 0.061022729 0.52505398 4279046929
0.44223356 0.062324971 0.52331674 4279112975
0.44274002 0.062335774 0.5232026 4278981136
0.4432455 0.062346905 0.52308851 4278981136
0.44370139 0.062202349 0.52309173 4279046929
0.44415727 0.062057808 0.52309495 4278916109
0.44466078 0.06206955 0.52298081 4278916107
0.44513974 0.062003389 0.52292538 4278915860
0.44561818 0.061937377 0.52286994 4278981649
0.44609615 0.061871514 0.52281445 4278981649
0.44657362 0.061805815 0.52275902 4278915856
0.44707316 0.061818823 0.52264482 4278915858
0.44757172 0.061832145 0.52253067 4278981651
0.44804722 0.061767071 0.52247518 4279047442
0.44854406 0.061780944 0.52236098 4279177998
0.44903988 0.061795101 0.52224684 4279243791
0.44953474 0.061809599 0.52213264 4279243019
0.4500286 0.061824411 0.52201843 4279112203
0.45054233 0.061918616 0.52184552 4278981389
0.45103395 0.061934114 0.52173126 4278981389
0.45150426 0.061870679 0.52167577 4278981389
0.45201427 0.061966076 0.52150285 4279047182
0.45248312 0.061903104 0.5214473 4278981387
0.45297104 0.061919793 0.52133304 4279112203
0.45345801 0.061936796 0.52121878 4278981387
0.45394397 0.061954096 0.52110457 4279046410
0.45442894 0.061971724 0.52099025 4279112203
0.4548943 0.061909854 0.5209347 4279177998
0.45537755 0.061928019 0.52082044 4278981389
0.45584169 0.061866567 0.52076489 4278981136
0.45630533 0.061805263 0.52070934 4278981136
0.4567861 0.061824203 0.52059501 4279046929
0.45724851 0.061763287 0.52053946 4279046929
0.45772755 0.061782777 0.52042514 4279112205
0.45820561 0.061802596 0.52031082 4279112203
0.45868269 0.061822727 0.5201965 4279046410
0.45914239 0.061762661 0.52014095 4278981387
0.45963386 0.061863929 0.51996785 4278915594
0.46009207 0.061804339 0.51991224 4278915343
0.46056545 0.061825633 0.51979792 4278915345
0.46105322 0.061928064 0.51962483 4279046159
0.4615092 0.061869174 0.51956916 4279046159
0.4619796 0.061891422 0.51945484 4278915343
0.46241969 0.061751887 0.51945794 4278981136
0.4628742 0.061693475 0.51940233 4278718477
0.46332821 0.061635211 0.51934665 4278914826
0.46379563 0.061658397 0.51923227 4278981389
0.46423474 0.061519161 0.51923543 4279112205
0.46468726 0.061461389 0.51917976 4279046412
0.41878608 0.068467245 0.52463013 4279903772
0.41921031 0.068247184 0.52469224 4279968282
0.41963503 0.068026945 0.52475435 4279573273
0.42006022 0.067806557 0.52481645 4279507480
0.42044958 0.067511991 0.52493739 4279310616
0.42091215 0.067365333 0.52494067 4279113235
0.42133883 0.067144468 0.52500278 4279178515
0.42176601 0.066923454 0.52506489 4279047695
0.42222905 0.066776648 0.52506816 4278916109
0.42269212 0.066629827 0.52507144 4278981136
0.42312029 0.0664085 0.52513355 4278981651
0.4235836 0.06626159 0.52513683 4279047444
0.42401251 0.066040054 0.525199 4279178517
0.42444193 0.06581834 0.5252611 4279375896
0.42490572 0.06567128 0.52526438 4279507482
0.42530221 0.065374434 0.52538538 4279573275
0.42569971 0.06507726 0.52550638 4280033826
0.4260982 0.064779803 0.52562737 4280165412
0.42646477 0.064406887 0.5258072 4280692269
0.42683282 0.064033508 0.52598703 4281481274
0.42716992 0.063584372 0.52622581 4281745475
0.42750904 0.063134611 0.52646452 4281679682
0.42781818 0.062608778 0.52676213 4280956472
0.4281615 0.062157676 0.52700084 4280889135
0.42853817 0.061781555 0.52718079 4278848784
0.42891636 0.061404958 0.52736068 4278848784
0.42932695 0.061103657 0.52748179 4279046161
0.42976919 0.060877874 0.52754402 4279046159
0.43021193 0.060651928 0.52760625 4278981136
0.43074572 0.060653806 0.52749187 4279047442
0.43121865 0.060503855 0.52749521 4279047442
0.43172127 0.060430035 0.52743971 4279047442
0.43225285 0.060432628 0.52732533 4279112722
0.43281266 0.060511813 0.52715206 4278981651
0.43334201 0.060515106 0.52703768 4279047446
0.43387038 0.060518697 0.52692324 4278981653
0.43439776 0.060522601 0.52680886 4279047444
0.43492413 0.060526818 0.52669442 4278981651
0.43550545 0.060684755 0.5264622 4279047442
0.43616796 0.061073616 0.52605337 4279047442
0.43663472 0.060925618 0.52605665 4278981649
0.43712869 0.060854569 0.5260011 4278981649
0.43764916 0.060860664 0.52588665 4279112722
0.43819538 0.06094417 0.52571326 4279046929
0.44176969 0.062463284 0.52390718 4278981389
0.44227731 0.062473461 0.52379262 4279047182
0.44278392 0.062483922 0.52367806 4279047182
0.44324055 0.062339142 0.52368128 4278981389
0.44372144 0.062272236 0.52362561 4279047182
0.44420186 0.062205479 0.52356994 4278981389
0.44468176 0.062138885 0.52351427 4279047180
0.44516116 0.062072426 0.5234586 4278981136
0.44561681 0.061927959 0.52346188 4279046929
0.4461185 0.061940029 0.52334726 4279046929
0.44659644 0.061874047 0.52329159 4278981136
0.44709641 0.061886638 0.52317697 4278915860
0.4475731 0.061821058 0.52312124 4278981653
0.44807133 0.061834216 0.52300668 4278981649
0.44856858 0.061847672 0.522892 4279308812
0.44904327 0.061782718 0.52283633 4279440398
0.44956011 0.061875522 0.52266276 4279177996
0.45003334 0.061811045 0.52260703 4279177996
0.45052689 0.061825693 0.52249235 4279047182
0.45101944 0.061840639 0.52237767 4279112205
0.451511 0.061855912 0.52226305 4279112205
0.45200157 0.061871484 0.52214837 4279177998
0.45249116 0.061887369 0.52203369 4279177996
0.45297977 0.061903566 0.52191895 4279112205
0.4534674 0.061920092 0.52180427 4278981389
0.45395401 0.061936915 0.52168959 4278914826
0.45443967 0.061954051 0.52157485 4279046412
0.45492432 0.061971515 0.52146018 4279177998
0.45538965 0.061909527 0.52140439 4278981389
0.45587257 0.061927527 0.52128965 4278981653
0.45633668 0.061865926 0.52123386 4278981651
0.45681787 0.061884493 0.52111912 4278981651
0.45729807 0.061903358 0.52100438 4278981649
0.45776019 0.061842397 0.52094859 4278981389
0.45823866 0.061861798 0.52083379 4279047182
0.45869955 0.06180124 0.520778 4278981389
0.4591763 0.061821193 0.5206632 4278915596
0.45965207 0.061841458 0.52054846 4278915596
0.46012685 0.061862051 0.52043366 4278981136
0.46061626 0.061963573 0.52025986 4278915343
0.46107343 0.061904162 0.52020407 4279046159
0.46153012 0.06184493 0.52014822 4279046679
0.4620012 0.061866701 0.52003342 4278915093
0.46245664 0.061807841 0.51997757 4278981136
0.46291161 0.06174916 0.51992172 4278915596
0.46335194 0.061609536 0.51992482 4278915596
0.46382004 0.061632246 0.51980996 4278981389
0.46427351 0.061574012 0.51975411 4279111952
0.46471313 0.061434641 0.51975727 4279177745
0.46516585 0.061376646 0.51970136 4279308561
0.41924268 0.068401948 0.52517253 4280034075
0.41963089 0.068107992 0.52529395 4279573788
0.42002004 0.067813754 0.5254153 4279442202
0.42044652 0.067593098 0.52547765 4279310616
0.42087349 0.067372277 0.52553999 4279310614
0.42130098 0.067151323 0.52560228 4279179028
0.42176452 0.067004353 0.52560562 4279178768
0.42219272 0.06678316 0.52566797 4278981389
0.42269161 0.066710398 0.52561218 4278981136
0.42312032 0.066489056 0.52567452 4278915858
0.42354953 0.066267535 0.52573687 4279047442
0.42401356 0.066120401 0.52574021 4279113235
0.42444348 0.065898642 0.52580255 4279244308
0.4249078 0.065751433 0.52580583 4279507480
0.42530486 0.065454662 0.52592731 4279507482
0.42570293 0.065157607 0.52604872 4279902753
0.42610198 0.064860225 0.52617013 4280100132
0.42646915 0.064487532 0.52635068 4280560683
0.4268378 0.064114347 0.52653122 4281283895
0.42714319 0.063590392 0.5268299 4281548096
0.42748317 0.063140869 0.52706957 4281548096
0.42782515 0.062690735 0.52730918 4281746242
0.42816907 0.06223996 0.52754885 4282337094
0.42854637 0.061864063 0.52772945 4278782991
0.42892516 0.061487675 0.52791005 4278848784
0.42933631 0.061186448 0.52803159 4278914575
0.42980972 0.061036348 0.52803493 4279046159
0.43028316 0.060886234 0.52803832 4278981136
0.43075657 0.06073612 0.52804166 4278981136
0.4312599 0.060661972 0.52798593 4279047442
0.43176275 0.060587972 0.5279302 4279047444
0.4323239 0.060666323 0.52775627 4279047442
0.43285441 0.06066896 0.52764142 4278981653
0.43341285 0.06074819 0.52746749 4278981651
0.43394116 0.060751528 0.52735263 4278981651
0.43444002 0.06067878 0.52729684 4279047444
0.43499476 0.060759172 0.52712291 4278981651
0.43552008 0.060763463 0.527008 4279112722
0.43604442 0.060768083 0.52689314 4279113235
0.43665007 0.061003178 0.5266009 4278981649
0.43714452 0.060931832 0.52654511 4278981649
0.43763846 0.060860649 0.52648932 4279112722
0.4381586 0.060866594 0.5263744 4279112722
0.44117725 0.062216014 0.52479458 4279047182
0.44173768 0.062380016 0.52456135 4279047182
0.44229615 0.062544674 0.52432811 4278981389
0.4428032 0.062554762 0.52421308 4279047180
0.44326031 0.062409818 0.52421629 4278981389
0.44374168 0.062342614 0.52416044 4279047182
