# .PCD v0.7 - Point Cloud Data file format
VERSION 0.7
FIELDS x y z rgb
SIZE 4 4 4 4
TYPE F F F U
COUNT 1 1 1 1
WIDTH 1047
HEIGHT 1
VIEWPOINT 0 0 0 1 0 0 0
POINTS 1047
DATA ascii
0.46776557 -0.093902692 0.54552913 4279308563
0.46737209 -0.094110854 0.54559821 4279178517
0.46701124 -0.094387256 0.54573762 4278981651
0.46665138 -0.094663337 0.54587704 4278981651
0.46625987 -0.094870836 0.54594618 4278981902
0.46586889 -0.095078185 0.54601538 4279177996
0.46551147 -0.095353469 0.5461548 4279309066
0.46512169 -0.095560402 0.54622394 4278915848
0.46473241 -0.095767185 0.54629308 4278981641
0.46441132 -0.096109487 0.54650277 4278587665
0.4640235 -0.096315794 0.54657191 4278915343
0.46367055 -0.09658961 0.54671133 4278915594
0.46328396 -0.096795499 0.54678053 4278718215
0.46293271 -0.097068742 0.54691994 4278783757
0.46254736 -0.097274229 0.54698908 4278915343
0.46216249 -0.097479567 0.54705828 4279177228
0.46177816 -0.097684726 0.54712743 4279046412
0.46135846 -0.097822532 0.54712635 4279046159
0.4610109 -0.098094568 0.54726577 4278915343
0.46055537 -0.098165177 0.54719442 4278915343
0.4601725 -0.098369852 0.54726362 4279046933
0.45979011 -0.09857437 0.54733276 4279177747
0.45933411 -0.098645143 0.54726142 4278981138
0.45895219 -0.098849498 0.54733062 4278915596
0.45849571 -0.098920427 0.54725921 4278981389
0.44751197 -0.090919763 0.53691494 4278651652
0.44705659 -0.091069281 0.53691375 4278849033
0.4465602 -0.091153309 0.53684223 4278783240
0.44606334 -0.091237493 0.53677076 4278783240
0.44552448 -0.091256499 0.53662902 4278783240
0.44498467 -0.091275834 0.53648722 4278849033
0.47280326 -0.089641616 0.54383248 4279441441
0.472399 -0.089853451 0.54390138 4279637530
0.47096366 -0.091115706 0.54459715 4279506712
0.47059304 -0.091395587 0.54473609 4279244310
0.47022343 -0.091675125 0.54487497 4279309333
0.46982455 -0.091885179 0.54494393 4279112985
0.4694871 -0.092233285 0.5451529 4279310618
0.46908975 -0.092442855 0.54522181 4279439890
0.4687238 -0.092721194 0.54536074 4279505683
0.46835884 -0.09299922 0.54549968 4279374354
0.46799487 -0.093276918 0.54563862 4279440147
0.46763191 -0.093554288 0.54577756 4279177747
0.4672699 -0.093831345 0.5459165 4279113237
0.46687672 -0.094039537 0.54598546 4278981651
0.46651644 -0.094316021 0.5461244 4278981651
0.4661245 -0.094523817 0.5461933 4278981902
0.46576595 -0.094799735 0.5463323 4279308809
0.46534207 -0.094938911 0.54633117 4279308814
0.46498498 -0.095214345 0.54647017 4278915596
0.46459526 -0.095421426 0.54653907 4278915596
0.4642399 -0.095696278 0.54667807 4278850063
0.46388555 -0.095970824 0.546817 4278784010
0.46349776 -0.096177235 0.54688597 4278915596
0.46314514 -0.096451238 0.54702491 4278718217
0.46279347 -0.09672489 0.5471639 4278915345
0.46240765 -0.096930645 0.54723287 4278915345
0.46202236 -0.097136259 0.54730177 4278914826
0.46163756 -0.097341701 0.54737073 4279046412
0.46125323 -0.097547002 0.54743969 4279111954
0.46083328 -0.09768489 0.54743856 4278783761
0.4604497 -0.09788993 0.54750752 4278915347
0.46010321 -0.098161891 0.54764652 4278915093
0.45964718 -0.098232538 0.54757535 4279046161
0.45926481 -0.098437175 0.54764432 4278981389
0.45884562 -0.098574817 0.54764324 4279046410
0.45838884 -0.098645702 0.54757208 4279112203
0.45796937 -0.098783433 0.547571 4278915848
0.45751184 -0.098854557 0.54749984 4278915594
0.47340274 -0.088651992 0.54374146 4279572253
0.47305235 -0.089004725 0.54394972 4279506460
0.47264692 -0.089217097 0.54401839 4279441441
0.4723275 -0.089638889 0.54429644 4279637276
0.47186625 -0.089711115 0.54422551 4279505944
0.47146252 -0.089922905 0.54429418 4279309335
0.47071555 -0.090485096 0.5445711 4279506712
0.47034356 -0.0907657 0.54470962 4279244310
0.46969321 -0.091533855 0.545196 4279178519
0.4692944 -0.091744028 0.54526466 4279178778
0.46892685 -0.092023179 0.54540312 4279243540
0.46856025 -0.092302024 0.54554164 4279375126
0.46819463 -0.092580535 0.54568017 4279374356
0.46783 -0.092858702 0.54581863 4279374354
0.46749806 -0.093205392 0.54602695 4279177747
0.46713567 -0.093482852 0.54616547 4279047444
0.46674204 -0.093691327 0.54623413 4279047444
0.46634889 -0.093899645 0.54630286 4278981651
0.46598893 -0.094176292 0.54644132 4278981902
0.46559703 -0.094384208 0.54651004 4279308809
0.46520561 -0.09459196 0.54657876 4279308561
0.46484813 -0.094867803 0.54671729 4278981136
0.46445793 -0.095075145 0.54678595 4278981136
0.46410218 -0.095350437 0.54692447 4278850063
0.46371323 -0.095557369 0.5469932 4278850063
0.46335918 -0.09583208 0.54713172 4278850316
0.46300614 -0.096106462 0.54727024 4278652937
0.46265405 -0.096380532 0.54740876 4278850316
0.46226782 -0.096586592 0.54747748 4278915343
0.46188205 -0.096792482 0.54754621 4278914826
0.46149677 -0.0969982 0.54761493 4279046412
0.46111202 -0.097203769 0.5476836 4279111954
0.46072772 -0.097409174 0.54775238 4278914575
0.46034393 -0.097614437 0.54782104 4278914575
0.45996064 -0.097819522 0.54788977 4278915345
0.45954096 -0.097957328 0.5478887 4278915345
0.45915839 -0.098162167 0.54795742 4278981389
0.45870155 -0.09823294 0.54788649 4279046410
0.45828187 -0.098370746 0.54788542 4279046410
0.4578622 -0.098508544 0.54788429 4278784262
0.45740438 -0.09857963 0.54781342 4278784262
0.45698443 -0.098717518 0.54781228 4278783759
0.47324747 -0.088225767 0.54392958 4279506460
0.47286841 -0.088508964 0.54406762 4279374874
0.47246203 -0.088721767 0.54413605 4279375128
0.47205612 -0.088934407 0.54420447 4279505942
0.47165072 -0.08914689 0.5442729 4279505942
0.47127485 -0.089429036 0.54441094 4279375126
0.46947086 -0.090973765 0.54524022 4279178265
0.46913192 -0.091323167 0.54544783 4279178267
0.46873289 -0.091533542 0.54551631 4279112474
0.4683654 -0.091812924 0.5456543 4279178517
0.46803015 -0.092161119 0.54586196 4279178517
0.4676964 -0.092508808 0.54606956 4279243538
0.46733233 -0.092787057 0.54620761 4278981136
0.46696928 -0.093065016 0.54634565 4279046929
0.46657494 -0.093273856 0.54641414 4279046929
0.46621358 -0.093551233 0.54655218 4279046929
0.46582049 -0.093759671 0.54662067 4278981389
0.46546087 -0.09403649 0.54675871 4278981389
0.465069 -0.094244525 0.5468272 4279046929
0.4647111 -0.09452077 0.54696524 4279111954
0.46435419 -0.094796687 0.54710335 4279111954
0.46393031 -0.094935872 0.54710221 4278718479
0.46357489 -0.095211312 0.54724032 4278718477
0.46322042 -0.095486425 0.54737836 4278718730
0.46283224 -0.095693246 0.54744685 4278849033
0.46247953 -0.095967799 0.54758489 4279112205
0.46212777 -0.09624204 0.547723 4279046410
0.46174157 -0.096448213 0.54779148 4278914824
0.46135587 -0.096654221 0.54785997 4278914824
0.46097064 -0.096860081 0.54792845 4279046412
0.46058589 -0.097065762 0.547997 4278914573
0.4601652 -0.097203881 0.54799587 4279046159
0.45981792 -0.097476654 0.54813397 4278914573
0.45939773 -0.097614624 0.5481329 4278914573
0.45897755 -0.097752586 0.54813176 4279177996
0.4585948 -0.097957641 0.54820025 4279112205
0.45813715 -0.098028518 0.54812956 4279046412
0.457717 -0.098166481 0.54812849 4278784260
0.45725864 -0.098237619 0.54805779 4278784262
0.45687664 -0.09844242 0.54812628 4278783759
0.45637912 -0.098447032 0.54798597 4278783759
0.45591956 -0.09851858 0.54791528 4278915594
0.47271225 -0.08808247 0.54425663 4279637526
0.47227681 -0.088225447 0.5442555 4279309331
0.47186995 -0.088438548 0.54432374 4279440147
0.47146359 -0.088651478 0.54439193 4279505940
0.47108683 -0.088934183 0.5445295 4279309331
0.46993259 -0.089710683 0.54487288 4279703315
0.46967983 -0.090270683 0.54528785 4279505690
0.4693087 -0.09055154 0.54542542 4279178267
0.46893859 -0.09083207 0.54556298 4279112985
0.46853864 -0.091042899 0.54563123 4279047192
0.46817023 -0.091322877 0.54576886 4279179030
0.46783414 -0.091671728 0.54597574 4279047442
0.46749949 -0.092020109 0.54618269 4279177745
0.46716636 -0.092368014 0.5463897 4278981136
0.46680263 -0.09264645 0.54652727 4279046929
0.4664399 -0.09292455 0.54666483 4279046929
0.46604559 -0.093133517 0.54673308 4279046929
0.46568459 -0.093411058 0.54687071 4278915343
0.46529153 -0.093619622 0.54693896 4278915860
0.46493223 -0.093896598 0.54707658 4279111952
0.46454039 -0.094104752 0.54714483 4279046159
0.46418282 -0.094381168 0.54728246 4279046159
0.46379223 -0.09458892 0.5473507 4278718477
0.46343637 -0.094864756 0.54748833 4278718477
0.46304703 -0.095072106 0.54755658 4278784010
0.46269289 -0.095347404 0.54769421 4279045640
0.46233976 -0.095622346 0.54783183 4279243019
0.46195236 -0.095829047 0.54790008 4279177480
0.46156543 -0.096035585 0.54796833 4278914575
0.46121478 -0.096309751 0.54810596 4278914826
0.46079311 -0.096448198 0.54810488 4278914573
0.46044391 -0.096721858 0.54824251 4278914573
0.46002275 -0.096860148 0.54824138 4279242764
0.4596383 -0.097065881 0.54830968 4279046412
0.45925432 -0.097271442 0.54837793 4278914826
0.45887089 -0.097476847 0.54844624 4279374348
0.45845044 -0.097614899 0.54844511 4279374348
0.45799232 -0.097685821 0.54837465 4279046410
0.45757163 -0.097823948 0.54837358 4278784262
0.45715094 -0.097962081 0.54837245 4278587912
0.45669183 -0.098033339 0.54830199 4278587663
0.4562709 -0.098171547 0.54830086 4278719249
0.45585001 -0.098309755 0.54829979 4278850314
0.45538989 -0.098381333 0.54822928 4278850063
0.47252768 -0.087584876 0.54437792 4279506963
0.47209126 -0.087728173 0.54437679 4279309584
0.47168344 -0.087941706 0.54444474 4279440400
0.47127616 -0.088155068 0.54451275 4279571476
0.47089848 -0.088438347 0.54464984 4279309331
0.47017571 -0.089073867 0.54499322 4279833878
0.46980125 -0.08935608 0.54513031 4279571729
0.46945786 -0.089707755 0.5453366 4279637276
0.46908563 -0.089989252 0.54547369 4279112476
0.46871436 -0.09027043 0.54561085 4279178265
0.46834406 -0.090551294 0.545748 4279112472
0.46800587 -0.090901248 0.54595423 4279244308
0.46766913 -0.091250733 0.54616052 4279112975
0.46733388 -0.09159971 0.54636675 4279177998
0.46696827 -0.091879033 0.5465039 4278981389
0.46663573 -0.092227146 0.54671019 4279046929
0.46627235 -0.092505738 0.54684734 4279046929
0.46587735 -0.09271507 0.54691535 4278981387
0.46551567 -0.092993096 0.5470525 4278981389
0.46515501 -0.093270801 0.54718965 4278981136
0.46476197 -0.093479484 0.54725766 4279112205
0.464403 -0.093756624 0.54739487 4279046412
0.46401122 -0.093964905 0.54746288 4278914826
0.46365398 -0.094241478 0.54760003 4278718730
0.46326342 -0.094449356 0.5476681 4278718730
0.46290791 -0.094725356 0.54780525 4278784008
0.46251857 -0.094932832 0.54787326 4279045892
0.46216479 -0.095208272 0.54801047 4279177478
0.46177667 -0.095415354 0.54807848 4279177480
0.46138906 -0.095622241 0.54814649 4279045391
0.46103776 -0.095896877 0.5482837 4279046412
0.46065137 -0.096103385 0.54835176 4278914826
0.46026549 -0.096309721 0.54841977 4278914826
0.45988008 -0.096515909 0.54848784 4279242764
0.45949519 -0.096721932 0.54855585 4279045642
0.4591108 -0.096927784 0.54862392 4279045640
0.45868963 -0.097066075 0.54862285 4279309066
0.45826846 -0.097204357 0.54862171 4279309066
0.45788503 -0.097409897 0.54868978 4278914826
0.45742613 -0.097480938 0.54861951 4278915596
0.45704317 -0.097686313 0.54868758 4278587914
0.45658377 -0.097757518 0.5486173 4278587661
0.4561626 -0.097895809 0.54861623 4278719247
0.45570245 -0.09796726 0.54854596 4278850316
0.45528105 -0.098105624 0.54854488 4278850063
0.45482016 -0.098177321 0.54847461 4278783507
0.45435876 -0.098249167 0.54840434 4278915343
0.45389691 -0.098321185 0.54833412 4278915343
0.45343453 -0.098393358 0.54826385 4278981389
0.45301214 -0.098532051 0.54826272 4279046412
0.45254904 -0.09860447 0.5481925 4278914573
0.45212638 -0.098743245 0.54819137 4279046159
0.45166254 -0.098815911 0.54812109 4279111952
0.45119822 -0.098888755 0.54805088 4279045383
0.45073339 -0.098961726 0.54798061 4278979849
0.47193381 -0.087300345 0.54456872 4279375124
0.47149664 -0.087443881 0.54456758 4279505683
0.47108841 -0.087657697 0.54463536 4279505940
0.47070983 -0.087941557 0.54477203 4279505940
0.47036165 -0.088295184 0.54497755 4279375124
0.46998528 -0.088578321 0.54511422 4279702292
0.46960992 -0.088861123 0.54525089 4279702545
0.46926567 -0.089213461 0.54545647 4279571476
0.46886212 -0.089425735 0.54552424 4279243540
0.46852034 -0.089777283 0.54572982 4279243540
0.46814916 -0.090058707 0.54586649 4279046929
0.46781009 -0.090409353 0.54607213 4279178768
0.46747249 -0.090759516 0.5462777 4279047182
0.46713638 -0.091109194 0.54648328 4279112973
0.46680176 -0.091458403 0.54668891 4279112203
0.46643648 -0.091737874 0.54682559 4279177996
0.46610457 -0.092086188 0.54703116 4279112203
0.46574149 -0.092364952 0.5471679 4279112203
0.46537942 -0.09264338 0.54730457 4279112203
0.46498519 -0.092852578 0.54737234 4279046412
0.46462482 -0.093130454 0.54750907 4279046412
0.46423185 -0.093339264 0.5475769 4279046412
0.46387321 -0.093616568 0.54771358 4279046412
0.46351555 -0.093893543 0.54785031 4278784008
0.46312454 -0.094101705 0.54791808 4278784008
0.46276861 -0.094378114 0.54805481 4279046664
0.46237883 -0.094585873 0.54812264 4278915078
0.46202463 -0.094861716 0.54825938 4279177478
0.4616361 -0.095069066 0.54832715 4279177226
0.46124804 -0.095276259 0.54839498 4279045393
0.46086046 -0.095483303 0.54846281 4279176975
0.46047339 -0.095690161 0.54853058 4278914826
0.46008682 -0.095896862 0.54859841 4278914826
0.4597007 -0.0961034 0.54866624 4279046159
0.45931512 -0.096309781 0.54873407 4278979847
0.45893002 -0.096516006 0.5488019 4279176453
0.45850813 -0.096654534 0.54880077 4279308807
0.45812374 -0.096860528 0.5488686 4279243014
0.4577021 -0.096998975 0.54886746 4278849033
0.45731848 -0.097204715 0.54893529 4278783759
0.45685875 -0.097275883 0.54886526 4278587661
0.45647565 -0.097481452 0.54893309 4278587914
0.45601544 -0.097552784 0.54886305 4278719500
0.45559376 -0.09769123 0.54886198 4278850316
0.45513284 -0.097762793 0.54879194 4278850063
0.45471096 -0.097901322 0.54879081 4278783759
0.45424926 -0.097973138 0.54872084 4278915596
0.45382714 -0.098111749 0.5487197 4278915596
0.45336473 -0.098183803 0.54864967 4278915596
0.45294231 -0.098322496 0.5486486 4279046159
0.45247918 -0.098394796 0.5485785 4278783757
0.45205653 -0.098533571 0.54857743 4278981136
0.45163387 -0.098672345 0.54857635 4278981136
0.45116976 -0.098744966 0.54850626 4278914573
0.45070514 -0.098817766 0.54843628 4279046161
0.45024002 -0.098890692 0.54836619 4279111702
0.44977441 -0.098963797 0.54829615 4279045909
0.4493508 -0.099102899 0.54829508 4279045391
0.47224227 -0.086798638 0.54483187 4279375126
0.47174764 -0.086801246 0.54469335 4279375126
0.47130948 -0.086945102 0.54469222 4279505940
0.47092927 -0.087229744 0.54482841 4279375124
0.47055003 -0.087514088 0.54496461 4279375124
0.47020125 -0.087868348 0.54516953 4279375124
0.46982422 -0.088151947 0.54530573 4279571476
0.46944821 -0.088435225 0.54544199 4279571729
0.46907315 -0.088718206 0.54557818 4279505936
0.4686991 -0.089000836 0.54571438 4279243791
0.468326 -0.089283153 0.54585063 4279243791
0.46795392 -0.089565143 0.54598683 4279047182
0.467614 -0.089916483 0.54619175 4279112975
0.46727556 -0.090267338 0.54639667 4279047182
0.46693856 -0.090617701 0.54660159 4279178250
0.46657115 -0.090898156 0.54673779 4279374602
0.46626908 -0.091316998 0.54701144 4279374602
0.46590412 -0.091596633 0.54714769 4279243019
0.4655728 -0.091945142 0.54735261 4279046410
0.46524295 -0.092293173 0.54755753 4279112203
0.46488145 -0.092571691 0.54769379 4279112203
0.46448752 -0.092780933 0.54776138 4279046412
0.46412775 -0.093058899 0.54789764 4279046412
0.46370116 -0.093198963 0.5478965 4279046159
0.46334285 -0.09347643 0.54803276 4278849033
0.46298552 -0.093753569 0.54816902 4278849031
0.46259454 -0.09396185 0.54823661 4278914824
0.46223894 -0.09423843 0.54837286 4278914824
0.46188432 -0.094514683 0.54850918 4279177226
0.46149534 -0.094722316 0.54857671 4279177228
0.46110684 -0.094929785 0.5486443 4279045393
0.46068293 -0.095068969 0.54864323 4279176977
0.46029517 -0.095276199 0.54871082 4278914573
0.45990789 -0.095483266 0.54877841 4278914573
0.45952111 -0.095690191 0.54884601 4279046412
0.45913482 -0.095896922 0.5489136 4278979847
0.45871192 -0.096035779 0.54891247 4279111176
0.45832637 -0.096242279 0.54898006 4279243273
0.45794129 -0.096448623 0.54904765 4279177480
0.45751891 -0.096587315 0.54904652 4278848782
0.45709652 -0.096726008 0.54904544 4278783761
0.45671242 -0.096932024 0.54911304 4278587661
0.45625171 -0.0970034 0.54904324 4278718730
0.45582932 -0.097142085 0.54904211 4278850316
0.45544598 -0.097347863 0.5491097 4278916107
0.45498452 -0.097419471 0.54903996 4278916109
0.45456213 -0.097558171 0.54903883 4278914573
0.45409989 -0.097630024 0.54896903 4279046412
0.45367727 -0.097768798 0.5489679 4279112205
0.45321432 -0.09784089 0.5488981 4279112205
0.45279142 -0.097979747 0.54889697 4279046412
0.45236856 -0.098118603 0.5488959 4278915343
0.45194566 -0.09825746 0.54889476 4278981136
0.45152277 -0.098396316 0.54889369 4278981138
0.45105833 -0.098468907 0.54882389 4278915345
0.45059344 -0.098541632 0.5487541 4278915347
0.45017004 -0.098680645 0.54875296 4278981140
0.44970441 -0.098753639 0.54868317 4278915347
0.44923827 -0.098826781 0.54861331 4278914573
0.44881439 -0.098965958 0.54861224 4279046412
0.44839051 -0.099105135 0.5486111 4279177228
0.44792339 -0.099178612 0.54854131 4278914826
0.47208512 -0.086369246 0.5450263 4279375126
0.47158968 -0.086371809 0.54488826 4279309335
0.47117954 -0.08658652 0.54495555 4279375126
0.47079891 -0.086871609 0.54509127 4279375377
0.47041929 -0.087156326 0.54522705 4279375377
0.47004062 -0.087440744 0.54536283 4279375377
0.46969268 -0.087795131 0.54556704 4279440147
0.46931624 -0.088078812 0.54570282 4279440141
0.46894079 -0.088362172 0.54583859 4279505936
0.4685663 -0.088645235 0.54597431 4279243789
0.46816209 -0.088858001 0.54604167 4279177996
0.46778935 -0.089140482 0.54617745 4279047180
0.4674488 -0.089492425 0.54638165 4279112973
0.46707827 -0.089774176 0.54651743 4279047180
0.46677214 -0.090194866 0.54679012 4279047180
0.46643603 -0.090545356 0.54699439 4279308814
0.46610141 -0.090895362 0.54719865 4279308814
0.46573579 -0.091175511 0.54733443 4279308812
0.46540385 -0.091524616 0.5475387 4278915596
0.46507341 -0.091873243 0.54774296 4279112203
0.46467805 -0.092083119 0.54781032 4279046410
0.46431661 -0.092361882 0.5479461 4279046412
0.46395618 -0.092640311 0.54808193 4279046412
0.46356279 -0.092849515 0.54814923 4279046161
0.46320406 -0.0931274 0.54828507 4279046163
0.46277747 -0.093267471 0.54828393 4278914573
0.46242023 -0.093544856 0.54841977 4278914573
0.46206397 -0.093821913 0.54855561 4278914573
0.46167356 -0.094030157 0.54862297 4279176975
0.461319 -0.094306663 0.54875875 4279242764
0.46092981 -0.094514489 0.5488261 4279045391
0.46054107 -0.094722167 0.54889345 4279046163
0.46015286 -0.09492968 0.5489608 4278914577
0.45972875 -0.095068946 0.54895973 4278914577
0.45934126 -0.095276214 0.54902709 4278914824
0.45895427 -0.095483325 0.54909444 4278914573
0.45853063 -0.09562242 0.54909337 4279045640
0.45814437 -0.095829293 0.54916072 4279046410
0.45772099 -0.095968306 0.54915959 4278914824
0.45733547 -0.096174948 0.549227 4278914575
0.45691234 -0.096313879 0.54922587 4278914323
0.45648921 -0.096452817 0.54922473 4278717968
0.45610467 -0.096659109 0.54929215 4278850063
0.45572063 -0.096865252 0.5493595 4278915856
0.45525891 -0.096936822 0.54928994 4278915596
0.45483601 -0.097075671 0.54928881 4279046412
0.45441312 -0.097214527 0.54928768 4279046664
0.45399022 -0.097353384 0.5492866 4279046664
0.45352724 -0.097425371 0.54921705 4279243273
0.45314443 -0.097631097 0.5492844 4279046664
0.45268095 -0.097703248 0.54921484 4279046412
0.45225781 -0.097842179 0.54921371 4279046412
0.45183468 -0.09798111 0.54921257 4279112205
0.45141155 -0.098120049 0.5492115 4279046929
0.45094684 -0.098192573 0.54914188 4279111952
0.45048165 -0.098265275 0.54907233 4279176975
0.45005801 -0.098404378 0.54907119 4278981138
0.44963437 -0.098543473 0.54907012 4278915345
0.44916821 -0.098616496 0.5490005 4279112205
0.44874433 -0.098755673 0.54899943 4279243021
0.44832045 -0.098894849 0.5489983 4279308304
0.4478533 -0.0989682 0.54892868 4278915343
0.4473421 -0.098975956 0.54879057 4278981136
0.44687372 -0.099049717 0.54872102 4278784010
0.47187108 -0.085797325 0.54508561 4279506710
0.47146001 -0.086012468 0.54515272 4279375128
0.47104943 -0.086227462 0.54521978 4279309333
0.47066841 -0.086512938 0.54535508 4279375377
0.47028834 -0.086798102 0.54549038 4279375377
0.46990928 -0.087082908 0.54562569 4279375377
0.46953118 -0.087367401 0.54576099 4279309331
0.46915409 -0.087651595 0.54589635 4279440141
0.46877798 -0.087935448 0.54603165 4279439890
0.46840283 -0.088218972 0.54616696 4279439890
0.46799791 -0.088432103 0.54623407 4279243789
0.46765554 -0.088785075 0.54643762 4278981641
0.46725208 -0.088997722 0.54650468 4279177996
0.46694368 -0.089419708 0.54677647 4279047434
0.46657372 -0.089701541 0.54691184 4279177998
0.46623674 -0.090052724 0.54711539 4279177998
0.46590126 -0.090403415 0.54731894 4279177747
0.46556723 -0.09075363 0.54752254 4279112205
0.46523467 -0.091103368 0.54772615 4278981136
0.46490359 -0.091452599 0.5479297 4279112203
0.46454078 -0.091732085 0.54806507 4278915848
0.46417895 -0.092011265 0.54820043 4278784262
0.46378437 -0.092221007 0.54826754 4278915848
0.46342427 -0.092499606 0.54840291 4278981136
0.4630309 -0.092708938 0.54847002 4278981136
0.46263805 -0.092918098 0.54853714 4278848780
0.46224567 -0.093127124 0.54860425 4279176975
0.4618538 -0.093335971 0.54867136 4279045389
0.46149763 -0.093613282 0.54880673 4279177228
0.46110699 -0.093821719 0.5488739 4279243016
0.46071684 -0.094030008 0.54894102 4279045389
0.46032718 -0.094238125 0.54900813 4279045909
0.4599742 -0.094514385 0.54914349 4278914323
0.45954934 -0.09465389 0.54914242 4279045391
0.45916116 -0.094861522 0.54920954 4278848780
0.45877346 -0.095068999 0.54927671 4278914575
0.45838627 -0.095276311 0.54934382 4279045389
0.45796216 -0.09541557 0.54934269 4279176975
0.45757568 -0.095622644 0.54940987 4279046410
0.4571518 -0.095761821 0.54940873 4278914826
0.45672792 -0.095900998 0.5494076 4279176975
0.45634246 -0.096107744 0.54947478 4278717966
0.45591885 -0.096246839 0.54947364 4278915345
0.45549521 -0.096385941 0.54947257 4279046929
0.45507157 -0.096525036 0.54947144 4278850063
0.45468733 -0.09673138 0.54953861 4278915596
0.45426393 -0.096870393 0.54953748 4279243019
0.45384055 -0.097009413 0.54953641 4279177226
0.45341718 -0.097148433 0.54953527 4279243271
0.45299378 -0.097287446 0.5495342 4279243271
0.45257041 -0.097426467 0.54953307 4279308809
0.45214701 -0.09756548 0.54953194 4279308555
0.45172364 -0.0977045 0.54953086 4279374348
0.45130026 -0.097843513 0.54952973 4279374605
0.45087686 -0.097982526 0.54952866 4279308812
0.45041162 -0.098055109 0.54945928 4279308812
0.44998801 -0.098194212 0.54945815 4279178515
0.44952202 -0.098267034 0.54938877 4279112722
0.44909814 -0.098406211 0.54938769 4279571729
0.44863144 -0.098479271 0.54931831 4279308814
0.44820732 -0.09861853 0.54931724 4279571476
0.44773987 -0.098691836 0.54924786 4279177747
0.44722834 -0.098699436 0.54911017 4279177747
0.44675967 -0.098773144 0.54904079 4279111952
0.44629049 -0.098847017 0.54897147 4279505164
0.44577652 -0.098855421 0.54883385 4279440143
0.44526157 -0.098864153 0.54869616 4279440143
0.4447456 -0.098873198 0.54855853 4279177749
0.4713302 -0.085652649 0.54541802 4279309335
0.47091916 -0.085867926 0.5454849 4279309333
0.47050864 -0.08608304 0.54555178 4279440400
0.47012791 -0.086368665 0.5456866 4279440400
0.4697482 -0.086653993 0.54582149 4279309331
0.46936944 -0.086938962 0.54595631 4279309331
0.4689917 -0.087223634 0.5460912 4279308812
0.46864524 -0.087578341 0.54629409 4279374356
0.46823913 -0.087792002 0.54636091 4279374356
0.46783352 -0.088005498 0.54642779 4279243789
0.46749049 -0.08835905 0.54663068 4279112457
0.46708637 -0.088572085 0.54669756 4279112203
0.46674582 -0.08892484 0.54690039 4279178250
0.46637496 -0.089207239 0.54703534 4279308812
0.46570075 -0.089910492 0.54744107 4279374607
0.4653984 -0.090331033 0.54771197 4279177998
0.46506524 -0.090681359 0.54791486 4278981136
0.46470055 -0.090961739 0.54804981 4278981389
0.4643701 -0.091311201 0.5482527 4278915848
0.46400759 -0.091590844 0.54838759 4278784262
0.46364608 -0.091870174 0.54852253 4278915594
0.46321753 -0.092010885 0.5485214 4278981389
0.46285748 -0.092289746 0.54865628 4279112205
0.46246395 -0.092499286 0.54872322 4278914573
0.46210563 -0.092777565 0.54885811 4279176975
0.4616783 -0.092917874 0.54885697 4279045389
0.46132147 -0.093195662 0.54899192 4279111178
0.46093014 -0.093404472 0.54905879 4279243016
0.46053928 -0.093613125 0.54912573 4279045642
0.46014893 -0.093821608 0.54919261 4278914575
0.45975906 -0.094029933 0.54925954 4278914575
0.45936969 -0.094238095 0.54932642 4279045391
0.4589808 -0.094446093 0.54939336 4278914573
0.45859241 -0.094653934 0.54946023 4278914575
0.45816731 -0.094793521 0.5494591 4279177228
0.45777968 -0.095001116 0.54952604 4279045642
0.45735481 -0.095140621 0.5495249 4279046410
0.45696789 -0.095347971 0.54959184 4278914824
0.45658147 -0.095555171 0.54965878 4279045642
0.45615712 -0.095694512 0.54965764 4278717966
0.45573273 -0.095833845 0.54965657 4278783759
0.4553473 -0.096040718 0.54972345 4279046929
0.45492318 -0.096179977 0.54972237 4278915856
0.45449907 -0.096319236 0.54972124 4279111952
0.45411462 -0.096525781 0.54978818 4279177226
0.45369074 -0.096664958 0.54978704 4279177226
0.45326686 -0.096804135 0.54978597 4279243271
0.45284298 -0.096943319 0.54978484 4279243271
0.4524191 -0.097082496 0.54978371 4279308555
0.45199522 -0.097221673 0.54978263 4279243019
0.45157135 -0.097360849 0.5497815 4279308812
0.45118886 -0.097566746 0.54984844 4279374354
0.45072359 -0.097639203 0.5497793 4279374605
0.45029971 -0.097778387 0.54977822 4279308812
0.44987583 -0.097917564 0.54977709 4279178515
0.44945198 -0.098056741 0.54977596 4279244308
0.44902807 -0.098195918 0.54977489 4279899924
0.44856134 -0.098268867 0.54970574 4279374605
0.4480941 -0.098341972 0.5496366 4279703572
0.44762635 -0.098415226 0.54956746 4279309335
0.44711453 -0.098422661 0.54943025 4279309335
0.44664556 -0.098496333 0.54936111 4279309331
0.44617611 -0.098570168 0.54929197 4279506445
0.44566178 -0.098578408 0.54915476 4279505940
0.4451465 -0.098586969 0.54901755 4279637526
0.44463021 -0.098595843 0.54888034 4279440149
0.44411296 -0.098605067 0.54874319 4279112724
0.47155541 -0.084934354 0.54548216 4279637779
0.47120023 -0.085292324 0.54568434 4279375377
0.47075987 -0.085436925 0.54568315 4279309331
0.47037774 -0.085723281 0.54581755 4279375124
0.46996725 -0.085938528 0.54588419 4279440400
0.46961647 -0.086295038 0.54608637 4279309331
0.46920747 -0.086509794 0.54615301 4279243540
0.46882904 -0.086794958 0.54628742 4279177747
0.46845162 -0.087079763 0.54642183 4279309333
0.46807516 -0.087364271 0.54655623 4279243540
0.46769971 -0.087648466 0.54669064 4279243538
0.46732524 -0.087932326 0.54682505 4279112457
0.46695173 -0.088215843 0.54695952 4279112457
0.46657923 -0.088499069 0.54709393 4279112457
0.46620771 -0.088781953 0.54722834 4279112457
0.46586925 -0.08913444 0.54743057 4279244043
0.46553227 -0.089486435 0.54763281 4279374097
0.46516421 -0.089768186 0.54776722 4279046929
0.46479711 -0.090049624 0.54790169 4278981138
0.46446407 -0.090400323 0.54810387 4278981389
0.46419916 -0.090889558 0.54844171 4278915594
0.46380243 -0.091100283 0.54850841 4278915594
0.46344003 -0.091380179 0.54864281 4278915347
0.46304452 -0.091590472 0.54870951 4278915345
0.46268386 -0.091869801 0.54884392 4278981389
0.46228957 -0.092079706 0.54891062 4278784010
0.46193063 -0.092358485 0.54904509 4278784010
0.46150255 -0.09249904 0.54904395 4278979849
0.46114507 -0.092777319 0.54917842 4279242764
0.46075302 -0.092986494 0.54924512 4279177228
0.46036148 -0.093195491 0.54931176 4278979849
0.45997041 -0.093404353 0.54937845 4278783761
0.45957989 -0.093613043 0.54944515 4278717968
0.45915329 -0.093753114 0.54944402 4278783761
0.45880023 -0.094029941 0.54957849 4278784008
0.45841116 -0.09423814 0.54964519 4279046159
0.45798528 -0.094377965 0.54964405 4279046410
0.45759696 -0.094585925 0.54971075 4279046410
0.45717135 -0.094725676 0.54970962 4279046662
0.45678374 -0.094933391 0.54977632 4278914824
0.45639661 -0.095140949 0.54984301 4279045640
0.45597151 -0.095280536 0.54984188 4278914573
0.45558512 -0.095487848 0.54990858 4279046159
0.45516026 -0.095627353 0.54990745 4278981136
0.4547354 -0.09576685 0.54990637 4278981138
0.45435002 -0.095973842 0.54997307 4278915343
0.4539254 -0.096113265 0.54997194 4279045389
0.45350081 -0.096252687 0.54997087 4279176975
0.45311639 -0.096459359 0.5500375 4279243273
0.45269203 -0.096598692 0.55003643 4279242768
0.45226765 -0.096738033 0.5500353 4279242768
0.45188421 -0.096944377 0.550102 4279046161
0.45141891 -0.097016715 0.55003309 4279111954
0.45103598 -0.097222894 0.55009979 4279309335
0.45061186 -0.097362161 0.55009866 4279243538
0.45018774 -0.097501412 0.55009758 4279374607
0.4497636 -0.097640678 0.55009645 4279244561
0.44933948 -0.09777993 0.55009538 4279376147
0.44887269 -0.097852752 0.55002642 4279769365
0.44844833 -0.097992092 0.55002534 4279506961
0.44798079 -0.098065153 0.54995644 4279573778
0.44751278 -0.098138377 0.54988748 4279507731
0.44700059 -0.098145649 0.54975075 4279441938
0.44653136 -0.098219275 0.54968184 4279639319
0.44601744 -0.098227113 0.54954505 4279770133
0.44554695 -0.098301142 0.54947615 4279834905
0.44503134 -0.098309547 0.54933941 4280163870
0.44451475 -0.098318264 0.54920268 4280098330
0.4440423 -0.098392949 0.54913372 4279638549
0.44352397 -0.098402239 0.54899698 4279639319
0.44300467 -0.098411836 0.54886019 4279639319
0.44248438 -0.098421775 0.54872346 4279836445
0.44196311 -0.098432049 0.54858673 4279704859
0.47142565 -0.084573016 0.54574996 4279506193
0.47104138 -0.084860355 0.54588389 4279375377
0.47065815 -0.085147366 0.54601789 4279309333
0.4702467 -0.085363045 0.54608428 4279375126
0.46983576 -0.085578561 0.54615068 4279374354
0.46945494 -0.085864767 0.54628462 4279309331
0.46910506 -0.086221412 0.54648614 4279243540
0.46869633 -0.086436197 0.54655254 4279177749
0.46831846 -0.08672145 0.54668653 4279243540
0.46791098 -0.086935833 0.54675293 4279177747
0.46753484 -0.08722049 0.54688686 4279178515
0.46715972 -0.087504834 0.54702085 4279112203
0.46678558 -0.087788872 0.54715478 4279243273
0.4664124 -0.088072553 0.54728878 4279178250
0.46604022 -0.088355929 0.54742277 4279178250
0.46570116 -0.088709027 0.54762429 4279243538
0.46529883 -0.088921726 0.54769075 4279308561
0.46496221 -0.089273989 0.54789227 4279046931
0.46462709 -0.089625798 0.5480938 4278981140
0.46432653 -0.090046823 0.54836291 4278981136
0.46399459 -0.090397567 0.54856449 4279046410
0.46363056 -0.090678275 0.54869848 4279046410
0.46323362 -0.090889186 0.54876494 4278915347
0.46283719 -0.091099933 0.54883134 4278915345
0.4624756 -0.091379851 0.54896539 4279112205
0.46211499 -0.091659412 0.54909939 4278849033
0.46172053 -0.091869518 0.54916584 4278914826
0.46132657 -0.092079461 0.54923224 4278979849
0.46093309 -0.092289239 0.5492987 4279504653
0.46054012 -0.092498869 0.54936516 4279177228
0.46014762 -0.092708334 0.54943162 4278979849
0.45979169 -0.092986375 0.54956561 4279045642
0.45936412 -0.093126759 0.54956448 4278783761
0.45897311 -0.093335733 0.549631 4278783507
0.45858258 -0.093544535 0.5496974 4278915594
0.45819256 -0.093753196 0.54976386 4278915343
0.45780301 -0.093961686 0.54983032 4278784008
0.45737642 -0.094101757 0.54982924 4278915594
0.45698762 -0.094310001 0.54989564 4279046662
0.45659935 -0.09451808 0.5499621 4278914826
0.45617324 -0.094657987 0.54996103 4279045640
0.45578569 -0.094865829 0.55002749 4278914573
0.45535982 -0.095005654 0.55002636 4279046159
0.454934 -0.095145479 0.55002522 4279046159
0.45454741 -0.095352992 0.55009174 4278915345
0.4541218 -0.095492743 0.55009061 4278915345
0.45369619 -0.095632486 0.55008948 4278914826
0.45331061 -0.095839679 0.550156 4279046412
0.45288527 -0.09597934 0.55015486 4279177480
0.4525004 -0.096186295 0.55022132 4279242768
0.45207527 -0.096325874 0.55022019 4279111952
0.45169115 -0.096532583 0.55028665 4279046161
0.45130754 -0.096739136 0.55035317 4279111954
0.45084143 -0.096811593 0.55028445 4279309081
0.45045829 -0.097017974 0.5503509 4279243538
0.45003369 -0.097157396 0.55034983 4279374607
0.4496513 -0.097363546 0.55041629 4279178766
0.44922692 -0.09750288 0.55041516 4279441938
0.44880256 -0.097642221 0.55041409 4279441687
0.44829226 -0.097648606 0.55027777 4279572754
0.44786739 -0.097788103 0.5502767 4279704594
0.44731221 -0.097728647 0.55007279 4279770387
0.44684291 -0.097802155 0.55000412 4279704340
0.44637311 -0.097875819 0.5499354 4279835926
0.44585866 -0.097883575 0.54979908 4279835926
0.4453432 -0.097891636 0.54966283 4279900951
0.44487146 -0.097965963 0.5495941 4280164123
0.44435427 -0.097974598 0.54945779 4280164123
0.44388127 -0.09804932 0.54938912 4279835928
0.44336239 -0.098058514 0.54925281 4279967514
0.44288817 -0.098133639 0.54918408 4279835928
0.44236755 -0.098143414 0.54904777 4280033824
0.44184595 -0.098153517 0.54891145 4279902751
0.44136977 -0.098229289 0.54884273 4280164640
0.47093976 -0.084570229 0.54621953 4279375377
0.47052738 -0.084786355 0.54628569 4279243538
0.47011548 -0.085002318 0.54635185 4279309331
0.46970409 -0.085218117 0.54641807 4279440149
0.46932289 -0.085504726 0.54655153 4279309333
0.46897262 -0.085861906 0.54675239 4279243540
0.46853322 -0.086006179 0.54675126 4279046679
0.46815473 -0.086291894 0.54688472 4279112722
0.46777722 -0.086577296 0.54701823 4279046929
0.46740067 -0.08686237 0.54715174 4279178768
0.46702513 -0.087147117 0.54728526 4279506188
0.46661916 -0.087361142 0.54735148 4279374602
0.466277 -0.087715656 0.54755235 4279178250
0.46590441 -0.087999418 0.54768586 4279178250
0.46553281 -0.088282883 0.54781938 4279177747
0.46509737 -0.08842586 0.54781824 4279242770
0.46442389 -0.089131325 0.54821998 4278981138
0.46412253 -0.089553162 0.5484882 4278915596
0.46378973 -0.089904591 0.54868907 4278915596
0.46342477 -0.090185866 0.54882264 4279046410
0.46302691 -0.090397224 0.5488888 4278915345
0.46266368 -0.090677939 0.54902238 4278914826
0.46230143 -0.090958327 0.54915595 4279046410
0.46190554 -0.091169029 0.54922217 4278914824
0.46154499 -0.091448866 0.54935575 4278914824
0.46115035 -0.091659173 0.54942191 4279045640
0.46075615 -0.09186931 0.54948813 4279242764
0.46036249 -0.092079289 0.54955435 4279177226
0.45996928 -0.092289113 0.54962057 4278979847
0.45957661 -0.092498772 0.54968679 4279045640
0.45918441 -0.09270829 0.54975307 4278914573
0.45879269 -0.092917621 0.54981923 4278783761
0.45843831 -0.093195423 0.54995286 4278784008
0.45801073 -0.093335815 0.54995173 4278915347
0.4576205 -0.093544662 0.55001795 4278783761
0.4571932 -0.093684971 0.55001682 4278718730
0.45680368 -0.093893573 0.55008304 4278915076
0.45637661 -0.094033808 0.55008197 4279045642
0.45598787 -0.094242185 0.55014819 4279045642
0.45556104 -0.094382331 0.55014706 4279045642
0.45517302 -0.094590455 0.55021328 4279046161
0.45474643 -0.094730526 0.5502122 4278783757
0.45431983 -0.094870597 0.55021107 4279046159
0.45389324 -0.095010661 0.55020994 4278981138
0.45350647 -0.095218383 0.55027622 4278981138
0.45312017 -0.095425941 0.55034244 4279112205
0.45269409 -0.095565848 0.55034131 4279243016
0.45230854 -0.09577316 0.55040759 4279243021
0.45188266 -0.095912993 0.55040646 4279177749
0.45149785 -0.096120059 0.55047268 4279243542
0.45111352 -0.096326977 0.55053896 4279112726
0.45068818 -0.096466638 0.55053782 4279243538
0.45030457 -0.09667331 0.55060405 4279178519
0.44987947 -0.096812889 0.55060297 4279178768
0.44949663 -0.097019315 0.55066919 4279376399
0.44911426 -0.097225584 0.55073547 4279442192
0.4486469 -0.097298324 0.55066699 4279638549
0.44817907 -0.097371221 0.5505985 4279769363
0.44766745 -0.097377762 0.55046272 4279836180
0.44719836 -0.097451061 0.55039424 4279770387
0.44668505 -0.097458169 0.5502584 4279770133
0.44617075 -0.09746559 0.5501225 4279704340
0.44569969 -0.097539529 0.55005407 4280033305
0.44522816 -0.097613648 0.54998559 4279967514
0.44471139 -0.097621888 0.54984975 4280033307
0.4442386 -0.097696409 0.5497812 4280229914
0.4437201 -0.097705193 0.54964536 4280164121
0.44320065 -0.09771432 0.54950953 4280295707
0.4427259 -0.097789481 0.54944104 4280098328
0.44225064 -0.097864814 0.54937255 4280165663
0.4417749 -0.097940296 0.54930407 4280296996
0.44125223 -0.097950459 0.54916817 4280230435
0.47078055 -0.084137022 0.54642135 4279244312
0.47039646 -0.084424853 0.54655445 4279112726
0.46998411 -0.084641099 0.54662037 4279178519
0.46960175 -0.084928364 0.54675341 4279374356
0.4692204 -0.085215285 0.54688644 4279308563
0.46881002 -0.08543089 0.54695243 4279177747
0.46843037 -0.085717261 0.54708546 4279046681
0.46802121 -0.085932463 0.54715145 4279046681
0.46764329 -0.086218268 0.54728448 4278981138
0.46726635 -0.086503759 0.54741758 4279178768
0.46685916 -0.086718306 0.5474835 4279636750
0.46648395 -0.087003201 0.5476166 4279505416
0.46607801 -0.087217361 0.54768252 4279178250
0.46573648 -0.087572083 0.54788274 4279178250
0.46536422 -0.087856025 0.54801583 4279111954
0.46499294 -0.088139631 0.54814887 4279111704
0.46462265 -0.088422939 0.54828197 4278980886
0.46428627 -0.088775955 0.54848218 4278915596
0.46395138 -0.089128464 0.54868233 4279046410
0.46361798 -0.089480519 0.54888254 4279046410
0.46321869 -0.089692488 0.54894853 4279046159
0.46281987 -0.089904293 0.54901457 4279046159
0.4624899 -0.090255201 0.54921472 4279045640
0.462127 -0.090536073 0.54934788 4279045640
0.46173042 -0.090747148 0.5494138 4279045640
0.46136922 -0.091027454 0.54954696 4278979847
0.46093869 -0.091168821 0.54954582 4279045640
0.46057898 -0.091448657 0.54967892 4279045640
0.4601846 -0.091659002 0.5497449 4279177226
0.45979074 -0.09186919 0.54981089 4278979847
0.45939732 -0.0920792 0.54987693 4279045640
0.45900443 -0.092289068 0.54994291 4278914573
0.45861202 -0.092498764 0.55000889 4279045393
0.45825699 -0.092777066 0.55014205 4278914573
0.4578287 -0.092917696 0.55014092 4278914575
0.45743775 -0.093126923 0.5502069 4279046161
0.45700967 -0.093267471 0.55020583 4278784010
0.4566195 -0.093476444 0.55027181 4278980097
0.45619169 -0.093616918 0.55027068 4279045642
0.45580223 -0.093825646 0.55033672 4279177226
0.45537466 -0.093966037 0.55033559 4279045640
0.45494708 -0.094106428 0.55033445 4278981389
0.45455861 -0.094314843 0.5504005 4278914826
0.45413131 -0.094455153 0.55039936 4279176975
0.45370397 -0.094595462 0.55039823 4278981140
0.45327666 -0.094735771 0.55039716 4278981140
0.45288941 -0.094943762 0.55046314 4278981136
0.45246232 -0.095083989 0.55046201 4279242511
0.45203525 -0.095224217 0.55046088 4279176977
0.45164901 -0.095431916 0.55052692 4279177747
0.45126325 -0.095639437 0.5505929 4279243540
0.45087796 -0.095846795 0.55065894 4279178515
0.45045161 -0.095986784 0.55065781 4279112975
0.45002529 -0.096126765 0.55065674 4279178519
0.44968307 -0.09640085 0.55078989 4279178515
0.44925719 -0.096540675 0.55078876 4279112722
0.44887391 -0.096747383 0.5508548 4279376399
0.4484055 -0.096820325 0.55078655 4279834899
0.44793665 -0.096893422 0.55071831 4279572754
0.44746727 -0.096966684 0.55065 4279770133
0.44695386 -0.096973546 0.55051464 4279770133
0.44652703 -0.097113699 0.55051351 4279705110
0.44601217 -0.097121038 0.55037814 4279639317
0.44554055 -0.097195029 0.5503099 4279968282
0.44502395 -0.097202934 0.55017447 4279902489
0.44455114 -0.097277328 0.55010623 4280164893
0.44403282 -0.097285792 0.54997081 4280361245
0.44355875 -0.097360589 0.54990256 4280427038
0.44308421 -0.097435549 0.54983425 4280492831
0.44260919 -0.097510681 0.549766 4280361245
0.44213367 -0.097585961 0.54969776 4280427295
0.44165763 -0.097661406 0.54962951 4280428065
0.44118112 -0.097736999 0.5495612 4280033826
0.44065738 -0.097747251 0.54942578 4280099619
0.47026539 -0.084062859 0.54682404 4279112726
0.46988186 -0.084350765 0.54695666 4279178519
0.46946982 -0.084567055 0.54702234 4279243540
0.46908805 -0.084854394 0.54715496 4279177745
0.46873727 -0.085212544 0.54735446 4279177749
0.46829715 -0.085357055 0.54735327 4278980888
0.46788755 -0.085572541 0.54741901 4279046681
0.46750921 -0.085858747 0.54755163 4278981138
0.46710086 -0.086073831 0.54761738 4279178768
0.46672422 -0.086359471 0.54775 4279636750
0.46634862 -0.086644799 0.54788262 4279505416
0.46597397 -0.086929783 0.54801524 4279112457
0.4655683 -0.087143973 0.54808098 4279178250
0.46522763 -0.087498829 0.54828048 4279111956
0.46485594 -0.087782845 0.5484131 4278980890
0.46448523 -0.088066541 0.54854572 4278980888
0.46414849 -0.088420093 0.54874527 4278915343
0.46378002 -0.088703066 0.54887789 4279112203
0.46341252 -0.088985726 0.54901052 4279046410
0.46304598 -0.089268051 0.5491432 4279046159
0.46268046 -0.089550056 0.54927582 4279111952
0.46228167 -0.08976198 0.54934156 4279045894
0.46191788 -0.090043426 0.54947424 4279177480
0.46155503 -0.090324536 0.54960686 4279177480
0.46115825 -0.09053582 0.5496726 4278979847
0.46076193 -0.090746939 0.54973841 4279045640
0.46040156 -0.091027245 0.54987109 4279045640
0.46000651 -0.091237955 0.54993683 4279177226
0.45961189 -0.091448508 0.55000257 4279045642
0.45921782 -0.091658913 0.55006838 4279045642
0.45882422 -0.091869146 0.55013412 4279177228
0.45843112 -0.092079207 0.55019993 4279242513
0.45803851 -0.092289098 0.55026567 4278914575
0.45764637 -0.092498839 0.55033147 4278914577
0.45725477 -0.092708424 0.55039722 4278914577
0.45682594 -0.092849217 0.55039608 4278784010
0.45639715 -0.092990011 0.55039501 4278915076
0.4560065 -0.093199268 0.55046076 4279045640
0.45561635 -0.093408383 0.55052656 4279046410
0.45518804 -0.093549013 0.55052543 4278914824
0.45479864 -0.093757868 0.55059123 4278981387
0.45437056 -0.093898423 0.5505901 4278915596
0.45394251 -0.094038978 0.55058897 4279176975
0.45351446 -0.094179526 0.55058783 4278981138
0.45308638 -0.094320081 0.55058676 4278981138
0.45269847 -0.094528452 0.5506525 4279111954
0.45223027 -0.094601184 0.5505845 4279242768
0.45184281 -0.094809391 0.5506503 4279242772
0.45145586 -0.095017433 0.5507161 4279243540
0.45102829 -0.095157832 0.55071497 4279243540
0.45060074 -0.095298216 0.55071384 4279244308
0.45017317 -0.095438607 0.5507127 4279244561
0.4497456 -0.095578998 0.55071163 4279178515
0.44940221 -0.095853716 0.55084431 4279244308
0.4489328 -0.095926873 0.5507763 4279178515
0.44859064 -0.096201196 0.55090898 4279376399
0.44816381 -0.096341349 0.55090785 4279769106
0.44769388 -0.096414633 0.55083984 4279572754
0.44722348 -0.096488111 0.55077183 4279770133
0.44675261 -0.09656173 0.55070376 4279704340
0.44628122 -0.09663552 0.55063576 4279705112
0.44576529 -0.096642941 0.55050081 4279639319
0.44533697 -0.096783578 0.55049968 4280034077
0.44481957 -0.096791476 0.55036473 4279968284
0.44434595 -0.096865989 0.55029666 4280164640
0.44387186 -0.096940666 0.55022866 4280427038
0.44339728 -0.097015515 0.55016065 4280426785
0.44292217 -0.097090513 0.55009258 4280427038
0.44244662 -0.097165674 0.55002451 4280361245
0.44197056 -0.097240977 0.5499565 4280492831
0.4415403 -0.097382262 0.54995537 4280428065
0.44106346 -0.097457826 0.5498873 4280098847
0.44053942 -0.097467914 0.54975235 4280230433
0.47010505 -0.083628803 0.54702795 4279178515
0.46975023 -0.083988696 0.54722673 4279178515
0.4693673 -0.084276691 0.54735887 4279243791
0.46898535 -0.084564343 0.54749101 4279112975
0.46860439 -0.084851697 0.54762316 4279177745
0.46816376 -0.084996358 0.54762203 4279243542
0.46775371 -0.085212126 0.54768753 4279177749
0.46734416 -0.085427746 0.54775304 4279177747
0.46696615 -0.085714117 0.54788518 4279243791
0.46658912 -0.086000159 0.54801738 4279374354
0.46618155 -0.086215109 0.54808283 4279308812
0.46580625 -0.086500615 0.54821503 4279177996
0.46539989 -0.086715162 0.54828054 4279112203
0.46505859 -0.087070599 0.54847938 4279177747
0.46471879 -0.087425567 0.54867822 4278980886
0.46434766 -0.087709673 0.54881036 4278980888
0.46397752 -0.087993443 0.54894257 4278915345
0.46360838 -0.088276923 0.54907477 4278915345
0.46324021 -0.08856006 0.54920697 4279046412
0.46287304 -0.088842876 0.54933912 4278914573
0.46247286 -0.089055404 0.54940468 4279046159
0.46210739 -0.089337662 0.54953682 4279046410
0.46174291 -0.089619592 0.54966903 4279045640
0.46137944 -0.089901194 0.54980123 4279177226
0.46098194 -0.090112835 0.5498668 4278849031
0.46058494 -0.090324312 0.54993236 4278849031
0.46018842 -0.090535633 0.54999787 4278914824
0.45979241 -0.090746798 0.55006337 4279046410
0.45939687 -0.090957791 0.55012894 4279046410
0.45900184 -0.091168627 0.5501945 4278914573
0.45864376 -0.091448456 0.5503267 4279046412
0.45824996 -0.091658883 0.55039227 4279046159
0.45785666 -0.091869168 0.55045784 4278914577
0.45746383 -0.092079274 0.55052334 4278914577
0.45703405 -0.092220396 0.55052221 4278914577
0.45664197 -0.092430264 0.55058777 4279046159
0.45621243 -0.092571296 0.55058664 4279045894
0.4558211 -0.092780903 0.55065221 4278915078
0.45543024 -0.092990369 0.55071777 4279046664
0.45500118 -0.093131244 0.55071664 4278915078
0.45457214 -0.09327212 0.55071551 4278915594
0.45418227 -0.093481258 0.55078107 4278784010
0.45375347 -0.093622051 0.55077994 4279176975
0.45332468 -0.093762845 0.55077881 4278915345
0.45289588 -0.093903638 0.55077767 4278915345
0.45250726 -0.094112374 0.55084324 4278981136
0.45203829 -0.094185233 0.55077547 4279111952
0.45160949 -0.094326027 0.55077434 4279177747
0.45118067 -0.09446682 0.5507732 4279374354
0.45079303 -0.094675228 0.55083877 4279374354
0.45032308 -0.094748408 0.550771 4279309584
0.44822171 -0.095519513 0.55083209 4279506961
0.44792178 -0.09586139 0.55103099 4279572754
0.44745082 -0.095934898 0.55096322 4279507731
0.4469794 -0.096008554 0.55089539 4279573524
0.44646388 -0.096015558 0.55076087 4279639317
0.44594735 -0.096022904 0.5506264 4279902491
0.44547397 -0.096097231 0.55055857 4279902491
0.44500008 -0.096171699 0.5504908 4280230435
0.4445703 -0.096312821 0.55048966 4280164642
0.44414049 -0.096453935 0.55048853 4280230437
0.44366562 -0.096528731 0.5504207 4280361251
0.44319028 -0.096603677 0.55035293 4280361251
0.44275999 -0.096744955 0.5503518 4280361249
0.44228387 -0.096820153 0.55028397 4280229663
0.44185337 -0.096961513 0.55028284 4280558628
0.44142285 -0.097102873 0.5502817 4280427042
0.44094574 -0.0971784 0.55021387 4280230435
0.44042134 -0.097188324 0.55007935 4280427814
0.46961841 -0.083626136 0.54749769 4279244561
0.46923506 -0.083914533 0.54762936 4279243791
0.4688527 -0.084202603 0.54776108 4279309584
0.46844122 -0.084418982 0.54782635 4279243791
0.46803021 -0.084635183 0.54789162 4279374607
0.46761972 -0.084851235 0.54795688 4279308814
0.46724057 -0.085138261 0.54808861 4279242768
0.46680018 -0.085282847 0.54808748 4279243789
0.4664225 -0.085569382 0.5482192 4279374356
0.46604583 -0.085855603 0.54835093 4279243021
0.46567011 -0.086141482 0.5484826 4279308814
0.46529537 -0.086427063 0.54861432 4279112203
0.46492162 -0.086712301 0.54874605 4279177745
0.46454889 -0.086997211 0.54887778 4278981138
0.4641771 -0.087281808 0.5490095 4278981399
0.46380633 -0.087566093 0.54914123 4278850065
0.46343651 -0.087850034 0.54927295 4278850065
0.46306768 -0.088133655 0.54940474 4279177228
0.46269986 -0.088416979 0.54953647 4278914573
0.46233302 -0.088699952 0.54966819 4278914826
0.46196714 -0.088982612 0.54979992 4278914824
0.4615677 -0.089195006 0.54986525 4279046159
0.46120358 -0.089477107 0.54999697 4278914573
0.46080539 -0.089689121 0.5500623 4278849031
0.46040767 -0.08990097 0.55012763 4278849031
0.46001047 -0.090112649 0.55019295 4278914824
0.45961374 -0.090324171 0.55025822 4278914824
0.45921755 -0.090535536 0.55032355 4279046410
0.4588218 -0.090746731 0.55038887 4278914573
0.45842654 -0.090957776 0.5504542 4279177228
0.45806858 -0.091237843 0.55058593 4278914573
0.45767456 -0.091448478 0.55065125 4278914577
0.4572438 -0.09158992 0.55065012 4278848784
0.45685053 -0.09180031 0.55071545 4278914577
0.45642 -0.09194167 0.55071437 4278914826
0.45602745 -0.092151821 0.55077964 4278915078
0.45563543 -0.092361823 0.55084503 4278914824
0.45524389 -0.092571646 0.55091035 4278914824
0.45485282 -0.092781313 0.55097568 4279046410
0.45442328 -0.092922345 0.55097455 4278914824
0.45399374 -0.093063384 0.55097342 4278914573
