# .PCD v0.7 - Point Cloud Data file format
VERSION 0.7
FIELDS x y z rgb
SIZE 4 4 4 4
TYPE F F F U
COUNT 1 1 1 1
WIDTH 1046
HEIGHT 1
VIEWPOINT 0 0 0 1 0 0 0
POINTS 1046
DATA ascii
0.42184353 -0.038775593 0.49644101 4278586378
0.42137113 -0.038432941 0.4965291 4278586378
0.42089775 -0.038089991 0.49661723 4278849033
0.42039114 -0.037927106 0.49661979 4279243014
0.41990042 -0.037673935 0.49666512 4279900174
0.41939354 -0.037510976 0.49666768 4280097553
0.41888669 -0.037348002 0.49667025 4280821267
0.41837984 -0.037185043 0.49667281 4281281296
0.41785809 -0.037112668 0.49663258 4281873433
0.41736612 -0.03685911 0.49667791 4282071334
0.41685927 -0.036696151 0.49668047 4282071334
0.41633824 -0.036624014 0.49664024 4282203179
0.41583163 -0.03646113 0.4966428 4282597937
0.41532502 -0.036298245 0.49664533 4282926650
0.4153952 -0.0026509762 0.51177561 4280162831
0.41477865 -0.0026435256 0.51169294 4280558356
0.41419664 -0.0023609996 0.51173878 4280821528
0.41361415 -0.0020783395 0.51178455 4281216286
0.41302049 -0.0018874556 0.51178753 4281873964
0.41241634 -0.0017886013 0.51174772 4281873966
0.41183311 -0.0015057027 0.51179355 4282400310
0.4112494 -0.0012226403 0.51183939 4282466103
0.41065547 -0.0010316819 0.51184237 4282664509
0.41005209 -0.00093306601 0.51180255 4282927677
0.40946764 -0.00064976513 0.51184833 4283585359
0.43452996 -0.068183124 0.48550469 4278915347
0.43419397 -0.067694113 0.48567873 4278915347
0.43383008 -0.067291379 0.48580983 4278913805
0.43346468 -0.066888154 0.48594093 4278782987
0.43309781 -0.066484466 0.48607203 4278782989
0.43272948 -0.066080302 0.48620316 4278848782
0.43235967 -0.065675646 0.48633426 4278849031
0.43196365 -0.065357834 0.48642245 4278849285
0.43156666 -0.065039709 0.48651063 4278914054
0.43116865 -0.064721256 0.48659882 4278914824
0.43079364 -0.064314932 0.48672998 4278914824
0.43039346 -0.063995793 0.48681816 4278717968
0.43001574 -0.063588589 0.48694932 4278783757
0.42129189 -0.038686663 0.49698955 4278717447
0.42080209 -0.038433939 0.49703509 4278783240
0.42031181 -0.038181052 0.49708065 4278914824
0.4198052 -0.038018182 0.49708322 4279703315
0.41932976 -0.037674829 0.49717179 4279966487
0.41882265 -0.037511781 0.49717435 4280623895
0.41833064 -0.037258327 0.49721992 4281083667
0.41782328 -0.037095204 0.49722248 4281675543
0.41731596 -0.036932081 0.49722505 4282333736
0.41677988 -0.036950231 0.49714157 4282333736
0.41627303 -0.036787257 0.4971441 4282399275
0.41578004 -0.03653352 0.4971897 4282203949
0.41527292 -0.036370471 0.49719226 4282730295
0.41475245 -0.036298364 0.49715179 4283320377
0.41473132 -0.0025745481 0.51240474 4280230418
0.41411486 -0.0025668293 0.51232165 4280559383
0.41354299 -0.0021924675 0.5124107 4280953884
0.41294882 -0.0020014346 0.51241374 4281413665
0.41234425 -0.0019022971 0.51237369 4281939755
0.41177064 -0.0015273839 0.51246274 4282334513
0.41116631 -0.001428321 0.51242268 4282400306
0.4105818 -0.0011451393 0.51246876 4282927420
0.40997797 -0.0010462403 0.5124287 4283059517
0.40939298 -0.00076290965 0.51247472 4283257414
0.43407249 -0.068088979 0.48599422 4278783759
0.43376079 -0.067513198 0.48621237 4278913803
0.43336964 -0.067197204 0.48630095 4278782987
0.43297747 -0.066880912 0.48638955 4278848782
0.4326095 -0.066477269 0.48652133 4278848782
0.43224007 -0.066073135 0.48665315 4278849031
0.43184447 -0.065755725 0.48674175 4278848515
0.4314723 -0.065350756 0.48687357 4278980101
0.43109867 -0.064945295 0.48700538 4278979847
0.4211961 -0.039030164 0.49740672 4278717447
0.42070651 -0.038777649 0.49745253 4278717447
0.42023247 -0.038435027 0.49754155 4278849031
0.41974166 -0.03818211 0.49758732 4279375375
0.41923481 -0.038019136 0.49758989 4279704340
0.41874325 -0.03776598 0.49763566 4280427288
0.41826627 -0.037422389 0.49772471 4280951829
0.41775867 -0.037259191 0.49772727 4281610013
0.41725105 -0.037095979 0.49772984 4281873185
0.41672915 -0.037023291 0.49768913 4282399023
0.4162218 -0.036860168 0.49769169 4282201644
0.41570061 -0.036787719 0.49765101 4282203179
0.41519353 -0.03662467 0.49765357 4282598707
0.41468641 -0.036461636 0.49765614 4282730293
0.41405523 -0.0025898218 0.51299149 4280361750
0.41344994 -0.0024903268 0.51295125 4280953884
0.41286641 -0.0022075921 0.51299751 4281282595
0.41227198 -0.0020164698 0.51300049 4281808939
0.41168767 -0.0017334819 0.51304674 4282203697
0.41109303 -0.0015422851 0.51304978 4282335283
0.41049835 -0.0013510883 0.51305276 4282795834
0.40991306 -0.0010678023 0.51309901 4282927677
0.40931818 -0.000876531 0.51310205 4283651400
0.43400338 -0.068310171 0.48639563 4278783757
0.43363976 -0.067908317 0.48652807 4278913803
0.43327463 -0.067505985 0.48666054 4278848780
0.43288267 -0.067190021 0.48674959 4278914575
0.43248969 -0.066873729 0.48683864 4278783240
0.43212062 -0.066470146 0.48697108 4278783240
0.43175009 -0.066066071 0.48710358 4278783492
0.43137807 -0.06566155 0.48723605 4279046159
0.43100455 -0.065256536 0.48736855 4278979849
0.42110038 -0.039373428 0.49782348 4278717445
0.42062727 -0.039031357 0.49791294 4278717447
0.42015314 -0.038688973 0.49800241 4278849031
0.41964653 -0.038526088 0.49800497 4279243789
0.41917095 -0.038183242 0.49809444 4279506961
0.41866386 -0.038020194 0.498097 4280361495
0.41818678 -0.037676841 0.49818647 4280819993
0.41767919 -0.037513644 0.49818903 4281543716
0.41718611 -0.03726013 0.49823505 4281675302
0.41666397 -0.037187234 0.49819416 4282333232
0.41615638 -0.037024036 0.49819672 4282333484
0.41564879 -0.036860824 0.49819928 4282137640
0.4151412 -0.036697626 0.49820185 4282270253
0.41462031 -0.036625117 0.49816093 4282533425
0.41411296 -0.036461994 0.49816349 4283190328
0.41397321 -0.0027963668 0.51357573 4280295957
0.41337857 -0.00260517 0.51357871 4280888089
0.41279447 -0.0023224056 0.5136252 4281347872
0.41219956 -0.0021311343 0.51362824 4281677353
0.41159457 -0.0020315796 0.51358771 4282203699
0.41101959 -0.0016567856 0.51367772 4282466871
0.41043401 -0.0013735443 0.51372421 4282532669
0.40983862 -0.0011821091 0.51372719 4282796865
0.4092432 -0.0009906739 0.51373017 4283585609
0.4086301 -0.00098347664 0.51364625 4283652690
0.4327119 -0.067758977 0.48697826 4278915347
0.43231985 -0.067443237 0.48706776 4278783240
0.43195164 -0.067040354 0.48720089 4278849033
0.43160656 -0.066550046 0.48737767 4278915078
0.43128386 -0.06597212 0.48759809 4279046159
0.42054802 -0.039285079 0.49837336 4278651652
0.42005786 -0.039032638 0.49841958 4278783238
0.41958293 -0.038690269 0.49850953 4279243789
0.41907609 -0.03852731 0.49851206 4279506961
0.41859967 -0.038184449 0.498602 4280295704
0.4181073 -0.037931308 0.49864823 4280754200
0.41761443 -0.037677988 0.49869448 4281543714
0.41712108 -0.037424535 0.49874073 4281675300
0.41661298 -0.037261173 0.4987433 4282201644
0.41609091 -0.037188157 0.49870217 4282333484
0.41558304 -0.037024871 0.49870473 4282202920
0.41507521 -0.036861584 0.49870729 4282335535
0.41455412 -0.036788881 0.49866617 4282598707
0.41404653 -0.036625668 0.49866873 4283190328
0.41330701 -0.0027205497 0.51420712 4280888091
0.41271186 -0.0025292039 0.5142101 4281282079
0.41212699 -0.0022463202 0.51425683 4281808169
0.41154164 -0.0019632578 0.51430357 4282268470
0.41094598 -0.0017717481 0.51430655 4282597435
0.41035989 -0.0014884621 0.51435328 4282466878
0.40976399 -0.0012968779 0.51435626 4282731072
0.40916809 -0.0011052787 0.5143593 4283519816
0.40858102 -0.00082167983 0.51440597 4283914574
0.42046875 -0.039538786 0.49883378 4278717699
0.4199945 -0.039196894 0.49892414 4278717447
0.41950357 -0.038944349 0.49897063 4279177996
0.41901213 -0.038691655 0.49901706 4279375375
0.41852021 -0.038438782 0.49906355 4280164118
0.41804275 -0.038095862 0.49915391 4280622614
0.41754961 -0.037842602 0.4992004 4281280542
0.41705596 -0.037589177 0.49924687 4281543714
0.41654763 -0.037425742 0.49924943 4282201898
0.41602534 -0.037352517 0.49920809 4282399275
0.41550353 -0.037279442 0.49916673 4282202920
0.4149957 -0.037116155 0.49916929 4282466353
0.41448784 -0.036952883 0.49917185 4282795318
0.41398001 -0.036789596 0.49917442 4283058490
0.41347215 -0.036626309 0.49917698 4281875236
0.41324607 -0.0027451515 0.5148803 4280690715
0.41265017 -0.0025535673 0.51488334 4281216032
0.41205427 -0.0023619682 0.51488632 4281742378
0.41146839 -0.0020788908 0.51493329 4282202677
0.410882 -0.0017956495 0.5149802 4282597435
0.41029513 -0.0015122592 0.51502717 4282466876
0.40969849 -0.0013204366 0.51503021 4282403136
0.40911087 -0.0010367781 0.51507711 4283061066
0.4085052 -0.0009367615 0.51503623 4283718996
0.41991517 -0.039450854 0.49938503 4278651654
0.41943985 -0.039108902 0.49947584 4279112205
0.41894814 -0.038856223 0.49952254 4279243791
0.41847107 -0.03851372 0.49961334 4280032278
0.41796324 -0.038350433 0.49961591 4280556821
0.4174847 -0.038007453 0.49970675 4281214751
0.41697636 -0.037844002 0.49970931 4281543716
0.41646802 -0.037680566 0.49971187 4281938726
0.4159736 -0.037427038 0.49975857 4282333736
0.41545135 -0.03735368 0.499717 4282202920
0.41494301 -0.037190244 0.49971956 4282400299
0.41443467 -0.037026808 0.49972212 4282795057
0.4139134 -0.036953762 0.49968055 4282992184
0.41340533 -0.036790401 0.49968311 4283717188
0.41258824 -0.0025786757 0.51555789 4281084187
0.4119916 -0.0023868531 0.51556093 4281807656
0.41141492 -0.0020122826 0.51565224 4282070828
0.41082749 -0.0017288774 0.51569939 4282269490
0.41023961 -0.0014452785 0.51574659 4282401337
0.40964198 -0.0012531281 0.51574957 4282533439
0.40905333 -0.00096929073 0.51579678 4282797635
0.40844673 -0.00086884201 0.51575565 4283587151
0.43485463 -0.077678412 0.48417443 4278586891
0.43448997 -0.077372313 0.48426515 4278783238
0.43415174 -0.076980278 0.48440015 4278914826
0.43320835 -0.075543821 0.48493809 4278849031
0.41985169 -0.039615497 0.49989024 4278651401
0.41937605 -0.039273694 0.49998152 4279046412
0.41886869 -0.039110556 0.49998409 4279243791
0.41839156 -0.038768291 0.50007534 4279900951
0.41791344 -0.038425714 0.50016665 4280622616
0.41743433 -0.038082823 0.50025791 4281214751
0.41691113 -0.038009033 0.50021613 4281477923
0.41641667 -0.037755623 0.50026304 4281610529
0.41590783 -0.037592024 0.5002656 4282202150
0.41539901 -0.037428424 0.50026816 4282071334
0.41487679 -0.037354946 0.50022638 4282334765
0.41436821 -0.037191421 0.50022894 4282729523
0.41385964 -0.03702791 0.5002315 4282926904
0.41333839 -0.036954746 0.50018972 4283519809
0.41283005 -0.03679131 0.50019228 4281085470
0.41195923 -0.0021389872 0.51636994 4281872933
0.4113512 -0.0020379126 0.51632857 4282136105
0.410763 -0.0017543733 0.51637602 4282400306
0.41016489 -0.0015620589 0.516379 4282401337
0.40957597 -0.0012782812 0.51642644 4282271291
0.40898654 -0.00099433959 0.51647383 4282862656
0.44533116 -0.088916332 0.48088619 4278848780
0.44489557 -0.088870555 0.48084375 4278717964
0.44442517 -0.088907897 0.48075682 4278717964
0.44402584 -0.088779509 0.48075882 4278652173
0.4436613 -0.088568002 0.48080531 4278718217
0.44339997 -0.088106826 0.48098525 4278718217
0.4404417 -0.085269809 0.4818933 4278914573
0.4400683 -0.085055456 0.48193985 4278848780
0.43975812 -0.084672824 0.48207539 4278849033
0.43473303 -0.078059644 0.48446751 4278390284
0.43436879 -0.077753931 0.48455867 4278717964
0.43400356 -0.077447906 0.48464984 4278915343
0.4336645 -0.077056006 0.4847855 4278783757
0.43332398 -0.076663658 0.48492119 4278783757
0.43298194 -0.076270789 0.48505688 4278717964
0.43269128 -0.075705886 0.48528165 4278849033
0.41929659 -0.039528012 0.50044304 4278849033
0.41880456 -0.039275527 0.50049019 4279177998
0.41832709 -0.038933426 0.50058192 4279835153
0.41784865 -0.038591012 0.50067365 4280360727
0.41735464 -0.038337886 0.5007208 4280952349
0.41686016 -0.038084611 0.50076795 4281281314
0.41636515 -0.037831172 0.50081509 4281544736
0.41585582 -0.037667409 0.50081766 4281873955
0.4153465 -0.037503645 0.50082022 4282203433
0.41483718 -0.037339896 0.50082278 4282400558
0.41431478 -0.03726621 0.50078082 4282663730
0.41380569 -0.037102535 0.50078332 4282860598
0.413284 -0.037029088 0.50074136 4282927674
0.41277516 -0.036865488 0.50074387 4283322178
0.41129714 -0.0019731671 0.51705092 4281807656
0.41070792 -0.0016894192 0.51709855 4282400306
0.4101088 -0.0014967918 0.51710159 4282401337
0.40951887 -0.0012128204 0.51714921 4282336314
0.40891951 -0.0010201186 0.51715225 4282993470
0.44577867 -0.090034172 0.48088852 4278849033
0.4453086 -0.090071321 0.48080114 4278914573
0.44494677 -0.089860842 0.48084784 4278717964
0.44447792 -0.089898393 0.48076046 4278717964
0.44408056 -0.089770645 0.48076245 4278718217
0.44378823 -0.089394197 0.48089856 4278717964
0.44345969 -0.089100242 0.48098999 4278784010
0.44313014 -0.088805974 0.4810814 4278718217
0.44279963 -0.088511363 0.48117283 4278783492
0.44250211 -0.088133261 0.481309 4278717445
0.44071862 -0.085770845 0.4821707 4278782987
0.44031361 -0.085640624 0.48217276 4279046159
0.43994069 -0.085426554 0.48221952 4278848780
0.43959904 -0.085128397 0.48231101 4278849033
0.43931955 -0.084661901 0.48249191 4278783240
0.43894413 -0.084447041 0.4825387 4278718217
0.43458378 -0.078525528 0.48471498 4278390284
0.43422019 -0.078220323 0.48480657 4278717964
0.43388301 -0.077829435 0.48494291 4278783757
0.43351719 -0.077523515 0.48503453 4278718477
0.43320414 -0.077046216 0.4852156 4278718477
0.43286249 -0.076653913 0.48535198 4278586891
0.43254575 -0.076175436 0.48553312 4278848780
0.43220091 -0.075782105 0.48566949 4278914826
0.43120825 -0.074427202 0.48616818 4278652173
0.41875565 -0.039351493 0.50104159 4279112203
0.41827762 -0.039009482 0.50113374 4279835151
0.4177838 -0.038756564 0.50118113 4280294932
0.41730407 -0.038414001 0.50127327 4280952349
0.41680902 -0.038160667 0.50132066 4281149728
0.4163135 -0.037907198 0.50136805 4281610277
0.41580367 -0.03774327 0.50137067 4281808421
0.41529387 -0.037579358 0.50137323 4282006570
0.41477075 -0.037505314 0.50133097 4282400560
0.41427425 -0.037251517 0.50137836 4282597939
0.41376442 -0.037087604 0.50138092 4282729271
0.41322947 -0.037103936 0.5012939 4282730041
0.41273245 -0.036849961 0.50134122 4283454021
0.41126248 -0.001727432 0.5178647 4281742376
0.41065255 -0.0016254783 0.51782286 4282203699
0.41005245 -0.001432538 0.5178259 4282532666
0.40946147 -0.0011483729 0.51787376 4282467130
0.40887001 -0.00086404383 0.51792163 4283059260
0.44603544 -0.091558591 0.4806627 4278717964
0.44564056 -0.091431633 0.4806647 4278783757
0.4453181 -0.091139898 0.48075652 4278914573
0.44499463 -0.090847865 0.48084837 4278915345
0.44459876 -0.090720594 0.48085037 4278652173
0.44423836 -0.090510681 0.48089728 4278717966
0.44387746 -0.09030062 0.48094422 4278849033
0.44351608 -0.090090409 0.48099113 4278914573
0.44315422 -0.089880034 0.48103806 4278914824
0.4428263 -0.089586556 0.48112994 4278849285
0.44260013 -0.089043736 0.48135662 4278783492
0.44230351 -0.088666305 0.48149341 4278717699
0.44197166 -0.08837156 0.48158529 4278782987
0.44173929 -0.087826759 0.481812 4278914573
0.44150448 -0.087281153 0.48203868 4278848780
0.44062269 -0.086057425 0.48249421 4278783240
0.44021794 -0.085927293 0.48249623 4278914573
0.4398132 -0.085797161 0.48249829 4278848780
0.43947199 -0.085499391 0.4825902 4278848780
0.43912977 -0.085201338 0.48268217 4278782987
0.4387866 -0.084902957 0.48277408 4278718217
0.43850446 -0.084436163 0.48295593 4278718217
0.43815881 -0.084136978 0.4830479 4278717964
0.43720606 -0.082984447 0.48345864 4278848780
0.43632171 -0.080255568 0.48463583 4278979849
0.43599179 -0.079867423 0.4847728 4278979849
0.43485281 -0.079125136 0.48495895 4278456079
0.43446258 -0.078905642 0.48500603 4278652686
0.43407184 -0.078685984 0.48505312 4278652686
0.43373525 -0.078295693 0.48519012 4278718479
0.43339717 -0.07790494 0.48532715 4278718477
0.43311131 -0.077342913 0.4855541 4278652171
0.43276981 -0.076951072 0.48569113 4278652171
0.43242681 -0.076558709 0.48582819 4278783759
0.43208233 -0.076165885 0.48596525 4278783757
0.43173638 -0.075772613 0.48610231 4278717964
0.43076494 -0.074332014 0.48664847 4279046159
0.41822797 -0.039086044 0.50168645 4279572231
0.41774839 -0.038743794 0.50177908 4279835406
0.41725332 -0.038490593 0.5018267 4280755485
0.41675773 -0.038237244 0.50187433 4281018657
0.41626167 -0.03798373 0.50192195 4281479208
0.41576514 -0.037730053 0.50196952 4281676585
0.41525456 -0.037565902 0.50197208 4281874984
0.41474402 -0.037401751 0.5019747 4282269490
0.41420743 -0.037417263 0.5018872 4282335283
0.4137229 -0.037073433 0.50197983 4282730043
0.41319981 -0.03699927 0.50193739 4282730045
0.41268951 -0.036835194 0.50193995 4282862658
0.41122735 -0.0014831871 0.51868117 4281676585
0.41059685 -0.0015625209 0.51854903 4282202931
0.41000509 -0.0012782216 0.51859713 4282794303
0.40941283 -0.00099378824 0.51864523 4282598464
0.44507533 -0.091749385 0.48089048 4279045389
0.44478896 -0.091375649 0.4810279 4278783761
0.44442976 -0.091166258 0.48107505 4278652173
0.44410551 -0.09087424 0.48116735 4278652173
0.44374505 -0.090664476 0.48121449 4278849033
0.44338411 -0.090454534 0.48126164 4278849033
0.44302267 -0.090244442 0.48130879 4278849033
0.4426952 -0.089951381 0.48140109 4278783238
0.44233257 -0.089740902 0.48144826 4278783238
0.44193545 -0.089613214 0.48145026 4278783238
0.44163945 -0.089236394 0.48158774 4278782987
0.44137543 -0.088775963 0.4817704 4278848780
0.44117582 -0.08814849 0.48204339 4278782987
0.4408744 -0.087769911 0.48218089 4278849033
0.44057149 -0.087390855 0.4823184 4278783240
0.44033206 -0.086844444 0.48254624 4278783240
0.4400579 -0.086380765 0.48272896 4278914573
0.43971783 -0.086083665 0.48282132 4278848780
0.43934506 -0.085869923 0.48286852 4278782987
0.43897182 -0.085656032 0.48291573 4278783757
0.43859804 -0.085441962 0.48296297 4278717964
0.43828577 -0.085059896 0.48310053 4278718217
0.43794128 -0.084761351 0.48319292 4278652171
0.4375653 -0.084546596 0.48324013 4278782987
0.4372493 -0.084163338 0.48337772 4278782987
0.43655342 -0.083564058 0.48356253 4278848782
0.43623349 -0.083179548 0.48370016 4278782987
0.43542385 -0.080196545 0.48501876 4278849033
0.43506405 -0.079893082 0.48511124 4278456079
0.4346472 -0.079759076 0.48511335 4278390284
0.43428594 -0.079455152 0.48520583 4278652686
0.43395123 -0.079065874 0.48534352 4278718479
0.43358773 -0.078761235 0.48543599 4278652686
0.43322325 -0.078456268 0.4855285 4278717966
0.43291137 -0.077980459 0.4857114 4278652171
0.43267715 -0.077247962 0.48602986 4278717964
0.4323343 -0.076856062 0.48616758 4278783757
0.43198997 -0.076463699 0.4863053 4278783757
0.43159252 -0.076242015 0.48635262 4278717964
0.43124571 -0.075848877 0.48649037 4278652171
0.43089741 -0.075455233 0.48662812 4278783507
0.43059778 -0.074889466 0.48685628 4278915343
0.43039498 -0.073979288 0.48726526 4278783757
0.41817814 -0.039163068 0.50224012 4279506441
0.417698 -0.038820922 0.50233316 4279769613
0.41720238 -0.038567692 0.50238103 4280427288
0.41672051 -0.038224995 0.50247407 4280690460
0.41622368 -0.037971362 0.50252193 4281216804
0.41571262 -0.037807047 0.5025245 4281544997
0.41521505 -0.037553191 0.50257236 4281874984
0.41469052 -0.037478417 0.50252968 4282269490
0.41417947 -0.037314102 0.50253224 4282335283
0.41366842 -0.037149802 0.50253481 4282598714
0.41315737 -0.036985487 0.50253737 4282664255
0.41264632 -0.036821172 0.50253999 4282796611
0.4472048 -0.094057709 0.4805547 4278915596
0.44681436 -0.093932182 0.48055667 4278784010
0.44642392 -0.093806639 0.48055863 4278914826
0.44607061 -0.093599275 0.48060596 4278849033
0.44575363 -0.093309879 0.48069867 4278914573
0.4454357 -0.093020156 0.48079136 4278783757
0.44515315 -0.092648074 0.48092946 4278914573
0.44483298 -0.092357621 0.48102218 4278914573
0.44451186 -0.092066869 0.48111492 4278783759
0.44422534 -0.091693521 0.48125303 4278651921
0.44390199 -0.091402054 0.48134574 4278849033
0.44361278 -0.091027811 0.48148388 4278849033
0.4432523 -0.090818152 0.48153123 4278783240
0.44292599 -0.090525746 0.48162398 4278914826
0.44259867 -0.090233013 0.48171675 4278849033
0.44220206 -0.090105489 0.48171875 4278783240
0.44183937 -0.089895129 0.48176613 4278849033
0.44147617 -0.089684606 0.48181352 4278718217
0.44107908 -0.089556932 0.48181552 4278849033
0.4407483 -0.089263067 0.48190829 4278849033
0.44051531 -0.088719428 0.48213723 4278718217
0.44031253 -0.088091746 0.48241156 4278717966
0.44000953 -0.087713063 0.48254976 4278652171
0.43970501 -0.087333903 0.48268795 4278717964
0.43936709 -0.087037772 0.48278075 4278652171
0.43909156 -0.086574167 0.48296437 4278848780
0.43881407 -0.086109951 0.48314798 4278718730
0.43840981 -0.085979968 0.48315004 4278652937
0.4380984 -0.085598618 0.48328826 4278652937
0.43769342 -0.085468397 0.48329031 4278718217
0.43734932 -0.085170269 0.48338315 4278915596
0.43700427 -0.084871829 0.48347598 4278718217
0.4366582 -0.084573045 0.48356885 4278849033
0.43631116 -0.084273979 0.48366171 4278782989
0.43485761 -0.080525413 0.48526338 4278652424
0.43408188 -0.080088496 0.48535842 4278717964
0.43369329 -0.079869807 0.48540592 4278783757
0.43333146 -0.079565957 0.48549885 4278652171
0.43299562 -0.079176739 0.48563719 4278717964
0.43268508 -0.078701913 0.48582098 4278783757
0.43239906 -0.078141212 0.48605019 4278717964
0.43216309 -0.077409074 0.48637027 4278652171
0.43187165 -0.076846629 0.4865995 4278652171
0.43147469 -0.076625258 0.48664707 4278652171
0.43110272 -0.076318145 0.48674005 4278717964
0.4307045 -0.076096371 0.48678759 4278652175
0.43033081 -0.075788736 0.4868806 4278783757
0.41815802 -0.039062709 0.50288558 4279243273
0.41767681 -0.038720489 0.5029791 4279703820
0.41718018 -0.038467064 0.5030272 4280229907
0.41668305 -0.038213477 0.50307524 4280493079
0.41617152 -0.038049012 0.50307781 4281282079
0.41568735 -0.037705824 0.50317138 4281545251
0.41516188 -0.037630633 0.50312847 4281743148
0.41466326 -0.037376568 0.50317651 4282072113
0.41413829 -0.037301525 0.50313365 4282203699
0.41363919 -0.037047312 0.5031817 4282467130
0.4131147 -0.036972418 0.50313878 4282599232
0.4126029 -0.036807865 0.5031414 4282927681
0.44753411 -0.094378978 0.48090792 4278914573
0.44714367 -0.094253436 0.48090988 4278915343
0.44671565 -0.094209433 0.48086625 4278784010
0.44632545 -0.09408398 0.48086822 4278914826
0.44597235 -0.093876839 0.48091578 4278849033
0.44558191 -0.093751296 0.48091775 4278783757
0.44522804 -0.093543902 0.48096532 4278783757
0.44491002 -0.093254432 0.48105848 4278783757
0.44459102 -0.092964634 0.48115164 4278783757
0.44434273 -0.092510357 0.481336 4278717966
0.44409245 -0.09205544 0.48152035 4278717968
0.44376948 -0.091764376 0.48161355 4278914824
0.44341046 -0.091555312 0.48166114 4278849031
0.44308579 -0.091263711 0.48175433 4278783238
0.44276011 -0.090971768 0.48184752 4278914826
0.44243348 -0.090679526 0.48194075 4278849033
0.44207174 -0.090469599 0.48198834 4278783240
0.44170949 -0.090259507 0.48203593 4278718217
0.44134673 -0.090049267 0.48208356 4278718217
0.4409835 -0.089838877 0.48213115 4278652424
0.44065291 -0.089545339 0.4822244 4278718217
0.43972 -0.088496491 0.48259532 4278586380
0.43944925 -0.088035002 0.4827798 4278717966
0.43914461 -0.087656215 0.48291865 4278652173
0.43883854 -0.08727695 0.48305753 4278848780
0.43849954 -0.086980745 0.48315078 4278784010
0.43815958 -0.086684212 0.48324406 4278718217
0.43781862 -0.086387351 0.48333734 4278652937
0.43750736 -0.086006433 0.48347625 4278652937
0.43716419 -0.085708871 0.48356953 4278784010
0.43678984 -0.085494906 0.48361719 4278718217
0.43641502 -0.085280776 0.48366487 4278849033
0.43606937 -0.08498241 0.48375815 4278782989
0.43575218 -0.084599599 0.48389709 4278652173
0.43543351 -0.084216297 0.48403603 4278784010
0.43467695 -0.083785817 0.4841314 4278718217
0.43458238 -0.082725659 0.48463541 4278783240
0.43439776 -0.081917405 0.48500258 4278783240
0.43415332 -0.081277132 0.48527849 4278914826
0.43382281 -0.080890015 0.48541749 4278783240
0.43343589 -0.080672011 0.4854652 4278848780
0.43304849 -0.080453843 0.48551294 4278848780
0.43268755 -0.08015056 0.48560631 4278652171
0.4324058 -0.0795919 0.48583663 4278783757
0.43209508 -0.079117551 0.48602128 4278717964
0.43186107 -0.078387022 0.48634291 4278717964
0.43157166 -0.077825904 0.48657328 4278782987
0.43127978 -0.077264011 0.48680362 4278717968
0.43090898 -0.076957554 0.48689705 4278783761
0.43053719 -0.076650783 0.48699048 4278652173
0.43016443 -0.076343715 0.48708391 4278849033
0.41765532 -0.038621023 0.50362682 4279638031
0.41715765 -0.038367406 0.5036751 4279901203
0.41664538 -0.038202703 0.50367773 4280361750
0.41614699 -0.037948847 0.50372601 4281282077
0.41563445 -0.037784055 0.50372863 4281807908
0.41514871 -0.037440658 0.50382257 4282071863
0.41462255 -0.037365094 0.50377947 4282071863
0.41410977 -0.037200227 0.50378203 4282203706
0.41359699 -0.037035361 0.50378466 4282466878
0.41308421 -0.036870494 0.50378722 4282730045
0.41257143 -0.036705628 0.50378984 4282993213
0.41204673 -0.036630526 0.50374669 4283190592
0.44747296 -0.094574705 0.4812631 4278914575
0.44704476 -0.094530493 0.48121926 4278915343
0.44661701 -0.094486445 0.48117539 4278718217
0.44622707 -0.094361067 0.48117739 4278849033
0.44583714 -0.094235688 0.48117936 4278849033
0.44544718 -0.094110325 0.48118132 4278783757
0.44509378 -0.093903214 0.4812291 4278783757
0.44477618 -0.093614131 0.48132271 4278848780
0.44442153 -0.093406633 0.48137051 4278848780
0.44406641 -0.093198985 0.48141828 4278783757
0.44374636 -0.092909113 0.48151189 4278914573
0.4434253 -0.092618942 0.48160553 4278849031
0.44317338 -0.092164025 0.48179081 4278849031
0.44291949 -0.091708496 0.48197609 4278849031
0.4425945 -0.091417059 0.48206973 4278914824
0.44226852 -0.09112528 0.48216337 4278914824
0.44190747 -0.090915725 0.4822112 4278849031
0.44151211 -0.090788603 0.4822132 4278652424
0.44118389 -0.090496138 0.48230684 4278717964
0.44082135 -0.090286091 0.48235467 4278652424
0.44049144 -0.08999306 0.48244834 4278652684
0.43898624 -0.08810696 0.48314595 4278652173
0.43871239 -0.087644994 0.48333135 4278848782
0.43763199 -0.086923718 0.48352081 4278718217
0.43729097 -0.086627126 0.48361453 4278652424
0.43694896 -0.08633019 0.48370826 4278784010
0.43660593 -0.086032957 0.48380199 4278652422
0.43626195 -0.085735396 0.48389572 4278586629
0.43588734 -0.085521474 0.48394364 4278652171
0.43554163 -0.085223377 0.48403737 4278782987
0.43522406 -0.084840834 0.48417699 4278914826
0.43487611 -0.084542006 0.48427075 4278849033
0.43452719 -0.08424288 0.48436451 4278652171
0.43429092 -0.083606035 0.4846417 4278652171
0.43410796 -0.08279939 0.48501062 4278652171
0.43380943 -0.082329512 0.48519614 4278914826
0.43348128 -0.081943572 0.48533583 4278783240
0.43317905 -0.081472486 0.48552135 4278652173
0.43284768 -0.081085518 0.48566103 4278717966
0.43251485 -0.080698058 0.48580068 4278717964
0.43215382 -0.080395028 0.48589453 4278783759
0.43181825 -0.080006719 0.48603421 4278717964
0.43163833 -0.079107568 0.48644915 4278652171
0.43137613 -0.078462392 0.48672646 4278979596
0.43103391 -0.078071937 0.48686621 4278717968
0.4306902 -0.077681005 0.48700595 4278717966
0.43039542 -0.077118844 0.48723745 4278652173
0.42999834 -0.076897696 0.48728544 4278849033
0.42962551 -0.076590866 0.48737931 4278914308
0.4176335 -0.038522571 0.50427634 4279637777
0.41712049 -0.03835763 0.50427896 4279835156
0.41662157 -0.038103744 0.50432748 4280295957
0.41610828 -0.037938714 0.50433004 4281216538
0.41560861 -0.037684575 0.50437856 4281675552
0.41510847 -0.037430301 0.50442708 4282006070
0.41459468 -0.037265107 0.5044297 4282071863
0.41408092 -0.037099928 0.50443232 4282203453
0.41355455 -0.037024155 0.50438893 4282203706
0.41304103 -0.03685905 0.50439155 4282598716
0.4125275 -0.036693946 0.50439411 4282927420
0.41200212 -0.036618486 0.50435078 4283124799
0.44780228 -0.094895959 0.48161632 4279046159
0.44741184 -0.094770417 0.48161829 4279046161
0.44694591 -0.094807297 0.48152816 4279046412
0.44651848 -0.094763204 0.48148412 4278914824
0.44609153 -0.094719276 0.48144004 4278979847
0.44570208 -0.094594061 0.481442 4279045640
0.44527587 -0.094550371 0.48139793 4278848780
0.44488665 -0.094425231 0.48139989 4278652171
0.44453371 -0.094218403 0.48144791 4278848780
0.44418028 -0.094011426 0.48149592 4278783757
0.44386211 -0.093722448 0.48158997 4278783757
0.44354296 -0.093433142 0.48168403 4278914826
0.44315225 -0.093307525 0.481686 4278849031
0.44279659 -0.093099833 0.48173404 4278849031
0.4424752 -0.092809841 0.48182809 4278914824
0.44215286 -0.092519507 0.48192215 4278914824
0.44193238 -0.091981903 0.48215443 4278914826
0.44167536 -0.091525912 0.4823406 4278586631
0.44134879 -0.091234237 0.48243472 4278586631
0.44095418 -0.091107354 0.48243672 4278784010
0.44059283 -0.090897828 0.48248476 4278718215
0.44029713 -0.090522721 0.48262492 4278717964
0.43993428 -0.090312749 0.48267296 4278652171
0.43753818 -0.087208793 0.4838407 4278718217
0.43716672 -0.086996034 0.4838888 4278718217
0.43679479 -0.086783111 0.48393691 4278718217
0.43645245 -0.086486354 0.48403108 4278586631
0.43610913 -0.086189285 0.48412526 4278652424
0.43576479 -0.085891902 0.48421946 4278718217
0.43539014 -0.085678086 0.48426756 4278849033
0.43504411 -0.085380167 0.48436177 4278718217
0.43469709 -0.08508189 0.48445597 4278652424
0.43440628 -0.084615037 0.48464233 4278652424
0.43408516 -0.084231779 0.48478264 4278652171
0.43384692 -0.083595112 0.4850612 4278783757
0.4336057 -0.082957506 0.48533976 4278717964
0.43330628 -0.082487881 0.48552617 4278782987
0.4329775 -0.082102165 0.48566651 4278652171
0.43264726 -0.081715941 0.48580685 4278586378
0.43231553 -0.081329256 0.48594719 4278717964
0.43200892 -0.080857337 0.48613366 4278783759
0.43170041 -0.080384761 0.48632014 4278717966
0.43136373 -0.079996496 0.48646051 4278652173
0.43118098 -0.079097658 0.48687744 4278914575
0.43089119 -0.078537777 0.48711002 4278783761
0.4305481 -0.078147456 0.48725045 4278717966
0.43022868 -0.077671394 0.48743695 4278652173
0.42990732 -0.077194706 0.48762348 4278717964
0.42950997 -0.076973602 0.4876717 4278849033
0.42913654 -0.076666862 0.48776603 4278914573
0.42878634 -0.076274216 0.48790649 4278848780
0.42824718 -0.07488744 0.48851013 4278914573
0.41658336 -0.038094565 0.50493288 4280164371
0.41606936 -0.037929296 0.50493544 4280820497
0.41558248 -0.037586078 0.50503039 4281675806
0.41506797 -0.03742066 0.50503296 4281808943
0.41455346 -0.037255228 0.50503558 4282072115
0.41403896 -0.03708981 0.50503814 4282138165
0.41352445 -0.036924377 0.50504076 4282335287
0.41299763 -0.036848336 0.50499719 4282532923
0.41249546 -0.036593542 0.50504595 4282795836
0.44685739 -0.096019194 0.48137212 4278915345
0.44650787 -0.095813617 0.48142034 4279046412
0.44612038 -0.095689029 0.48142228 4279046410
0.4458445 -0.095320717 0.48156303 4278979847
0.44553021 -0.095033243 0.48165751 4279045640
0.44514149 -0.094908267 0.48165947 4278979596
0.44475278 -0.094783291 0.48166144 4278849033
0.44436407 -0.094658315 0.48166341 4278848780
0.44397536 -0.094533324 0.48166537 4278783757
0.44358665 -0.094408348 0.48166731 4278783757
0.4432334 -0.09420158 0.48171556 4278849031
0.44287968 -0.093994647 0.48176378 4278783238
0.44252545 -0.093787551 0.481812 4278849031
0.44217074 -0.093580291 0.48186025 4278914824
0.44185004 -0.093290776 0.48195478 4279046412
0.44152832 -0.093000919 0.48204929 4278914826
0.44117165 -0.092793033 0.48209757 4278521098
0.44091573 -0.092337936 0.48228464 4278586891
0.44075835 -0.091634914 0.48261058 4278718730
0.44039798 -0.091425821 0.48265886 4278849031
0.44007009 -0.091133997 0.4827534 4278652171
0.43750602 -0.087327033 0.48425272 4278718217
0.43707317 -0.087281063 0.48420846 4278718215
0.43673176 -0.086984903 0.48430309 4278652424
0.43632922 -0.086855471 0.48430511 4278652424
0.43598631 -0.086558804 0.48439974 4278652424
0.43564242 -0.086261824 0.48449439 4278718217
0.43529755 -0.085964531 0.48458904 4278652424
0.43495166 -0.08566691 0.48468366 4278718217
0.43457597 -0.085452929 0.48473203 4278652424
0.43425697 -0.085070729 0.484873 4278718217
0.43393645 -0.084688067 0.48501393 4278849033
0.43364254 -0.084220752 0.48520124 4278784010
0.43337449 -0.083668545 0.48543483 4278718217
0.43310401 -0.083115548 0.48566845 4278586631
0.43280369 -0.082646161 0.48585576 4278652171
0.43247429 -0.082260653 0.48599675 4278652684
0.43214345 -0.081874654 0.48613778 4278652684
0.43181109 -0.081488177 0.48627883 4278586893
0.43152997 -0.080931783 0.48651248 4278717966
0.43122029 -0.080459386 0.48669985 4278652173
0.4309862 -0.079731688 0.48702615 4278783759
0.43072307 -0.079087853 0.48730618 4278783759
0.43043157 -0.078528121 0.48753992 4278652173
0.43011251 -0.078052714 0.48772731 4278586380
0.42981637 -0.077491462 0.48796105 4278783757
0.4294931 -0.077014714 0.48814851 4278784010
0.42872 -0.076486513 0.48829174 4278717968
0.42839205 -0.07600826 0.4884792 4278717966
0.41654494 -0.038086146 0.5055396 4280164625
0.41604397 -0.037831888 0.50558859 4280885777
0.41552895 -0.037666306 0.50559115 4281609246
0.41501397 -0.037500724 0.50559378 4281545769
0.41451201 -0.037246108 0.50564277 4281874734
0.41398397 -0.037169561 0.50559896 4282203699
0.41348153 -0.036914796 0.50564796 4282269492
0.41296628 -0.036749125 0.50565052 4282532666
0.41243899 -0.036672816 0.50560677 4282926652
0.44568557 -0.096693665 0.48130992 4279046664
0.44541204 -0.09632653 0.48145133 4279046410
0.44510013 -0.096040085 0.48154625 4279243021
0.44493392 -0.095428243 0.48182714 4279177228
0.44458264 -0.095222235 0.4818756 4278914826
0.44423085 -0.095016032 0.48192403 4279046412
0.44380668 -0.094972745 0.4818795 4278783759
0.44345438 -0.094766393 0.48192796 4278783759
0.44306618 -0.094641581 0.4819299 4278783240
0.44267794 -0.094516754 0.48193187 4278717447
0.44228974 -0.094391927 0.48193383 4278783240
0.4419015 -0.094267115 0.4819358 4278849033
0.4415133 -0.094142288 0.48193774 4278914826
0.44115928 -0.0939354 0.48198619 4278783240
0.4407708 -0.093810499 0.48198816 4278586891
0.44048348 -0.093438923 0.48212963 4278652684
0.44016123 -0.09314917 0.48222461 4278652684
0.43983796 -0.092859104 0.48231959 4278718215
0.43951371 -0.092568696 0.48241457 4278652424
0.43554971 -0.086547673 0.48481494 4278784010
0.43520498 -0.086250708 0.48491004 4278652424
0.43485931 -0.085953414 0.48500514 4278587144
0.43448383 -0.085739627 0.48505369 4278587144
0.43413639 -0.085441798 0.48514879 4278652935
0.43381625 -0.085059643 0.48529044 4278915594
0.4335227 -0.084592998 0.48547861 4278718215
0.43319938 -0.084209815 0.48562026 4278652422
0.43292964 -0.083657756 0.48585498 4278718217
0.43263018 -0.083189204 0.48604321 4278784010
0.43230164 -0.082804367 0.4861849 4278586891
0.43194485 -0.082503513 0.48628002 4278652684
0.43161362 -0.082117811 0.4864217 4278586895
0.43133354 -0.081562415 0.48665652 4278586893
0.43115529 -0.080667466 0.48707747 4278652686
0.43068314 -0.07921271 0.48773327 4278783759
0.43034056 -0.078823343 0.48787504 4278586378
0.41652027 -0.0379899 0.50619429 4280230166
0.41600454 -0.037824079 0.50619692 4280688405
0.41548878 -0.037658259 0.50619948 4281543201
0.41497305 -0.037492439 0.5062021 4281217063
0.41445732 -0.037326619 0.50620472 4281546028
0.41394159 -0.037160799 0.50620729 4282138165
0.41343835 -0.036905929 0.50625652 4282269494
0.41292238 -0.036740035 0.50625914 4282532666
0.41239437 -0.036663339 0.5062151 4282664252
0.45095906 -0.10046025 0.48069531 4279112203
0.45053789 -0.10041777 0.48065054 4279243791
0.45015806 -0.10029565 0.48065245 4279243791
0.44867855 -0.099727027 0.48070681 4279046931
0.44757742 -0.099280037 0.48075926 4279177998
0.44723594 -0.099077329 0.4808079 4279177998
0.44685537 -0.098954968 0.48080981 4279177998
0.44655153 -0.098671414 0.48090515 4279046412
0.44617045 -0.098548889 0.48090708 4279046161
0.445903 -0.098184094 0.48104912 4279112205
0.44563407 -0.097818822 0.48119116 4279046410
0.44540101 -0.097372174 0.48137993 4279046410
0.44509172 -0.097086847 0.48147529 4279046410
0.44481835 -0.096720159 0.48161736 4279112205
0.44450685 -0.096434146 0.48171273 4279046412
0.44426715 -0.095985338 0.48190153 4279046410
0.44398934 -0.09561722 0.48204362 4279046412
0.44367415 -0.095330015 0.48213899 4278915345
0.4433223 -0.095123962 0.48218769 4278915345
0.44296998 -0.094917744 0.48223636 4278652424
0.44254684 -0.094874635 0.48219159 4278783240
0.44215912 -0.094749972 0.48219356 4278849033
0.44177139 -0.094625309 0.4821955 4278849033
0.44138366 -0.094500646 0.48219746 4278849033
0.44099593 -0.094375983 0.48219943 4278849033
0.4406082 -0.09425132 0.48220137 4278717964
0.44022048 -0.094126657 0.48220333 4278652684
0.43986619 -0.093919814 0.48225203 4278587142
0.43951139 -0.093712792 0.4823007 4278652935
0.43925491 -0.093258604 0.48248959 4278783240
0.43886572 -0.093133464 0.48249155 4278782989
0.43850896 -0.092925832 0.48254025 4278914573
0.43815169 -0.092718035 0.48258895 4278914573
0.43551606 -0.086666375 0.48522857 4278718217
0.43511254 -0.086536646 0.48523059 4278586631
0.43473801 -0.086323291 0.48527938 4278587142
0.43439174 -0.086026087 0.48537493 4278587142
0.43404448 -0.085728586 0.48547047 4278652935
0.43366799 -0.085514605 0.48551926 4278652935
0.433375 -0.085048661 0.48570836 4278718215
0.43308005 -0.084582105 0.48589742 4278652422
0.43275562 -0.084198982 0.48603976 4278784010
0.4324297 -0.083815396 0.48618209 4278981389
0.43210229 -0.083431333 0.48632443 4278586891
0.43174666 -0.083131135 0.48642004 4278586891
0.43141654 -0.082746178 0.48656237 4278586895
0.43108496 -0.082360774 0.48670477 4278586893
0.41648135 -0.037983075 0.50680399 4280164375
0.41596487 -0.037817016 0.50680655 4280492311
0.4154484 -0.037650958 0.50680918 4281214751
0.41491872 -0.037573606 0.50676495 4281477923
0.41440248 -0.037407622 0.50676751 4281546026
0.41388625 -0.037241653 0.50677013 4282138163
0.41337001 -0.037075669 0.50677276 4282269492
0.412866 -0.03682068 0.50682223 4282597689
0.41233757 -0.036743715 0.50677794 4282729275
0.41183305 -0.036488563 0.50682741 4283124029
0.45275742 -0.10134093 0.48098457 4279178768
0.45233533 -0.101298 0.4809396 4279178768
0.45195574 -0.10117596 0.4809415 4279178768
0.45153436 -0.10113328 0.4808965 4279047182
0.45115504 -0.10101131 0.48089841 4279243538
0.45077568 -0.10088935 0.48090035 4279243791
0.45043737 -0.10068778 0.48094916 4279243791
0.4500578 -0.10056573 0.48095107 4279243791
0.44967821 -0.10044369 0.48095298 4279177998
0.44929862 -0.10032164 0.48095492 4279177998
0.44895908 -0.10011968 0.48100376 4279177998
0.44857925 -0.09999755 0.48100567 4279046929
0.44819942 -0.099875428 0.48100758 4279046929
0.44781959 -0.099753305 0.48100948 4279243021
0.4474788 -0.099550948 0.48105836 4279308814
0.44709873 -0.099428743 0.48106027 4279308814
0.44671863 -0.099306539 0.48106217 4279177996
0.44637689 -0.099103846 0.48111102 4279046410
0.44599655 -0.098981559 0.48111296 4278981138
0.44569188 -0.098698027 0.48120871 4278980886
0.44531107 -0.098575585 0.48121065 4278981136
0.44500491 -0.098291561 0.48130643 4278915343
0.44473487 -0.097926334 0.48144916 4278981389
0.44457388 -0.0973178 0.4817327 4278981389
0.44430014 -0.096951395 0.48187545 4278784010
0.44398856 -0.096665621 0.48197126 4278981389
0.44367599 -0.096379533 0.48206711 4279112205
0.44336247 -0.096093133 0.48216292 4279046161
0.44304794 -0.095806405 0.48225874 4279046410
0.44273242 -0.095519364 0.48235458 4279046410
0.44234568 -0.095395014 0.48235655 4279177228
0.44202867 -0.095107511 0.48245239 4278914826
0.44164142 -0.094982997 0.48245433 4278849033
0.44128859 -0.09477675 0.48250324 4278849033
0.44093522 -0.094570354 0.48255214 4278717964
0.4405475 -0.094445691 0.48255411 4278848782
0.44015977 -0.094321027 0.48255605 4278783757
0.43980545 -0.094114304 0.48260498 4278718469
0.43941748 -0.093989566 0.48260695 4278718469
0.43902948 -0.093864813 0.48260888 4278652422
0.43867415 -0.093657762 0.48265779 4278848780
0.43831834 -0.093450576 0.48270673 4278848780
0.43792987 -0.093325675 0.48270869 4278914573
0.43754143 -0.093200773 0.48271063 4278848780
0.4371846 -0.092993259 0.48275957 4278848782
0.43689016 -0.092620194 0.48290241 4278783759
0.43502015 -0.086822331 0.4855507 4278520585
0.43464583 -0.086609185 0.4855997 4278652422
0.43429974 -0.086312309 0.48569572 4278652422
0.43395263 -0.08601512 0.48579168 4278652935
0.43357635 -0.085801348 0.48584071 4278652935
0.43322754 -0.085503593 0.4859367 4278652424
0.43287775 -0.085205525 0.48603272 4278652171
0.43255442 -0.084823176 0.48617575 4278783757
0.43222961 -0.08444038 0.48631874 4278718217
0.43190333 -0.084057063 0.48646176 4278717966
0.43154886 -0.083757505 0.48655778 4278652171
0.43119338 -0.083457619 0.4866538 4278652171
0.43086314 -0.083073065 0.48679686 4278783757
0.41644219 -0.037977025 0.50741494 4280164375
0.41592497 -0.037810728 0.50741756 4280361495
0.41539434 -0.037732899 0.50737309 4281280544
0.41487738 -0.037566692 0.50737572 4281412130
0.4143604 -0.037400469 0.50737834 4281611562
0.41384342 -0.037234247 0.50738096 4282334515
0.41331404 -0.037156835 0.5073365 4282400306
0.41280949 -0.036901817 0.50738615 4282531383
0.41229251 -0.036735609 0.50738877 4282728762
0.41177556 -0.036569387 0.50739139 4283124031
0.45430422 -0.10186245 0.4814167 4279375126
0.45392388 -0.10174017 0.48141864 4279309333
0.45341465 -0.10185443 0.48127916 4279440149
0.45303506 -0.10173238 0.48128107 4279243791
0.4525705 -0.10176834 0.48118871 4279178768
0.45219141 -0.10164645 0.48119062 4279112975
0.45181233 -0.10152457 0.48119256 4279112975
0.45143324 -0.10140268 0.48119447 4279046929
0.45105413 -0.10128079 0.48119637 4279243542
0.45067504 -0.1011589 0.48119828 4279112722
0.45029593 -0.10103702 0.48120022 4279178768
0.44995761 -0.10083558 0.48124927 4279112975
0.44957826 -0.10071361 0.48125118 4279243540
0.44923916 -0.10051192 0.48130023 4279243791
0.44885957 -0.10038988 0.48130214 4279177998
0.44848001 -0.10026783 0.48130405 4279177745
0.44810042 -0.10014579 0.48130596 4279177745
0.44772083 -0.10002375 0.48130789 4279243021
0.44734123 -0.099901699 0.4813098 4279243021
0.44700044 -0.09969946 0.48135889 4279308814
0.44662058 -0.099577338 0.48136079 4279308812
0.44627905 -0.099374861 0.48140985 4279177226
0.44589895 -0.099252656 0.48141178 4278915596
0.44555667 -0.099049933 0.48146087 4278915345
0.44521388 -0.098847076 0.48150992 4278981389
0.44487062 -0.098644048 0.48155901 4278915596
0.44448978 -0.098521605 0.48156092 4278915596
0.44418257 -0.098237507 0.48165715 4278981389
0.44387439 -0.097953081 0.48175341 4278914826
0.44349259 -0.097830325 0.48175535 4279046412
0.44311076 -0.09770757 0.48175728 4279046412
0.44256589 -0.09595713 0.48256493 4279046410
0.44221497 -0.095751643 0.48261404 4279046412
0.44186354 -0.095546007 0.48266315 4279045642
0.4415462 -0.095258653 0.48275945 4278848780
0.44119355 -0.095052615 0.48280856 4278914573
0.44084042 -0.094846413 0.4828577 4278783759
0.44045293 -0.094721824 0.48285964 4278848782
0.44009906 -0.094515398 0.48290879 4278848780
0.43971133 -0.094390735 0.48291072 4278783492
0.43935671 -0.094184056 0.48295987 4278783492
0.43893588 -0.094141409 0.48291466 4278783238
0.43858075 -0.093934566 0.4829638 4278849033
0.43819278 -0.093809828 0.48296574 4278848782
0.43777269 -0.093767419 0.48292053 4278782989
0.43738496 -0.093642756 0.48292246 4278782989
0.43699723 -0.093518093 0.48292443 4278914575
0.43667227 -0.093228266 0.48302078 4278915345
0.43628407 -0.093103454 0.48302272 4278652171
0.434957 -0.08702448 0.48591757 4278586378
0.43455374 -0.086894825 0.48591959 4278718217
0.4342078 -0.086598277 0.48601604 4278783757
0.43383247 -0.086384937 0.48606527 4278783757
0.43345663 -0.086171433 0.4861145 4278652424
0.43308032 -0.08595778 0.48616377 4278652171
0.43273115 -0.085660219 0.48626021 4278717966
0.43235362 -0.085446149 0.48630947 4278783759
0.43202993 -0.085064098 0.48645315 4278717964
0.43167782 -0.084765553 0.48654962 4278717968
0.43135142 -0.084382653 0.48669329 4278717966
0.4309971 -0.084083393 0.48678976 4278717966
0.4306418 -0.083783835 0.48688626 4278783759
0.41585761 -0.037981719 0.50793535 4280295702
0.41534016 -0.037815347 0.50793797 4281214749
0.41482267 -0.037648961 0.50794059 4281412128
0.41430521 -0.037482589 0.50794321 4281742376
0.41378775 -0.037316218 0.50794584 4282137904
0.41327029 -0.037149832 0.5079484 4282268720
0.41275284 -0.03698346 0.50795102 4282662195
0.41223535 -0.036817089 0.50795364 4282859574
0.41171789 -0.036650717 0.50795627 4283123518
0.41120043 -0.036484331 0.50795889 4283254852
0.45462501 -0.10217539 0.4817608 4279112472
0.45415783 -0.10221025 0.481668 4279440151
0.45373482 -0.10216676 0.48162258 4279440151
0.45331228 -0.10212343 0.48157713 4279440151
0.45289025 -0.10208026 0.48153168 4279374354
0.45251116 -0.10195838 0.48153359 4279309584
0.45213205 -0.10183649 0.48153549 4279243791
0.45175296 -0.1017146 0.48153743 4279243791
0.45137388 -0.10159272 0.48153934 4279243791
0.45099479 -0.10147083 0.48154125 4279243540
0.45061567 -0.10134894 0.48154315 4279112722
0.45023659 -0.10122705 0.48154509 4279178768
0.44985747 -0.10110517 0.481547 4279112975
0.44947839 -0.10098328 0.48154891 4279112724
0.4490993 -0.10086139 0.48155081 4279177998
0.44872022 -0.10073951 0.48155272 4279112205
0.4483411 -0.10061762 0.48155463 4279177745
0.44796202 -0.10049573 0.48155653 4279177745
0.44762215 -0.10029393 0.48160583 4279308557
0.44720381 -0.10025196 0.48156038 4279308557
0.44682473 -0.10013007 0.48156229 4279243021
0.44644564 -0.10000818 0.48156419 4279308814
0.44610479 -0.09980607 0.48161349 4279243021
0.44568744 -0.099764414 0.48156804 4278915596
0.44534612 -0.099562138 0.48161733 4278981136
0.44500428 -0.099359713 0.48166662 4278981389
0.44466195 -0.099157125 0.48171592 4278915596
0.44431913 -0.098954372 0.48176521 4278915596
0.44397581 -0.098751456 0.4818145 4278915596
0.44359547 -0.098629169 0.48181644 4278914826
0.44325143 -0.098426044 0.48186573 4279177228
0.44290686 -0.09822274 0.48191506 4279177228
0.44256184 -0.098019272 0.48196435 4278914575
0.44225183 -0.097734541 0.48206106 4278914824
0.4420844 -0.096107796 0.48287061 4279046412
0.44173342 -0.095902428 0.48291996 4279045642
0.44141653 -0.095615476 0.4830167 4278914826
0.44109863 -0.095328227 0.48311344 4279046412
0.44074571 -0.095122233 0.48316279 4278915345
0.44039226 -0.094916075 0.48321214 4278783757
0.4400048 -0.094791487 0.48321411 4278849033
0.43965062 -0.094585091 0.48326346 4278783492
0.4392629 -0.094460428 0.4832654 4278783492
0.43887517 -0.094335765 0.48326737 4278914308
0.43848744 -0.094211102 0.48326933 4278849033
0.43809971 -0.094086438 0.48327127 4278782987
0.43771198 -0.093961775 0.48327324 4278782987
0.43732426 -0.093837112 0.4832752 4278782987
0.43690494 -0.093794823 0.48322976 4278783759
0.4365488 -0.093587786 0.48327911 4278915345
0.43616107 -0.093463123 0.48328108 4278652173
0.43580419 -0.093255863 0.48333043 4278652171
0.43544683 -0.093048424 0.48337981 4278717964
0.43411595 -0.086883992 0.48633593 4278717964
0.43374082 -0.086670861 0.48638538 4278783757
0.43333706 -0.086541042 0.48638743 4278652171
0.4329612 -0.086327672 0.48643687 4278652173
0.43261248 -0.086030498 0.48653376 4278717966
0.43226275 -0.085733011 0.48663068 4278783759
0.43188491 -0.085519001 0.48668015 4278717966
0.43156037 -0.085137084 0.48682451 4278717964
0.43120772 -0.084838629 0.48692143 4278848782
0.43085405 -0.08453989 0.48701835 4278914575
0.43044707 -0.084409043 0.4870204 4278848782
0.41632169 -0.038231343 0.50849849 4279704594
0.41580373 -0.038064808 0.50850111 4280360723
0.41525912 -0.038074747 0.50840873 4281018394
0.41476783 -0.037731737 0.50850636 4281281566
0.41424987 -0.037565202 0.50850898 4281741863
0.41373193 -0.037398666 0.50851154 4282137134
0.41321397 -0.037232131 0.50851417 4282203181
0.412696 -0.037065595 0.50851679 4282531633
0.4121899 -0.036810353 0.50856692 4282729012
0.41166008 -0.03673254 0.50852203 4283123518
0.4111535 -0.036477134 0.50857216 4283189313
0.45537022 -0.10253243 0.4821505 4279244561
0.45481414 -0.10272318 0.48196214 4279243791
0.45443454 -0.10260113 0.48196405 4279243288
0.45401156 -0.10255753 0.48191839 4279440151
0.45363224 -0.10243556 0.4819203 4279243542
0.45325288 -0.10231359 0.48192221 4279309335
0.45283088 -0.10227031 0.48187655 4279308561
0.4524518 -0.10214841 0.48187846 4279243791
0.45203054 -0.10210538 0.4818328 4279309333
0.45165169 -0.10198357 0.48183471 4279243538
0.45127285 -0.10186176 0.48183662 4279243538
0.450894 -0.10173995 0.48183852 4279243540
0.45051515 -0.10161815 0.48184043 4279046929
