# .PCD v0.7 - Point Cloud Data file format
VERSION 0.7
FIELDS x y z rgb
SIZE 4 4 4 4
TYPE F F F U
COUNT 1 1 1 1
WIDTH 1053
HEIGHT 1
VIEWPOINT 0 0 0 1 0 0 0
POINTS 1053
DATA ascii
0.44359738 -0.096354499 0.49849945 4279636499
0.44307378 -0.096315771 0.49845278 4279702292
0.4426024 -0.096365258 0.49842963 4279439890
0.44207707 -0.096327096 0.49838296 4279243538
0.44160444 -0.096376985 0.4983598 4279243021
0.44113132 -0.096427023 0.49833667 4279243021
0.44065771 -0.096477255 0.49831349 4278915596
0.44018361 -0.096527621 0.49829036 4278587663
0.43970901 -0.096578151 0.4982672 4278586893
0.43923393 -0.09662883 0.49824405 4278651403
0.43875837 -0.096679688 0.49822089 4278454024
0.43839312 -0.096905038 0.49824476 4278716424
0.43797269 -0.097043127 0.49824512 4278585091
0.43749636 -0.097094223 0.49822196 4278454275
0.43713185 -0.09731932 0.49824581 4278520585
0.43659866 -0.097283766 0.49819916 4278520585
0.43617776 -0.097422034 0.49819952 4278520335
0.43575686 -0.097560287 0.49819988 4278782991
0.4352788 -0.097611949 0.49817672 4278981138
0.43485767 -0.097750291 0.49817708 4278981138
0.4344365 -0.097888634 0.49817744 4279046929
0.43407321 -0.098113328 0.49820131 4279047182
0.43365231 -0.098251596 0.49820164 4279243789
0.43323141 -0.098389849 0.498202 4279375124
0.43281049 -0.098528102 0.49820235 4279243538
0.43244845 -0.098752365 0.49822623 4279504913
0.43208688 -0.098976508 0.49825007 4279439373
0.4317258 -0.099200472 0.49827394 4279177745
0.43136522 -0.099424273 0.49829781 4279178515
0.43100515 -0.099647924 0.49832165 4279177747
0.43070567 -0.099957019 0.49836904 4279177747
0.43034679 -0.10018025 0.49839288 4279177745
0.430049 -0.1004888 0.49844024 4279047442
0.4297522 -0.100797 0.49848759 4279046931
0.42945641 -0.1011049 0.49853495 4279243540
0.42916158 -0.10141246 0.4985823 4279309333
0.42880616 -0.10163456 0.49860618 4279309083
0.42851305 -0.10194156 0.49865353 4279177497
0.42828298 -0.10233322 0.4987244 4279243542
0.42792982 -0.10255459 0.49874824 4279504915
0.42763966 -0.10286061 0.4987956 4279112472
0.4272877 -0.1030816 0.49881944 4278915093
0.42699927 -0.10338706 0.4988668 4279047446
0.42664853 -0.10360762 0.49889064 4279178519
0.42623475 -0.10374354 0.498891 4279375898
0.42588478 -0.10396385 0.49891484 4279639070
0.42547125 -0.10409969 0.4989152 4279704863
0.42505771 -0.10423553 0.49891555 4279704863
0.42470872 -0.10445553 0.49893939 4280034341
0.42429543 -0.10459128 0.49893975 4280034341
0.42394716 -0.10481106 0.49896359 4281545001
0.42346889 -0.10486279 0.49894044 4281873966
0.47758314 -0.10373601 0.50301033 4279177745
0.47724545 -0.10395229 0.50303394 4279046929
0.47687131 -0.10407518 0.50303423 4278981136
0.47653437 -0.10429123 0.50305784 4278981389
0.47616047 -0.10441405 0.50305814 4278981389
0.47578657 -0.10453686 0.50305843 4279242768
0.4754127 -0.10465968 0.50305879 4279176977
0.4750388 -0.10478249 0.50305909 4279046161
0.45830497 -0.095634297 0.49983519 4278981136
0.45785156 -0.095677868 0.49981228 4278981136
0.45735207 -0.095631212 0.49976611 4279177747
0.45689741 -0.0956752 0.49974319 4279046679
0.45648831 -0.095809579 0.49974355 4278981140
0.45598662 -0.095763654 0.49969739 4279046933
0.45553049 -0.095808119 0.49967447 4279046929
0.45512065 -0.095942736 0.49967483 4279047182
0.45466381 -0.095987469 0.49965191 4279308561
0.45425373 -0.096122161 0.49965227 4279308563
0.45379612 -0.096167132 0.49962935 4279440149
0.45338577 -0.096301913 0.49962971 4279440149
0.45292744 -0.096347108 0.49960679 4279373849
0.4524686 -0.096392468 0.4995839 4279439890
0.45200926 -0.096437976 0.49956098 4279439890
0.45150068 -0.09639433 0.49951482 4279177996
0.45099109 -0.096350983 0.49946865 4279178517
0.45048055 -0.096307993 0.49942249 4279046931
0.44996899 -0.096265301 0.49937633 4279178517
0.44945648 -0.096222922 0.49933016 4279243540
0.44894296 -0.096180886 0.49928403 4279243538
0.44847873 -0.096228018 0.49926111 4279177745
0.44796348 -0.096186548 0.49921498 4279047444
0.44749802 -0.096234098 0.49919206 4279047444
0.44698104 -0.096193194 0.49914593 4278916630
0.44651434 -0.096241131 0.49912301 4279047192
0.44604713 -0.096289232 0.49910012 4279112985
0.4455277 -0.096249148 0.49905396 4279178778
0.44505927 -0.096297666 0.49903107 4279571480
0.4444859 -0.096169919 0.49896166 4279571476
0.44401601 -0.096218914 0.49893877 4279505164
0.44349289 -0.096180022 0.49889261 4279636499
0.44296879 -0.096141472 0.49884647 4279702292
0.4424969 -0.096191108 0.49882358 4279374354
0.44202453 -0.096240923 0.49880067 4279440147
0.44155169 -0.096290886 0.49877778 4279243021
0.44107831 -0.096341029 0.49875489 4279243021
0.44060445 -0.096391305 0.49873197 4278981389
0.44013011 -0.096441761 0.49870908 4278719500
0.43965524 -0.096492365 0.49868619 4278717964
0.43917993 -0.096543148 0.49866331 4278717194
0.43875927 -0.096681327 0.49866366 4278651401
0.4382278 -0.096645206 0.49861753 4278716424
0.43780664 -0.096783549 0.49861789 4278585091
0.43732959 -0.096834883 0.498595 4278454275
0.43690819 -0.0969733 0.49859536 4278454275
0.43648678 -0.097111732 0.49859568 4278520838
0.4359521 -0.097076625 0.49854955 4278520335
0.43553022 -0.097215205 0.49854991 4278652175
0.4351083 -0.097353801 0.49855027 4278915345
0.43468642 -0.097492382 0.49855062 4278915345
0.43426454 -0.097630963 0.49855098 4278981389
0.43390051 -0.097855896 0.49857458 4279047182
0.43347886 -0.097994402 0.49857494 4279243789
0.4331156 -0.098219097 0.49859855 4279178517
0.43275279 -0.098443627 0.49862215 4279112724
0.43239051 -0.098667994 0.49864575 4279308304
0.43196958 -0.098806262 0.49864611 4279439371
0.43160802 -0.099030361 0.49866971 4279177745
0.43118736 -0.099168539 0.49867007 4279309331
0.43088639 -0.09947814 0.49871689 4279309331
0.43052629 -0.099701777 0.49874049 4279243538
0.43022704 -0.1000108 0.49878734 4279243021
0.42986819 -0.10023403 0.49881095 4278981649
0.42957065 -0.1005425 0.4988578 4279177745
0.42927408 -0.10085061 0.49890465 4279243540
0.42897853 -0.10115843 0.49895146 4279375126
0.42868394 -0.1014659 0.49899831 4279177495
0.42839032 -0.10177307 0.49904516 4279177495
0.42809772 -0.1020799 0.49909198 4279177749
0.42780608 -0.1023864 0.49913883 4279504915
0.42751545 -0.1026926 0.49918565 4279046681
0.427163 -0.10291375 0.49920925 4278980888
0.42681104 -0.10313471 0.49923286 4279047192
0.42652285 -0.10344008 0.49927968 4279309335
0.42617214 -0.10366066 0.49930328 4279244058
0.42575812 -0.10379665 0.49930364 4279573790
0.42540812 -0.10401697 0.49932721 4279573790
0.4250586 -0.10423712 0.49935079 4279573790
0.4246451 -0.10437296 0.49935114 4280034341
0.42423159 -0.1045088 0.4993515 4280296228
0.42381805 -0.10464464 0.49935186 4281675300
0.42340451 -0.10478047 0.49935222 4282004265
0.47795832 -0.10361449 0.50340408 4279308561
0.47762039 -0.10383084 0.50342745 4279111954
0.47728297 -0.10404705 0.50345075 4278981140
0.47690907 -0.10416986 0.50345105 4278981138
0.47653517 -0.10429268 0.50345135 4278915345
0.4761613 -0.10441549 0.5034517 4279046931
0.4757874 -0.10453831 0.503452 4279308306
0.4754135 -0.10466112 0.5034523 4279176975
0.4750396 -0.10478394 0.50345266 4279111952
0.45975184 -0.095687687 0.50037873 4279112455
0.4593004 -0.095730618 0.50035608 4278981138
0.45880362 -0.095683068 0.50031042 4279046929
0.45830587 -0.095635876 0.50026476 4278981136
0.45785242 -0.095679447 0.50024211 4279046929
0.45735297 -0.095632792 0.50019646 4279112474
0.45694411 -0.095767096 0.50019681 4279046933
0.45648921 -0.095811173 0.50017416 4278981140
0.45603383 -0.0958554 0.50015152 4278981140
0.45557791 -0.095899776 0.50012887 4278981138
0.45512155 -0.09594433 0.50010622 4279047182
0.45466468 -0.095989048 0.50008357 4279308563
0.45420733 -0.096033946 0.50006092 4279308563
0.45379698 -0.096168727 0.50006127 4279374356
0.45338666 -0.096303508 0.50006157 4279374356
0.45292833 -0.096348703 0.50003892 4279308563
0.4524695 -0.096394062 0.50001627 4279308561
0.45201015 -0.096439585 0.49999365 4279440147
0.45150155 -0.096395925 0.49994799 4279374607
0.45099199 -0.096352592 0.49990237 4279243542
0.45048144 -0.096309587 0.49985671 4279440149
0.44996989 -0.096266896 0.49981108 4279505942
0.44950712 -0.096313551 0.49978843 4279374354
0.44899386 -0.09627144 0.49974281 4279243791
0.44847962 -0.096229628 0.49969715 4279309584
0.44796437 -0.096188158 0.49965152 4279047444
0.44749892 -0.096235722 0.49962887 4278981651
0.44698197 -0.096194804 0.49958324 4278916376
0.44651523 -0.096242741 0.49956059 4279047194
0.44594508 -0.09611395 0.49949196 4279047192
0.44542518 -0.096074015 0.49944633 4279178778
0.44495624 -0.096122697 0.49942368 4279374358
0.44448683 -0.096171543 0.49940106 4279571476
0.44396445 -0.096132398 0.49935544 4279636237
0.44344109 -0.09609361 0.49930981 4279636237
0.44296971 -0.096143097 0.49928716 4279636499
0.44244462 -0.096104845 0.49924153 4279243542
0.44202545 -0.096242547 0.49924189 4279112724
0.44149888 -0.096204802 0.49919626 4279177998
0.44102526 -0.096255004 0.49917361 4279177998
0.44055116 -0.09630537 0.49915099 4279243538
0.44007659 -0.0963559 0.49912834 4279047182
0.43960148 -0.096406594 0.49910572 4279177226
0.43912593 -0.096457481 0.4990831 4279177226
0.43864986 -0.096508503 0.49906045 4278979847
0.43817329 -0.096559674 0.49903783 4278782470
0.43769622 -0.096611023 0.49901518 4278585091
0.43716279 -0.096575528 0.49896955 4278323459
0.43668449 -0.09662728 0.49894693 4278323459
0.4363749 -0.096939683 0.49899328 4278455045
0.43578309 -0.096818015 0.49892467 4278520337
0.43536046 -0.096956834 0.49892503 4278586382
0.43499497 -0.097182259 0.49894837 4278718730
0.43457258 -0.097321004 0.49894872 4278718730
0.43415022 -0.097459748 0.49894908 4278916109
0.43378568 -0.097684845 0.49897242 4279309582
0.43336356 -0.097823501 0.49897277 4279243789
0.43299979 -0.098048344 0.49899611 4279178517
0.4326365 -0.098273039 0.49901947 4279046931
0.43221486 -0.098411545 0.49901983 4279242768
0.43185228 -0.098636001 0.49904317 4279374350
0.43143088 -0.098774418 0.49904352 4279243791
0.43106908 -0.098998621 0.49906686 4279177745
0.4307676 -0.099308357 0.49911317 4279177745
0.43034697 -0.099446535 0.49911353 4279177998
0.43004695 -0.099755809 0.49915987 4279308561
0.42974794 -0.10006474 0.49920619 4279112722
0.42944992 -0.10037336 0.49925253 4279178515
0.42915285 -0.10068165 0.49929884 4279177745
0.42879549 -0.10090439 0.49932218 4279243538
0.42850015 -0.10121211 0.49936849 4279374356
0.42820582 -0.10151953 0.49941483 4279374104
0.42791247 -0.10182659 0.49946114 4279111702
0.42762008 -0.10213335 0.49950746 4279308563
0.42732871 -0.10243976 0.4995538 4279047196
0.42703831 -0.10274588 0.49960011 4279178782
0.42668587 -0.10296702 0.49962345 4278982171
0.4263972 -0.10327256 0.49966976 4279243542
0.42604595 -0.10349329 0.4996931 4279505944
0.42569524 -0.10371384 0.4997164 4279507484
0.425345 -0.10393426 0.49973974 4279573277
0.42493096 -0.10407025 0.49974009 4279573790
0.42451695 -0.10420625 0.49974045 4280163872
0.42416769 -0.10442632 0.49976379 4280426789
0.42375392 -0.10456224 0.49976414 4281281324
0.42334014 -0.10469817 0.49976447 4281478703
0.4229264 -0.10483406 0.49976483 4282794555
0.47829756 -0.10339941 0.50377512 4279308561
0.47799537 -0.1037094 0.5038209 4279308561
0.4776212 -0.10383229 0.50382125 4279242768
0.47728378 -0.10404849 0.50384426 4279046161
0.47690988 -0.10417131 0.50384462 4279111954
0.47653598 -0.10429412 0.50384492 4279111956
0.47616211 -0.10441695 0.50384521 4279177749
0.47582588 -0.10463275 0.50386828 4279308306
0.47541431 -0.10466258 0.50384587 4279176977
0.47504041 -0.1047854 0.50384617 4279111954
0.46020368 -0.095646486 0.5008294 4278915076
0.45975274 -0.095689267 0.50080699 4279112455
0.45930126 -0.095732197 0.50078458 4278981140
0.45880449 -0.095684648 0.50073946 4279046933
0.45835182 -0.09572801 0.50071704 4279111954
0.45789865 -0.095771506 0.50069463 4279177747
0.45744497 -0.095815167 0.50067228 4279177499
0.456945 -0.095768675 0.50062716 4279046933
0.4564901 -0.095812753 0.50060475 4278981140
0.45603472 -0.095856979 0.50058234 4278981140
0.4555788 -0.09590137 0.50055999 4278981138
0.45512244 -0.095945925 0.50053757 4279047182
0.45466557 -0.095990643 0.50051516 4279308563
0.4542082 -0.09603554 0.50049281 4279308563
0.45379788 -0.096170321 0.50049311 4279440149
0.45333979 -0.096215427 0.50047076 4279374356
0.45288119 -0.096260712 0.50044835 4279374099
0.45247036 -0.096395656 0.5004487 4279308814
0.45201105 -0.09644118 0.50042629 4279374607
0.45150244 -0.096397519 0.50038117 4279374607
0.45099288 -0.096354187 0.50033605 4279374358
0.45048234 -0.096311197 0.50029093 4279374356
0.44997078 -0.096268505 0.50024581 4279440149
0.44945827 -0.096226141 0.50020069 4279243538
0.44899476 -0.09627305 0.50017834 4279374607
0.44848052 -0.096231237 0.50013322 4279309331
0.44796529 -0.096189767 0.5000881 4278981653
0.44744909 -0.096148625 0.50004297 4278981653
0.44698286 -0.096196413 0.50002056 4278916376
0.44651613 -0.09624435 0.49999818 4279047964
0.44594598 -0.096115574 0.49993032 4279047192
0.44547778 -0.096164018 0.49990797 4279112985
0.44490519 -0.096036032 0.49984011 4279309333
0.44443554 -0.096084952 0.49981773 4279571476
0.44391289 -0.096045896 0.49977261 4279636239
0.4433893 -0.096007198 0.49972752 4279636239
0.44291764 -0.096056759 0.49970514 4279439892
0.44244552 -0.096106485 0.49968275 4279243290
0.44191948 -0.096068576 0.49963763 4279112726
0.44144613 -0.096118703 0.49961525 4279046929
0.44097227 -0.09616898 0.4995929 4278981136
0.44049791 -0.096219435 0.49957052 4279440400
0.44002306 -0.096270055 0.49954814 4279243791
0.43949306 -0.096233457 0.49950302 4279308809
0.43907192 -0.096371785 0.49950337 4279243016
0.43859559 -0.096422896 0.49948102 4279177228
0.43811882 -0.096474156 0.49945864 4278848010
0.43758583 -0.096438512 0.49941355 4278584838
0.4371078 -0.096490175 0.49939117 4278454792
0.43657312 -0.096455082 0.49934605 4278323206
0.43609387 -0.096507162 0.4993237 4278454792
0.43567073 -0.096646145 0.49932405 4278520337
0.43524763 -0.096785128 0.49932441 4278586380
0.4348245 -0.096924126 0.49932477 4278587144
0.43440136 -0.097063109 0.49932513 4278652937
0.43403587 -0.097288519 0.49934819 4278981389
0.43367088 -0.09751378 0.49937129 4279374607
0.43324822 -0.097652599 0.49937165 4279243791
0.43288398 -0.097877622 0.49939471 4279112722
0.43246156 -0.098016366 0.49939507 4279046929
0.43209803 -0.098241135 0.49941817 4279308304
0.43167591 -0.098379806 0.49941853 4279374350
0.43137246 -0.098690182 0.49946433 4279112724
0.43095082 -0.098828688 0.49946469 4279046931
0.43058902 -0.099052891 0.49948779 4279112724
0.43028778 -0.099362567 0.49953359 4279243538
0.4299272 -0.099586338 0.49955666 4279308563
0.4295671 -0.099809989 0.49957976 4279309333
0.42926836 -0.10011885 0.49962556 4279178515
0.42897058 -0.10042737 0.49967137 4279112722
0.42867374 -0.10073559 0.49971718 4279112722
0.42831638 -0.10095835 0.49974024 4279439892
0.42808312 -0.10135102 0.49980879 4279242520
0.42778927 -0.10165827 0.49985456 4279242772
0.4274964 -0.10196517 0.49990037 4279177747
0.42714196 -0.10218696 0.49992347 4279177747
0.42685083 -0.1024933 0.49996924 4279112989
0.42656067 -0.10279933 0.50001508 4278982173
0.4262715 -0.10310502 0.50006086 4279112472
0.4259198 -0.10332592 0.50008392 4279637530
0.42556858 -0.10354663 0.50010699 4279507484
0.42521784 -0.1037672 0.50013006 4279507484
0.4248676 -0.1039876 0.50015318 4279639068
0.42451787 -0.10420786 0.50017625 4280098077
0.42410386 -0.10434385 0.50017655 4280360996
0.42368981 -0.10447983 0.50017691 4280755754
0.42334107 -0.10469976 0.50019997 4281150512
0.42286178 -0.10475184 0.50017762 4282531131
0.47863731 -0.10318418 0.50414664 4279243021
0.47829837 -0.10340087 0.5041694 4279177996
0.47795996 -0.1036174 0.50419223 4279177996
0.47762203 -0.10383375 0.504215 4279308812
0.47728458 -0.10404995 0.50423783 4279111954
0.47691068 -0.10417277 0.50423813 4279111954
0.47653681 -0.10429558 0.50423849 4279046161
0.47616291 -0.1044184 0.50423878 4279111954
0.47578901 -0.10454121 0.50423908 4279111954
0.47537717 -0.10457113 0.50421691 4279111954
0.46069887 -0.095696405 0.501302 4279112457
0.46024865 -0.095738932 0.50127983 4279046664
0.4597536 -0.095690846 0.50123525 4278981387
0.45930216 -0.095733777 0.50121307 4278981140
0.45889503 -0.0958675 0.50121343 4279177749
0.45839775 -0.095820129 0.50116885 4279176979
0.45794484 -0.095863566 0.50114667 4279242772
0.45744586 -0.095816761 0.50110209 4279177749
0.45699167 -0.095860586 0.50107992 4279046931
0.45653704 -0.095904559 0.5010578 4279046931
0.4560819 -0.095948726 0.50103569 4279112724
0.45562625 -0.095993027 0.50101352 4279177745
0.45512331 -0.095947519 0.50096893 4279112975
0.45466647 -0.095992237 0.50094682 4279177745
0.45420909 -0.09603712 0.50092471 4279308563
0.45379877 -0.096171916 0.500925 4279374356
0.45334068 -0.096217021 0.50090289 4279309085
0.45288208 -0.096262306 0.50088078 4279374104
0.45242301 -0.09630774 0.5008586 4279374350
0.45196342 -0.096353352 0.50083649 4279440143
0.45150334 -0.096399128 0.50081438 4279308814
0.45099378 -0.096355781 0.50076979 4279374356
0.45048323 -0.096312791 0.50072515 4279308561
0.44997168 -0.096270099 0.50068057 4279374354
0.44950891 -0.096316755 0.50065845 4279243538
0.44899565 -0.096274644 0.50061381 4279309331
0.44848141 -0.096232846 0.50056922 4279178517
0.44796619 -0.096191376 0.50052464 4279113235
0.44744998 -0.096150234 0.50048006 4279113235
0.44698375 -0.096198022 0.50045788 4279113237
0.44646579 -0.096157432 0.5004133 4279310364
0.44594687 -0.096117184 0.50036871 4279046933
0.44537526 -0.095988885 0.50030166 4279112726
0.44490609 -0.096037656 0.50027949 4279571729
0.44438422 -0.095998362 0.5002349 4279505683
0.44386137 -0.095959395 0.50019032 4279374099
0.4433375 -0.095920771 0.50014573 4279439892
0.44286561 -0.095970407 0.50012362 4279243288
0.44239324 -0.096020222 0.50010151 4279046683
0.44186693 -0.095982388 0.50005692 4279112726
0.44139332 -0.096032605 0.50003481 4279046933
0.44091922 -0.09608297 0.50001264 4279046933
0.44039047 -0.096045971 0.49996808 4279309333
0.43996957 -0.096184224 0.49996844 4279243791
0.43949398 -0.096235082 0.49994633 4279308807
0.43901792 -0.096286103 0.49992421 4279308807
0.43854135 -0.096337289 0.4999021 4279308809
0.43806431 -0.096388623 0.49987996 4279438607
0.43753111 -0.096353069 0.49983537 4278913805
0.43699691 -0.096317813 0.49979079 4278454542
0.43651789 -0.096369818 0.4997687 4278322956
0.43603837 -0.096421972 0.49974659 4278389516
0.43555838 -0.09647429 0.49972448 4278520335
0.43513477 -0.096613437 0.49972484 4278651401
0.43471116 -0.096752599 0.49972519 4278717194
0.43434492 -0.096978247 0.49974802 4278783240
0.43392155 -0.09711732 0.49974838 4278784010
0.43355605 -0.09734273 0.49977121 4279177228
0.43313292 -0.097481713 0.49977157 4279112724
0.43276817 -0.097706884 0.49979436 4279309331
0.43234527 -0.097845778 0.49979472 4279243538
0.43198127 -0.098070726 0.49981755 4279242770
0.43161774 -0.098295495 0.49984038 4279308563
0.43119532 -0.09843424 0.49984074 4279046933
0.43083254 -0.09865877 0.49986356 4279046679
0.43047023 -0.098883122 0.49988639 4279112472
0.43010843 -0.099107325 0.49990922 4279244310
0.42980745 -0.099416912 0.49995452 4279440149
0.42944688 -0.099640727 0.49997732 4279309333
0.42908677 -0.099864334 0.50000012 4279113235
0.42878824 -0.10017312 0.50004542 4279113235
0.42849073 -0.10048157 0.50009072 4279047446
0.42819417 -0.10078968 0.50013602 4279047444
0.42789859 -0.10109749 0.50018132 4279112726
0.42760402 -0.10140495 0.50022656 4279439894
0.42731041 -0.10171212 0.50027186 4279439890
0.42701781 -0.10201894 0.50031716 4279374097
0.42672616 -0.10232545 0.50036246 4279046429
0.4264355 -0.10263164 0.5004077 4279112989
0.42614585 -0.10293749 0.500453 4279243542
0.42585716 -0.10324304 0.50049829 4279506714
0.42544192 -0.10337944 0.50049865 4279310366
0.42515472 -0.10368448 0.50054389 4279376159
0.42480424 -0.10390498 0.50056672 4279704861
0.42445424 -0.10412529 0.50058955 4280098077
0.42403996 -0.10426137 0.50058991 4280098081
0.42362571 -0.10439745 0.50059026 4280427564
0.42321146 -0.10453352 0.50059056 4280690736
0.4227972 -0.1046696 0.50059092 4281413684
0.47863811 -0.10318564 0.50454122 4279308561
0.4782992 -0.10340232 0.50456375 4279177998
0.47796077 -0.10361885 0.50458628 4279177998
0.47762284 -0.1038352 0.50460881 4279112205
0.4772487 -0.10395809 0.50460917 4279046161
0.47691149 -0.10417421 0.5046317 4279111956
0.47653762 -0.10429703 0.504632 4279046161
0.47616372 -0.10441984 0.50463235 4279111954
0.47578982 -0.10454266 0.50463265 4279111956
0.47541592 -0.10466547 0.50463295 4278981138
0.46164206 -0.095704511 0.50179547 4279309066
0.46119308 -0.095746636 0.5017736 4279178250
0.46069974 -0.095697984 0.50172949 4279177996
0.46024954 -0.095740512 0.50170761 4279112203
0.45979881 -0.095783219 0.50168574 4279112205
0.45934761 -0.095826074 0.50166386 4278915345
0.45889592 -0.095869094 0.50164199 4279046163
0.45839864 -0.095821708 0.50159788 4278915347
0.4579004 -0.09577468 0.50155377 4278981140
0.45749229 -0.095908731 0.50155413 4278981140
0.45699257 -0.095862165 0.50151002 4279177749
0.4565379 -0.095906153 0.50148815 4279309083
0.45608276 -0.09595032 0.50146627 4279243290
0.45562714 -0.095994622 0.5014444 4279374097
0.4551242 -0.095949098 0.50140029 4279308812
0.45466736 -0.095993832 0.50137842 4279243540
0.45420998 -0.096038714 0.50135654 4279309081
0.45379966 -0.096173495 0.5013569 4279243288
0.45334157 -0.096218616 0.50133502 4279309081
0.45288298 -0.0962639 0.50131315 4279374104
0.45242387 -0.096309334 0.50129128 4279439120
0.45196432 -0.096354961 0.5012694 4279439120
0.45150423 -0.096400723 0.50124753 4279374350
0.45099467 -0.09635739 0.50120348 4279374101
0.45048413 -0.0963144 0.50115937 4279374354
0.44997257 -0.096271709 0.50111532 4279440147
0.44946006 -0.096229345 0.50107121 4279440147
0.44899654 -0.096276253 0.50104934 4279243538
0.4484823 -0.096234456 0.50100523 4279046929
0.44796708 -0.096192986 0.50096118 4279309331
0.44745088 -0.096151859 0.50091708 4279309331
0.44693369 -0.096111029 0.50087303 4279309331
0.44646671 -0.096159056 0.50085115 4279375124
0.44589633 -0.096030369 0.50078487 4279309331
0.44537616 -0.095990509 0.50074077 4279309331
0.44490701 -0.09603928 0.50071889 4279440141
0.44438511 -0.095999986 0.50067484 4279374354
0.44386226 -0.095961019 0.50063074 4279242768
0.44333842 -0.095922396 0.50058669 4279308561
0.44286653 -0.095972031 0.50056481 4279243542
0.44234097 -0.095933974 0.50052077 4279177749
0.44186786 -0.095984027 0.50049889 4279177749
0.44134057 -0.095946506 0.50045484 4279243540
0.44086623 -0.095996961 0.50043297 4279177747
0.44039139 -0.09604761 0.50041109 4279243540
0.43991607 -0.096098378 0.50038928 4279177745
0.43944022 -0.096149325 0.5003674 4279309064
0.43896392 -0.096200421 0.50034553 4279309064
0.43848711 -0.096251681 0.50032365 4279309062
0.4380098 -0.09630312 0.50030184 4279373327
0.43747637 -0.096267626 0.50025773 4279045139
0.43699783 -0.096319452 0.50023592 4278520335
0.43646267 -0.096284553 0.50019187 4278454542
0.43592653 -0.096249953 0.50014776 4278454796
0.43550265 -0.096389174 0.50014812 4278454796
0.4350788 -0.096528411 0.50014848 4278585608
0.43465495 -0.096667647 0.50014883 4278585608
0.43423107 -0.096806869 0.50014919 4278717447
0.43386483 -0.097032532 0.50017178 4278652424
0.43344122 -0.097171679 0.50017214 4278848780
0.43307573 -0.097397104 0.50019473 4279046679
0.43265235 -0.097536176 0.50019509 4278915093
0.43222898 -0.097675234 0.50019544 4279439892
0.43186447 -0.097900316 0.50021797 4279111956
0.43144134 -0.098039299 0.50021833 4279177747
0.43107754 -0.098264143 0.50024092 4278981138
0.43071425 -0.098488837 0.50026345 4279243538
0.43029165 -0.098627657 0.50026381 4279243538
0.42998919 -0.098937735 0.50030863 4279375124
0.42962736 -0.099161923 0.50033116 4279309333
0.42926604 -0.099385962 0.50035375 4279505685
0.42896605 -0.099695235 0.50039852 4279112726
0.42866704 -0.10000415 0.50044328 4279112726
0.42830768 -0.10022755 0.50046587 4279178267
0.4280104 -0.10053591 0.50051063 4279047446
0.42771408 -0.10084395 0.5005554 4279113239
0.42748082 -0.10123666 0.50062233 4279439894
0.42712441 -0.10145907 0.50064492 4279571476
0.42683107 -0.10176614 0.50068969 4279571476
0.42660147 -0.10215761 0.50075662 4279176995
0.4262473 -0.10237931 0.50077921 4279178015
0.42602018 -0.10276999 0.50084615 4279178265
0.42566746 -0.10299118 0.50086874 4279375128
0.42537904 -0.10329664 0.5009135 4279375396
0.42502758 -0.10351746 0.50093603 4279441189
0.4246766 -0.1037381 0.50095862 4279507745
0.42432612 -0.10395858 0.50098115 4280097827
0.42397612 -0.10417889 0.50100374 4280163617
0.4236266 -0.10439906 0.50102627 4280295460
0.42321235 -0.10453512 0.50102663 4280558632
0.4227981 -0.1046712 0.50102699 4281150512
0.4223181 -0.10472353 0.50100511 4281478441
0.47799778 -0.10371375 0.50500232 4279243791
0.4772495 -0.10395955 0.50500298 4279046163
0.47687536 -0.10408244 0.50500327 4279111702
0.47650123 -0.10420534 0.50500357 4279111954
0.47612709 -0.10432823 0.50500393 4279111954
0.47579062 -0.10454412 0.50502616 4279242772
0.46209145 -0.095664114 0.50224376 4279242511
0.46164292 -0.09570609 0.50222218 4279309066
0.46119395 -0.095748216 0.50220054 4279177996
0.46070063 -0.095699564 0.50215697 4279177998
0.46025041 -0.095742092 0.50213534 4279112205
0.45984402 -0.095875576 0.50213569 4279111952
0.4593485 -0.095827654 0.50209212 4278915345
0.45889679 -0.095870674 0.50207049 4279046163
0.45839953 -0.095823288 0.50202692 4278915860
0.4579466 -0.09586674 0.50200528 4278981653
0.45749319 -0.095910326 0.5019837 4279177749
0.45703927 -0.095954061 0.50196207 4279111956
0.4565388 -0.095907733 0.50191849 4279505690
0.45608366 -0.0959519 0.50189686 4279374104
0.45562804 -0.095996216 0.50187528 4279505166
0.45512509 -0.095950693 0.50183165 4279308812
0.45466822 -0.095995426 0.50181007 4279243542
0.45421088 -0.096040308 0.50178844 4279309081
0.45375302 -0.096085355 0.50176686 4279243288
0.45329469 -0.09613055 0.50174522 4279243288
0.45283586 -0.096175909 0.50172365 4279243542
0.45237651 -0.096221447 0.50170201 4279374350
0.45196521 -0.096356556 0.50170237 4279308557
0.45145637 -0.09631297 0.5016588 4279308555
0.45094657 -0.096269742 0.50161523 4279374099
0.45043576 -0.096226826 0.50157166 4279374354
0.44997346 -0.096273318 0.50155002 4279374354
0.44946095 -0.096230954 0.50150645 4279440147
0.44894746 -0.096188918 0.50146288 4279112724
0.4484832 -0.096236065 0.5014413 4279047442
0.44796798 -0.096194595 0.50139773 4279374354
0.44745177 -0.096153468 0.50135416 4279440147
0.44693458 -0.096112639 0.50131059 4279374354
0.44641638 -0.096072152 0.50126702 4279375377
0.44589722 -0.096031979 0.5012235 4279505940
0.44537708 -0.095992118 0.50117993 4279440147
0.44485593 -0.0959526 0.50113636 4279374605
0.44433382 -0.095913395 0.50109279 4279374354
0.4438107 -0.095874533 0.50104922 4279112205
0.44328663 -0.095835969 0.50100571 4279177998
0.4428145 -0.095885694 0.50098407 4279243538
0.4422887 -0.095847711 0.50094056 4279111954
0.44181532 -0.095897838 0.50091892 4279177747
0.44134146 -0.095948145 0.50089735 4279243540
0.44081321 -0.095910981 0.50085378 4279177747
0.44033813 -0.095961675 0.5008322 4279177745
0.43986255 -0.096012533 0.50081056 4279111952
0.43938649 -0.096063554 0.50078899 4279309064
0.43890992 -0.09611474 0.50076741 4279374857
0.43843287 -0.096166089 0.50074577 4279374857
0.43795532 -0.096217602 0.5007242 4279308557
0.43742162 -0.096182182 0.50068063 4279045139
0.43694288 -0.096234113 0.50065905 4278586128
0.43646359 -0.096286193 0.50063747 4278520335
0.43598384 -0.096338436 0.50061589 4278454794
0.43550357 -0.096390828 0.50059426 4278454796
0.43502283 -0.096443385 0.50057268 4278454022
0.43459874 -0.096582696 0.50057304 4278585608
0.434232 -0.096808523 0.50059533 4278651654
0.43380815 -0.096947744 0.50059569 4278586631
0.43338427 -0.097086981 0.50059605 4278782987
0.43296042 -0.097226202 0.5005964 4278915097
0.43253654 -0.097365439 0.50059676 4278915097
0.43217129 -0.097590774 0.50061911 4279439892
0.43174767 -0.097729921 0.50061947 4279111702
0.43138316 -0.097955018 0.50064176 4279177747
0.43095979 -0.098094091 0.50064212 4278981138
0.43059599 -0.09831892 0.50066441 4279046931
0.43017289 -0.098457918 0.50066477 4279243538
0.42980984 -0.098682508 0.50068706 4279375377
0.42950761 -0.098992497 0.50073135 4279374358
0.42914581 -0.0992167 0.50075364 4279636501
0.42878449 -0.099440724 0.50077593 4279112472
0.42848474 -0.099749908 0.50082022 4279112472
0.42818597 -0.10005876 0.50086445 4279244058
0.42788818 -0.10036728 0.50090873 4279112472
0.42759138 -0.10067548 0.50095296 4279178265
0.42729557 -0.10098335 0.50099719 4279439894
0.42700073 -0.10129091 0.50104147 4279703062
0.42670685 -0.10159814 0.5010857 4279571476
0.42641401 -0.10190505 0.50112993 4279176993
0.42612213 -0.10221164 0.50117421 4279178017
0.42583123 -0.10251789 0.50121844 4279178265
0.42554131 -0.10282382 0.50126266 4279440149
0.42525238 -0.10312943 0.50130695 4279440149
0.42496443 -0.10343474 0.50135118 4279375646
0.42461324 -0.10365547 0.50137347 4279507745
0.42426249 -0.10387602 0.50139576 4279966243
0.4238475 -0.10401236 0.50139612 4279966495
0.4234975 -0.10423265 0.50141841 4280229665
0.42314801 -0.10445282 0.5014407 4280558630
0.42273349 -0.10458899 0.50144106 4280953131
0.42225325 -0.10464138 0.50141948 4281807155
0.47796237 -0.10362175 0.50537443 4279177747
0.477588 -0.10374473 0.50537473 4279177745
0.47725031 -0.10396099 0.50539678 4279111956
0.47687617 -0.1040839 0.50539708 4279111956
0.47646484 -0.10411367 0.50537568 4279308304
0.46249747 -0.095532596 0.50266987 4279570959
0.46204922 -0.095574498 0.50264853 4279373580
0.46164382 -0.09570767 0.50264889 4279308809
0.46115124 -0.095658764 0.5026058 4279177996
0.46074533 -0.0957921 0.50260615 4279112205
0.46029538 -0.095834538 0.50258482 4279112205
0.45980057 -0.095786378 0.50254172 4279242768
0.45934936 -0.095829234 0.50252038 4279111956
0.45889765 -0.095872253 0.50249898 4279046163
0.45840043 -0.095824867 0.50245595 4278981138
0.45794749 -0.095868319 0.50243461 4279046931
0.45749408 -0.095911905 0.50241321 4279243540
0.45704013 -0.095955655 0.50239187 4279308563
0.45653969 -0.095909327 0.50234884 4279570959
0.45608455 -0.095953494 0.50232744 4279505166
0.45558235 -0.095907733 0.50228441 4279505166
0.45512599 -0.095952287 0.50226307 4279308814
0.45466912 -0.095997006 0.50224167 4279177749
0.45421177 -0.096041903 0.50222033 4279177497
0.45375392 -0.096086934 0.50219899 4279177497
0.45329556 -0.096132144 0.50217766 4279308565
0.45278871 -0.096087933 0.50213456 4279177998
0.45237738 -0.096223041 0.50213492 4279177226
0.45191759 -0.096268728 0.50211358 4279177226
0.45140851 -0.096225232 0.50207055 4279243019
0.45094746 -0.096271336 0.50204921 4279308308
0.45043665 -0.096228421 0.50200611 4279374097
0.44992489 -0.096185818 0.50196308 4279374097
0.44941211 -0.096143544 0.50192004 4279374607
0.44894835 -0.096190527 0.50189871 4279309083
0.44843388 -0.096148834 0.50185561 4279112724
0.44791839 -0.096107453 0.50181258 4279374354
0.44745266 -0.096155077 0.50179124 4279374354
0.44693547 -0.096114248 0.5017482 4279374348
0.44641727 -0.096073762 0.50170517 4279374859
0.44589812 -0.096033603 0.50166214 4279571727
0.44537798 -0.095993742 0.5016191 4279505934
0.44485682 -0.095954224 0.50157601 4279308812
0.44428253 -0.09582682 0.50151128 4279374354
0.44381163 -0.095876157 0.50148994 4279112205
0.44328755 -0.095837593 0.5014469 4279177998
0.44281542 -0.095887318 0.50142556 4279374607
0.44228959 -0.09584935 0.50138253 4279112205
0.4417628 -0.09581168 0.5013395 4279111954
0.44128871 -0.095862046 0.50131816 4279243540
0.4407602 -0.095824972 0.50127512 4279177747
0.44033903 -0.095963314 0.50127548 4279111952
0.43980902 -0.095926687 0.50123245 4279177745
0.43938738 -0.096065193 0.5012328 4279177998
0.43891084 -0.096116379 0.50121146 4279243791
0.43837863 -0.096080497 0.50116843 4279243791
0.43790084 -0.096132085 0.50114709 4279439373
0.43742254 -0.096183836 0.50112575 4279176975
0.43694377 -0.096235752 0.50110441 4279046161
0.43640837 -0.096200928 0.50106138 4278914575
0.43592834 -0.096253246 0.50104004 4278586378
0.43544787 -0.096305713 0.5010187 4278520587
0.43502375 -0.096445024 0.50101906 4278454022
0.43459964 -0.096584335 0.50101942 4278454022
0.43417555 -0.096723646 0.50101978 4278585861
0.43375143 -0.096862957 0.50102013 4278520838
0.43326944 -0.096915916 0.5009988 4278717194
0.43290323 -0.097141579 0.50102085 4278914323
0.43247908 -0.09728089 0.50102121 4278848530
0.43211359 -0.097506315 0.50104326 4279374099
0.43168974 -0.097645536 0.50104362 4279243542
0.43126589 -0.097784773 0.50104398 4279177749
0.43084201 -0.097923994 0.50104433 4279047182
0.43053734 -0.098234802 0.50108808 4279178768
0.43011397 -0.09837386 0.50108844 4279243791
0.4296906 -0.098512933 0.5010888 4279440400
0.42938787 -0.098823056 0.50113255 4279440143
0.42902559 -0.099047422 0.5011546 4279702294
0.42866379 -0.099271625 0.50117666 4279112472
0.42836353 -0.099580944 0.50122035 4279112472
0.42806426 -0.099889964 0.5012641 4279112985
0.42776597 -0.10019866 0.50130785 4279112989
0.42740685 -0.10042195 0.5013299 4279178267
0.42711031 -0.10073008 0.50137365 4279636501
0.42681473 -0.10103787 0.50141734 4279833880
0.42658269 -0.10143016 0.50148278 4279505934
0.42622656 -0.1016525 0.50150484 4279243290
0.42599696 -0.10204396 0.50157022 4279506464
0.42570555 -0.10235038 0.50161397 4279178265
0.42541516 -0.10265648 0.50165766 4279112724
0.42512575 -0.10296224 0.50170141 4279441689
0.42483729 -0.1032677 0.50174516 4279506710
0.42454985 -0.10357283 0.50178885 4279441952
0.42419887 -0.10379347 0.50181091 4279573536
0.42378363 -0.10392988 0.50181127 4279704863
0.42349839 -0.10423426 0.50185496 4279704863
0.42308363 -0.1043705 0.50185531 4280099621
0.42266887 -0.10450675 0.50185567 4280821550
0.42225415 -0.10464299 0.50185603 4281412914
0.477927 -0.10352974 0.50574702 4279177749
0.4775888 -0.10374619 0.50576878 4279177745
0.47725111 -0.10396245 0.50579059 4279177749
0.46294612 -0.095492452 0.50311744 4279308561
0.46249837 -0.095534176 0.50309634 4279570957
0.4620932 -0.095667258 0.5030967 4279439371
0.46164471 -0.095709234 0.5030756 4279308555
0.46119571 -0.09575136 0.5030545 4279177998
0.46074623 -0.095793664 0.5030334 4279112205
0.46025217 -0.095745251 0.50299084 4279112205
0.45980144 -0.095787957 0.50296974 4279242770
0.45935026 -0.095830813 0.50294864 4279111956
0.45889854 -0.095873833 0.50292754 4279111956
0.45844635 -0.095917001 0.50290644 4278981138
0.45794839 -0.095869899 0.50286388 4278981138
0.45749494 -0.095913485 0.50284278 4279046931
0.45704103 -0.095957235 0.50282168 4279308561
0.45654058 -0.095910907 0.50277913 4279374097
0.45608544 -0.095955074 0.50275803 4279374097
0.45558324 -0.095909327 0.50271553 4279505166
0.45508009 -0.095863909 0.50267297 4279374097
0.45462298 -0.095908716 0.50265187 4279177749
0.45416537 -0.095953673 0.50263077 4279177749
0.45370728 -0.095998794 0.50260967 4279111702
0.45324868 -0.096044078 0.50258863 4279177747
0.4527896 -0.096089527 0.50256753 4279308814
0.45233002 -0.096135139 0.50254643 4279177228
0.45182145 -0.096091479 0.50250387 4279177228
0.45136064 -0.096137509 0.50248277 4279243021
0.45089936 -0.096183687 0.50246167 4279308563
0.45038831 -0.096140847 0.50241917 4279308561
0.44987628 -0.096098319 0.50237662 4279308561
0.449413 -0.096145153 0.50235552 4279440400
0.44894925 -0.096192136 0.50233448 4279440151
0.44843477 -0.096150443 0.50229192 4279374607
0.44791928 -0.096109062 0.50224942 4279374607
0.44740283 -0.096067995 0.50220686 4279374607
0.44693637 -0.096115872 0.50218576 4279440141
0.44641817 -0.096075386 0.50214326 4279440652
0.44589904 -0.096035212 0.50210077 4279506188
0.4453789 -0.095995367 0.50205821 4279440395
0.4437601 -0.095789656 0.5019092 4279111952
0.44328845 -0.095839217 0.5018881 4279111952
0.44281632 -0.095888957 0.50186706 4279374607
0.44229048 -0.095850974 0.5018245 4279177998
0.4417637 -0.095813304 0.501782 4279111954
0.4412896 -0.095863685 0.5017609 4279243540
0.44076109 -0.095826611 0.5017184 4279243540
0.44028577 -0.095877379 0.5016973 4279111954
0.43980995 -0.095928326 0.50167626 4279111954
0.43927896 -0.095892042 0.50163376 4279177998
0.43885684 -0.096030712 0.50163412 4279177998
0.43832436 -0.09599489 0.50159156 4279177998
0.43790174 -0.096133724 0.50159192 4279439373
0.4373678 -0.096098408 0.50154942 4279176975
0.43694469 -0.096237391 0.50154978 4279111954
0.43640929 -0.096202567 0.50150728 4279046161
0.43592927 -0.096254885 0.50148618 4278717964
0.43544877 -0.096307367 0.50146514 4278586380
0.43502468 -0.096446678 0.5014655 4278454022
0.43454343 -0.096499398 0.5014444 4278454022
0.43411908 -0.096638784 0.50144476 4278585608
0.43369472 -0.096778184 0.50144511 4278651654
0.43327039 -0.09691757 0.50144547 4278651654
0.43284601 -0.097056955 0.50144583 4278848530
0.43242168 -0.097196355 0.50144619 4278848530
0.43205592 -0.097421855 0.501468 4279242770
0.43157297 -0.097475141 0.5014469 4279112726
0.43120772 -0.097700477 0.50146872 4279046933
0.4307836 -0.097839788 0.50146908 4279047182
0.43041909 -0.09806487 0.50149083 4279178768
0.42999521 -0.098204106 0.50149119 4279243791
0.42963144 -0.09842895 0.501513 4279374607
0.42926815 -0.098653644 0.50153482 4279439890
0.42890537 -0.09887816 0.50155658 4279702296
0.42854303 -0.099102512 0.50157833 4279636503
0.4282423 -0.099412009 0.5016216 4279243288
0.42794254 -0.099721164 0.50166482 4279112985
0.4275822 -0.09994489 0.50168657 4279244058
0.42728418 -0.10025351 0.50172979 4279178265
0.42698711 -0.10056175 0.501773 4279636501
0.42669106 -0.10086973 0.50181621 4279833880
0.42639595 -0.10117736 0.50185943 4279506188
0.42610186 -0.10148467 0.50190264 4279243288
0.42587179 -0.1018763 0.50196731 4279572253
0.42557991 -0.10218287 0.50201052 4279178778
0.42535254 -0.1025736 0.50207514 4279113239
0.42499912 -0.10279506 0.50209689 4279310618
0.42471015 -0.10310067 0.5021401 4279506710
0.4244222 -0.10340595 0.50218332 4279441952
0.42407075 -0.10362676 0.50220513 4279507743
0.42371976 -0.1038474 0.50222689 4279573790
0.42336929 -0.10406789 0.50224864 4279639583
0.42295402 -0.10420428 0.502249 4279902755
0.42260429 -0.10442452 0.50227082 4280690734
0.4221893 -0.10456085 0.50227118 4281216305
0.46294698 -0.095494017 0.50354362 4279308814
0.46249923 -0.09553574 0.50352281 4279308809
0.46205097 -0.095577642 0.50350195 4279308809
0.46160221 -0.095619693 0.50348109 4279243273
0.461153 -0.095661923 0.50346029 4279243019
0.46070325 -0.095704287 0.50343943 4279243021
0.46025306 -0.095746815 0.50341856 4279308814
0.45980233 -0.095789537 0.50339776 4279177499
0.45935112 -0.095832393 0.5033769 4279111702
0.45889944 -0.095875412 0.50335604 4279111956
0.45844725 -0.095918581 0.50333524 4278981136
0.45794925 -0.095871493 0.50329322 4278981136
0.45749581 -0.095915079 0.50327235 4279046929
0.45704192 -0.095958814 0.50325149 4279177745
0.45654148 -0.095912501 0.50320947 4279374099
0.45608634 -0.095956668 0.50318867 4279374099
0.45558414 -0.095910907 0.50314665 4279374099
0.45508099 -0.095865488 0.50310463 4279374099
0.45462388 -0.095910311 0.50308377 4279308565
0.45416626 -0.095955268 0.50306296 4279242772
0.45366064 -0.095910639 0.50302094 4279046163
0.4532018 -0.095956028 0.50300008 4279111952
0.45274246 -0.096001551 0.50297928 4279308812
0.45228264 -0.096047238 0.50295842 4279111954
0.45182234 -0.096093088 0.50293756 4279046161
0.45131278 -0.096049786 0.50289559 4279111954
0.45085123 -0.096096039 0.50287473 4279177747
0.45033994 -0.096053272 0.50283271 4279177747
0.44987717 -0.096099928 0.50281191 4279177747
0.44936416 -0.096057743 0.50276989 4279309584
0.44890016 -0.096104816 0.50274903 4279570706
0.44843566 -0.096152052 0.50272822 4279243540
0.4479202 -0.096110672 0.5026862 4279243538
0.44740373 -0.096069604 0.50264418 4279243538
0.44693726 -0.096117482 0.50262338 4279505934
0.44636786 -0.095988467 0.5025602 4279506188
0.44584846 -0.095948383 0.50251818 4279570959
0.44537979 -0.095996976 0.50249738 4279505166
0.44491062 -0.096045762 0.50247651 4279308565
0.44438875 -0.096006468 0.50243449 4279177747
0.44381344 -0.095879406 0.50237131 4279111952
0.44328934 -0.095840856 0.50232935 4279111952
0.44281721 -0.095890582 0.50230849 4279243538
0.44229141 -0.095852599 0.50226653 4279243538
0.44176462 -0.095814928 0.5022245 4279046159
0.44129053 -0.095865309 0.5022037 4279047446
0.44076201 -0.095828235 0.50216168 4278981653
0.4402867 -0.095879018 0.50214088 4279046679
0.43975645 -0.095842481 0.50209886 4278981653
0.43927988 -0.095893681 0.50207806 4279177998
0.43880284 -0.09594503 0.50205725 4279243791
0.43827012 -0.095909297 0.50201523 4279309584
0.43779185 -0.095961064 0.50199443 4279309584
0.43731308 -0.096012995 0.50197363 4279112205
0.43688971 -0.096152067 0.50197399 4279111952
0.43641019 -0.096204221 0.50195312 4279111952
0.43587381 -0.096169695 0.50191116 4279111952
0.43544969 -0.096309006 0.50191152 4279110925
0.43496871 -0.096361652 0.50189072 4278716677
0.43454435 -0.096501037 0.50189108 4278585091
0.43412 -0.096640438 0.50189143 4278454275
0.43369564 -0.096779823 0.50189179 4278651654
0.43321341 -0.096832886 0.50187093 4278651401
0.43278882 -0.096972361 0.50187135 4278782989
0.43236423 -0.097111836 0.50187171 4278782989
0.4319396 -0.097251296 0.50187206 4278979600
0.43151504 -0.097390771 0.50187242 4278981653
0.43109041 -0.097530246 0.50187278 4279046931
0.43066582 -0.097669721 0.50187314 4279047182
0.43030083 -0.097894952 0.50189465 4279112975
0.42993629 -0.098120049 0.50191617 4279243791
0.4295122 -0.09825936 0.50191653 4279440398
0.42914841 -0.098484203 0.50193805 4279505435
0.4288457 -0.098794356 0.50198078 4279636503
0.42842233 -0.098933429 0.50198114 4279570710
0.42812109 -0.09924306 0.50202382 4279505687
0.42775953 -0.099467173 0.50204533 4279440149
0.42746001 -0.099776268 0.50208807 4279506712
0.42716146 -0.10008503 0.50213075 4279178265
0.42686394 -0.10039347 0.50217342 4279440149
0.42656738 -0.10070157 0.50221616 4279505942
0.4262718 -0.10100937 0.50225884 4279374605
0.4259772 -0.10131685 0.50230151 4279440151
0.42574662 -0.10170864 0.50236541 4279374874
0.42545426 -0.10201538 0.50240809 4279310364
0.42516285 -0.10232179 0.50245076 4278916378
0.42493623 -0.10271227 0.50251466 4278982171
0.42458302 -0.10293365 0.50253618 4279506460
0.42429459 -0.10323909 0.50257885 4279376161
0.42400712 -0.10354421 0.50262153 4279377181
0.42365593 -0.10376494 0.50264305 4279377181
0.42330518 -0.1039855 0.50266457 4279508513
0.42288968 -0.10412198 0.50266492 4279640099
0.42253968 -0.1043423 0.50268644 4280362793
0.42212445 -0.1044787 0.5026868 4280887593
0.46384192 -0.095412627 0.50401098 4278981140
0.46335277 -0.095362589 0.50396949 4278916109
0.46294785 -0.095495597 0.50396985 4279177998
0.4625001 -0.09553732 0.50394922 4279177226
0.46205187 -0.095579222 0.50392866 4279177226
0.46160311 -0.095621273 0.5039081 4279243273
0.46115386 -0.095663488 0.50388747 4279309066
0.46070415 -0.095705867 0.50386691 4279112205
0.46025392 -0.095748395 0.50384635 4279112205
0.45980322 -0.095791116 0.50382572 4279046679
0.45935202 -0.095833972 0.50380516 4279111702
0.4589003 -0.095876992 0.5037846 4279045909
0.45844811 -0.095920175 0.50376397 4278915343
0.45795015 -0.095873073 0.50372249 4278981136
0.4574967 -0.095916659 0.50370193 4278981136
0.45699698 -0.095870093 0.50366038 4278981138
0.45654234 -0.095914081 0.50363982 4279111954
0.45604092 -0.095868111 0.50359833 4279046161
0.455585 -0.095912501 0.50357777 4279308308
0.45508188 -0.095867082 0.50353622 4279242772
0.45457771 -0.095821992 0.50349474 4279308306
0.45411986 -0.095867038 0.50347418 4279242513
0.45366153 -0.095912233 0.50345361 4279046161
0.45320269 -0.095957622 0.50343299 4279111952
0.45269534 -0.095913559 0.5033915 4279177226
0.45223528 -0.095959336 0.50337094 4278849813
0.45177472 -0.096005276 0.50335038 4278718227
0.45131367 -0.09605138 0.50332981 4278981138
0.4508031 -0.096008375 0.50328827 4279046931
0.45034084 -0.096054882 0.50326771 4279177747
0.44987807 -0.096101537 0.50324714 4279177747
0.44936505 -0.096059352 0.50320566 4279243540
0.44885105 -0.096017495 0.50316417 4279309333
0.44838631 -0.096064806 0.50314361 4279047192
0.4479211 -0.096112281 0.50312304 4279374354
0.4473539 -0.095982537 0.50306064 4279308561
0.4468872 -0.096030489 0.50304002 4279374348
0.44636875 -0.095990077 0.50299853 4279374348
0.44584936 -0.095950007 0.50295705 4279505166
0.44532898 -0.095910251 0.50291556 4279505166
0.44480759 -0.095870808 0.50287408 4279242518
0.44428521 -0.095831692 0.50283259 4279177749
0.44381434 -0.09588103 0.50281203 4279243540
0.44334295 -0.095930517 0.50279146 4279111954
0.44287106 -0.095980167 0.5027709 4279046931
0.44229233 -0.095854238 0.50270849 4278981651
0.44181895 -0.095904365 0.50268793 4279177747
0.44129145 -0.095866948 0.50264645 4278916376
0.44076294 -0.095829874 0.50260496 4278850583
0.44023341 -0.095793098 0.50256348 4278784792
0.43975735 -0.09584412 0.50254297 4278849813
0.43922612 -0.095807925 0.50250149 4279177745
0.43874884 -0.095859349 0.50248092 4279243538
0.43821588 -0.09582372 0.50243944 4279440400
0.43773735 -0.095875561 0.50241888 4279505942
0.43725836 -0.095927566 0.50239831 4279177745
0.43683472 -0.096066713 0.50239867 4279046679
0.43635496 -0.096118942 0.50237811 4279046679
0.43587473 -0.096171349 0.50235754 4279046933
0.43545061 -0.09631066 0.5023579 4279308561
0.43502653 -0.096449971 0.50235826 4278782987
0.43454528 -0.096502692 0.50233769 4278651401
0.43412092 -0.096642077 0.50233805 4278585861
0.43363893 -0.096695065 0.50231749 4278651654
0.43321434 -0.096834525 0.50231785 4278520335
0.43278974 -0.096974 0.50231826 4278586382
0.43230677 -0.097027287 0.5022977 4278652175
0.43188193 -0.097166851 0.50229806 4278651925
0.4314571 -0.097306401 0.50229841 4278849813
0.43097314 -0.097360015 0.50227785 4279047444
0.43060738 -0.097585514 0.50229913 4279047444
0.43018255 -0.097725064 0.50229949 4279047444
0.42981756 -0.09795031 0.50232077 4279243540
0.42939293 -0.098089784 0.50232112 4279374356
0.42908901 -0.09840031 0.50236332 4279506460
0.42872548 -0.098625079 0.50238454 4279375128
0.42836243 -0.098849699 0.50240582 4279375128
0.42799988 -0.09907414 0.5024271 4279637530
0.42763782 -0.099298403 0.50244838 4279440400
0.4273378 -0.099607646 0.50249058 4279440400
0.42703879 -0.099916577 0.50253272 4279441687
0.42674074 -0.10022517 0.50257492 4279309331
0.4264437 -0.10053346 0.50261712 4279309331
0.42614761 -0.10084139 0.50265926 4279440147
0.42585254 -0.10114902 0.50270146 4279440149
0.42562148 -0.10154097 0.50276452 4279374874
0.42539188 -0.10193244 0.50282764 4279047964
0.42510024 -0.10223892 0.50286978 4278916128
0.42480958 -0.1025451 0.50291198 4279047714
0.4245199 -0.10285094 0.50295413 4279375648
0.42416698 -0.10307223 0.5029754 4279244058
0.42387903 -0.10337751 0.50301754 4279179032
0.42359206 -0.10368246 0.50305974 4279311134
0.42324108 -0.10390311 0.50308102 4279508513
0.42289057 -0.10412359 0.50310224 4279574823
0.4224751 -0.10426007 0.5031026 4280165160
0.4220596 -0.10439655 0.50310296 4280625191
0.46380067 -0.095322669 0.50441599 4278981140
0.46335363 -0.095364153 0.50439566 4278981389
0.46290612 -0.095405802 0.50437534 4279112203
0.46245813 -0.09544763 0.50435501 4279111952
0.46205273 -0.095580786 0.50435537 4279046159
0.461604 -0.095622838 0.50433505 4279243273
0.46115476 -0.095665067 0.50431472 4279309066
0.46070504 -0.095707446 0.5042944 4279177996
0.46025479 -0.095749974 0.50427407 4279177996
0.45980409 -0.095792696 0.50425375 4279046933
0.45930833 -0.095744833 0.50421274 4278981140
0.4589012 -0.095878571 0.50421309 4278915093
0.45844901 -0.095921755 0.50419277 4278915345
0.45795101 -0.095874652 0.50415176 4278981138
0.4574976 -0.095918238 0.50413144 4278915596
0.45699787 -0.095871687 0.50409049 4278981138
0.45649719 -0.095825464 0.50404948 4279046159
0.45604178 -0.09586969 0.50402915 4278914573
0.45553935 -0.095824018 0.50398821 4279242770
0.45508274 -0.095868677 0.50396788 4279242518
0.45457861 -0.095823586 0.50392687 4279308304
0.45412076 -0.095868632 0.50390655 4279242511
0.45361489 -0.095824108 0.5038656 4278914573
0.45315582 -0.095869556 0.50384527 4279046412
0.45269623 -0.095915169 0.50382495 4279177226
0.4521879 -0.095871449 0.503784 4278718997
0.45172709 -0.095917478 0.50376368 4278587411
0.45126581 -0.095963642 0.50374335 4278915858
0.450755 -0.095920727 0.5037024 4279046931
