# .PCD v0.7 - Point Cloud Data file format
VERSION 0.7
FIELDS x y z rgb
SIZE 4 4 4 4
TYPE F F F U
COUNT 1 1 1 1
WIDTH 1060
HEIGHT 1
VIEWPOINT 0 0 0 1 0 0 0
POINTS 1060
DATA ascii
0.44043589 0.0071804672 0.48915261 4279308561
0.44088143 0.0075268149 0.48908824 4279309331
0.44128487 0.0079596788 0.48898888 4279243538
0.44172823 0.008305341 0.48892444 4279439890
0.44212896 0.0087373108 0.48882508 4279374356
0.44261199 0.0089956671 0.48879558 4279374356
0.44305238 0.0093403608 0.48873115 4279047446
0.443407 0.0098575205 0.48859674 4279112476
0.44388759 0.010115072 0.48856723 4279374874
0.44419611 0.010717452 0.48839787 4279375126
0.44467473 0.010974362 0.48836833 4279572505
0.44510949 0.011317194 0.48830384 4279309584
0.44558686 0.011573702 0.48827428 4279244060
0.44606373 0.011830032 0.48824471 4279637276
0.44658425 0.012000382 0.48825014 4279506462
0.42199156 -0.031212077 0.50076908 4280426518
0.42257118 -0.030922249 0.50074035 4280294930
0.42317861 -0.030723467 0.50074667 4279636487
0.42381459 -0.030615479 0.50078803 4279045640
0.42442226 -0.030416608 0.50079441 4279177226
0.42502993 -0.030217752 0.50080073 4278849033
0.43912226 0.0061397702 0.48993394 4279177749
0.43945122 0.006748125 0.48976365 4279440151
0.43977767 0.0073557049 0.48959333 4279177747
0.44018295 0.0077887625 0.48949334 4279177747
0.44062763 0.0081345737 0.48942846 4279243538
0.4410302 0.0085667521 0.48932844 4279309333
0.44151402 0.0088252276 0.48929873 4279243538
0.44195575 0.0091700703 0.48923385 4279243540
0.44239646 0.0095145851 0.48916894 4279243540
0.44279408 0.0099451542 0.48906887 4279178517
0.44319028 0.010375217 0.48896876 4279178269
0.44362754 0.010718599 0.48890382 4279309081
0.44406384 0.011061698 0.48883888 4279375126
0.44454226 0.011318401 0.48880911 4279506963
0.44489014 0.011832818 0.48867378 4279375377
0.44536683 0.012088954 0.488644 4279309333
0.44584304 0.012344941 0.4886142 4279506462
0.4464069 0.012429312 0.48865485 4279506464
0.42125219 -0.031019315 0.50128216 4280623895
0.42183185 -0.030729607 0.50125319 4280294934
0.42243904 -0.0305309 0.50125951 4280097555
0.42307448 -0.030422956 0.50130111 4279505418
0.42365339 -0.030133501 0.5012722 4279045640
0.42423183 -0.02984421 0.50124323 4279045640
0.42483875 -0.029645592 0.50124955 4278849031
0.42541641 -0.029356539 0.50122058 4278718217
0.43818504 0.0069248527 0.49012879 4279308565
0.4385533 0.007445395 0.48999274 4279177749
0.43899977 0.0077915341 0.48992747 4279440151
0.43940493 0.0082241446 0.48982677 4279177747
0.4398492 0.0085695535 0.48976147 4279243540
0.44037414 0.008741349 0.48976693 4279243538
0.44085801 0.0089997053 0.489737 4279309333
0.4413414 0.0092578977 0.48970708 4279243538
0.44178268 0.0096023381 0.48964173 4279243540
0.44222301 0.0099464506 0.4895764 4279243540
0.44262028 0.010376483 0.48947561 4279178519
0.4430584 0.010719866 0.48941025 4279112476
0.44349551 0.01106295 0.48934484 4279309081
0.44393167 0.011405692 0.48927945 4279375126
0.44432378 0.01183404 0.48917863 4279375124
0.44471437 0.012261882 0.48907781 4279375124
0.44523418 0.012431979 0.48908323 4279309333
0.42112058 -0.030627921 0.50180107 4280361747
0.42170003 -0.030338436 0.50177193 4279835153
0.42233497 -0.030230507 0.50181371 4279769360
0.42294213 -0.030031815 0.50182003 4279308555
0.42352083 -0.029742569 0.50179088 4278979847
0.42409906 -0.029453471 0.50176167 4278979847
0.42470574 -0.029254928 0.50176799 4278849031
0.42516634 -0.028604835 0.50159687 4278718215
0.43802518 0.0086612701 0.49008176 4279177749
0.43850905 0.0089195073 0.49005163 4279374358
0.43903279 0.0090908855 0.49005705 4279243542
0.43955648 0.0092622787 0.49006253 4279243542
0.44008023 0.0094336718 0.49006796 4279243538
0.44060391 0.0096050501 0.49007344 4279243538
0.44108635 0.0098628104 0.49004325 4279177998
0.44152677 0.010206684 0.48997748 4279046929
0.44200796 0.010464028 0.48994726 4279112722
0.44240463 0.010893434 0.48984584 4279178519
0.44284207 0.011236355 0.48978001 4279243288
0.44327855 0.011578947 0.48971415 4279309335
0.44371402 0.011921212 0.48964831 4279375128
0.44410551 0.012348935 0.48954681 4279244310
0.42040932 -0.030526236 0.50234896 4280427797
0.42098907 -0.030236796 0.50231957 4280230418
0.42159599 -0.030038178 0.50232589 4279769356
0.42217499 -0.029748961 0.50229651 4279440395
0.42278168 -0.029550418 0.50230283 4279243016
0.42338836 -0.029351875 0.50230914 4278979849
0.42396638 -0.029062986 0.50227976 4279045642
0.42454389 -0.028774247 0.50225031 4278849033
0.42503339 -0.02821511 0.50211376 4278718217
0.43825924 0.009525165 0.49038628 4279243542
0.43878198 0.0096962303 0.49039173 4279243540
0.43930471 0.0098672956 0.49039716 4279243540
0.43982744 0.010038361 0.49040261 4279243538
0.44035017 0.010209426 0.49040806 4279243538
0.44083166 0.010466725 0.49037766 4279177998
0.44135416 0.010637715 0.49038309 4279046929
0.44179314 0.010980859 0.49031684 4279112722
0.44223118 0.01132369 0.49025056 4279178517
0.44266823 0.011666194 0.49018428 4279243542
0.4431043 0.012008369 0.49011797 4279309335
0.44353938 0.012350217 0.49005169 4279375128
0.41969806 -0.03042455 0.50289679 4280624919
0.42027807 -0.030135155 0.50286722 4280361747
0.42088503 -0.029936537 0.50287354 4280032782
0.42149198 -0.029737905 0.50287986 4279506695
0.42204309 -0.029358342 0.50281429 4279177478
0.42262137 -0.029069498 0.50278467 4279111176
0.42322758 -0.028871104 0.50279099 4279045640
0.42380515 -0.028582498 0.50276136 4278979847
0.42438221 -0.028294057 0.50273174 4278718217
0.43804973 0.010043338 0.4907552 4279308565
0.43853152 0.010300606 0.49072456 4279243540
0.43905327 0.010471359 0.49073002 4279046929
0.43961573 0.010555804 0.49077153 4278981136
0.44013771 0.010726631 0.49077696 4279047182
0.44061852 0.010983586 0.49074632 4279243791
0.44109881 0.011240363 0.49071568 4279112975
0.41962087 -0.030214831 0.50348717 4280624149
0.42020118 -0.029925466 0.50345731 4280294930
0.42080837 -0.029726759 0.50346363 4280097551
0.42136031 -0.029347211 0.50339764 4279506184
0.421967 -0.029148668 0.50340396 4279045640
0.42254558 -0.028859869 0.50337416 4278979849
0.42312366 -0.028571203 0.5033443 4278849031
0.42370129 -0.028282717 0.50331444 4278914824
0.42424953 -0.027904376 0.50324839 4278718217
0.43888301 0.010901958 0.49113363 4279046929
0.4393636 0.01115869 0.49110278 4278981136
0.41898909 -0.030385017 0.50414437 4280887067
0.41954356 -0.030004874 0.50407791 4280558104
0.42015126 -0.029806018 0.50408429 4280163344
0.42070428 -0.029426381 0.50401783 4279965965
0.4212839 -0.029137373 0.50398779 4279440391
0.42186302 -0.028848529 0.50395775 4278979849
0.42244163 -0.028559834 0.50392765 4278979596
0.42304808 -0.02836138 0.50393397 4278914573
0.42356884 -0.027892962 0.50383115 4278914573
0.42414576 -0.027604833 0.50380105 4278717964
0.41832927 -0.030464351 0.50476635 4280822296
0.4189114 -0.030174658 0.50473607 4280690710
0.41951981 -0.029975548 0.50474238 4280492563
0.42010117 -0.029686093 0.5047121 4279965965
0.42065477 -0.029306516 0.50464523 4279702793
0.42123491 -0.029017463 0.50461495 4279243012
0.42181456 -0.028728575 0.50458467 4278979596
0.42236573 -0.028349847 0.50451779 4278979600
0.42297241 -0.028151304 0.50452411 4278848782
0.42352206 -0.027773038 0.50445718 4278914575
0.42407075 -0.027395085 0.50439024 4278848780
0.41827744 -0.030344173 0.50539547 4280756503
0.41886011 -0.030054435 0.50536501 4280690710
0.41944227 -0.029764861 0.5053345 4280360977
0.42002392 -0.029475451 0.50530404 4279900426
0.42057785 -0.029096037 0.50523674 4279637254
0.42115828 -0.028807029 0.50520623 4279111426
0.42173824 -0.02851817 0.50517571 4278979596
0.42231768 -0.02822949 0.50514519 4278979600
0.42289665 -0.027940974 0.50511467 4278848782
0.42347512 -0.027652621 0.50508416 4278914575
0.42402434 -0.027274743 0.5050168 4278848780
0.41819924 -0.030133128 0.50598854 4280887319
0.4187822 -0.02984345 0.50595784 4280755735
0.41939136 -0.029644102 0.50596416 4280163598
0.41997355 -0.029354662 0.50593346 4279703563
0.42052805 -0.028975338 0.50586569 4279440391
0.42108157 -0.028596342 0.50579792 4278980099
0.42166179 -0.028307527 0.50576723 4278913805
0.42226949 -0.028108656 0.50577354 4278979600
0.42282081 -0.027730405 0.50570571 4278717966
0.42339957 -0.027442098 0.50567496 4278717966
0.42394912 -0.027064383 0.50560719 4278718217
0.4175632 -0.030301988 0.50665021 4281281818
0.41814715 -0.030012101 0.50661927 4280952853
0.41875705 -0.0298125 0.50662565 4280755733
0.41934025 -0.029522851 0.50659472 4280097805
0.4198961 -0.029143393 0.50652647 4279571977
0.42047811 -0.028854147 0.50649559 4279374598
0.42105961 -0.028565064 0.5064646 4278914306
0.4216406 -0.028276131 0.50643367 4278913803
0.42219323 -0.027897686 0.50636542 4278979598
0.422773 -0.027609169 0.50633448 4278717966
0.4233239 -0.027231306 0.50626624 4278717966
0.41751039 -0.030180499 0.50728208 4281084439
0.41809487 -0.029890567 0.50725091 4280821267
0.41870525 -0.029690817 0.50725728 4280492561
0.41928902 -0.029401124 0.50722611 4280032012
0.41987228 -0.029111594 0.507195 4279506186
0.42042795 -0.028732449 0.50712633 4279308807
0.42100999 -0.028443336 0.50709516 4278914308
0.42156392 -0.028064758 0.50702649 4278913803
0.42211688 -0.027686492 0.50695783 4278979596
0.42272505 -0.027487472 0.50696415 4278783759
0.41687188 -0.030348688 0.50794619 4281084185
0.4174574 -0.030058533 0.50791484 4281018392
0.41804242 -0.029768556 0.50788349 4280623636
0.41865331 -0.029568642 0.50788987 4280426257
0.41923761 -0.029278919 0.50785846 4279965967
0.41979456 -0.02889961 0.50778937 4279440395
0.42037764 -0.028610274 0.50775802 4279111430
0.42096022 -0.028321117 0.50772661 4278914054
0.42151475 -0.027942628 0.50765753 4278913803
0.42209607 -0.027653858 0.50762612 4278979596
0.43722469 0.021038532 0.49115807 4279177749
0.43768266 0.02128692 0.4911254 4279439894
0.43814015 0.021535158 0.49109268 4279374356
0.41681817 -0.030226246 0.50858009 4281084185
0.41743004 -0.030026004 0.50858641 4280952599
0.41804191 -0.029825777 0.50859278 4280623636
0.41860119 -0.029446006 0.50852329 4280360725
0.419186 -0.029156223 0.50849169 4279899922
0.41977036 -0.028866604 0.5084601 4279702543
0.42035419 -0.028577164 0.50842851 4279045383
0.42091027 -0.028198421 0.50835896 4278914056
0.42146537 -0.027820006 0.50828946 4278914056
0.42204726 -0.027531192 0.50825781 4278979596
0.43672159 0.020952299 0.49168503 4279177749
0.43713903 0.021285683 0.49161404 4279177749
0.43759707 0.021533951 0.49158114 4279439894
0.41676432 -0.030103341 0.50921482 4281084187
0.41735092 -0.029813126 0.50918305 4280821013
0.41796303 -0.029612809 0.50918943 4280557843
0.41854888 -0.029322848 0.50915766 4280097301
0.41916075 -0.029122606 0.50916404 4279637777
0.41971913 -0.028743401 0.509094 4279374605
0.42030352 -0.028453901 0.50906223 4278979596
0.42086017 -0.028075233 0.50899225 4278979339
0.42144331 -0.027786151 0.50896043 4279045389
0.43972352 0.030855775 0.48883885 4279179548
0.44006777 0.031263173 0.48872873 4279178267
0.44036561 0.0317536 0.48858026 4279375646
0.44084227 0.0319096 0.48858523 4279178778
0.44113714 0.032399103 0.4884367 4279244058
0.44138435 0.032971203 0.48824981 4279376157
0.44162905 0.033542529 0.48806286 4279376409
0.41673577 -0.030069724 0.50988889 4281083933
0.41732317 -0.02977939 0.50985694 4280689175
0.41791004 -0.029489219 0.50982487 4280426770
0.41849643 -0.029199213 0.50979286 4279900946
0.41908234 -0.028909355 0.50976086 4279506191
0.41966772 -0.028619677 0.50972885 4279308812
0.42022571 -0.028240874 0.5096584 4278979596
0.42083707 -0.028040797 0.50966477 4278913803
0.43816233 0.029627278 0.48964131 4279047442
0.43833739 0.030371323 0.48937628 4279047442
0.43877256 0.030611858 0.48934269 4278982171
0.43920732 0.030852243 0.48930907 4278982423
0.43937495 0.031593874 0.48904401 4279047962
0.43971786 0.032000408 0.48893321 4279178265
0.44001436 0.032489911 0.48878381 4279310618
0.44044441 0.032728732 0.48875016 4279179032
0.44078314 0.033133909 0.48863932 4279178780
0.44102907 0.033704951 0.4884513 4279310364
0.44136435 0.034108996 0.48834041 4279310616
0.41665614 -0.029856071 0.51048714 4280952862
0.41726947 -0.029655352 0.51049352 4280558104
0.41783094 -0.029275641 0.51042265 4280032530
0.41841763 -0.028985679 0.5103904 4279703822
0.41903025 -0.028785199 0.51039678 4279243789
0.41961616 -0.028495476 0.51036453 4279046410
0.42020163 -0.028205901 0.51033229 4278914056
0.42078659 -0.027916506 0.51030004 4278979596
0.43694651 0.029886171 0.48991501 4279046931
0.43725377 0.03037861 0.48976481 4278915858
0.4377327 0.030535325 0.48976982 4279048216
0.4381243 0.030859455 0.48969722 4278982423
0.43847102 0.031266838 0.48958576 4278982171
0.43881628 0.031673729 0.48947436 4279179032
0.43920442 0.031996712 0.4894017 4279179032
0.43954697 0.032402754 0.48929021 4279309331
0.43988806 0.032808274 0.48917872 4279244308
0.44022763 0.033213332 0.48906723 4279244308
0.44056574 0.033617899 0.48895571 4279441689
0.44085675 0.034105033 0.48880535 4279310616
0.44114578 0.034591526 0.48865497 4279179032
0.44218856 0.03669633 0.48797563 4279311136
0.44246727 0.037179425 0.48782516 4279376159
0.41660175 -0.029731691 0.51112461 4280886554
0.41721559 -0.029530808 0.51113099 4280360725
0.41777766 -0.029151201 0.5110597 4279835410
0.41839102 -0.028950483 0.51106608 4279507215
0.4189516 -0.028571337 0.51099479 4279112203
0.41953784 -0.028281659 0.51096231 4278849031
0.42015043 -0.028081179 0.51096869 4279045642
0.42200816 0.0045200437 0.49837536 4279440151
0.42260432 0.0045194626 0.49845868 4279111952
0.42313689 0.0046937466 0.49846423 4279111952
0.43638438 0.029966533 0.49034801 4278981138
0.43673566 0.030375004 0.49023598 4279112722
0.4371286 0.030699283 0.49016291 4278982169
0.4375639 0.030939564 0.49012887 4278982171
0.43791148 0.031346843 0.49001679 4278982171
0.43830144 0.031670123 0.48994371 4278982171
0.43864632 0.032076508 0.48983157 4279310618
0.43903407 0.032399073 0.48975849 4279113235
0.43937624 0.032804579 0.48964632 4279178515
0.43971694 0.033209577 0.48953417 4279244308
0.44005617 0.033614114 0.48942199 4279244308
0.4403486 0.034101158 0.48927075 4279506712
0.44063902 0.034587577 0.48911947 4279375894
0.44092751 0.035073325 0.48896819 4279310364
0.44121403 0.035558447 0.48881692 4279376159
0.44145223 0.0361256 0.48862654 4279179298
0.441688 0.036691934 0.48843613 4279245091
0.4418745 0.03734 0.48820665 4279376931
0.44224623 0.037657335 0.48813337 4279376159
0.442617 0.037974343 0.48806012 4279703839
0.41716155 -0.029405802 0.51176935 4280163346
0.41772419 -0.029026255 0.51169765 4279769615
0.41831195 -0.028736189 0.51166499 4279507215
0.41887289 -0.028357238 0.51159322 4279046412
0.41948599 -0.028156593 0.5115996 4278849033
0.42082152 0.0045225024 0.49881077 4280689679
0.42138487 0.0046091527 0.49885544 4279769617
0.4219487 0.0046959668 0.49890012 4279505942
0.42248103 0.0048701763 0.49890566 4279111952
0.42301336 0.0050443709 0.4989112 4279111952
0.42357817 0.0051315129 0.49895588 4279046929
0.42411077 0.0053057969 0.49896145 4279178515
0.43573755 0.030214608 0.49070257 4279309582
0.43613181 0.030539006 0.49062908 4279046931
0.4365679 0.030779436 0.4905948 4279112975
0.4369604 0.031103298 0.49052131 4278982423
0.43735194 0.031426832 0.49044779 4278982171
0.43774247 0.031750038 0.49037427 4278982171
0.43817586 0.03198956 0.49033999 4278982173
0.43852061 0.032395497 0.49022719 4279179032
0.43890819 0.032717749 0.49015361 4279178515
0.43925026 0.033122793 0.49004081 4279244561
0.43954605 0.033610404 0.4898887 4279244561
0.43983984 0.034097373 0.48973656 4279178768
0.44017699 0.034500808 0.4896237 4279506712
0.44046712 0.03498657 0.48947155 4279244310
0.44061792 0.035719842 0.48920155 4279244058
0.44076529 0.03645198 0.48893148 4279441950
0.44104803 0.036935329 0.48877925 4279179298
0.44132876 0.037418023 0.48862702 4279245345
0.44170111 0.037735268 0.48855329 4279311138
0.44202542 0.038134515 0.48844028 4279245343
0.44239557 0.038451046 0.48836654 4279703839
0.44276467 0.038767248 0.48829278 4279704091
0.44318056 0.039001048 0.48825833 4279507484
0.44369194 0.039070696 0.48830244 4279639070
0.44410735 0.039304346 0.48826796 4279507745
0.4196974 0.0043500066 0.49932447 4281149460
0.42019853 0.0046115667 0.49929067 4280755983
0.42076159 0.0046982616 0.49933556 4280492811
0.42129368 0.0048723817 0.4993411 4279966735
0.42185745 0.0049593151 0.49938598 4279703319
0.42242175 0.0050464123 0.49943089 4279177998
0.42295432 0.0052206963 0.49943644 4279112205
0.42348689 0.0053949952 0.49944198 4279177998
0.42401946 0.0055692792 0.49944752 4279309584
0.42451912 0.0058303624 0.49941373 4279046929
0.43517601 0.03029488 0.49113512 4279178515
0.43557084 0.030619204 0.49106118 4279178515
0.4360072 0.03085959 0.4910267 4279112724
0.43644306 0.031099811 0.49099225 4279374354
0.43683541 0.031423345 0.49091828 4279113235
0.43722677 0.031746551 0.49084431 4279047446
0.43761715 0.03206943 0.49077034 4279113239
0.43796277 0.032475233 0.49065685 4279178780
0.43835095 0.032797426 0.49058285 4279178778
0.43873814 0.033119261 0.49050885 4279178515
0.43899083 0.033689782 0.49031639 4279113488
0.43924105 0.034259498 0.49012387 4279179028
0.43953377 0.034745574 0.48997083 4279113235
0.43982458 0.035231009 0.4898178 4279244058
0.43993142 0.03604652 0.48950672 4279179030
0.44017154 0.036612928 0.48931414 4279375898
0.44040918 0.037178546 0.4891215 4279245595
0.44069064 0.037660912 0.48896834 4279048216
0.44101655 0.038060278 0.48885465 4279179802
0.44129431 0.038541436 0.48870146 4279245595
0.44166398 0.038857564 0.48862728 4279245341
0.44212714 0.039009124 0.48863208 4279573277
0.44254282 0.03924273 0.48859739 4279573275
0.44300571 0.039394215 0.48860222 4279441950
0.44346863 0.0395457 0.48860705 4279441950
0.41910455 0.0043516308 0.49984413 4281084698
0.41963688 0.0045258403 0.49984968 4281083667
0.4201383 0.0047873706 0.49981567 4281083667
0.42070156 0.0048742592 0.49986076 4280427018
0.42123389 0.0050484687 0.49986631 4279900942
0.42176622 0.0052226782 0.49987185 4279703572
0.42233044 0.0053098947 0.499917 4279177998
0.42286304 0.0054841787 0.49992254 4279177998
0.4233956 0.0056584626 0.49992809 4279112205
0.4239282 0.0058327615 0.49993363 4279243538
0.42446077 0.0060070455 0.49993917 4279177745
0.42489392 0.0064411014 0.49982595 4279112205
0.43430108 0.029882893 0.49172139 4279112724
0.43469796 0.030207634 0.49164703 4279112724
0.43500984 0.030699417 0.49149331 4279046931
0.4354465 0.030939758 0.49145859 4279112724
0.43584016 0.031263456 0.49138421 4279178517
0.43623284 0.031586826 0.49130982 4279243538
0.43662453 0.031909853 0.49123541 4279178515
0.43701524 0.032232583 0.49116099 4279112724
0.43740499 0.032554984 0.49108654 4279178517
0.43766254 0.033126444 0.49089301 4279310364
0.43791765 0.033697084 0.49069941 4279178778
0.43825871 0.034100994 0.49058521 4279047442
0.43897545 0.036868781 0.48957229 4279179030
0.43921477 0.037434265 0.48937854 4279179030
0.43954307 0.037833989 0.48926422 4279375898
0.43977797 0.038398027 0.48907045 4279310618
0.44014901 0.038714305 0.48899579 4279113239
0.44051903 0.039030269 0.48892117 4279310616
0.44088808 0.03934589 0.48884654 4279179802
0.44130304 0.039579138 0.48881161 4279311388
0.44171757 0.039812222 0.48877668 4279442204
0.44208413 0.040127054 0.488702 4279376409
0.44254506 0.040277883 0.4887068 4279441950
0.41851112 0.0043533593 0.50036424 4281347618
0.41904369 0.0045276433 0.50036979 4281149980
0.41957629 0.0047019273 0.50037539 4280886806
0.42007798 0.0049634129 0.50034112 4280623634
0.42061031 0.0051376224 0.50034666 4280097803
0.42117399 0.0052247941 0.50039202 4279835153
0.42170659 0.0053990781 0.50039756 4279507215
0.42223915 0.005573377 0.50040311 4278915596
0.42277175 0.005747661 0.50040865 4278981389
0.42330432 0.005921945 0.50041419 4279046410
0.42383689 0.0060962439 0.50041974 4279111952
0.42436948 0.0062705278 0.50042528 4279112203
0.42486894 0.0065312833 0.50039101 4279046410
0.43409434 0.030371726 0.49204016 4279244308
0.43444884 0.030779615 0.49192542 4279112724
0.43480188 0.031187043 0.49181068 4279046931
0.43519562 0.031510487 0.49173585 4279112724
0.43558839 0.031833604 0.49166101 4279112724
0.43593746 0.032239735 0.49154621 4279112722
0.43628508 0.032645404 0.49143142 4279178515
0.43658802 0.033133715 0.49127668 4279112722
0.43684554 0.033704475 0.49108201 4279310364
0.43710062 0.034274429 0.49088731 4279112985
0.43735322 0.034843579 0.49069259 4279113239
0.43755919 0.03549476 0.49045789 4279113237
0.43767339 0.036310479 0.4901433 4279113235
0.43791762 0.036876902 0.48994851 4279112985
0.43815938 0.037442505 0.48975366 4279310364
0.43839869 0.038007304 0.48955879 4279244310
0.43877178 0.038323984 0.48948374 4279375126
0.43909818 0.038722694 0.48936874 4279375126
0.43951494 0.038956374 0.48933357 4279244310
0.43988508 0.039272085 0.4892585 4279244310
0.44016141 0.039751723 0.4891035 4279310616
0.44057572 0.039984599 0.48906833 4279245343
0.44094262 0.040299252 0.48899323 4279245343
0.44130856 0.040613592 0.48891807 4279245341
0.44162613 0.041009411 0.48880297 4279376411
0.44198984 0.041323036 0.48872781 4279441950
0.44312033 0.044903755 0.48743701 4279442720
0.44342262 0.045294598 0.48732176 4279704611
0.44377303 0.045603871 0.48724645 4279639329
0.4179768 0.0041803569 0.50096482 4281677355
0.41848004 0.0044422001 0.50093037 4281412900
0.41901308 0.0046166629 0.50093591 4281149728
0.41951558 0.0048782527 0.50090146 4280886808
0.41998672 0.0052267611 0.50082695 4280623636
0.42055014 0.0053139776 0.50087255 4279901196
0.42108274 0.0054882765 0.5008781 4279769360
0.42164686 0.0055757314 0.50092369 4279507215
0.42214787 0.0058368444 0.50088918 4279046412
0.42268044 0.0060111433 0.50089473 4279112205
0.42321303 0.0061854273 0.50090027 4279046410
0.4237456 0.0063597113 0.50090581 4279112205
0.4242782 0.0065339953 0.50091136 4279112203
0.42477772 0.0067946315 0.5008769 4279177226
0.43372214 0.03119424 0.49219704 4279113235
0.43411672 0.031517699 0.49212176 4279047444
0.43446839 0.031924248 0.4920063 4279112726
0.43486077 0.032246977 0.49193102 4279112724
0.43516731 0.032735959 0.49177542 4279112724
0.43551457 0.033141062 0.49165994 4279177745
0.43581742 0.033628806 0.49150431 4279375124
0.43607515 0.03419897 0.49130851 4279375377
0.43628705 0.034851268 0.49107254 4279309331
0.43649599 0.035502613 0.49083653 4279047192
0.43670195 0.036152974 0.4906005 4279047962
0.43690497 0.036802381 0.49036443 4279047962
0.43723819 0.03720291 0.4902488 4279309333
0.43748066 0.037768066 0.49005285 4279178517
0.4378553 0.038084984 0.48997736 4279179030
0.43818384 0.038483977 0.4898617 4279179030
0.43855625 0.03880018 0.48978618 4279505942
0.43888205 0.039198264 0.48967049 4279637528
0.43920642 0.039595917 0.48955476 4279375128
0.43962148 0.039828911 0.48951939 4279637528
0.43994337 0.040225729 0.48940367 4279310364
0.44026375 0.040622041 0.48928791 4279179548
0.44062954 0.040936068 0.48921233 4279245341
0.44094723 0.04133153 0.48909652 4279245341
0.44126344 0.041726485 0.48898074 4279375898
0.44162577 0.042039379 0.48890513 4279507484
0.44184363 0.042596474 0.48870891 4279507743
0.4418667 0.043478489 0.48835188 4279311138
0.44198203 0.044196352 0.4880752 4279376927
0.44219103 0.044750541 0.48787889 4279442720
0.44249517 0.045141563 0.48776296 4279508513
0.44279784 0.045532107 0.48764703 4279508513
0.44309905 0.045922145 0.48753107 4279704863
0.44349787 0.04614982 0.48749554 4279573790
0.443946 0.046296462 0.48750019 4279508513
0.44439411 0.04644312 0.48750487 4279640099
0.41747034 0.003920272 0.501607 4281941036
0.41794503 0.0042696744 0.50153208 4281414183
0.41844875 0.0045315474 0.50149739 4281478693
0.41895202 0.0047932714 0.5014627 4281281316
0.41945481 0.0050548315 0.50142807 4280755481
0.41995707 0.0053162277 0.50139332 4280360723
0.42048991 0.0054906011 0.50139892 4279703824
0.42105401 0.0055781752 0.5014447 4279507215
0.42158708 0.0057526231 0.50145024 4279375629
0.42212015 0.005927071 0.50145578 4279046412
0.42262119 0.0061880648 0.50142109 4279046412
0.42312175 0.0064489096 0.5013864 4278914824
0.42365432 0.0066231936 0.50139195 4279046410
0.42418689 0.0067974776 0.50139749 4279046410
0.42468646 0.0070579946 0.50136274 4279177226
0.43444216 0.033148482 0.49204278 4279112724
0.4347893 0.033553153 0.49192661 4279112724
0.43569249 0.03501302 0.49145696 4279375377
0.43577284 0.035912544 0.49109849 4279309584
0.43602318 0.036479607 0.4909015 4278981399
0.43627101 0.037045836 0.49070448 4278982169
0.43660459 0.037446067 0.49058819 4278916376
0.43698102 0.037763312 0.49051225 4279374358
0.43726733 0.038245112 0.49035555 4279179032
0.43764132 0.038561538 0.49027959 4279310616
0.43801427 0.038877651 0.49020362 4279179030
0.43838629 0.039193451 0.49012765 4279571478
0.43871176 0.039591029 0.49001127 4279703064
0.43908155 0.039906099 0.48993528 4279374874
0.43940431 0.040302798 0.48981887 4279638300
0.43967927 0.040780857 0.48966205 4279375898
0.44004536 0.04109472 0.48958603 4279310618
0.44036365 0.041489974 0.48946959 4279442204
0.4406805 0.041884735 0.48935312 4279442204
0.44090128 0.042442113 0.4891558 4279375898
0.44107205 0.043080151 0.48891807 4279441691
0.44133544 0.04355444 0.4887611 4279442204
0.44154882 0.044109404 0.48856372 4279310884
0.44180804 0.044582322 0.48840672 4279376927
0.44201672 0.045135736 0.48820931 4279442974
0.44227177 0.045607314 0.48805225 4279442974
0.44262284 0.045916244 0.48797607 4279640353
0.44297293 0.046224862 0.48789987 4279836447
0.44337153 0.046452343 0.48786411 4279704861
0.4438194 0.046598911 0.48786879 4279442720
0.4442673 0.046745479 0.48787344 4279640099
0.4447152 0.046892047 0.48787808 4279705894
0.41690299 0.0038351417 0.50216997 4281874986
0.41740826 0.0040973723 0.5021351 4281677607
0.41788328 0.0044466108 0.50205976 4281282852
0.41838732 0.004708454 0.50202489 4281216806
0.41892111 0.0048831403 0.50203043 4281085220
0.41939393 0.0052316487 0.50195503 4280558104
0.41992724 0.0054061711 0.50196064 4280097553
0.42046058 0.0055807084 0.50196618 4279637777
0.42099386 0.0057552308 0.50197172 4279506963
0.42152721 0.0059297681 0.50197726 4279046929
0.42202878 0.0061907917 0.50194234 4278783757
0.42256185 0.0063652545 0.50194788 4278915343
0.42309493 0.0065397024 0.50195348 4278914824
0.42356303 0.006886676 0.50187802 4278784008
0.42409563 0.0070609599 0.50188357 4279046410
0.42459524 0.0073213428 0.50184864 4279046412
0.43231654 0.031938955 0.4927755 4279178768
0.43302089 0.0327508 0.49254194 4279047695
0.43332928 0.033239275 0.49238455 4279113235
0.43367749 0.033643901 0.49226773 4279374874
0.43406633 0.033964932 0.49219149 4279178519
0.43441185 0.034368679 0.49207467 4279112722
0.43475592 0.034771934 0.49195778 4279046929
0.43505567 0.035257593 0.49180034 4279309584
0.43522424 0.035990968 0.49152106 4279178515
0.4354327 0.03664054 0.49128234 4279309331
0.43572533 0.037123844 0.49112481 4279113237
0.43605977 0.03752397 0.49100786 4279047446
0.43639272 0.037923604 0.49089086 4279047446
0.43676853 0.038240358 0.49081451 4279112989
0.43709877 0.038639098 0.4906975 4279376159
0.43747234 0.038955137 0.49062109 4279310616
0.43788993 0.039188698 0.4905853 4279310614
0.43826181 0.039504141 0.49050885 4279571476
0.43858713 0.039901301 0.49039182 4279571476
0.43891099 0.040297955 0.49027476 4279374874
0.43927938 0.040612295 0.49019828 4279572253
0.43955427 0.041089788 0.49004057 4279244310
0.4398272 0.041566685 0.48988283 4279310616
0.44009814 0.042042896 0.48972505 4279442200
0.4403671 0.042518467 0.48956728 4279376407
0.44063413 0.042993411 0.48940945 4279441687
0.44085166 0.043549046 0.48921096 4279638296
0.44111449 0.04402262 0.48905313 4279310616
0.44132733 0.044576719 0.48885462 4279245091
0.44158596 0.045048907 0.48869672 4279442722
0.44184262 0.04552047 0.4885388 4279442974
0.44219476 0.045829505 0.48846218 4279442974
0.44249696 0.046219051 0.48834488 4279508765
0.44284689 0.046527341 0.48826823 4279639581
0.44324529 0.046754614 0.48823225 4279639579
0.44364321 0.046981722 0.48819622 4279442974
0.4440906 0.047128141 0.4882009 4279508767
0.444538 0.047274545 0.48820555 4279705896
0.44498539 0.047420949 0.4882102 4279771687
0.41639248 0.0035756379 0.50281525 4282466605
0.41684055 0.0040125251 0.50269878 4281873962
0.41734612 0.0042747259 0.50266367 4281742376
0.41788092 0.0044497401 0.50266927 4281282852
0.41838574 0.0047117025 0.50263417 4281151013
0.41885984 0.0050603598 0.50255835 4280887841
0.41936344 0.0053219199 0.50252318 4280492309
0.41986653 0.0055833161 0.50248808 4280163344
0.42043108 0.0056713074 0.50253433 4279506191
0.42093366 0.0059325397 0.50249916 4279375377
0.42146724 0.0061071515 0.50250477 4278981136
0.42196912 0.0063681453 0.5024696 4278783757
0.42250243 0.0065426677 0.50247514 4278783757
0.42300355 0.0068034232 0.50243998 4278914824
0.42350417 0.0070640147 0.50240481 4278784010
0.42400432 0.0073244423 0.50236964 4279046410
0.43163705 0.032269165 0.49308276 4279112722
0.43203092 0.032591537 0.49300614 4279113488
0.4323827 0.032996938 0.49288869 4279113488
0.43273303 0.033401847 0.49277121 4279113235
0.43304035 0.033889428 0.49261293 4279047444
0.43342927 0.03421022 0.49253625 4279112472
0.43377516 0.034613669 0.49241871 4279113239
0.43416184 0.034933731 0.492342 4279113235
0.43446252 0.035419136 0.49218363 4279047442
0.43471843 0.035986662 0.49198443 4279112975
0.4349719 0.036553353 0.49178523 4279178515
0.43522286 0.037119269 0.49158597 4279309331
0.43551493 0.037601858 0.49142754 4279244310
0.43580499 0.038083807 0.49126905 4279178519
0.43613711 0.038482741 0.49115139 4279112222
0.43655625 0.038716659 0.49111539 4279243808
0.43693039 0.039032608 0.49103856 4279310366
0.43734831 0.039266124 0.49100253 4279310616
0.43772072 0.039581507 0.49092567 4279376147
0.43804693 0.039978534 0.49080795 4279571729
0.43846262 0.04021132 0.49077189 4279571729
0.43878633 0.040607527 0.49065417 4279374874
0.43906263 0.041084945 0.49049553 4279506462
0.43933696 0.041561738 0.49033689 4279244312
0.43960929 0.042037874 0.49017826 4279441687
0.43987966 0.042513371 0.49001956 4279507480
0.44014806 0.042988226 0.48986089 4279638296
0.4404617 0.043381125 0.48974305 4279638296
0.4407264 0.043854773 0.4895843 4279638296
0.44094145 0.044408917 0.48938468 4279375894
0.44120198 0.044881195 0.48922592 4279245091
0.44146055 0.045352802 0.48906711 4279376927
0.44176555 0.045742899 0.48894918 4279377181
0.44206911 0.04613249 0.48883122 4279377181
0.44242013 0.04644087 0.48875412 4279508763
0.44277012 0.046748921 0.48867702 4279640349
0.44311917 0.047056645 0.4885999 4279639579
0.44351688 0.04728356 0.48856369 4279442974
0.443964 0.047429889 0.48856834 4279640103
0.444361 0.047656551 0.4885321 4279771689
0.4447071 0.047963321 0.48845497 4279705896
0.41632959 0.0037535578 0.50334513 4282007081
0.41680723 0.0041030943 0.50326896 4281809193
0.41734278 0.0042783469 0.5032745 4281611814
0.41784862 0.004540503 0.50323921 4281282597
0.41832405 0.0048893243 0.50316298 4281151011
0.41885883 0.0050643384 0.50316852 4280821276
0.4193328 0.0054126829 0.50309229 4280361493
0.4198671 0.0055875331 0.50309783 4280032528
0.42037046 0.0058488846 0.50306249 4279638031
0.42087337 0.006110087 0.50302708 4279243791
0.42140719 0.0062847733 0.50303268 4278915343
0.42194098 0.0064594597 0.50303823 4278717968
0.42244291 0.0067203343 0.50300288 4278783761
0.42291218 0.0070671439 0.50292653 4278784010
0.42344525 0.0072415918 0.50293207 4278914826
0.42394567 0.0075019747 0.50289673 4279046412
0.43099958 0.032515645 0.49342978 4279046933
0.43135297 0.032921165 0.49331164 4279177745
0.43174568 0.033242911 0.49323454 4279047444
0.43213737 0.033564344 0.49315742 4279047444
0.43248686 0.033968553 0.49303928 4279178778
0.43287635 0.034289256 0.49296212 4279047192
0.43322313 0.0346926 0.49284396 4279047194
0.43361038 0.035012573 0.4927668 4279047192
0.43391222 0.035497814 0.49260753 4279179032
0.43421203 0.035982415 0.49244827 4279113239
0.43450993 0.03646636 0.49228898 4279113237
0.43476284 0.037032232 0.49208862 4279243540
0.43501332 0.037597269 0.49188825 4279243540
0.43521786 0.03824392 0.4916468 4279375128
0.43550685 0.038724974 0.49148741 4279309335
0.43588182 0.039040923 0.49141014 4279112222
0.43634421 0.039192244 0.49141496 4279178015
0.43671772 0.039507687 0.49133766 4279178780
0.43709022 0.039822847 0.49126032 4279244310
0.43750668 0.040055767 0.49122405 4279178766
0.43787748 0.040370345 0.49114674 4279507215
0.43820184 0.040766343 0.49102831 4279375629
0.4386161 0.040998518 0.49099204 4279440149
0.43889207 0.041475296 0.49083251 4279506464
0.4392122 0.041869938 0.49071407 4279375128
0.43943805 0.042426929 0.49051344 4279769114
0.43970811 0.042901769 0.49035385 4279573275
0.44002312 0.043294713 0.49023533 4279506712
0.44028947 0.043768361 0.49007571 4279506712
0.44055384 0.044241354 0.48991609 4279704091
0.44081628 0.044713706 0.48975641 4279572505
0.44112462 0.045104474 0.48963785 4279376159
0.44138336 0.045575604 0.48947814 4279376157
0.44164011 0.046046108 0.48931843 4279507995
0.44194353 0.046435252 0.48919979 4279507995
0.44219661 0.046904549 0.48904005 4279508763
0.44259509 0.047131568 0.4890036 4279508763
0.44294372 0.047438905 0.48892605 4279639579
0.44339061 0.047585145 0.4889307 4279442974
0.44373775 0.047891989 0.4888531 4279640101
0.44413406 0.048118293 0.48881662 4279705894
0.41626662 0.0039317012 0.50387549 4281941034
0.41674459 0.0042811036 0.50379884 4281743398
0.41728038 0.0044564307 0.50380445 4281546019
0.41775686 0.0048053265 0.50372779 4281216802
0.41829216 0.0049804896 0.50373334 4281085216
0.41879731 0.0052422881 0.50369775 4280821274
0.41933236 0.0054173917 0.50370336 4280492309
0.41980612 0.0057654083 0.50362664 4280163344
0.42034069 0.005940333 0.50363219 4279703824
0.42084411 0.0062015653 0.5035966 4279375377
0.42134705 0.0064626485 0.50356102 4278783757
0.42188111 0.0066374093 0.50356662 4278717966
0.42238331 0.0068982393 0.50353098 4278717966
0.422885 0.0071589053 0.5034954 4278914826
0.42338622 0.0074194223 0.50345981 4278914826
0.43079746 0.033000574 0.49373955 4279046933
0.43119073 0.033322245 0.493662 4279177745
0.43158305 0.033643588 0.49358442 4279112724
0.43197435 0.033964604 0.49350685 4279047192
0.43228221 0.034451306 0.49334678 4279310364
0.43262959 0.034854427 0.49322793 4279047192
0.43297553 0.035257071 0.49310908 4279112472
0.43336189 0.035576493 0.49303144 4279112985
0.43366289 0.036060929 0.49287128 4279113239
0.43396193 0.036544695 0.49271113 4279244312
0.43425897 0.037027866 0.49255091 4279112726
0.43442523 0.037757635 0.49226689 4279243540
0.43454489 0.038568661 0.49194154 4279177747
0.43487775 0.038967028 0.49182254 4279375126
0.43520913 0.039364934 0.49170354 4279309335
0.43562686 0.039598122 0.49166706 4279244062
0.43599996 0.039913177 0.49158931 4279244062
0.43641648 0.040145963 0.49155283 4279112985
0.43683249 0.0403786 0.49151632 4279178515
0.43724802 0.040611058 0.49147981 4279112973
0.4376179 0.040925056 0.49140203 4279637777
0.43798679 0.04123874 0.49132425 4279637528
0.43835473 0.041552112 0.4912464 4279505942
0.43862987 0.042028084 0.49108601 4279506462
0.4388569 0.042584807 0.49088424 4279703323
0.43912786 0.043059409 0.49072379 4279769114
0.43944347 0.043452144 0.49060458 4279638298
0.43971074 0.043925539 0.49044409 4279637528
0.44002315 0.044317231 0.49032488 4279637528
0.44028673 0.044789419 0.49016434 4279638048
0.44054833 0.045260936 0.49000376 4279572505
0.4408558 0.045651019 0.4898845 4279441691
0.44120994 0.04595989 0.48980653 4279376157
0.44146639 0.046429724 0.48964593 4279507995
0.44167224 0.046979502 0.48944396 4279507995
0.44202217 0.047286987 0.48936594 4279508763
0.44237113 0.04759416 0.48928794 4279443483
0.4427191 0.04790099 0.48920992 4279442970
0.44311565 0.048127249 0.48917323 4279442972
0.44346189 0.048433527 0.48909518 4279640099
0.41566703 0.0039345175 0.50440079 4282269744
0.41617471 0.0041970015 0.50436497 4281874984
0.41668186 0.0044593364 0.5043292 4281612066
0.41721788 0.0046347529 0.50433481 4281217308
0.41772431 0.0048968345 0.50429904 4281216802
0.4182601 0.0050721765 0.50430465 4280888091
0.41876578 0.0053339899 0.50426888 4280755735
0.41927099 0.0055956692 0.50423306 4280361747
0.41980627 0.0057708472 0.50423867 4280032782
0.42027989 0.006118536 0.50416148 4279703822
0.42078361 0.0063797235 0.50412565 4279309582
0.42131817 0.0065546632 0.50413126 4278717964
0.42182112 0.0068155974 0.50409544 4278717964
0.42232361 0.0070763975 0.50405961 4278915343
0.42285767 0.0072511584 0.50406516 4278718217
0.43063581 0.033401579 0.49408945 4279178778
0.43106911 0.033639729 0.49405292 4279113239
0.43146122 0.033960745 0.49397489 4279046931
0.43181145 0.034364402 0.49385542 4279177749
0.4321602 0.034767568 0.49373591 4279506714
0.43250746 0.035170257 0.49361637 4279112474
0.43281156 0.035655171 0.49345535 4279112472
0.43311372 0.036139429 0.4932943 4279047196
0.43341392 0.036623046 0.49313325 4279112985
0.43354249 0.037435904 0.4928062 4279112985
0.43375248 0.038082704 0.49256209 4278981399
0.43391657 0.038810834 0.49227646 4279310366
0.43420666 0.039291158 0.49211529 4279112726
0.43453819 0.039688691 0.4919956 4279178517
0.43486819 0.040085733 0.49187589 4279178519
0.43524063 0.040400296 0.49179769 4279244312
0.43565619 0.040632635 0.49176097 4279179030
0.4360269 0.040946648 0.49168271 4279113237
0.43831769 0.043623269 0.49088562 4279506714
0.43867904 0.043934211 0.49080729 4279703321
0.4389928 0.044325933 0.49068743 4279703319
0.43925828 0.044798195 0.49052599 4279506460
0.43956888 0.045188859 0.4904061 4279505958
0.43992528 0.045498207 0.49032769 4279571751
0.4403283 0.045726433 0.49029085 4279572253
0.44058734 0.046196625 0.49012935 4279375898
0.44074833 0.046827361 0.48988473 4279441691
0.44105124 0.047215536 0.48976475 4279507482
0.44135273 0.047603235 0.48964474 4279508763
0.44175032 0.047829702 0.48960784 4279442970
0.44204932 0.048216596 0.48948783 4279311897
0.44229755 0.048683226 0.48932621 4279508763
0.4425438 0.0491492 0.48916459 4279508763
0.41557509 0.0041999519 0.50489044 4282138161
0.41611159 0.0043755323 0.50489604 4281677864
0.41661906 0.0046378076 0.50486004 4281480485
0.41715533 0.0048132986 0.50486565 4281085727
0.41766202 0.0050753504 0.50482965 4281019682
0.41816825 0.0053372234 0.50479364 4280822044
0.41870403 0.0055125654 0.50479925 4280624149
0.41923982 0.0056879073 0.50480479 4280360977
0.41974506 0.0059494376 0.50476879 4280097805
0.42024982 0.0062108338 0.50473279 4279571979
0.42075405 0.006472066 0.50469673 4279308812
0.42128909 0.0066471547 0.50470233 4278717964
0.4217611 0.0069940388 0.50462472 4278718217
0.42229563 0.0071689785 0.50463027 4278784010
0.43016067 0.033314601 0.4946003 4278915860
0.4305546 0.033635944 0.49452186 4278982423
0.43094754 0.03395696 0.49444339 4278982421
0.43129888 0.034360573 0.49432322 4278981651
0.43168962 0.034680858 0.49424475 4279309335
0.43203825 0.035083592 0.49412456 4279309335
0.43234402 0.035568476 0.49396265 4279112472
0.43260619 0.036135361 0.49375904 4279178265
0.43290776 0.036618873 0.49359706 4279376157
0.43299681 0.037513927 0.49322653 4279112985
0.43303907 0.038489863 0.49281424 4279112987
0.4332042 0.039217398 0.49252707 4279112989
0.43358016 0.039532855 0.49244842 4279178782
0.43373966 0.040258512 0.49216115 4279046681
0.4341124 0.040572926 0.49208251 4279112726
0.43452775 0.040805057 0.49204555 4279047192
0.43494263 0.041037053 0.4920086 4278981653
0.43535703 0.04126887 0.49197164 4279047442
0.43572658 0.041582227 0.49189293 4279047442
0.43609518 0.04189527 0.49181426 4279375377
0.44004723 0.048095375 0.48975047 4279441950
0.44157678 0.050808787 0.48881713 4279508765
0.44171733 0.051432043 0.48857096 4279443235
0.44160491 0.052453592 0.48811579 4279574317
0.4418388 0.052914962 0.48795313 4279574571
0.44212118 0.053296015 0.48783225 4279837482
0.44245282 0.053596973 0.48775315 4279837480
0.41551164 0.0043786317 0.50542194 4282072368
0.41601962 0.0046409518 0.50538576 4281546024
0.41655615 0.0048165321 0.50539136 4281349669
0.41709268 0.0049921125 0.5053969 4281020704
0.41759968 0.0052541047 0.50536072 4280757278
0.41810617 0.0055159628 0.50532448 4280887839
0.4186722 0.0056051016 0.50537187 4280493333
0.41917825 0.0058667958 0.50533563 4280360723
0.41968375 0.0061282963 0.50529939 4280031758
0.42021954 0.0063036382 0.50530499 4279440141
0.42075533 0.0064789802 0.50531054 4279243016
0.42122862 0.0068259984 0.50523251 4278717964
0.4296844 0.033227786 0.495112 4279178519
0.43003953 0.033632249 0.49499121 4278915860
0.4304333 0.033953264 0.49491233 4278916630
0.4308261 0.034273952 0.49483341 4279047442
0.43117732 0.034677118 0.49471256 4278981649
0.43148619 0.035162508 0.49454981 4279244310
0.43179312 0.035647243 0.494387 4279178517
0.43205673 0.036213905 0.49418226 4279112724
0.43227631 0.036862209 0.49393556 4279112726
0.43228382 0.037921488 0.49347913 4279178519
0.43249413 0.039623618 0.49277586 4279112987
0.43282712 0.040020809 0.49265483 4279178015
0.43311581 0.040499583 0.49249184 4279112474
0.43348867 0.040813759 0.49241275 4279046681
0.43390381 0.04104571 0.49237555 4279047192
0.43427494 0.04135929 0.49229643 4279112985
0.43468887 0.041590825 0.49225923 4278981653
0.43510231 0.04182221 0.49222207 4279047442
0.43542668 0.042216584 0.49210092 4279047442
0.43570507 0.042691991 0.49193785 4279506961
0.43659765 0.046827123 0.49028721 4279506712
0.4369508 0.047134846 0.49020788 4279506712
0.43707043 0.047846526 0.48991865 4279506712
0.43857163 0.049778923 0.48931181 4279245341
0.43896341 0.050003216 0.48927438 4279311134
0.43925822 0.050387919 0.48915297 4279311136
0.43960005 0.050691932 0.48907351 4279442720
0.4396973 0.051396295 0.48878407 4279377181
0.43988901 0.051939413 0.48857856 4279377179
0.4401767 0.052321792 0.48845705 4279508767
0.44056183 0.052543893 0.48841959 4279442974
0.44084704 0.052925453 0.48829806 4279508513
0.44118074 0.053226814 0.48821855 4279574569
0.44151345 0.053527862 0.488139 4279574569
0.44184518 0.053828567 0.48805946 4279771687
0.44222659 0.054049462 0.48802191 4279837480
0.41544813 0.0045575649 0.50595391 4282006575
0.41595641 0.0048198402 0.50591743 4281546794
0.41649318 0.00499551 0.50592303 4281349415
0.41702992 0.0051711649 0.50592864 4281086243
0.41753721 0.0054331124 0.50589222 4280757280
0.41804403 0.0056949109 0.50585574 4280888096
0.41861027 0.0057842731 0.50590336 4280427545
0.41908634 0.0061319768 0.50582486 4280164116
0.41965282 0.0062213987 0.50587249 4279835151
0.42018911 0.0063969046 0.50587809 4279308555
0.42069441 0.0066582263 0.50584161 4278979847
0.42123047 0.0068336427 0.50584722 4278848782
0.42991847 0.033949643 0.49538168 4279178778
0.43027204 0.034353167 0.49526018 4278850833
0.4306241 0.034756199 0.4951387 4279047180
0.43093413 0.035241425 0.49497503 4279047182
0.43116063 0.03589119 0.49472705 4279178768
0.43146622 0.036374971 0.49456334 4279112975
0.4316873 0.037022933 0.4943153 4279112975
0.43186387 0.037752301 0.49402508 4278980886
0.432037 0.038480535 0.49373481 4279112472
0.43253565 0.040658474 0.4928638 4279046942
0.43290883 0.040972486 0.49278426 4279047196
0.43328103 0.041286156 0.49270469 4278981403
0.4336955 0.041517735 0.49266726 4279047194
0.43410948 0.04174915 0.49262986 4279244058
0.43443543 0.042143643 0.49250808 4279178519
0.43480396 0.04245612 0.49242848 4279243538
0.43503872 0.043012649 0.49222231 4279243791
0.43545565 0.046123236 0.49093321 4279112724
0.43567541 0.046674848 0.49072689 4279375126
0.43593842 0.047144681 0.49056274 4279375126
0.43624544 0.047532976 0.49044076 4279376407
0.43650478 0.048001602 0.49027658 4279442200
0.43685505 0.048308119 0.49019676 4279310614
0.43711093 0.048775598 0.49003255 4279375898
0.43741179 0.049161896 0.48991051 4279442204
0.43761677 0.049708664 0.48970401 4279507997
0.43796161 0.050013393 0.48962417 4279245341
0.43825781 0.050398141 0.48950207 4279311134
0.43860045 0.050702155 0.4894222 4279442720
0.43884572 0.051166192 0.48925787 4279376927
0.43908906 0.051629573 0.48909351 4279441950
0.43937907 0.052012309 0.48897135 4279573277
0.43971655 0.052314639 0.48889142 4279639070
0.44005305 0.052616641 0.48881149 4279442974
0.44038856 0.0529183 0.48873153 4279508767
0.44072306 0.053219646 0.48865157 4279508767
0.44105661 0.053520679 0.48857158 4279574821
0.44138914 0.0538214 0.48849159 4279574821
0.44177109 0.054042339 0.48845387 4279706405
0.41538453 0.0047367513 0.5064863 4282006829
0.41589308 0.004998982 0.50644964 4281546794
0.41643012 0.0051747113 0.50645524 4281217829
0.41696709 0.0053504556 0.50646079 4281086243
0.41747469 0.0056123734 0.50642413 4280822303
0.41801146 0.0057880282 0.50642973 4280822303
0.41854823 0.0059636831 0.50643533 4280427545
0.41908497 0.0061393529 0.50644094 4280098580
0.41959134 0.0064008534 0.50640428 4279769615
0.42012787 0.0065764338 0.50640982 4279243016
0.42063347 0.0068376958 0.50637317 4278979847
0.42120087 0.0069275945 0.50642103 4278848780
0.42975771 0.034349591 0.49572933 4279179032
0.43011093 0.034752578 0.4956072 4279046929
0.43042237 0.03523773 0.49544263 4279112973
0.4306103 0.035969868 0.49515092 4279046929
0.43091708 0.036453471 0.49498636 4279047182
0.43105787 0.037265986 0.49465221 4279309584
0.4311122 0.038241804 0.49423331 4279046933
0.43116164 0.039216012 0.49381435 4278981140
0.43137309 0.039860055 0.49356484 4279046679
0.43174955 0.040174872 0.49348485 4278981399
0.43195611 0.040817291 0.49323532 4278982169
0.4323296 0.041131124 0.4931553 4279046942
0.43270212 0.041444629 0.49307531 4279047196
0.43311661 0.041676089 0.49303767 4278915610
0.43348742 0.041989043 0.49295765 4279112474
0.43385723 0.04230167 0.4928776 4279244060
0.43418235 0.042695478 0.49275514 4279244312
0.43454996 0.043007389 0.49267507 4279440149
0.43478394 0.043562993 0.49246776 4279243538
0.43479323 0.044524074 0.49204835 4279376147
0.43475291 0.045564726 0.49158651 4279309584
0.43484199 0.046360314 0.49125186 4279243791
0.4350175 0.04699257 0.49100196 4279309333
0.43528095 0.047462001 0.49083692 4279375124
0.43563378 0.047769085 0.49075672 4279375124
0.43598559 0.048075825 0.49067646 4279375894
0.43629029 0.048462942 0.4905538 4279507480
0.4366399 0.048768967 0.49047354 4279441687
0.43689519 0.049235746 0.4903084 4279375898
0.43724236 0.049540967 0.49022812 4279376409
0.43754137 0.049926221 0.49010539 4279507995
0.43783891 0.050310999 0.48998266 4279310364
0.43808734 0.050775513 0.48981744 4279377179
0.43838167 0.051159248 0.48969465 4279442972
0.43867454 0.051542506 0.48957187 4279377181
0.43930447 0.052227676 0.48936868 4279573275
0.43964201 0.052529752 0.4892883 4279704861
0.43992946 0.052911237 0.48916546 4279573790
0.44026482 0.053212568 0.48908505 4279639583
0.44059914 0.053513601 0.48900464 4279639583
0.4409824 0.053734824 0.48896667 4279377440
0.44131503 0.054035306 0.48888624 4279443233
0.44164667 0.054335445 0.4888058 4279706405
0.41591564 0.0049194992 0.50710964 4281481001
0.41642475 0.0051817447 0.50707281 4281217829
0.41690421 0.0055299997 0.50699341 4281217313
0.41741207 0.0057918727 0.50695658 4281018907
0.41794908 0.0059676021 0.50696212 4280822044
0.41848609 0.0061433464 0.50696772 4280295700
0.418993 0.0064048916 0.50693083 4280097553
0.41956013 0.0064948201 0.50697893 4279834381
0.42006651 0.0067562163 0.50694203 4279111430
0.42060328 0.0069318712 0.50694764 4278979847
0.42117116 0.0070220381 0.50699568 4278782987
0.43044883 0.036367133 0.49549454 4279046931
0.43053812 0.039457753 0.49414593 4279375126
0.43083376 0.039937168 0.49398029 4279112724
0.43108568 0.040497944 0.49377206 4279112724
0.43141904 0.040894061 0.49364901 4278915860
0.43175095 0.041289672 0.49352592 4278982423
0.43212378 0.041603029 0.49344549 4279112474
0.43249565 0.041916057 0.49336499 4279112985
0.43290946 0.042147145 0.49332714 4278980886
0.4332796 0.042459622 0.49324664 4279046679
0.43364877 0.042771772 0.49316615 4279178267
0.434183 0.04572098 0.49194866 4279376147
0.43440622 0.047229066 0.4913184 4279703064
0.43476063 0.047536388 0.49123773 4279834650
0.43515942 0.047762573 0.4911997 4279505940
0.43546644 0.048150048 0.49107638 4279375124
0.43581787 0.048456401 0.49099571 4279375894
0.43616831 0.048762411 0.490915 4279638300
0.43651778 0.049068108 0.4908343 4279572507
0.43681961 0.049453914 0.49071091 4279506714
0.43711999 0.049839199 0.49058753 4279376411
0.43741888 0.050224021 0.49046412 4279441950
0.43771631 0.050608367 0.49034068 4279441437
0.43796465 0.051072314 0.49017459 4279442204
