# .PCD v0.7 - Point Cloud Data file format
VERSION 0.7
FIELDS x y z rgb
SIZE 4 4 4 4
TYPE F F F U
COUNT 1 1 1 1
WIDTH 1047
HEIGHT 1
VIEWPOINT 0 0 0 1 0 0 0
POINTS 1047
DATA ascii
0.42393932 -0.025411025 0.57924777 4283055926
0.42320234 -0.0263412 0.57972169 4282860346
0.42263812 -0.026353031 0.57980138 4282794553
0.42210782 -0.026180938 0.57980227 4282926139
0.42154509 -0.026193231 0.57988197 4282992184
0.42099929 -0.02611357 0.57992226 4283583036
0.4204697 -0.02594173 0.57992315 4284044354
0.41994011 -0.025769889 0.57992405 4283650362
0.41941053 -0.025598034 0.57992494 4283321397
0.41891086 -0.025241032 0.57984698 4281872154
0.485484 -0.026254311 0.5720731 4281742376
0.48506916 -0.025729388 0.57191718 4280755735
0.48456955 -0.025372118 0.57183963 4280558356
0.48402786 -0.025098756 0.57180136 4280295959
0.48356745 -0.024656639 0.57168466 4280164373
0.48306489 -0.024298415 0.57160717 4280230164
0.48256138 -0.023939848 0.57152969 4280821794
0.482097 -0.023496449 0.57141298 4281216552
0.48155135 -0.023221806 0.57137471 4282202677
0.48096558 -0.023031741 0.57137573 4282334254
0.48034042 -0.022926465 0.5714159 4281871134
0.47971573 -0.022821337 0.57145613 4281542169
0.47909155 -0.022716373 0.57149637 4281873701
0.4784292 -0.022696614 0.57157576 4282005289
0.47776783 -0.022677153 0.57165521 4282137388
0.47710744 -0.022658035 0.57173461 4282006829
0.47641009 -0.022724494 0.57185328 4282072622
0.47575194 -0.022706091 0.57193267 4282072370
0.47513217 -0.022602573 0.57197291 4282006579
0.47447574 -0.022584707 0.5720523 4281875761
0.47382027 -0.022567183 0.57213175 4281941554
0.47323918 -0.022378623 0.57213271 4281940532
0.47262165 -0.02227582 0.57217288 4281808946
0.47204083 -0.02208735 0.57217389 4281874482
0.47149593 -0.021812961 0.57213563 4282006322
0.47091481 -0.021624401 0.57213658 4281938474
0.47036919 -0.021349773 0.57209837 4281083165
0.46982306 -0.02107498 0.57206011 4280096537
0.46927643 -0.020800039 0.57202184 4280360222
0.4686946 -0.020611241 0.5720228 4281281062
0.45906177 -0.027340978 0.57599431 4282531379
0.45844132 -0.027334809 0.57607371 4282400306
0.45791638 -0.027066886 0.57603538 4281611560
0.45732841 -0.02697368 0.57607555 4281545251
0.45674092 -0.026880652 0.57611567 4280821274
0.45618474 -0.026700169 0.57611662 4280623895
0.455598 -0.02660735 0.57615674 4280558102
0.4549512 -0.0266902 0.57627535 4280623895
0.4543359 -0.026685715 0.57635468 4280952860
0.45375139 -0.026593626 0.5763948 4281085216
0.45313781 -0.026589707 0.57647419 4281611560
0.45255455 -0.026498005 0.5765143 4282005287
0.45194271 -0.026494622 0.57659364 4282400810
0.45133185 -0.026491567 0.57667297 4282663469
0.45075053 -0.026400536 0.57671314 4282531883
0.45019805 -0.026221246 0.57671404 4282531883
0.44964552 -0.02604197 0.57671499 4282531883
0.44909301 -0.025862694 0.57671589 4282663469
0.44854051 -0.025683418 0.57671684 4282335017
0.44804266 -0.025326699 0.57663935 4282269224
0.44759798 -0.024792105 0.57648343 4282203431
0.4471513 -0.02425684 0.5763275 4281479456
0.44667611 -0.02380991 0.5762108 4281084698
0.44622573 -0.023273453 0.57605493 4281018392
0.44577342 -0.022736371 0.575899 4280952599
0.44526744 -0.022377029 0.57582152 4280887321
0.44478604 -0.021928087 0.57570487 4281084446
0.44432855 -0.02138932 0.57554901 4281018653
0.44371843 -0.021386504 0.57562834 4281151009
0.44293529 -0.022010595 0.57598209 4281151009
0.44220579 -0.022456944 0.57625747 4280624926
0.4415285 -0.022725061 0.5764544 4280558879
0.44092602 -0.022724733 0.57653373 4280493858
0.4402768 -0.022904381 0.57669145 4281481274
0.43965316 -0.022994757 0.57681 4282204993
0.43900761 -0.023175597 0.57696772 4282204993
0.43838719 -0.023267016 0.57708621 4282468167
0.43776822 -0.023358911 0.57720476 4282270788
0.43715075 -0.023451284 0.57732326 4282401604
0.43655714 -0.023453817 0.57740259 4282401602
0.4359867 -0.023366302 0.57744271 4282467395
0.43539479 -0.023369402 0.57752204 4282270269
0.43478227 -0.023463354 0.57764053 4282270269
0.434214 -0.023376554 0.57768065 4282401853
0.4336251 -0.023380622 0.57775998 4282467395
0.43305808 -0.02329421 0.57780004 4282137662
0.43249154 -0.023207963 0.57784015 4282203455
0.43192551 -0.023121879 0.57788026 4282071867
0.43138015 -0.022944912 0.57788122 4282071867
0.43081486 -0.022859067 0.57792127 4282466878
0.43025005 -0.02277337 0.57796139 4282465336
0.42968577 -0.022687837 0.5780015 4282267957
0.42914113 -0.02251111 0.57800239 4286872949
0.42857757 -0.02242583 0.57804251 4287267707
0.4280332 -0.022249192 0.57804346 4286609777
0.42743346 -0.022347331 0.57816195 4286149224
0.42685342 -0.02235426 0.57824123 4285622880
0.42627436 -0.022361532 0.5783205 4284967264
0.42483971 -0.02384758 0.57910615 4283385920
0.42409533 -0.02477698 0.57957733 4282727477
0.42335689 -0.025708303 0.58004856 4282662969
0.42275816 -0.025904343 0.58020616 4282662969
0.42219439 -0.025916576 0.58028543 4282728762
0.42164785 -0.025836796 0.58032554 4282991932
0.42110175 -0.025757179 0.5803656 4283517758
0.42055619 -0.025677726 0.58040565 4284373067
0.4200266 -0.025505885 0.58040655 4283716155
0.41949701 -0.025334045 0.58040744 4283255604
0.41899741 -0.024976775 0.58032995 4281675804
0.48545325 -0.026216865 0.57271981 4281742380
0.48503926 -0.025691673 0.57256472 4280623895
0.4844991 -0.025418684 0.57252669 4280492309
0.48399958 -0.025061175 0.57244962 4280295961
0.48349911 -0.024703354 0.57237262 4280230166
0.4829976 -0.024345204 0.57229555 4280230166
0.4825356 -0.023902133 0.57217956 4280822048
0.48207206 -0.023458585 0.57206351 4281085220
0.48148727 -0.023268819 0.57206446 4281939759
0.48090249 -0.023079067 0.57206547 4282201898
0.48031771 -0.022889316 0.57206643 4282069283
0.47969371 -0.022784561 0.57210642 4281806111
0.47903126 -0.02276504 0.5721854 4282004517
0.47840852 -0.022660688 0.57222533 4282005289
0.4777478 -0.022641718 0.57230431 4282137388
0.47704989 -0.022708386 0.57242233 4282072365
0.47642934 -0.022604749 0.57246232 4282138163
0.47569615 -0.022757694 0.57261926 4282072370
0.4750399 -0.02274017 0.57269824 4282072372
0.47438461 -0.022722974 0.57277721 4282072370
0.47376728 -0.02262038 0.57281721 4282006579
0.47315043 -0.022517949 0.57285714 4281940532
0.47253406 -0.022415653 0.57289714 4281743153
0.47191823 -0.022313535 0.57293707 4282006068
0.47133887 -0.022125527 0.57293802 4282268724
0.47075951 -0.021937534 0.57293904 4282070060
0.47018012 -0.021749541 0.57293999 4280359711
0.46963602 -0.02147527 0.57290196 4280096539
0.46902138 -0.021373555 0.5729419 4280162843
0.45908862 -0.027237967 0.57657975 4282728758
0.45846856 -0.0272322 0.57665867 4282466353
0.45791259 -0.027051806 0.57665956 4282006570
0.45735663 -0.026871398 0.57666051 4282005800
0.45676962 -0.026778638 0.57670045 4281544738
0.45618311 -0.026686028 0.57674032 4281347359
0.4555665 -0.026681378 0.57681924 4281084187
0.45498121 -0.026589185 0.57685918 4281347359
0.45436633 -0.026585087 0.57693809 4281545251
0.45375243 -0.026581332 0.57701695 4281808939
0.45313954 -0.026577875 0.57709587 4282006318
0.45255697 -0.026486546 0.5771358 4282203181
0.45194578 -0.02648367 0.57721466 4282466351
0.45136443 -0.026392728 0.57725459 4282598191
0.45078355 -0.02630198 0.57729447 4282531885
0.45020321 -0.026211381 0.5773344 4282795057
0.44962335 -0.026120916 0.57737434 4282663471
0.44907179 -0.025941968 0.57737523 4282663471
0.4485479 -0.025674254 0.57733715 4282335017
0.44805086 -0.025317535 0.57726014 4282269224
0.44755283 -0.024960503 0.57718307 4282203431
0.44710755 -0.024425164 0.5770281 4281808160
0.44660708 -0.024067342 0.57695103 4281479193
0.44618475 -0.023441717 0.57675701 4281084437
0.44578609 -0.022726074 0.57652408 4280887058
0.44528091 -0.022366717 0.57644707 4280887060
0.44482604 -0.021828279 0.57629204 4281018394
0.44421682 -0.021826014 0.57637095 4280887067
0.44353315 -0.022092745 0.57656682 4280821276
0.44285196 -0.02236028 0.57676262 4280821276
0.44214857 -0.02271834 0.5769974 4280427547
0.44147256 -0.022987545 0.5771932 4280295961
0.44082314 -0.023167685 0.57735008 4280888616
0.44024748 -0.023078606 0.57738996 4281678399
0.43960127 -0.023259774 0.57754678 4282270788
0.43898046 -0.023351476 0.57766467 4282270788
0.43836117 -0.023443654 0.57778251 4282468169
0.43774331 -0.023536325 0.57790035 4282336583
0.43714964 -0.023539111 0.57797921 4282467397
0.43655694 -0.023542225 0.57805806 4282401602
0.43596521 -0.023545638 0.57813692 4282401602
0.43539643 -0.023458794 0.57817686 4282270016
0.43480647 -0.023462787 0.57825571 4282336062
0.43423891 -0.023376346 0.57829559 4282401855
0.43365064 -0.02338089 0.57837445 4282467395
0.43308431 -0.023294851 0.57841432 4282138432
0.43251851 -0.023208961 0.5784542 4282270018
0.43197364 -0.023032159 0.57845509 4282007097
0.43140855 -0.022946507 0.57849497 4282138165
0.43084395 -0.022861019 0.57853484 4282269497
0.43029958 -0.02268438 0.5785358 4282400056
0.42975521 -0.022507742 0.57853669 4282400056
0.42919159 -0.022422567 0.57857656 4287004537
0.42862847 -0.022337571 0.57861644 4287201662
0.42808461 -0.022161081 0.57861733 4286279785
0.42750373 -0.022168025 0.57869619 4286148711
0.42692387 -0.022175312 0.57877505 4285359195
0.42632696 -0.022274747 0.57889283 4284504151
0.42569602 -0.022558615 0.57908863 4283913297
0.42496252 -0.023395434 0.57951814 4283319614
0.42425171 -0.024141937 0.57990873 4282661684
0.42351177 -0.025074422 0.58037722 4282662195
0.42289516 -0.025362894 0.5805729 4282663219
0.42233056 -0.025375143 0.58065176 4282663219
0.42175066 -0.025480121 0.58076954 4282662965
0.42118827 -0.025493056 0.58084834 4283123516
0.42064264 -0.025413722 0.58088821 4283847239
0.42011306 -0.025241882 0.58088911 4283781952
0.41958347 -0.025070027 0.58088994 4283321401
0.41909903 -0.024619699 0.58077395 4281874214
0.48488402 -0.02590768 0.5733273 4280427547
0.48442829 -0.025466233 0.57321191 4280361754
0.48397106 -0.02502431 0.57309657 4280295704
0.48347139 -0.024666503 0.57301998 4280295702
0.48301142 -0.0242237 0.57290459 4280361495
0.48255002 -0.02378042 0.57278919 4280822046
0.4820469 -0.023421466 0.57271266 4281085218
0.48150283 -0.023147076 0.57267487 4281611564
0.48095825 -0.022872508 0.57263702 4281808173
0.48033422 -0.022767887 0.57267678 4281741095
0.4797107 -0.0226634 0.57271653 4281477923
0.47904867 -0.022644281 0.57279509 4282004265
0.47838762 -0.022625491 0.57287359 4282202927
0.47772759 -0.022606999 0.57295215 4282137904
0.47703025 -0.022674292 0.57306945 4282072370
0.47633442 -0.022742048 0.57318676 4282137913
0.47564006 -0.022810295 0.57330406 4282072120
0.47498471 -0.022793353 0.57338256 4282072120
0.47429305 -0.022862464 0.57349986 4282006325
0.47363991 -0.022846222 0.57357836 4282006068
0.47302449 -0.022744387 0.57361811 4282137654
0.47240958 -0.022642702 0.57365787 4281874482
0.47179517 -0.022541195 0.57369757 4282006068
0.47118127 -0.022439852 0.57373732 4282137654
0.47056782 -0.022338644 0.57377708 4281873199
0.46999043 -0.022151291 0.57377803 4280294682
0.46941304 -0.021963924 0.57377899 4279965717
0.4688006 -0.021863043 0.57381874 4279703315
0.46822345 -0.021675766 0.5738197 4279769106
0.45963892 -0.027403221 0.57720208 4282794805
0.45898694 -0.027485207 0.57731932 4282794805
0.45846382 -0.027217597 0.57728148 4282729525
0.45787701 -0.027125046 0.57732117 4282729525
0.45729068 -0.027032644 0.57736087 4282860598
0.45673597 -0.026852652 0.57736182 4282465586
0.45618123 -0.026672646 0.57736272 4282268207
0.45556527 -0.026668489 0.57744122 4282334254
0.45495033 -0.026664644 0.57751966 4282400045
0.45436648 -0.026573047 0.57755935 4282400299
0.45375323 -0.026569739 0.57763779 4282531631
0.453141 -0.026566789 0.57771623 4282531885
0.45255911 -0.026475832 0.57775593 4282400299
0.45194858 -0.026473433 0.57783437 4282795057
0.45136794 -0.026382864 0.57787406 4282729010
0.45078778 -0.026292473 0.57791376 4282663217
0.45020813 -0.026202217 0.5779534 4282925619
0.44962895 -0.026112124 0.57799309 4282859826
0.44907817 -0.025933415 0.57799399 4282400045
0.4485274 -0.02575469 0.57799494 4282203433
0.44797662 -0.025575966 0.57799584 4282268713
0.44750729 -0.025130138 0.5778805 4282268713
0.44698268 -0.024862066 0.57784265 4282202918
0.44651091 -0.024415433 0.57772732 4281939996
0.44614333 -0.023611203 0.57745695 4281413654
0.44569379 -0.023073927 0.57730281 4280886808
0.44521636 -0.022625461 0.57718748 4280689429
0.44468608 -0.022355556 0.57714963 4280097040
0.44410446 -0.022264659 0.57718933 4279965969
0.44342256 -0.022532657 0.57738405 4279703824
0.44269326 -0.022980943 0.57765627 4279901203
0.44201678 -0.023250714 0.57785094 4280098582
0.44141611 -0.023251504 0.57792938 4279901203
0.44071963 -0.023612604 0.57816285 4280821800
0.44012192 -0.023614362 0.57824123 4282268998
0.43950149 -0.023706585 0.57835841 4282599501
0.43892947 -0.023618817 0.57839811 4282467915
0.43831152 -0.02371186 0.57851529 4282665294
0.437718 -0.023714975 0.57859367 4282336583
0.43712547 -0.023718402 0.57867211 4282468169
0.4365564 -0.023631588 0.57871175 4282468165
0.4359656 -0.023635596 0.57879019 4282270786
0.43539774 -0.023549184 0.57882982 4282204993
0.43480867 -0.023553759 0.57890826 4282401602
0.43424207 -0.023467734 0.5789479 4282401855
0.43367594 -0.023381889 0.57898754 4282270016
0.43311036 -0.023296207 0.57902724 4282336581
0.43256596 -0.023119569 0.57902813 4282402374
0.43200108 -0.023034111 0.57906777 4282138683
0.43143669 -0.022948846 0.57910746 4281875761
0.43089283 -0.022772357 0.57910836 4282006320
0.43034893 -0.022595882 0.57910925 4282400310
0.42978555 -0.022510916 0.57914889 4282334517
0.42926118 -0.022242919 0.5791111 4284899929
0.42869827 -0.022158116 0.57915074 4285491814
0.42815465 -0.021981716 0.57915163 4285490781
0.42757392 -0.021988988 0.57923007 4285096277
0.42697594 -0.022088483 0.57934719 4284833105
0.42641547 -0.022004485 0.57938683 4284372817
0.42580214 -0.022196874 0.5795427 4283386953
0.42499778 -0.023403615 0.58012474 4283254336
0.42435649 -0.023782626 0.58035809 4282662195
0.42366701 -0.024439543 0.58070767 4282662449
0.42303237 -0.02482073 0.58094102 4282794035
0.42241725 -0.025110394 0.58113563 4282794035
0.42183724 -0.025215745 0.58125269 4282859828
0.42127478 -0.025228932 0.58133107 4283321662
0.42076078 -0.024964288 0.58129323 4283716420
0.4202151 -0.024885088 0.58133286 4283847743
0.41968527 -0.024713159 0.58133376 4283452985
0.41918561 -0.024355337 0.58125716 4282795057
0.48584336 -0.026584938 0.57412386 4282859574
0.4853909 -0.026144177 0.57400912 4282071861
0.48489529 -0.025787368 0.57393301 4280624415
0.48444015 -0.025345728 0.57381827 4280492829
0.48394227 -0.024988204 0.57374215 4280295704
0.48344344 -0.024630368 0.57366598 4280295702
0.48298433 -0.024187446 0.5735513 4280427288
0.48252377 -0.023744047 0.57343656 4280822046
0.48206174 -0.023300156 0.57332188 4281151011
0.48151821 -0.023025796 0.57328433 4281611564
0.48093438 -0.022836372 0.57328528 4281611564
0.48027155 -0.022817254 0.57336336 4281544486
0.47964895 -0.022713214 0.57340288 4281544486
0.47902685 -0.022609353 0.5734424 4281873451
0.47832769 -0.022676438 0.57355905 4282268720
0.47763002 -0.022744 0.57367569 4282203697
0.4769721 -0.022726491 0.57375377 4282006579
0.47627714 -0.022794947 0.57387042 4282071867
0.47554582 -0.022949591 0.57402557 4282071867
0.47489163 -0.022933289 0.57410365 4282137913
0.4742384 -0.022917286 0.57418168 4281940532
0.47358614 -0.022901639 0.57425976 4282006068
0.47293487 -0.022886261 0.57433784 4282137654
0.47228462 -0.022871226 0.57441592 4282071861
0.47163531 -0.022856534 0.57449394 4282006070
0.47102308 -0.022755846 0.57453346 4282071861
0.47037551 -0.022741705 0.57461154 4281677103
0.4697645 -0.02264142 0.57465106 4280163866
0.46918935 -0.022454783 0.57465202 4279834901
0.46854398 -0.022441357 0.57473004 4279571727
0.45956779 -0.027563587 0.57790112 4282925619
0.45901331 -0.02738367 0.57790208 4282926389
0.45845884 -0.027203754 0.57790297 4282860596
0.45787272 -0.02711156 0.57794243 4282860596
0.45731848 -0.026931718 0.57794338 4282860598
0.45676425 -0.026751876 0.57794428 4282728758
0.45614821 -0.026747957 0.5780223 4282860598
0.45556384 -0.02665633 0.57806176 4282729012
0.45494956 -0.026652947 0.57813978 4282794287
0.45433623 -0.026649922 0.57821774 4282663471
0.45372391 -0.02664721 0.57829577 4282795057
0.45314223 -0.026556462 0.57833523 4282860080
0.45256102 -0.026465848 0.57837468 4282794287
0.451922 -0.026552439 0.57849121 4282925358
0.45134231 -0.026462331 0.57853067 4282925358
0.45076311 -0.026372373 0.57857013 4282860078
0.45015594 -0.02637133 0.57864815 4282795055
0.44960615 -0.026192933 0.57864904 4282729262
0.4490284 -0.026103467 0.5786885 4282531113
0.44845116 -0.026014134 0.57872796 4282333734
0.44792932 -0.025746822 0.57869035 4282465320
0.44735256 -0.025657654 0.57872981 4282334506
0.44680327 -0.025479421 0.5787307 4282400299
0.44628066 -0.025211856 0.57869309 4282729260
0.44578403 -0.02485472 0.57861698 4282400810
0.44509941 -0.023064807 0.57800227 4281084450
0.44446826 -0.023153961 0.5781188 4279900692
0.44295815 -0.024231732 0.57873714 4279309582
0.44233388 -0.024323121 0.57885361 4279573008
0.4417606 -0.024235085 0.57889307 4279704340
0.4411878 -0.024147213 0.57893252 4279835926
0.44061548 -0.024059489 0.57897198 4282795335
0.44004366 -0.02397193 0.57901144 4282532168
0.43944857 -0.023974806 0.5790894 4282665548
0.438878 -0.023887634 0.57912886 4282862927
0.43830788 -0.023800641 0.57916826 4282928720
0.43769228 -0.023894846 0.57928479 4282468169
0.43712366 -0.023808315 0.57932419 4282468167
0.43655553 -0.023721963 0.57936364 4282599751
0.43596563 -0.023726523 0.57944161 4282271039
0.43539876 -0.023640558 0.57948107 4282271039
0.43483233 -0.023554757 0.57952046 4282467646
0.43426645 -0.023469105 0.57955992 4282336060
0.43370104 -0.023383632 0.57959938 4282270269
0.43313611 -0.023298323 0.57963878 4282336579
0.43259248 -0.023121923 0.57963967 4282402372
0.43202829 -0.023036838 0.57967913 4282007867
0.43148491 -0.022860512 0.57968003 4281611310
0.43094152 -0.022684187 0.57968092 4281808173
0.43039814 -0.022507861 0.57968187 4281939246
0.42985475 -0.022331551 0.57968277 4282005039
0.42929202 -0.022246942 0.57972217 4283913034
0.42876798 -0.0219789 0.57968456 4284110924
0.42822456 -0.021802589 0.57968545 4284176458
0.42762548 -0.021902144 0.57980192 4284242249
0.42704615 -0.021910146 0.57987988 4284176456
0.42646784 -0.021918461 0.57995784 4283781698
0.42587268 -0.022019297 0.58007431 4283058238
0.42515588 -0.022766575 0.58046037 4282795068
0.42444402 -0.023515418 0.58084643 4282400306
0.42378834 -0.02398859 0.58111697 4282465840
0.42311928 -0.024555385 0.58142602 4282991414
0.42253718 -0.024660438 0.58154243 4282925621
0.42195654 -0.024765998 0.58165884 4282860598
0.42137742 -0.02487205 0.58177531 4283452735
0.42083147 -0.02479288 0.58181471 4283715907
0.42030162 -0.024620965 0.5818156 4284176971
0.41978717 -0.024356037 0.58177793 4284045385
0.48581097 -0.026549831 0.5747658 4282991414
0.48540142 -0.026024446 0.57461345 4282269492
0.48494813 -0.025582984 0.57449937 4280952610
0.48449337 -0.02514106 0.5743854 4280623645
0.48391324 -0.024952829 0.57438636 4280295704
0.48341522 -0.024594977 0.57431066 4280559131
0.48295701 -0.024151921 0.57419664 4280690717
0.4824973 -0.023708403 0.57408261 4281151268
0.48203611 -0.023264393 0.57396859 4281546026
0.48149335 -0.022990137 0.57393122 4282072113
0.48087049 -0.022886157 0.5739705 4282203701
0.48024809 -0.022782311 0.57400984 4281414185
0.4795869 -0.022764027 0.57408744 4281611819
0.47892669 -0.022746027 0.57416511 4282006577
0.47826746 -0.022728354 0.57424271 4282466869
0.47757065 -0.022796616 0.5743587 4282466871
0.47687531 -0.02286537 0.57447463 4281678132
0.47621953 -0.022848815 0.57455224 4282072637
0.47548908 -0.023004279 0.57470655 4282072637
0.47483575 -0.022988543 0.57478416 4282137913
0.47414607 -0.023059115 0.57490009 4282137911
0.47345787 -0.023130178 0.57501602 4282072118
0.47284487 -0.023029372 0.5750553 4282137911
0.47215915 -0.02310124 0.57517123 4282137911
0.47151124 -0.023087248 0.57524884 4282137911
0.47086436 -0.023073584 0.57532644 4282203704
0.47025427 -0.022973761 0.57536578 4281809200
0.46960908 -0.022960648 0.57544339 4280295704
0.4689649 -0.022947863 0.57552099 4279506445
0.46828657 -0.023022115 0.57563686 4279506445
0.46767947 -0.022923246 0.5756762 4279901203
0.46073437 -0.027734473 0.57844281 4282925106
0.46011481 -0.027729675 0.57852036 4283056692
0.45956108 -0.027549997 0.57852125 4283057205
0.45900732 -0.027370319 0.57852221 4283057459
0.45842168 -0.027278408 0.57856143 4283057459
0.45783651 -0.027186647 0.5786007 4282991153
0.45728326 -0.027007118 0.5786016 4283056946
0.45673001 -0.026827604 0.57860255 4282925621
0.45614582 -0.026736155 0.57864177 4282925621
0.45553145 -0.026733056 0.57871932 4282925621
0.45494851 -0.02664201 0.5787586 4282925619
0.45430565 -0.026727796 0.57887447 4282859826
0.45372418 -0.026637241 0.57891369 4282794803
0.4531135 -0.026635319 0.57899123 4282925873
0.45253327 -0.026545167 0.57903045 4282794287
0.45192432 -0.026543811 0.579108 4282925358
0.45131636 -0.026542798 0.57918555 4282925871
0.45073807 -0.026453272 0.57922477 4282729262
0.45016029 -0.026363894 0.57926399 4282795055
0.44958302 -0.026274711 0.57930321 4282729262
0.44900623 -0.026185662 0.57934248 4282596391
0.44842994 -0.026096791 0.5793817 4282464807
0.44788161 -0.025918871 0.5793826 4282465320
0.44725159 -0.026008815 0.57949847 4282465320
0.446731 -0.025741756 0.57946104 4282596906
0.44618317 -0.025564 0.57946193 4282925869
0.44560885 -0.02547577 0.57950121 4282400297
0.44506127 -0.025298089 0.57950211 4282137386
0.44451368 -0.025120407 0.579503 4281216032
0.44396612 -0.024942726 0.57950395 4280558102
0.44339302 -0.024854898 0.57954317 4279440652
0.44282043 -0.024767205 0.57958239 4279309584
0.44227332 -0.024589688 0.57958329 4279506961
0.44167671 -0.024592325 0.57966083 4279770135
0.44110557 -0.024505123 0.57970005 4279967514
0.44055924 -0.024327844 0.57970095 4282663749
0.43998885 -0.024240896 0.57974017 4282861387
0.43944275 -0.024063691 0.57974106 4282797132
0.43884957 -0.024067461 0.57981861 4283126097
0.43828067 -0.02398099 0.57985783 4283126097
0.43768921 -0.023985311 0.57993531 4282599753
0.43712154 -0.023899227 0.57997453 4282599753
0.43655437 -0.023813307 0.58001375 4282730820
0.43596536 -0.023818433 0.58009124 4282401855
0.43542147 -0.023641959 0.58009219 4282533441
0.43485579 -0.023556516 0.58013135 4282467646
0.43426901 -0.023562357 0.5802089 4282466876
0.43372586 -0.023386121 0.58020979 4282270267
0.43316165 -0.023301169 0.58024901 4282335809
0.43261874 -0.023125008 0.58024991 4282467395
0.43207586 -0.022948846 0.5802508 4282007097
0.43151262 -0.022864208 0.58029002 4281611310
0.43096995 -0.022688121 0.58029091 4281807919
0.43042731 -0.022512034 0.58029181 4281742126
0.42990425 -0.0222442 0.58025444 4281873712
0.42938071 -0.021976188 0.58021706 4283386951
0.42881846 -0.021891877 0.58025622 4283585354
0.42827559 -0.021715716 0.58025718 4283650377
0.42771405 -0.021631628 0.58029634 4284045131
0.42713469 -0.021639869 0.58037382 4283847752
0.42653817 -0.021740675 0.58048964 4283452994
0.42587161 -0.022211239 0.58075857 4282926650
0.42517328 -0.022867739 0.58110416 4282860859
0.42456627 -0.023063287 0.58125824 4282663478
0.42387557 -0.023722261 0.58160377 4282795318
0.42322308 -0.024197385 0.5818727 4282861111
0.42262396 -0.024395451 0.58202672 4282861111
0.42204323 -0.024501383 0.58214253 4282926904
0.42148012 -0.024514914 0.58221996 4283386942
0.42093387 -0.024435788 0.58225918 4283847493
0.42040378 -0.024263784 0.58226001 4284571479
0.41988912 -0.023998663 0.58222264 4284176721
0.48586297 -0.0263464 0.57533026 4283123252
0.48536971 -0.02598983 0.57525498 4282597685
0.48491728 -0.025548235 0.57514161 4281149478
0.48442179 -0.025190949 0.57506633 4280688925
0.48400795 -0.024663642 0.57491487 4280491546
0.48346895 -0.024390474 0.57487774 4281347622
0.48297024 -0.024032146 0.57480252 4281348649
0.48251116 -0.023588389 0.57468915 4282138161
0.48201025 -0.023229361 0.57461393 4282730298
0.48146826 -0.022955224 0.57457674 4283585350
0.48084611 -0.022851601 0.57461584 4283651147
0.48022443 -0.022748128 0.57465494 4283849299
0.47956389 -0.022730306 0.57473212 4282203958
0.47890434 -0.022712812 0.57480931 4282664509
0.4782069 -0.022781283 0.57492459 4282598462
0.47751093 -0.022850215 0.57503986 4282006068
0.47681648 -0.022919655 0.57515514 4282137911
0.47612348 -0.022989571 0.57527041 4282401085
0.47543195 -0.023059949 0.57538569 4282401085
0.47474191 -0.023130819 0.57550097 4282072120
0.47405335 -0.023202166 0.57561624 4282467130
0.47336626 -0.02327399 0.57573152 4282073142
0.47271755 -0.023259997 0.57580864 4282138935
0.47206983 -0.023246363 0.57588583 4282138935
0.4713867 -0.023319468 0.57600105 4282138935
0.47074118 -0.023306504 0.57607824 4282203956
0.47013256 -0.023207292 0.57611728 4282006577
0.46945313 -0.023281589 0.57623255 4280822305
0.46873975 -0.023443133 0.57638586 4279440652
0.4680635 -0.023518488 0.57650113 4279440652
0.46745861 -0.023420468 0.57654017 4279638031
0.46072602 -0.027720883 0.57906204 4283253811
0.46010712 -0.027716562 0.57913917 4283188532
0.45958659 -0.027449399 0.57910198 4283188278
0.45900112 -0.027357683 0.57914102 4283188278
0.45841616 -0.02726613 0.57918 4283188278
0.45786342 -0.027086779 0.57918096 4283188018
0.45727921 -0.026995465 0.57921994 4283319604
0.45672667 -0.026816189 0.57922089 4282925108
0.4561432 -0.026725113 0.57925987 4282991414
0.45552948 -0.026722506 0.579337 4282991414
0.45491675 -0.026720196 0.57941413 4282991414
0.45430499 -0.026718184 0.5794912 4282991412
0.45369422 -0.02671653 0.57956833 4283057459
0.45311421 -0.026626572 0.57960731 4282925871
0.45250517 -0.026625484 0.57968438 4282860078
0.45192635 -0.026535913 0.57972342 4282925871
0.45131907 -0.026535362 0.57980049 4282925871
0.4507415 -0.026446208 0.57983953 4282860848
0.45013589 -0.026446238 0.5799166 4282795055
0.44953132 -0.026446566 0.57999372 4282795055
0.44895571 -0.026358053 0.58003271 4282662697
0.44838059 -0.026269689 0.58007169 4282531115
0.44783351 -0.026092172 0.58007264 4282531115
0.44723186 -0.026093468 0.58014971 4282662701
0.44665825 -0.026005581 0.58018869 4282662701
0.44605833 -0.026007444 0.58026576 4283056944
0.44551247 -0.025830328 0.58026665 4283122223
0.44494033 -0.025742918 0.5803057 4282859301
0.44429055 -0.0259251 0.58045894 4282332957
0.4437201 -0.025838271 0.58049792 4280953114
0.44317573 -0.025661632 0.58049881 4280295184
0.44265667 -0.025394931 0.58046162 4279244813
0.44213712 -0.025128096 0.58042449 4279244559
0.44156742 -0.025041491 0.58046347 4279705110
0.44102281 -0.024864778 0.58046436 4280363040
0.44047821 -0.02468805 0.58046526 4282203958
0.43993357 -0.024511322 0.58046621 4282927422
0.43938893 -0.02433461 0.5804671 4283190853
0.43882075 -0.024248496 0.58050609 4283125576
0.43825305 -0.024162531 0.58054507 4283059783
0.43766272 -0.024167523 0.58062214 4282468165
0.4371191 -0.023991123 0.58062303 4282665544
0.43655285 -0.023905635 0.58066201 4282468418
0.43598711 -0.023820326 0.58070099 4282401853
0.43542188 -0.02373518 0.58074003 4282533439
0.43485713 -0.023650169 0.58077902 4282598462
0.43429285 -0.023565337 0.58081794 4282466876
0.43372908 -0.023480654 0.58085692 4282270267
0.43318695 -0.023304746 0.58085787 4282336060
0.43264478 -0.023128822 0.58085877 4282336060
0.43210262 -0.022952899 0.58085966 4281743407
0.43156046 -0.022776976 0.58086056 4281545771
0.43101829 -0.022601053 0.58086145 4281545001
0.43045625 -0.022516921 0.58090043 4281676333
0.42995363 -0.022157311 0.58082521 4281676333
0.4294306 -0.021889359 0.58078808 4282400832
0.42888796 -0.021713272 0.58078897 4282796362
0.42834532 -0.0215372 0.58078986 4282927178
0.42780268 -0.021361113 0.58079076 4282861636
0.42722321 -0.021369606 0.58086783 4282927429
0.42659023 -0.021655515 0.5810591 4282927172
0.42592391 -0.022127107 0.58132648 4282795068
0.42526105 -0.022599801 0.58159387 4282794553
0.42463645 -0.022888452 0.58178508 4282860344
0.42394564 -0.023548588 0.58212858 4283123516
0.42332697 -0.023839146 0.58231986 4282926650
0.42271078 -0.024130479 0.58251107 4282795064
0.4221299 -0.024236768 0.58262616 4282860598
0.42156669 -0.024250552 0.58270317 4283648829
0.42102042 -0.024171546 0.58274209 4284240454
0.42050603 -0.02390638 0.58270496 4284702298
0.48587254 -0.026227862 0.57593209 4283056946
0.48542196 -0.025786489 0.57581937 4282662965
0.48492804 -0.025429413 0.57574457 4281083432
0.48447475 -0.024987131 0.57563186 4280820511
0.4839786 -0.024629354 0.57555705 4280557339
0.48348147 -0.02427128 0.57548225 4282004269
0.48298335 -0.023912847 0.57540751 4282005039
0.48252487 -0.023468897 0.57529479 4282335283
0.48202455 -0.023109749 0.57521999 4283059006
0.4814831 -0.022835672 0.57518309 4284243534
0.48086137 -0.022732317 0.57522196 4284374868
0.48024014 -0.022629142 0.57526082 4284309080
0.47958001 -0.022611722 0.57533753 4282203704
0.47888172 -0.022680327 0.57545215 4282861634
0.47818491 -0.022749394 0.57556677 4282861634
0.47748959 -0.022818953 0.57568133 4282136884
0.47679573 -0.022889003 0.57579595 4282269240
0.47606519 -0.023045525 0.57594848 4282401085
0.47533661 -0.023202688 0.57610095 4282203706
0.47468537 -0.023188174 0.57617766 4282137913
0.47396022 -0.023346439 0.57633013 4282401083
0.47331142 -0.023332715 0.57640684 4281876533
0.47262669 -0.023405716 0.5765214 4282138935
0.47194344 -0.023479179 0.57663602 4282203958
0.47126168 -0.023553133 0.57675058 4282203958
0.47058135 -0.023627579 0.5768652 4282269751
0.46997443 -0.023529008 0.576904 4281743148
0.4692609 -0.023691058 0.57705641 4281019432
0.46862024 -0.023679972 0.57713318 4279440398
0.46794534 -0.023756146 0.57724774 4279374605
0.46347201 -0.027027532 0.57907033 4283056694
0.46130341 -0.02779977 0.57964116 4283253809
0.4607504 -0.02762033 0.57964206 4283451190
0.46019742 -0.027440891 0.57964301 4283319350
0.45957944 -0.027437165 0.57971966 4283319864
0.45902693 -0.02725789 0.57972062 4283319864
0.45844242 -0.027166605 0.57975936 4283188278
0.45785838 -0.027075499 0.57979816 4283122485
0.45730639 -0.026896387 0.57979912 4283188532
0.45672309 -0.02680552 0.57983786 4282990899
0.45614034 -0.026714802 0.57987666 4283056694
0.45552728 -0.026712656 0.57995331 4283122487
0.4549152 -0.026710838 0.58002996 4282991414
0.4543041 -0.026709333 0.58010662 4283057459
0.45369399 -0.026708171 0.58018327 4283057459
0.45311466 -0.02661857 0.58022207 4282991151
0.4525063 -0.026617944 0.58029872 4282991151
0.4519282 -0.026528746 0.58033746 4283056944
0.45132154 -0.026528701 0.58041412 4282925871
0.45071587 -0.026528955 0.58049077 4282926643
0.45013973 -0.026440412 0.58052957 4282795055
0.44953579 -0.026441202 0.58060616 4282729262
0.44893283 -0.026442349 0.58068281 4282729262
0.44833088 -0.026443824 0.58075947 4282596906
0.44775745 -0.026356131 0.58079821 4282596908
0.4471845 -0.026268631 0.58083701 4282860078
0.446585 -0.026270881 0.58091366 4282991151
0.44595969 -0.026363149 0.5810281 4283056944
0.44538897 -0.026276365 0.58106691 4283188016
0.44481874 -0.02618973 0.58110565 4283187498
0.44422293 -0.026193187 0.5811823 4282596131
0.44365394 -0.026106969 0.58122104 4281347870
0.44311106 -0.025930807 0.58122194 4281018905
0.44259351 -0.025664464 0.58118498 4279638799
0.44202527 -0.025578484 0.58122379 4279179020
0.44153208 -0.025221646 0.58114898 4279835926
0.44098869 -0.02504532 0.58114988 4281348647
0.4404453 -0.02486901 0.58115077 4282203956
0.43990192 -0.024692684 0.58115166 4282730298
0.43933466 -0.024607018 0.58119047 4282927679
0.43876788 -0.024521515 0.58122921 4282993990
0.438225 -0.024345353 0.5812301 4282730567
0.43765897 -0.024260059 0.58126891 4282598981
0.43709344 -0.024174944 0.58130765 4282665544
0.43652838 -0.024090007 0.58134639 4282600004
0.43598622 -0.023914084 0.58134729 4282336830
0.43542194 -0.023829356 0.58138603 4282467646
0.43485814 -0.023744807 0.58142483 4282467646
0.43431646 -0.023569047 0.58142573 4282336060
0.4337534 -0.023484737 0.58146447 4282336060
0.43321198 -0.023309067 0.58146536 4282467130
0.43267056 -0.023133382 0.58146626 4282203699
0.43212914 -0.022957698 0.58146715 4281743148
0.43156731 -0.022873774 0.58150595 4281545771
0.43106648 -0.022514477 0.58143115 4281610281
0.43052483 -0.022338718 0.58143204 4281545001
0.43000284 -0.022070944 0.58139509 4281676587
0.42946091 -0.021895096 0.58139598 4282072120
0.4289574 -0.02153492 0.58132124 4282598981
0.428415 -0.021358922 0.58132213 4282796362
0.42785388 -0.021275252 0.58136088 4282533441
0.42729327 -0.021191731 0.58139962 4282533441
0.42667857 -0.021385863 0.58155191 4282664257
0.42606583 -0.021580607 0.5817042 4282794814
0.42540193 -0.022053927 0.58196998 4282794555
0.42399842 -0.023468003 0.58269083 4282991930
0.423397 -0.023666427 0.58284312 4283123516
0.42279756 -0.023865476 0.58299536 4282991930
0.42223305 -0.023879111 0.58307195 4282991414
0.42165327 -0.023986176 0.58318639 4284043073
0.42112297 -0.023814097 0.58318722 4284371016
0.48588195 -0.02610983 0.57653302 4283122485
0.48538983 -0.025753081 0.57645863 4282530611
0.48498052 -0.025226146 0.57630897 4281412650
0.48444429 -0.024953619 0.57627225 4281017120
0.48399037 -0.024510726 0.57616025 4280819741
0.48353499 -0.024067372 0.57604825 4282529584
0.4830372 -0.023708791 0.57597393 4282858799
0.48253843 -0.023349896 0.57589954 4283451965
0.48203868 -0.022990659 0.57582521 4283780930
0.48149776 -0.022716612 0.5757885 4284440913
0.48091641 -0.022527978 0.57578951 4284703831
0.48025569 -0.022510648 0.57586581 4285362538
0.47955656 -0.022579387 0.57597971 4282729799
0.47889805 -0.022562772 0.576056 4283058764
0.47820163 -0.02263236 0.57616991 4282927170
0.47746795 -0.022788435 0.57632154 4282136884
0.47673628 -0.022945136 0.57647312 4282400056
0.47600657 -0.023102462 0.57662469 4282269499
0.47531676 -0.023174241 0.5767386 4282203706
0.47459078 -0.023332775 0.57689017 4282269499
0.47394162 -0.0233192 0.57696646 4282401083
0.47321907 -0.023478851 0.57711804 4282138681
0.47253543 -0.023552626 0.57723194 4282401083
0.47181657 -0.023713484 0.57738352 4282466619
0.47117263 -0.023701578 0.57745975 4282335033
0.47049344 -0.023776785 0.57757366 4282466103
0.4698517 -0.023765624 0.57764989 4282137138
0.46913949 -0.023928627 0.57780147 4281348138
0.46846473 -0.024005279 0.57791537 4279506193
0.46775621 -0.024169505 0.57806689 4279638029
0.46687466 -0.02477023 0.57840669 4280756510
0.4658933 -0.02563414 0.57885939 4282860080
0.46491784 -0.026499987 0.57931215 4282925873
0.46418813 -0.02675584 0.57950127 4282991412
0.46329081 -0.02744998 0.57987869 4283122998
0.46256724 -0.027707845 0.58006787 4283583036
0.46194673 -0.027703539 0.58014405 4283320118
0.46139371 -0.027524099 0.580145 4283188532
0.46077466 -0.027520299 0.58022124 4283319864
0.46018937 -0.027428895 0.5802598 4283385659
0.45963711 -0.027249709 0.58026069 4283254586
0.45905256 -0.027158558 0.58029926 4283254586
0.45843646 -0.027155712 0.58037549 4283320379
0.45788494 -0.026976749 0.58037639 4283386172
0.45733342 -0.026797786 0.58037734 4283123000
0.45671928 -0.026795566 0.58045352 4282991160
0.45610616 -0.026793674 0.58052975 4283056953
0.4555248 -0.026703566 0.58056831 4283122746
0.45491338 -0.02670224 0.58064449 4282925621
0.45430297 -0.026701212 0.58072066 4283122487
0.45369351 -0.026700512 0.5807969 4283122485
0.45311487 -0.026611283 0.58083546 4282991153
0.45250717 -0.026611164 0.58091164 4282991153
0.45190042 -0.026611343 0.58098781 4283122739
0.45132375 -0.026522756 0.58102638 4282860078
0.45071876 -0.026523486 0.58110261 4282860080
0.45011473 -0.026524544 0.58117878 4282795057
0.44951171 -0.026525944 0.58125496 4282991664
0.44893774 -0.026438236 0.58129352 4282925871
0.44833642 -0.026440188 0.5813697 4282794285
0.44773611 -0.026442438 0.58144587 4282860078
0.44716412 -0.026355371 0.58148444 4282925358
0.44653842 -0.026447937 0.58159822 4283122735
0.44596791 -0.026361331 0.58163679 4283385907
0.44537127 -0.026364818 0.58171296 4283188014
0.44480202 -0.026278615 0.58175153 4283122475
0.44425938 -0.026102528 0.58175242 4282859563
0.44369084 -0.026016578 0.58179092 4282598191
0.4431228 -0.025930792 0.58182949 4282203433
0.44255525 -0.025845155 0.58186805 4281151518
0.44203848 -0.025578946 0.58183128 4280690715
0.44147143 -0.025493473 0.58186984 4280361243
0.44095418 -0.0252271 0.58183312 4281809196
0.44038761 -0.025141791 0.58187163 4282203954
0.43986985 -0.024875268 0.58183491 4282533689
0.43930379 -0.024790108 0.58187348 4282599482
0.43873823 -0.024705127 0.58191198 4282796865
0.43819654 -0.024529353 0.58191288 4282533439
0.43765488 -0.024353594 0.58191383 4282533439
0.43709031 -0.02426894 0.58195233 4282796613
0.43652621 -0.024184421 0.58199084 4282533441
0.43598503 -0.024008811 0.58199179 4282401855
0.43544388 -0.023833215 0.58199269 4282533439
0.43488076 -0.023749024 0.58203119 4282599232
0.43433982 -0.023573503 0.58203208 4282467646
0.43379891 -0.023397982 0.58203304 4282532923
0.43323678 -0.023314118 0.58207154 4283056953
0.4326961 -0.023138687 0.58207244 4282071334
0.43215543 -0.022963241 0.58207333 4281742369
0.43161476 -0.022787794 0.58207428 4281479206
0.43109429 -0.022520378 0.58203751 4281479206
0.43057331 -0.022252798 0.58200079 4281414185
0.43003216 -0.022077188 0.58200169 4281545771
0.42952994 -0.021717176 0.58192736 4282137911
0.42898828 -0.021541402 0.58192825 4282730048
0.42846557 -0.02127327 0.58189154 4282927429
0.48535746 -0.025720432 0.57709658 4282662965
0.48499101 -0.025108173 0.57691038 4281806123
0.48449701 -0.024750546 0.57683647 4281082400
0.48404345 -0.024307385 0.57672513 4281016607
0.48354721 -0.023949027 0.57665122 4282464303
0.48309097 -0.023504987 0.57653987 4282990639
0.48259252 -0.023145914 0.57646596 4283583549
0.4820931 -0.022786513 0.57639211 4284044100
0.48155245 -0.022512421 0.57635564 4284572499
0.4809314 -0.022409573 0.57639402 4285493347
0.4802711 -0.022392645 0.5764699 4285493608
0.47961178 -0.02237606 0.57654572 4283124557
0.47891426 -0.022445694 0.57665896 4283124557
0.47817922 -0.022601843 0.57680964 4283057986
0.47748485 -0.022672549 0.57692289 4282268211
0.4767535 -0.02282989 0.57707357 4282203447
0.47602412 -0.022987887 0.57722425 4282203706
0.47529671 -0.02314651 0.57737494 4282269497
0.47460902 -0.023219362 0.57748818 4282466876
0.47384781 -0.023465693 0.5776763 4282401083
0.4732008 -0.023453087 0.57775211 4282401083
0.47251779 -0.023527458 0.57786536 4282466876
0.47176275 -0.023775771 0.57805347 4282466619
0.4711197 -0.023764461 0.57812923 4282335033
0.4704051 -0.023927227 0.57827991 4282466103
0.46976453 -0.023916721 0.57835567 4282072115
0.46905339 -0.024080619 0.57850635 4281348392
0.46830869 -0.024332315 0.5786944 4279899922
0.46735471 -0.025108084 0.57910705 4279966992
0.46651131 -0.025623739 0.57940739 4283386422
0.46567184 -0.026140675 0.57970768 4283057457
0.46480176 -0.026746333 0.58004546 4282991151
0.46393609 -0.027353451 0.58038318 4283188278
0.46324515 -0.027523905 0.5805338 4283319864
0.46265763 -0.02743192 0.58057213 4283583036
0.462037 -0.027427867 0.58064795 4283320118
0.46141738 -0.027424142 0.5807237 4283320118
0.46083179 -0.027332798 0.58076203 4283385657
0.4602139 -0.027329639 0.58083779 4283451452
0.45966214 -0.027150601 0.58083874 4283254586
0.45904571 -0.027147904 0.5809145 4283320379
0.45852649 -0.026880771 0.58087796 4283254586
0.45791131 -0.026878476 0.58095372 4283386170
0.45729712 -0.026876509 0.58102947 4283123000
0.45671523 -0.026786372 0.5810678 4282991414
0.45610276 -0.026784956 0.58114362 4282860598
0.45549124 -0.026783869 0.58121932 4282926391
0.45491135 -0.026694357 0.5812577 4282990901
0.4543016 -0.026693821 0.5813334 4283188280
0.45372289 -0.026604727 0.58137178 4283122485
0.45311487 -0.026604757 0.58144748 4283121971
0.45253742 -0.02651605 0.58148587 4283056178
0.45193109 -0.026516646 0.58156157 4283122739
0.45132577 -0.02651754 0.58163732 4282860080
0.45072141 -0.026518777 0.58171308 4282860080
0.45011804 -0.026520327 0.58178878 4282795057
0.44951567 -0.026522204 0.58186454 4282991664
0.44891429 -0.02652438 0.58194029 4282991664
0.44834176 -0.026437283 0.58197862 4282860076
0.4477421 -0.026440024 0.58205432 4282925869
0.44714341 -0.026443094 0.58213007 4282925356
0.44654572 -0.026446491 0.58220577 4283319600
0.4459759 -0.026360258 0.5822441 4283451186
0.44537994 -0.026364207 0.58231986 4283188014
0.44481137 -0.026278377 0.58235812 4283188268
0.44424331 -0.02619271 0.58239645 4283056428
0.4436757 -0.026107207 0.58243477 4282729262
0.44310862 -0.026021853 0.5824731 4282794283
0.44256744 -0.025846258 0.58247399 4282269226
0.4420011 -0.025761157 0.58251232 4281546021
0.44146016 -0.025585636 0.58251321 4281347618
0.44089454 -0.025500774 0.58255154 4282137386
0.44035387 -0.025325328 0.58255243 4282334765
0.4398132 -0.025149897 0.58255333 4282467378
0.43927252 -0.02497445 0.58255422 4282402357
0.43873185 -0.024799004 0.58255512 4282533693
0.43816772 -0.024714589 0.58259344 4282467646
0.43762729 -0.024539232 0.58259434 4282467646
0.43708685 -0.024363875 0.58259523 4282599232
0.43654642 -0.024188504 0.58259612 4282599232
0.43598351 -0.024104521 0.58263445 4282401855
0.43544334 -0.023929253 0.58263534 4282730050
0.43490314 -0.023753956 0.58263624 4282861636
0.43436295 -0.023578689 0.58263719 4282598205
0.43382278 -0.023403406 0.58263808 4282532664
0.43328258 -0.023228124 0.58263898 4282991414
0.43272141 -0.023144707 0.58267725 4282136355
0.43220222 -0.022877559 0.58264077 4281741597
0.43166202 -0.022702277 0.58264166 4281479206
0.43114209 -0.02243489 0.58260518 4281874736
0.43060166 -0.022259533 0.58260608 4281611316
0.43008101 -0.021991938 0.5825696 4283192139
0.42955983 -0.02172415 0.58253306 4286350203
0.42903817 -0.021456212 0.58249658 4286218617
0.48540932 -0.025518298 0.57765877 4282992184
0.48495936 -0.025075868 0.57754809 4282201648
0.48450789 -0.02463299 0.5774374 4281082652
0.48405495 -0.024189606 0.57732677 4281082652
0.48360056 -0.023745745 0.57721609 4282266926
0.48314464 -0.023301423 0.5771054 4282794033
0.48264652 -0.022942185 0.57703197 4283452733
0.48210692 -0.022668287 0.57699573 4283650112
0.48160708 -0.022308484 0.5769223 4284506452
0.48098624 -0.022205845 0.57696044 4285097823
0.48032609 -0.022189245 0.57703584 4284768858
0.47966695 -0.022172958 0.57711124 4283716686
0.47896954 -0.022243053 0.57722378 4283058756
0.47823459 -0.022399783 0.57737362 4282662715
0.47750157 -0.022557154 0.57752341 4282465336
0.47677055 -0.022715151 0.5776732 4282466103
0.47600323 -0.022960171 0.57786018 4282269494
0.47531444 -0.023033082 0.57797277 4282269492
0.47458932 -0.023192987 0.5781225 4282466871
0.47386616 -0.023353547 0.57827228 4282466871
0.47314501 -0.023514763 0.57842207 4282466871
0.47246286 -0.023589805 0.5785346 4282466871
0.4717454 -0.023752213 0.57868439 4282334515
0.47102991 -0.023915246 0.57883412 4282466101
0.47035271 -0.023991913 0.57894671 4282466101
0.46964088 -0.024156153 0.57909644 4282334515
0.46878779 -0.024669752 0.579395 4281149728
0.46793863 -0.025184616 0.57969356 4280951581
0.46716404 -0.025526091 0.57991767 4282269742
0.46635735 -0.025955945 0.58017904 4283256117
0.46548447 -0.026561916 0.58051479 4283058738
0.464616 -0.027169317 0.58085048 4283320116
0.463958 -0.027252227 0.58096302 4283385911
0.46330148 -0.027335614 0.58107555 4283320118
0.46268028 -0.027331635 0.58115083 4283583290
0.46202648 -0.027415887 0.58126336 4283385911
0.46144086 -0.027324677 0.58130145 4283451704
0.46082264 -0.027321666 0.58137679 4283451704
0.46027112 -0.027142718 0.58137774 4283451450
0.45968699 -0.02705197 0.58141583 4283254584
0.45910335 -0.026961386 0.58145392 4283320377
0.45848808 -0.026959345 0.58152926 4283254584
0.45790565 -0.026869163 0.58156735 4283385657
0.45729211 -0.026867673 0.58164269 4283122998
0.45671093 -0.026777908 0.58168077 4283057205
0.45613027 -0.026688278 0.58171892 4282860598
0.45551917 -0.026687592 0.5817942 4282860598
0.45490909 -0.02668722 0.58186948 4282794805
0.45433035 -0.026598245 0.58190763 4283188280
0.45372197 -0.026598439 0.58198291 4283188278
0.4531146 -0.02659896 0.58205819 4283056432
0.45253783 -0.026510611 0.58209634 4283056432
0.45193219 -0.026511684 0.58217162 4283253811
0.4513275 -0.026513085 0.5822469 4283122485
0.45072383 -0.026514798 0.58232218 4283056946
0.4501211 -0.02651684 0.58239746 4283056946
0.4495194 -0.026519194 0.58247274 4283056944
0.44891867 -0.026521862 0.58254802 4283056944
0.44834685 -0.026435122 0.58258617 4282991403
0.44774783 -0.026438355 0.58266145 4282991401
0.44714981 -0.026441917 0.58273673 4282991403
0.44655278 -0.026445791 0.58281195 4283122735
0.44595674 -0.026449978 0.58288729 4283122735
0.44536167 -0.026454493 0.58296251 4283122221
0.44479403 -0.02636911 0.58300066 4283056942
0.44420069 -0.026374161 0.58307588 4282925356
0.44366026 -0.026198804 0.58307683 4282860076
0.44309413 -0.026113912 0.58311486 4282991662
0.44252846 -0.02602917 0.58315301 4282466092
0.44196332 -0.025944576 0.58319104 4282005802
0.44139862 -0.025860161 0.58322918 4281940009
0.4408592 -0.025685117 0.58323008 4281940007
0.44031975 -0.025510073 0.58323097 4282203179
0.43978029 -0.025335029 0.58323187 4282269742
0.43924084 -0.02516 0.58323276 4282401585
0.43870139 -0.024984956 0.58323365 4282336312
0.43816197 -0.024809912 0.58323455 4282401853
0.43762252 -0.024634868 0.58323544 4282270267
0.43708307 -0.024459824 0.58323634 4282402877
0.43654361 -0.02428478 0.58323729 4282599486
0.43600416 -0.024109736 0.58323818 4282533441
0.43546474 -0.023934692 0.58323908 4282730050
0.43492529 -0.023759648 0.58323997 4282664257
0.43438584 -0.023584619 0.58324087 4282467130
0.43384638 -0.023409575 0.58324176 4282598457
0.43330693 -0.023234531 0.58324265 4282729012
0.43276751 -0.023059487 0.58324355 4282004771
0.43222806 -0.022884443 0.58324444 4281741599
0.43170914 -0.022617266 0.5832082 4281545771
0.43116945 -0.022442147 0.5832091 4282071867
0.43064982 -0.022174731 0.5831728 4282006074
0.43010986 -0.021999523 0.58317375 4284509284
0.42958948 -0.021731868 0.58313745 4285430386
0.42908791 -0.021371529 0.58306402 4285825655
0.48684406 -0.026556671 0.5785135 4283057709
0.4863131 -0.026285455 0.57847744 4283255088
0.48586673 -0.025843799 0.57836747 4283386674
0.48541883 -0.025401652 0.57825744 4283254838
0.48492745 -0.025044322 0.57818443 4282595893
0.48451862 -0.024515912 0.57803744 4281082652
0.48410782 -0.023986876 0.57789046 4281016859
0.48361251 -0.023628265 0.57781744 4282201131
0.48319826 -0.023098096 0.57767045 4282794287
0.48270047 -0.02273871 0.5775975 4282861109
0.4822017 -0.022378981 0.57752448 4283190074
0.48162133 -0.02219066 0.57752544 4284374866
0.48104095 -0.022002339 0.57752645 4284637272
0.48042083 -0.021900058 0.57756436 4284570712
0.4797616 -0.021884024 0.57763934 4283650893
0.47902477 -0.02204068 0.57778823 4282795584
0.47832894 -0.022111699 0.57790011 4282267957
0.47755694 -0.022355899 0.57808602 4282399543
0.47678745 -0.022600904 0.57827187 4282466101
0.47605872 -0.022760183 0.57842076 4282400308
0.47533196 -0.022920117 0.57856965 4282400308
0.4746072 -0.023080692 0.57871848 4282663480
0.4738844 -0.023241892 0.57886738 4282466101
0.47316357 -0.023403749 0.57901627 4282597687
0.47240761 -0.02365315 0.57920212 4282531379
0.47172782 -0.023729369 0.57931399 4282531381
0.47104949 -0.02380608 0.57942587 4282794553
0.4702636 -0.024144694 0.57964867 4282794553
0.46940845 -0.024658725 0.57994545 4282662967
0.46859309 -0.025086716 0.5802052 4282202668
0.46778119 -0.025515825 0.58046496 4282333484
0.46697274 -0.025946066 0.58072472 4282795834
0.46602726 -0.026727587 0.58113241 4283059517
0.46526158 -0.027072743 0.58135521 4283124281
0.46463734 -0.027068064 0.58143008 4283190074
0.46394533 -0.027239293 0.58157891 4283189815
0.46332359 -0.027235389 0.58165377 4283320377
0.46266893 -0.027319789 0.58176559 4283320377
0.46204937 -0.027316645 0.58184046 4283451450
0.46146423 -0.027225688 0.58187836 4283451450
0.46087956 -0.027134925 0.58191627 4283320118
0.46022958 -0.027220815 0.58202809 4283320118
0.45967904 -0.02704218 0.58202899 4283123252
0.4590961 -0.026951969 0.58206689 4283320377
0.45851365 -0.026861891 0.5821048 4283320377
0.45789975 -0.026860595 0.58217967 4283386170
0.45731854 -0.02677092 0.58221751 4283254332
0.4567064 -0.02677016 0.58229238 4282860598
0.45609522 -0.026769727 0.58236724 4282992184
0.45551598 -0.026680708 0.58240515 4282992184
0.45490655 -0.026680827 0.58247995 4282794803
