# .PCD v0.7 - Point Cloud Data file format
VERSION 0.7
FIELDS x y z rgb
SIZE 4 4 4 4
TYPE F F F U
COUNT 1 1 1 1
WIDTH 1044
HEIGHT 1
VIEWPOINT 0 0 0 1 0 0 0
POINTS 1044
DATA ascii
0.4203856 -0.090809651 0.52895522 4279308812
0.42036939 -0.090277657 0.52894688 4279309584
0.42035228 -0.089744411 0.52893865 4279243791
0.42042613 -0.089166254 0.52892637 4278784010
0.42049885 -0.088586427 0.52891415 4278848780
0.42047867 -0.088048995 0.52890593 4278915345
0.42054904 -0.087466016 0.52889371 4278915345
0.42052689 -0.086925864 0.52888548 4278783759
0.4205038 -0.086384445 0.52887732 4278717968
0.42057085 -0.085796863 0.52886516 4278783759
0.42054579 -0.085252732 0.52885693 4278783759
0.4205198 -0.084707335 0.52884877 4279046159
0.42058349 -0.084115155 0.52883667 4278914573
0.42055553 -0.083567031 0.52882856 4279046159
0.42061692 -0.082971707 0.52881646 4279111952
0.42058697 -0.082420871 0.52880836 4278718481
0.42055613 -0.081868768 0.52880025 4278718481
0.42061415 -0.08126884 0.52878821 4278718481
0.42058134 -0.080714017 0.5287801 4278718481
0.42054754 -0.080157943 0.52877206 4278718479
0.42051288 -0.07960061 0.52876395 4278915345
0.4206557 -0.078947186 0.52874804 4278915345
0.42061889 -0.078386918 0.52873999 4278783759
0.42075896 -0.077729732 0.52872413 4278915347
0.42080879 -0.077118486 0.52871215 4278915345
0.42085737 -0.076505564 0.52870023 4279242770
0.42090476 -0.075890973 0.52868831 4279176977
0.42086259 -0.075323381 0.52868038 4279308306
0.42090768 -0.074705645 0.52866846 4279045391
0.42095155 -0.074086234 0.5286566 4279111956
0.42090631 -0.073514462 0.52864867 4279111956
0.42094791 -0.072891898 0.52863681 4279046412
0.42098823 -0.072267674 0.52862501 4279112205
0.42102736 -0.071641766 0.52861321 4279112205
0.42106527 -0.071014188 0.52860141 4279046412
0.42110199 -0.070384942 0.52858961 4279045642
0.42113745 -0.069754004 0.52857786 4279046159
0.42117169 -0.069121405 0.52856612 4279046412
0.42120472 -0.06848713 0.52855438 4279046412
0.42115006 -0.067902364 0.52854657 4279112203
0.42118078 -0.067264944 0.52853489 4279112203
0.42121032 -0.066625848 0.52852321 4279046410
0.42115262 -0.066036887 0.5285154 4279046410
0.42117986 -0.065394655 0.52850378 4279112203
0.42120588 -0.064750746 0.52849209 4278981389
0.42123067 -0.064105153 0.52848047 4279177745
0.4211688 -0.063510545 0.52847272 4279046159
0.42119133 -0.062861815 0.52846116 4279046412
0.42112753 -0.06226448 0.52845347 4279112205
0.42114776 -0.061612613 0.52844191 4279177998
0.42108196 -0.061012566 0.52843422 4279177998
0.42109987 -0.060357548 0.52842265 4279111952
0.42103213 -0.059754774 0.52841502 4279046161
0.42104775 -0.059096619 0.52840352 4279046159
0.42106217 -0.058436789 0.52839202 4279046159
0.42107537 -0.057775289 0.52838051 4278914573
0.42117122 -0.057057358 0.52836514 4278914573
0.42118183 -0.05639229 0.52835369 4279046159
0.42110765 -0.055780724 0.52834612 4279046159
0.42111599 -0.055112518 0.52833474 4279046159
0.42112309 -0.054442637 0.52832329 4279045389
0.42112896 -0.053771079 0.52831191 4278914575
0.42113364 -0.053097852 0.52830052 4278915347
0.42105424 -0.052479163 0.52829301 4279046933
0.42097396 -0.051859207 0.52828556 4278981140
0.42097527 -0.051181369 0.52827418 4278914575
0.42097536 -0.050501853 0.52826285 4279243021
0.42089203 -0.049877711 0.5282554 4279308814
0.42088982 -0.049195066 0.52824414 4279243021
0.4208864 -0.048510723 0.52823287 4278914826
0.42088175 -0.047824726 0.52822161 4279111952
0.42079431 -0.047194928 0.52821422 4279046159
0.42078736 -0.046505794 0.52820295 4278981136
0.42077923 -0.045814961 0.52819175 4278915345
0.42085096 -0.045063943 0.52817667 4278652173
0.42075926 -0.044428289 0.52816933 4278717966
0.42066664 -0.043791384 0.528162 4278652175
0.42057306 -0.043153226 0.52815467 4278782989
0.42047858 -0.042513788 0.52814734 4278782989
0.42022252 -0.041992247 0.5281477 4278782989
0.4200463 -0.041410491 0.52814424 4278913807
0.41970938 -0.040947869 0.52814847 4278782987
0.41929254 -0.040545464 0.52815646 4278783240
0.41895574 -0.040083066 0.52816069 4278783240
0.41845977 -0.039741889 0.52817249 4278849033
0.41788495 -0.039462373 0.52818817 4278717447
0.4172318 -0.039245144 0.52820766 4279177228
0.41650066 -0.039090827 0.52823091 4279440400
0.41569209 -0.039000064 0.52825797 4280164121
0.41480649 -0.038973466 0.52828884 4280623645
0.41392303 -0.038949803 0.52831966 4280886556
0.41319877 -0.038804919 0.52834284 4280952349
0.41239768 -0.038724422 0.52836978 4281412382
0.41167665 -0.038583934 0.52839291 4281938211
0.41103518 -0.038382828 0.52841222 4282070310
0.41039497 -0.038183406 0.52843153 4282268713
0.40998927 -0.037796274 0.52843946 4282466092
0.40950626 -0.037472904 0.52845109 4282531885
0.40910131 -0.037086815 0.52845901 4282860596
0.40861937 -0.036764905 0.52847064 4282926389
0.40829235 -0.036315903 0.52847475 4283386422
0.40796536 -0.035866901 0.5284788 4283583801
0.42158628 -0.017359212 0.52768916 4278915343
0.42137682 -0.016731814 0.52768612 4278915343
0.42124209 -0.016037107 0.52767932 4278981389
0.42110643 -0.015341133 0.52767253 4279112205
0.42089486 -0.014710814 0.52766949 4278915596
0.42068267 -0.014079645 0.52766645 4278784010
0.42061928 -0.013313025 0.52765596 4278915596
0.4205547 -0.012544692 0.52764541 4278784010
0.42048889 -0.011774734 0.52763492 4279111178
0.42049614 -0.010935113 0.52762067 4278981138
0.42042774 -0.010161579 0.52761018 4278915345
0.42028415 -0.0094547272 0.52760351 4278717964
0.42013967 -0.0087465942 0.52759683 4278848780
0.41999424 -0.0080372393 0.52759016 4278782987
0.41984791 -0.0073266029 0.52758348 4278782987
0.41962734 -0.0066839159 0.52758056 4278782987
0.41933298 -0.0061098039 0.52758139 4278783238
0.41896522 -0.005604893 0.52758598 4278849031
0.41859749 -0.005099982 0.52759057 4278783240
0.41808426 -0.004735142 0.52760261 4278783240
0.41764426 -0.0043008775 0.52761096 4278849033
0.41713211 -0.0039375126 0.527623 4278849033
0.41654831 -0.0036456287 0.52763873 4278914826
0.41582114 -0.0034967661 0.52766198 4279244561
0.41516751 -0.0032789111 0.52768141 4279507733
0.41437143 -0.0032053143 0.52770835 4279639319
0.41364884 -0.0030627251 0.52773148 4280887069
0.41292781 -0.0029222518 0.52775466 4281084698
0.41227964 -0.0027119219 0.52777404 4281347357
0.41170388 -0.0024311543 0.52778971 4281675041
0.41098696 -0.0022963285 0.52781278 4282332457
0.41041338 -0.0020184815 0.52782845 4282529836
0.40991145 -0.0016691387 0.52784038 4282464303
0.40926898 -0.0014665723 0.52785969 4282465070
0.40883899 -0.0010461509 0.52786785 4283122998
0.40847963 -0.00055274367 0.52787232 4283321147
0.40798002 -0.000206545 0.52788424 4283650112
0.40755099 0.00021262467 0.52789241 4283782729
0.47772944 -0.10243821 0.52772242 4285362788
0.47697115 -0.10207668 0.52774221 4284243284
0.47651741 -0.10162359 0.52775043 4282400056
0.47576112 -0.10126477 0.5277701 4280953382
0.47510684 -0.10087615 0.52778596 4280690210
0.47445345 -0.10048877 0.52780187 4279505934
0.47390151 -0.10007073 0.52781385 4279177226
0.4733502 -0.099653527 0.52782589 4278848780
0.47269928 -0.099269509 0.52784169 4278914573
0.47204924 -0.098886743 0.52785754 4279045389
0.47110051 -0.098603487 0.52788478 4279045389
0.47045279 -0.098223872 0.52790058 4279177226
0.42490858 -0.099404171 0.52943248 4278981136
0.42442709 -0.099082887 0.52944362 4278915860
0.42423165 -0.098644689 0.5294435 4279243021
0.42384595 -0.09828499 0.52945089 4279308812
0.42365026 -0.097846374 0.52945071 4279243019
0.42326486 -0.097487099 0.52945811 4279243021
0.42306882 -0.097048059 0.52945799 4279177998
0.42277813 -0.096648909 0.52946162 4279112205
0.42258164 -0.096209243 0.5294615 4279111954
0.4222908 -0.095809877 0.52946514 4279177747
0.42209387 -0.095369577 0.52946502 4279111952
0.42189664 -0.094928868 0.5294649 4279046159
0.42169911 -0.094487742 0.52946478 4279177745
0.42150128 -0.09404619 0.52946466 4279111952
0.42139643 -0.093562469 0.52946085 4279308561
0.42119783 -0.093119875 0.52946073 4279176975
0.42109194 -0.092634678 0.52945691 4279242768
0.42098543 -0.092148647 0.5294531 4279308561
0.42069289 -0.091746971 0.52945673 4279308561
0.42067802 -0.091216877 0.52944922 4279243019
0.42075467 -0.090642497 0.52943796 4279308812
0.42064559 -0.090152904 0.5294342 4279178768
0.42062801 -0.08961904 0.52942669 4279112975
0.42088538 -0.088952973 0.52940804 4278718217
0.42068189 -0.088503674 0.52940804 4278848780
0.42075306 -0.087921768 0.52939683 4278915345
0.42082298 -0.087338172 0.52938569 4278981138
0.42080036 -0.086797394 0.52937829 4278783759
0.42068562 -0.08630006 0.52937454 4278783761
0.42075235 -0.08571206 0.52936345 4278783761
0.42081785 -0.085122406 0.52935231 4278915347
0.42079145 -0.084576383 0.52934498 4279046161
0.42085466 -0.083983585 0.52933389 4278914573
0.42082626 -0.08343485 0.5293265 4279046159
0.42088717 -0.0828389 0.52931547 4279046159
0.42085677 -0.082287446 0.52930814 4278718481
0.42082548 -0.081734724 0.52930081 4278718479
0.42079324 -0.081180751 0.52929348 4278718481
0.42076007 -0.080625527 0.52928621 4278718481
0.42081553 -0.080022037 0.52927524 4278718477
0.42086974 -0.079416879 0.52926427 4278850063
0.42092276 -0.078810036 0.5292533 4278915343
0.42097455 -0.078201532 0.5292424 4278915343
0.4210251 -0.077591352 0.52923149 4278915347
0.42107445 -0.076979488 0.52922058 4279046161
0.42112258 -0.076365948 0.52920967 4279242770
0.42108104 -0.075799204 0.52920246 4279176977
0.4211269 -0.075182527 0.52919161 4279308306
0.42117149 -0.074564174 0.52918077 4279045393
0.42121488 -0.073944151 0.52916998 4279111956
0.42125708 -0.073322438 0.52915913 4279111956
0.42129803 -0.07269907 0.52914834 4279046412
0.42133778 -0.072074004 0.52913755 4279112203
0.42137629 -0.071447276 0.52912682 4279046159
0.42132634 -0.070869014 0.52911973 4279046159
0.42136261 -0.070239134 0.529109 4279112205
0.42139763 -0.069607601 0.52909827 4279046159
0.42143139 -0.068974376 0.52908754 4279046412
0.42137736 -0.068390444 0.52908051 4279046412
0.42140883 -0.06775409 0.52906984 4279177996
0.42143914 -0.067116052 0.52905917 4279112203
0.4214682 -0.06647633 0.5290485 4279046410
0.42149603 -0.065834947 0.52903789 4279046410
0.42152268 -0.065191887 0.52902728 4279112203
0.42146236 -0.064599372 0.52902031 4279112205
0.42148668 -0.063953169 0.5290097 4279177998
0.4215098 -0.063305289 0.52899915 4279112205
0.42153171 -0.062655725 0.5289886 4279046412
0.42155236 -0.062004499 0.52897805 4279046412
0.42148691 -0.061404876 0.52897114 4279177745
0.42142045 -0.060803987 0.52896428 4279111952
0.42135316 -0.060201854 0.52895737 4279111952
0.42136943 -0.059544541 0.52894688 4279046159
0.42138445 -0.058885559 0.52893645 4279046159
0.42139828 -0.058224902 0.52892596 4279177745
0.42141086 -0.057562582 0.52891552 4279046159
0.42142221 -0.056898572 0.52890509 4279045389
0.42143238 -0.056232892 0.52889466 4279046159
0.42144132 -0.055565536 0.52888429 4279111952
0.42144901 -0.054896496 0.52887392 4279046159
0.4214555 -0.054225788 0.52886355 4279045389
0.42146075 -0.053553402 0.52885318 4278914575
0.42138186 -0.052935354 0.52884644 4279111956
0.42130202 -0.052316032 0.52883977 4279243542
0.42130393 -0.051639043 0.52882946 4279309333
0.42122215 -0.051017016 0.52882272 4279046159
0.42122176 -0.050336868 0.52881247 4279177228
0.42122018 -0.049655072 0.52880222 4279308814
0.42113531 -0.049028844 0.52879554 4279243021
0.42113143 -0.048343897 0.52878529 4279177228
0.42112631 -0.047657266 0.5287751 4279046412
0.42103842 -0.047026858 0.52876848 4279046412
0.42103103 -0.046337098 0.52875829 4279111952
0.42110372 -0.045587346 0.52874452 4278915345
0.4210937 -0.04489401 0.52873433 4278652173
0.4210825 -0.04419902 0.52872419 4278717966
0.42098925 -0.04356128 0.52871764 4278652173
0.4208951 -0.042922288 0.52871108 4278782989
0.4207195 -0.042341366 0.52870816 4278782989
0.42046297 -0.0418192 0.52870876 4278782989
0.42020607 -0.041296616 0.52870941 4278782989
0.41994888 -0.0407736 0.52871001 4278782987
0.41953158 -0.040370554 0.52871782 4278783240
0.41903487 -0.040028319 0.52872914 4278783240
0.41861832 -0.039626315 0.52873689 4278849033
0.41796377 -0.039407194 0.52875537 4278717447
0.41731045 -0.039189756 0.52877378 4279308814
0.41657919 -0.039035231 0.52879578 4279637779
0.41577044 -0.038944215 0.52882123 4280361243
0.41488469 -0.038917407 0.52885032 4280492829
0.41407979 -0.038831651 0.52887577 4280492829
0.41335523 -0.038686335 0.52889764 4280952349
0.41255382 -0.038605392 0.52892303 4281478175
0.41191068 -0.038401976 0.52894139 4282004004
0.41126877 -0.038200229 0.52895963 4282004517
0.41062811 -0.038000166 0.52897793 4282399527
0.41014415 -0.03767553 0.52898908 4282531113
0.40958324 -0.037415057 0.5290038 4282662699
0.40917814 -0.037028775 0.52901143 4283057459
0.40877336 -0.036642894 0.52901906 4283320631
0.40844607 -0.036193475 0.52902311 4283452215
0.40811872 -0.035744056 0.52902722 4283452985
0.42194599 -0.017860129 0.52829689 4279243538
0.42173684 -0.017233163 0.52829432 4278981136
0.42152709 -0.016605347 0.52829182 4278915343
0.42139205 -0.015910238 0.5282858 4278981389
0.4212561 -0.015213847 0.52827978 4279112205
0.42111924 -0.014516219 0.52827376 4279046412
0.42098147 -0.01381734 0.52826774 4278784010
0.4209922 -0.012982547 0.52825475 4278981389
0.42085227 -0.012280732 0.52824879 4278784010
0.42078584 -0.011509925 0.52823931 4279111178
0.42071822 -0.010737419 0.52822989 4279046161
0.42064935 -0.009963274 0.52822047 4279046161
0.42057928 -0.0091874152 0.52821106 4278848780
0.42043418 -0.0084784776 0.52820516 4278782987
0.42028815 -0.0077682883 0.52819926 4278782987
0.42006773 -0.0071258098 0.52819687 4278717194
0.41977334 -0.0065516979 0.52819794 4278783240
0.41940546 -0.0060465783 0.52820253 4278914054
0.41903758 -0.0055414438 0.52820712 4278849031
0.4186697 -0.0050363243 0.52821171 4278783238
0.41822904 -0.0046012402 0.52821976 4278717445
0.41771615 -0.0042368174 0.52823132 4278783240
0.41720384 -0.003873229 0.52824283 4278848780
0.4165476 -0.0036517829 0.5282613 4279177226
0.41582045 -0.0035029203 0.52828324 4279638547
0.41509485 -0.0033561289 0.52830511 4279573524
0.41437072 -0.0032114387 0.52832699 4279836696
0.41371983 -0.0029973388 0.52834541 4281018655
0.41299862 -0.002856642 0.52836722 4281084952
0.41235033 -0.0026460886 0.52838564 4281478427
0.41177443 -0.0023651123 0.52840048 4282069283
0.4111284 -0.0021577179 0.52841884 4282267176
0.4104836 -0.0019519925 0.52843714 4282398762
0.40991077 -0.0016751885 0.52845204 4282530609
0.40940946 -0.0013266802 0.52846342 4282596402
0.40897924 -0.00090584159 0.52847135 4283254586
0.40847898 -0.00055879354 0.52848274 4283386942
0.40797931 -0.00021257997 0.52849412 4283781700
0.4081102 0.00079703331 0.52847445 4283717190
0.47686923 -0.10211349 0.52834475 4286743668
0.47631454 -0.10169167 0.52835625 4284374870
0.47555852 -0.10133326 0.52837491 4281216811
0.47500539 -0.10091356 0.52838647 4281019432
0.47435215 -0.10052638 0.52840155 4279835158
0.47369987 -0.10014045 0.52841657 4279177996
0.47304851 -0.099755801 0.52843165 4278914573
0.47249824 -0.099340066 0.52844316 4278914573
0.47164845 -0.099022791 0.52846527 4279045389
0.47090006 -0.098674878 0.52848387 4278979596
0.47025263 -0.098295659 0.52849889 4279177226
0.42558134 -0.099653944 0.5299089 4279243021
0.42509896 -0.099331401 0.52991951 4278981387
0.42480779 -0.098931611 0.52992314 4278850065
0.42451662 -0.098531827 0.52992678 4279243021
0.42413044 -0.098171502 0.52993393 4279243019
0.42383939 -0.097771928 0.52993757 4279243019
0.4235484 -0.097372353 0.5299412 4279243021
0.42325735 -0.096972778 0.52994478 4279112205
0.42296636 -0.096573204 0.52994841 4279112205
0.42267534 -0.096173629 0.52995205 4278980888
0.42247844 -0.09573333 0.52995217 4279046681
0.42228121 -0.095292628 0.52995235 4279111952
0.42217743 -0.094810374 0.52994901 4279112205
0.42188579 -0.094409958 0.52995265 4279112205
0.42178112 -0.093926445 0.52994931 4279046412
0.42167586 -0.093442097 0.52994603 4279177998
0.42147678 -0.09299887 0.52994621 4279374607
0.42137045 -0.09251304 0.52994287 4279242768
0.42126349 -0.09202639 0.52993959 4279308561
0.42106318 -0.091581501 0.52993977 4279308561
0.42104775 -0.091050573 0.52993304 4279308812
0.42103139 -0.090518385 0.5299263 4279177996
0.42092183 -0.090028174 0.52992302 4279309582
0.42108798 -0.089406803 0.52990943 4279177996
0.42097676 -0.08891429 0.52990615 4278718215
0.42095673 -0.088377081 0.52989948 4278849033
0.42102742 -0.087794542 0.52988935 4279046412
0.42100543 -0.087254614 0.52988267 4279046412
0.42098248 -0.086713426 0.52987605 4278783757
0.42104983 -0.086126275 0.52986592 4278783757
0.42102492 -0.085582376 0.5298593 4278717966
0.42099905 -0.085037202 0.52985269 4278915345
0.42106307 -0.084445447 0.52984267 4279046163
0.42103523 -0.083897561 0.52983606 4278914323
0.42109698 -0.083302677 0.52982605 4278914577
0.42106715 -0.082752064 0.52981949 4278914577
0.42103645 -0.082200192 0.52981293 4278783759
0.42109481 -0.081600696 0.52980298 4278915345
0.42106211 -0.081046104 0.52979642 4278783759
0.42102849 -0.080490246 0.52978992 4278783759
0.42108345 -0.079886153 0.52977997 4278783757
0.42122662 -0.079233162 0.52976662 4278915596
0.42118979 -0.078672916 0.52976012 4278915343
0.4212411 -0.078063793 0.52975029 4278915343
0.42138016 -0.077405147 0.52973694 4279046159
0.42142886 -0.076792464 0.5297271 4279046161
0.42138779 -0.076226354 0.52972066 4279242770
0.42143422 -0.075610518 0.52971083 4279242770
0.42139119 -0.075041689 0.52970445 4279176977
0.42143536 -0.074422717 0.52969468 4279045389
0.42147827 -0.073802069 0.5296849 4279111954
0.42151999 -0.073179752 0.52967513 4279111954
0.4215605 -0.072555758 0.52966535 4279112205
0.42159981 -0.071930073 0.52965564 4279112203
0.42163783 -0.071302734 0.52964586 4279046412
0.42167467 -0.070673704 0.5296362 4279046412
0.42171031 -0.070043012 0.52962649 4279112205
0.4217447 -0.069410637 0.52961683 4279046159
0.42169112 -0.068827346 0.52961051 4279046412
0.42172322 -0.068191834 0.52960086 4279046412
0.42166764 -0.067605831 0.52959466 4279046410
0.42169747 -0.066967174 0.529585 4279112203
0.42172608 -0.066326842 0.52957541 4279177226
0.42175347 -0.06568484 0.52956581 4279243019
0.42177963 -0.065041147 0.52955627 4279177226
0.42180455 -0.064395793 0.52954668 4279046410
0.42182827 -0.063748762 0.52953714 4279177996
0.4218508 -0.063100047 0.5295276 4279112203
0.42187208 -0.062449664 0.52951813 4278914824
0.42180705 -0.061850674 0.52951199 4279046412
0.421826 -0.061197147 0.52950251 4279111956
0.42175901 -0.060595438 0.52949637 4279111956
0.42169109 -0.05999247 0.52949029 4279111954
0.42170674 -0.05933433 0.52948087 4278914573
0.42172116 -0.058674522 0.5294714 4278915343
0.42173433 -0.058013052 0.52946204 4278981136
0.42174631 -0.05734989 0.52945262 4278981136
0.4217571 -0.056685053 0.5294432 4279046159
0.42176664 -0.056018546 0.52943385 4278914573
0.42177492 -0.055350356 0.52942449 4279111952
0.42178202 -0.054680496 0.52941519 4279111952
0.42178792 -0.054008961 0.52940583 4279046159
0.42170948 -0.053391546 0.52939987 4279177745
0.42163008 -0.052772865 0.52939397 4279309331
0.42163262 -0.052096717 0.52938467 4279441687
0.42155129 -0.051475324 0.52937871 4279638549
0.4215515 -0.050796025 0.52936947 4279374605
0.42146817 -0.050171912 0.52936357 4279243019
0.42146611 -0.049489483 0.52935439 4279243019
0.42146283 -0.048805386 0.52934515 4279308812
0.42145836 -0.048119605 0.52933598 4279374350
0.42137089 -0.047489837 0.52933013 4279177226
0.42136413 -0.046800926 0.52932096 4279177226
0.42135611 -0.046110332 0.52931178 4279177228
0.42142814 -0.045359746 0.52929932 4278914573
0.42141759 -0.04466559 0.5292902 4278782989
0.42132479 -0.044028491 0.52928442 4278848782
0.42131191 -0.043331191 0.52927536 4278652173
0.42113647 -0.042750508 0.52927291 4278782989
0.42104092 -0.042109638 0.52926719 4278717196
0.42070341 -0.041646197 0.52927136 4278717196
0.42044604 -0.041122973 0.52927226 4278913805
0.42010838 -0.040659308 0.52927649 4278782989
0.41969079 -0.040255845 0.529284 4278783240
0.4192735 -0.039852783 0.52929151 4278717447
0.4186973 -0.03957136 0.52930564 4278783240
0.4180426 -0.039352044 0.52932304 4278914826
0.41738909 -0.039134353 0.52934045 4279703572
0.41665769 -0.038979605 0.52936113 4280163866
0.41584879 -0.038888395 0.52938509 4280755231
0.41504174 -0.038799688 0.52940899 4280623645
0.41423652 -0.0387135 0.52943289 4280755231
0.41343313 -0.03862983 0.52945679 4281281314
0.41270995 -0.038486376 0.52947736 4281544738
0.41206652 -0.038282529 0.52949464 4282136105
0.41142431 -0.038080364 0.52951187 4282070310
0.41078332 -0.037879869 0.52952915 4282596904
0.41029909 -0.037554801 0.52953982 4282794283
0.4098931 -0.037167266 0.52954715 4283056944
0.40940994 -0.036843657 0.52955782 4283319864
0.40892738 -0.036520898 0.52956843 4283582776
0.40859973 -0.036071062 0.52957255 4283780155
0.42224845 -0.017602816 0.52889603 4279308561
0.42188743 -0.017107114 0.5289005 4279046929
0.42175287 -0.016412646 0.52889526 4278981136
0.42154202 -0.01578337 0.52889329 4278981389
0.42140579 -0.015086561 0.52888805 4279374350
0.42141864 -0.014254749 0.5288763 4279177998
0.42128024 -0.01355502 0.52887112 4279046412
0.42114094 -0.01285404 0.52886587 4279177998
0.42114985 -0.012016773 0.52885425 4279178250
0.42108282 -0.011245117 0.52884579 4279177226
0.42108881 -0.010403872 0.52883416 4279046412
0.4210192 -0.0096286833 0.52882582 4278914826
0.42094836 -0.0088517964 0.52881742 4278849033
0.4208025 -0.0081418306 0.52881229 4278848782
0.42058206 -0.007499367 0.52881044 4278782989
0.42036101 -0.0068560541 0.52880853 4278848782
0.420066 -0.0062811077 0.52880991 4278979849
0.41969752 -0.0057751387 0.52881449 4278979590
0.41918293 -0.0054084212 0.52882558 4278783238
0.41881472 -0.0049028695 0.52883017 4278783238
0.41822833 -0.0046074241 0.52884442 4278783238
0.41778803 -0.0041727424 0.52885216 4278849033
0.41720313 -0.0038793981 0.52886641 4279243021
0.41654691 -0.003657937 0.52888387 4279768077
0.41581976 -0.0035090595 0.5289045 4279704594
0.41509414 -0.0033622533 0.52892506 4280099352
0.41437006 -0.003217563 0.52894568 4280296731
0.41371912 -0.0030034482 0.52896303 4280822555
0.41306943 -0.0027910322 0.52898037 4281020186
0.41234964 -0.0026521832 0.52900088 4281413402
0.41177374 -0.002371192 0.529015 4282070051
0.41119879 -0.0020914525 0.52902913 4282201896
0.41062474 -0.0018129647 0.5290432 4282333482
0.40998083 -0.0016084909 0.52906048 4282662197
0.40947938 -0.0012597442 0.52907139 4282728760
0.40904897 -0.00083869696 0.52907902 4283189309
0.40854859 -0.0004914403 0.52908993 4283452733
0.40818909 2.1755695e-06 0.5290944 4283781698
0.40796956 0.00064337254 0.52909249 4283781698
0.47621274 -0.10172866 0.52895778 4285822316
0.47545692 -0.10137046 0.52897543 4281085225
0.47490388 -0.10095095 0.52898639 4281085225
0.47415018 -0.10059568 0.52900404 4280098330
0.47349823 -0.10021017 0.52901828 4279374605
0.47284713 -0.099825934 0.52903259 4278914575
0.4720968 -0.099475272 0.52905011 4278914575
0.47144771 -0.099093735 0.52906442 4279045642
0.47039998 -0.098844483 0.52909184 4278979849
0.46985304 -0.098433346 0.52910274 4279177226
0.42606378 -0.099982239 0.53039384 4279440398
0.42567641 -0.099620238 0.53040075 4279243019
0.42538476 -0.099219821 0.53040439 4278981387
0.42499784 -0.098858431 0.53041124 4278850065
0.42470637 -0.09845823 0.53041488 4279243021
0.42431986 -0.098097488 0.53042173 4279112203
0.42402858 -0.097697482 0.53042537 4279112203
0.42373723 -0.09729749 0.53042901 4279243021
0.42354047 -0.096857414 0.53042942 4279112203
0.42324901 -0.096457213 0.53043306 4279177998
0.42305177 -0.096016511 0.53043348 4279045909
0.42276013 -0.095616102 0.53043711 4279177495
0.42256242 -0.09517476 0.53043747 4279111952
0.42236441 -0.094733015 0.53043789 4278981389
0.42225978 -0.094249502 0.53043509 4279243021
0.42206103 -0.093806706 0.5304355 4279177228
0.42195529 -0.093321726 0.53043276 4279112205
0.42175576 -0.09287788 0.53043318 4279177998
0.42164895 -0.092391446 0.53043038 4279111952
0.42154151 -0.091904163 0.53042763 4279177745
0.42134079 -0.091458641 0.53042811 4279308561
0.42132491 -0.090927094 0.53042209 4279243021
0.42121565 -0.090437308 0.53041935 4279177996
0.42119804 -0.089903444 0.53041345 4279243789
0.42136377 -0.08928147 0.53040111 4279112203
0.42125207 -0.088788331 0.53039837 4278783238
0.42123157 -0.088250495 0.53039247 4278848780
0.42130181 -0.087667346 0.53038341 4279046412
0.42127931 -0.087126791 0.53037751 4278914826
0.42125595 -0.08658497 0.53037167 4278914826
0.42132282 -0.085997224 0.53036261 4278784010
0.42129743 -0.085452691 0.53035676 4278717964
0.42136207 -0.084861785 0.53034776 4278915343
0.42133468 -0.084314533 0.53034192 4279111956
0.42130643 -0.083766021 0.53033614 4278914577
0.42136765 -0.083170518 0.53032714 4278848784
0.42133743 -0.08261928 0.53032136 4278914577
0.42139637 -0.082020633 0.53031242 4278915345
0.42136413 -0.081466682 0.53030664 4278981138
0.42142081 -0.080864891 0.53029776 4278783759
0.42138657 -0.080308214 0.53029197 4278783759
0.42144096 -0.079703286 0.53028309 4278784010
0.42140478 -0.079143874 0.53027737 4278915596
0.42145684 -0.07853581 0.53026855 4278915343
0.42150772 -0.077926055 0.53025967 4278783757
0.42155737 -0.077314638 0.53025085 4279046159
0.42160583 -0.076701544 0.53024203 4278914575
0.421653 -0.076086767 0.53023326 4279242770
0.42169899 -0.075470321 0.53022444 4279242770
0.42174375 -0.074852198 0.53021568 4279176977
0.42178732 -0.074232399 0.53020692 4279045389
0.42182964 -0.073610924 0.53019822 4279046159
0.42178291 -0.073037073 0.53019261 4279046159
0.42182297 -0.072412454 0.53018391 4279111952
0.4219493 -0.071736455 0.53017205 4279046412
0.42198676 -0.071108274 0.53016335 4278914826
0.42193574 -0.070528559 0.53015786 4279046412
0.4219709 -0.069897249 0.53014922 4279112205
0.42200488 -0.069264248 0.53014058 4279046412
0.42203757 -0.068629585 0.53013194 4279046412
0.42198247 -0.068044215 0.53012645 4279046412
0.4220129 -0.067406401 0.53011787 4279046410
0.42204213 -0.066766918 0.53010929 4279112205
0.42207009 -0.066125765 0.53010076 4279177226
0.42209688 -0.065482922 0.53009218 4279177226
0.42212242 -0.064838424 0.53008366 4279177226
0.42206106 -0.064244464 0.53007829 4279177226
0.42208433 -0.063596807 0.53006977 4279177996
0.42219174 -0.062894836 0.53005815 4279112203
0.42221242 -0.062243618 0.53004968 4278914824
0.42223188 -0.061590739 0.53004122 4278914826
0.42216516 -0.060989447 0.53003591 4279046163
0.42209753 -0.060386911 0.53003061 4279111956
0.42211366 -0.059729412 0.5300222 4279111954
0.42204404 -0.059124142 0.5300169 4279045391
0.42197353 -0.05851762 0.53001159 4278718479
0.42207044 -0.057801202 0.53000015 4278915858
0.42199779 -0.057191744 0.52999485 4278915858
0.42200807 -0.056526288 0.52998656 4279046159
0.42210087 -0.055804215 0.52997512 4278914573
0.42202502 -0.055190355 0.52996987 4279046159
0.42211509 -0.054464512 0.52995849 4279111952
0.42203707 -0.053847738 0.5299533 4279177745
0.42204127 -0.053173892 0.52994508 4279178515
0.42204422 -0.0524984 0.52993679 4279178515
0.42196321 -0.051877424 0.52993166 4279441687
0.42196387 -0.051198773 0.52992344 4279638549
0.42188087 -0.050575085 0.52991831 4279308812
0.42179692 -0.04995013 0.52991319 4279177226
0.42179424 -0.049266875 0.52990502 4279243019
0.42170835 -0.048639208 0.52989995 4279243019
0.42170337 -0.047952816 0.52989179 4279308812
0.4216972 -0.04726474 0.52988362 4279243019
0.42168981 -0.046574995 0.52987552 4279177226
0.42176262 -0.045825481 0.52986437 4279045640
0.42175263 -0.045132175 0.52985626 4278914826
0.42174143 -0.0444372 0.52984816 4278782989
0.421729 -0.043740526 0.52984011 4278782989
0.42155373 -0.043160081 0.5298382 4278782989
0.42137784 -0.042578772 0.5298363 4278782989
0.42128181 -0.041937262 0.52983135 4278717196
0.4210242 -0.041413635 0.52983248 4278717196
0.42068607 -0.040949345 0.52983671 4278913805
0.4203479 -0.040485054 0.52984089 4278782989
0.41984993 -0.04014115 0.5298512 4278652171
0.41935259 -0.039798066 0.52986151 4278717447
0.41869664 -0.039577022 0.5298779 4278783240
0.4181214 -0.039296865 0.52989125 4279112205
0.41738847 -0.039140001 0.52991062 4279835158
0.41665703 -0.038985237 0.52993006 4280163866
0.41592714 -0.03883256 0.52994943 4280755231
0.41511995 -0.038743645 0.52997178 4280688925
0.41431457 -0.038657218 0.52999413 4280886304
0.41358957 -0.038511232 0.53001344 4281543716
0.41286606 -0.038367361 0.53003269 4281872931
0.41222233 -0.038163096 0.53004897 4282201896
0.4116579 -0.03789781 0.53006214 4282202148
0.41109437 -0.037633747 0.53007531 4282662951
0.41045401 -0.037434086 0.53009152 4282794537
0.41004771 -0.037046105 0.53009868 4283122735
0.40964168 -0.036658555 0.53010577 4283385911
0.40923601 -0.036271423 0.53011286 4283517497
0.40890777 -0.035820752 0.53011698 4283714362
0.42260879 -0.018104583 0.52950478 4279439373
0.42247513 -0.017411366 0.52950025 4279242768
0.42218927 -0.016848981 0.52950174 4279243538
0.42197859 -0.016219929 0.52950031 4279177745
0.42176732 -0.015590027 0.52949882 4279111952
0.42170578 -0.014825955 0.52949136 4279308555
0.42171806 -0.013993293 0.52948093 4279177226
0.42157903 -0.013292745 0.52947652 4279177226
0.42151386 -0.012523636 0.52946913 4279243021
0.42152196 -0.011685312 0.52945876 4279243019
0.42145419 -0.010912642 0.52945137 4279177226
0.42145944 -0.010070354 0.52944106 4279045640
0.42138904 -0.0092941225 0.52943373 4279045640
0.42124349 -0.008584559 0.52942938 4278979847
0.42109701 -0.0078737587 0.52942502 4278913803
0.42087597 -0.0072304606 0.52942371 4278848780
0.4206543 -0.0065863132 0.52942234 4278848780
0.42028534 -0.0060797334 0.52942693 4278914056
0.4198432 -0.0056425333 0.5294345 4278914056
0.41940135 -0.0052057654 0.52944207 4278914056
0.41888693 -0.0048392415 0.52945256 4278914054
0.41830039 -0.0045435578 0.52946603 4278914054
0.41785991 -0.0041086823 0.5294736 4279045389
0.41727489 -0.0038151145 0.52948707 4279571727
0.41661847 -0.0035934597 0.52950346 4280031760
0.41581905 -0.0035152137 0.5295257 4280295707
0.41516542 -0.0032973289 0.52954209 4280429087
0.41436934 -0.0032236874 0.52956432 4280494880
0.41371846 -0.0030095577 0.52958065 4280757278
0.41306877 -0.0027971268 0.52959698 4281151520
0.4124203 -0.0025863647 0.52961326 4281414687
0.41184425 -0.0023051351 0.52962661 4282004769
0.41126916 -0.002025187 0.5296399 4282399277
0.41062403 -0.0018190295 0.52965617 4282596656
0.41005093 -0.0015417933 0.52966946 4282793781
0.4096199 -0.0011198968 0.52967691 4282925367
0.40911874 -0.00077156723 0.52968729 4283451965
0.40868849 -0.00035071373 0.52969468 4283714622
0.40825856 6.9707632e-05 0.52970207 4283912001
0.47565818 -0.10131381 0.52956623 4281216552
0.47470161 -0.10101983 0.52958888 4281611310
0.47404888 -0.10063327 0.52960241 4280821026
0.47339702 -0.10024797 0.52961594 4279834129
0.47254544 -0.099928163 0.52963549 4279111954
0.47169536 -0.099610463 0.52965504 4278914577
0.47074676 -0.099327385 0.52967763 4279111176
0.46989989 -0.099014074 0.52969718 4279045383
0.46935374 -0.098603971 0.52970755 4279045894
0.46880817 -0.098194711 0.52971798 4279045892
0.4270311 -0.10063645 0.5308702 4280427042
0.42664278 -0.10027318 0.53087687 4279834901
0.42625475 -0.099910334 0.53088349 4279243789
0.42596269 -0.099509299 0.53088713 4279112203
0.42557514 -0.099147081 0.53089374 4278981389
0.4253785 -0.098707214 0.5308944 4278915343
0.42489612 -0.098384656 0.530904 4278981136
0.42460433 -0.097984031 0.53090763 4279112203
0.42431253 -0.097583413 0.53091127 4279046410
0.42411548 -0.097142912 0.53091192 4279112203
0.42382354 -0.096742079 0.53091556 4279112203
0.42353159 -0.096341252 0.53091919 4279046410
0.42333391 -0.095899917 0.53091991 4279112203
0.42304182 -0.095498875 0.53092355 4279046679
0.42284369 -0.095056921 0.5309242 4279046931
0.42264524 -0.094614543 0.53092486 4278981389
0.42254013 -0.094130404 0.53092259 4279112205
0.4223409 -0.093686976 0.53092331 4279046412
0.42214137 -0.093243137 0.53092396 4279046412
0.4221279 -0.09271495 0.53091878 4279112205
0.42202049 -0.092227675 0.53091651 4279242768
0.42181957 -0.091781944 0.53091723 4279242768
0.42171112 -0.091293201 0.53091502 4279242768
0.42169458 -0.090760827 0.53090984 4279243021
0.42167714 -0.090227187 0.53090465 4279177996
0.42156652 -0.089735515 0.53090245 4279243789
0.42154741 -0.08919958 0.53089732 4279112203
0.42152736 -0.088662386 0.53089219 4278783238
0.4215064 -0.088123925 0.53088707 4278849033
0.4215762 -0.087540165 0.53087902 4278914826
0.42155325 -0.086998984 0.53087389 4278914826
0.42152941 -0.086456552 0.53086883 4279177998
0.42159581 -0.08586818 0.53086084 4279177998
0.42157 -0.085323021 0.53085577 4278849033
0.42163414 -0.084731512 0.53084779 4278914826
0.42160633 -0.084183633 0.53084272 4279046161
0.42166817 -0.08358898 0.53083479 4279046159
0.42163837 -0.083038375 0.53082979 4278914575
0.42169797 -0.082440577 0.53082186 4278914575
0.42166615 -0.08188726 0.53081685 4278915345
0.42163348 -0.081332669 0.53081191 4278915345
0.42177948 -0.080683701 0.53080112 4278850065
0.42183435 -0.080079406 0.53079325 4278915858
0.42179844 -0.079520427 0.5307883 4278915596
0.42176163 -0.078960203 0.53078341 4279046412
0.4218131 -0.078351296 0.53077555 4279111954
0.42186335 -0.077740729 0.5307678 4279046161
0.4220013 -0.077080652 0.53075707 4279111952
0.42204899 -0.076466516 0.53074932 4279046161
0.42200682 -0.075898953 0.53074443 4279046163
0.42196375 -0.075330138 0.53073961 4279046163
0.42200804 -0.07471139 0.53073186 4279242772
0.42205113 -0.074090973 0.53072417 4279242772
0.42209303 -0.073468894 0.53071648 4279111954
0.42213368 -0.072845116 0.53070879 4279046161
0.42217308 -0.072219677 0.5307011 4278981138
0.42221129 -0.071592562 0.53069347 4278981136
0.4222483 -0.07096377 0.53068584 4278915343
0.42228407 -0.070333295 0.53067821 4278915343
0.42231864 -0.06970115 0.53067058 4278915343
0.42235196 -0.069067337 0.53066301 4279111952
0.4222973 -0.068482593 0.5306583 4278915343
0.42232832 -0.067845635 0.53065073 4278915343
0.42227167 -0.067258179 0.53064609 4278981389
0.42230043 -0.066618085 0.53063852 4279177998
0.42241412 -0.065924704 0.53062814 4279177228
0.42235428 -0.065332845 0.5306235 4279177228
0.42237937 -0.064687721 0.53061599 4279111954
0.42240325 -0.064040914 0.53060853 4278915345
0.42251146 -0.063340001 0.53059822 4278981136
0.42253274 -0.062689632 0.53059077 4279046929
0.42255276 -0.062037602 0.53058332 4279046412
0.42248654 -0.061436951 0.53057879 4279046159
0.42241937 -0.060835049 0.53057426 4279046161
0.42243606 -0.060178392 0.53056687 4279111954
0.42236692 -0.059573762 0.53056234 4279111956
0.42238134 -0.058913983 0.53055501 4279176977
0.42239451 -0.058252521 0.53054762 4278783759
0.42232233 -0.057643697 0.53054315 4278783759
0.42241728 -0.056924567 0.53053302 4278915345
0.42242682 -0.056258075 0.53052568 4278783759
0.42235142 -0.055644855 0.53052127 4279111952
0.4224422 -0.05492007 0.53051114 4279177745
0.4224481 -0.054248556 0.53050393 4279178519
0.42245275 -0.053575359 0.53049666 4279178519
0.42237306 -0.052956291 0.53049231 4279244310
0.42237544 -0.052279942 0.53048509 4279112724
0.42229378 -0.051658146 0.53048074 4279375894
0.42221123 -0.051035091 0.53047639 4279572756
0.42221022 -0.050354138 0.53046918 4279308814
0.42212567 -0.049728364 0.53046489 4279243021
0.42212239 -0.049044281 0.53045774 4279177228
0.42203587 -0.048415795 0.53045344 4279374348
0.42203027 -0.047728568 0.53044635 4279308812
0.4220235 -0.047039673 0.53043926 4279243019
0.42209709 -0.046291202 0.53042936 4279177226
0.42208773 -0.045598745 0.53042227 4279045640
0.42207712 -0.044904634 0.53041524 4278914573
0.42206529 -0.04420881 0.5304082 4278848780
0.42197126 -0.043570042 0.53040403 4278652173
0.42187634 -0.042930037 0.5303998 4278652173
0.42169985 -0.042347893 0.53039843 4278782989
0.42152274 -0.0417649 0.53039706 4278782989
0.42126465 -0.041240647 0.53039849 4278717196
0.42092603 -0.040775731 0.53040266 4278782989
0.42042732 -0.040430754 0.5304125 4278652175
0.42000911 -0.040026456 0.53041947 4278586380
0.41943169 -0.039743334 0.53043205 4278717447
0.41885522 -0.039461493 0.53044462 4278914826
0.41820019 -0.039241716 0.53046 4279834899
0.41746712 -0.039084628 0.53047806 4280229659
0.41673553 -0.038929626 0.53049618 4280492059
0.41600549 -0.03877674 0.53051424 4280820763
0.41519815 -0.038687587 0.5305351 4280952349
0.41447133 -0.038539082 0.5305531 4281083935
0.413746 -0.038392693 0.5305711 4281742117
0.41302222 -0.038248375 0.5305891 4282070310
0.41245639 -0.037981182 0.53060156 4282201898
0.41189149 -0.037715241 0.53061396 4282333736
0.41132751 -0.037450582 0.53062636 4282794283
0.41076446 -0.037187144 0.53063875 4282860076
0.41035753 -0.036798343 0.53064567 4283122735
0.40995091 -0.036409929 0.53065252 4283385909
0.40954462 -0.036021948 0.53065938 4283517497
0.42291185 -0.017848134 0.53010702 4279439371
0.42262602 -0.017285764 0.53010875 4279176975
0.42241549 -0.01665692 0.5301078 4279243540
0.42220438 -0.016027242 0.53010684 4279243540
0.42206794 -0.01533027 0.53010315 4279111956
0.42200577 -0.014565334 0.53009677 4279308557
0.42194241 -0.013798758 0.53009039 4279112205
0.42187783 -0.013030484 0.53008401 4279177998
0.42188674 -0.012193233 0.53007495 4279243021
0.42189413 -0.011353895 0.53006589 4279112203
0.42189997 -0.010512456 0.53005683 4279177226
0.42183006 -0.0097368509 0.53005052 4279045640
0.4216848 -0.0090277344 0.53004694 4279045640
0.42161256 -0.0082489848 0.53004068 4278979847
0.42139152 -0.0076057017 0.53003985 4278913803
0.42116988 -0.0069615692 0.53003901 4278848780
0.42094761 -0.0063166022 0.53003818 4278848780
0.42057803 -0.005809173 0.53004283 4278914056
0.42013526 -0.0053711534 0.5300501 4278848263
0.4196198 -0.0050031245 0.53006011 4278914056
0.41903201 -0.0047057867 0.53007281 4278914054
0.41844514 -0.0044097006 0.5300855 4278914054
0.4178592 -0.0041148663 0.5300982 4279308557
0.4173466 -0.0037508458 0.53010821 4279900176
0.41661778 -0.0035996139 0.53012627 4280097553
0.41581836 -0.003521353 0.53014696 4280624415
0.41516471 -0.0033034533 0.53016227 4280428833
0.41444045 -0.0031585246 0.53018028 4280560419
0.41371775 -0.0030156672 0.53019828 4281085475
0.41313958 -0.0027315319 0.53021085 4281282595
0.41249096 -0.0025205314 0.53022611 4281546019
0.4119148 -0.0022391081 0.53023869 4281939748
0.41133952 -0.0019589365 0.53025126 4282071334
0.41069427 -0.0017525554 0.53026646 4282531381
0.41019171 -0.0014023483 0.5302763 4282925369
0.40976042 -0.00098003447 0.53028351 4283056953
0.40918851 -0.0007044524 0.53029597 4283714110
0.40882838 -0.00021001697 0.5303005 4283714876
0.40860856 0.00043159723 0.53029966 4283846462
0.47364563 -0.10076597 0.53020865 4280886819
0.4727934 -0.10044532 0.53022695 4280031510
0.47204307 -0.10009463 0.53024244 4279374356
0.47129393 -0.099745631 0.53025794 4279045391
0.47044599 -0.099430829 0.53027618 4279045640
0.46979934 -0.099052638 0.53028882 4278979847
0.46885443 -0.098774582 0.5303098 4279045894
0.46821004 -0.098399527 0.53032243 4279045892
0.42761159 -0.1009295 0.53135502 4280361249
0.42722267 -0.10056539 0.5313614 4280624421
0.42692995 -0.10016352 0.53136504 4279769108
0.42663729 -0.099761635 0.53136867 4279178250
0.42615336 -0.099436983 0.53137779 4279112457
0.42576551 -0.099074341 0.53138417 4278915596
0.42547327 -0.09867309 0.53138781 4278915343
0.42518103 -0.098271839 0.53139144 4278981138
0.42488879 -0.097870588 0.53139508 4278915594
0.42459655 -0.097469337 0.53139871 4278915594
0.42439902 -0.097028226 0.53139967 4279112203
0.42410663 -0.096626759 0.5314033 4279112457
0.42381424 -0.096225299 0.53140694 4279046410
0.42352188 -0.095823839 0.53141057 4279112203
0.42332354 -0.095381677 0.53141153 4279046679
0.42312494 -0.094939083 0.53141248 4278981138
0.42292604 -0.094496071 0.53141344 4278981136
0.42282045 -0.094011322 0.53141165 4279112205
0.42262077 -0.093567275 0.5314126 4279046412
0.42251411 -0.093081057 0.53141087 4279046412
0.42240685 -0.09259399 0.53140914 4279112205
0.42220598 -0.092148274 0.5314101 4279242768
0.42209762 -0.091659755 0.53140837 4279242768
0.4219887 -0.091170385 0.5314067 4279242768
0.42197174 -0.090637378 0.53140229 4279243021
0.4219538 -0.09010312 0.53139788 4279243021
0.42184272 -0.08961083 0.53139621 4279374607
0.42182314 -0.089074269 0.53139186 4279243021
0.42180267 -0.088536449 0.53138751 4278979849
0.42178124 -0.087997377 0.53138316 4278782987
0.42175895 -0.087457046 0.53137881 4278848780
0.4217357 -0.086915456 0.53137451 4278914826
0.42180288 -0.086328149 0.53136754 4278914826
0.42186886 -0.085739151 0.53136057 4279112205
0.42193359 -0.085148484 0.53135365 4278914826
0.42190623 -0.084601238 0.53134936 4278914826
0.4219687 -0.084007442 0.53134245 4279045642
0.42193937 -0.08345747 0.53133821 4279112205
0.42199951 -0.082860515 0.5313313 4279046412
0.42196822 -0.082307838 0.53132713 4278914573
0.4220261 -0.081707738 0.53132021 4278914573
0.42199278 -0.081152335 0.53131604 4278915345
0.42204839 -0.080549106 0.53130919 4278915345
0.42210275 -0.079944186 0.53130239 4278981138
0.42206639 -0.079384595 0.53129822 4279176975
0.42211848 -0.078776538 0.53129148 4278914573
0.42216933 -0.07816682 0.53128469 4278914573
0.42221901 -0.077555418 0.53127789 4279046161
0.42226744 -0.07694234 0.53127116 4279177745
0.42231464 -0.076327585 0.53126442 4279046159
0.42227203 -0.075759403 0.53126037 4278914573
0.42231694 -0.075141504 0.5312537 4278914575
0.42236066 -0.074521944 0.53124702 4279045909
0.4224031 -0.0739007 0.53124034 4279111956
0.42244437 -0.073277771 0.53123367 4279046163
0.4224844 -0.072653189 0.53122705 4278981138
0.42252326 -0.072026916 0.53122038 4278915345
0.42256081 -0.071398973 0.53121382 4278981136
0.4225972 -0.070769355 0.5312072 4278981136
0.4226324 -0.070138045 0.53120065 4278783757
0.42266631 -0.069505081 0.53119403 4279046159
0.42261213 -0.068920985 0.53119016 4278915343
0.42264375 -0.068284869 0.5311836 4278981136
0.42258757 -0.067698047 0.53117967 4278981138
0.42261693 -0.067058802 0.53117317 4278914573
0.42264509 -0.066417865 0.53116667 4279046412
0.42267197 -0.06577526 0.53116024 4279046412
0.42269769 -0.065130986 0.53115374 4279046412
0.42272216 -0.064485021 0.5311473 4278915347
0.42283112 -0.063785173 0.5311383 4278783759
0.42285305 -0.063135646 0.53113186 4278783759
0.42287368 -0.062484466 0.53112549 4278915343
0.4228079 -0.061884448 0.53112167 4278915596
0.42282629 -0.061230123 0.53111529 4279046412
0.42284346 -0.060574107 0.53110898 4278915343
0.42277461 -0.059969902 0.53110522 4278915343
0.42278945 -0.059310749 0.5310989 4278915345
0.42271864 -0.058703832 0.53109515 4279046412
0.42273122 -0.058041543 0.53108889 4279046412
0.42274261 -0.057377577 0.53108257 4279046412
0.42275274 -0.056711935 0.53107631 4279178519
0.42276168 -0.056044616 0.53107005 4279047192
0.42276937 -0.055375628 0.5310638 4279046933
0.4226923 -0.054760121 0.53106016 4279178519
0.42278111 -0.054032616 0.5310514 4279047446
0.42278516 -0.053358592 0.5310452 4279112724
0.42278796 -0.052682899 0.53103906 4279177747
0.4227066 -0.052061535 0.53103542 4279177747
0.42262435 -0.05143889 0.53103185 4279506712
0.4225412 -0.050814994 0.53102827 4279703572
0.42253956 -0.050133243 0.53102219 4279242768
0.42245442 -0.04950662 0.53101861 4279242768
0.42245051 -0.048821732 0.53101254 4279045642
0.4223634 -0.048192382 0.53100902 4279243021
0.4224391 -0.047446877 0.53100038 4279243019
0.42243153 -0.046756938 0.53099436 4279177226
0.42242277 -0.046065331 0.53098834 4279177226
0.42241278 -0.045372054 0.53098232 4279045640
0.42240158 -0.044677079 0.5309763 4278717966
0.42238915 -0.043980464 0.53097034 4278783759
0.42229453 -0.043340862 0.53096688 4278717966
0.42211819 -0.042758927 0.53096604 4278652173
0.42202187 -0.042117029 0.53096259 4278652173
0.4217636 -0.041592553 0.53096431 4278652173
0.42142469 -0.04112722 0.53096855 4278586380
0.42100561 -0.040721655 0.53097528 4278586380
0.42066681 -0.04025653 0.53097951 4278652173
0.42008838 -0.039971948 0.53099132 4278717964
0.41951081 -0.039688632 0.53100312 4278914824
0.41885459 -0.039467171 0.53101742 4279309582
0.41819957 -0.039247379 0.53103173 4280295450
0.41754574 -0.039029256 0.53104603 4280361243
0.4167349 -0.038935259 0.53106534 4280295450
0.41600487 -0.038782358 0.53108215 4280755483
0.41527635 -0.038631544 0.5310989 4281018655
0.41454935 -0.03848283 0.53111559 4281216034
0.4139024 -0.038274139 0.53112984 4282071082
0.4132567 -0.038067102 0.53114402 4282333484
0.4126122 -0.037861779 0.53115821 4282202668
0.41204703 -0.037595406 0.53116983 4282335019
0.41156065 -0.037267402 0.53117895 4282795057
0.41107491 -0.036940232 0.53118807 4282860850
0.41066736 -0.036550581 0.53119469 4283189815
0.41010523 -0.036288396 0.53120631 4283255608
0.40993053 -0.03570877 0.53120542 4283386942
0.42313898 -0.01765734 0.5307138 4279242764
0.42292845 -0.017028511 0.53071338 4279177228
0.42271733 -0.016398832 0.53071296 4279177747
0.42250559 -0.015768319 0.53071249 4279243540
0.42236856 -0.015070498 0.53070962 4279046161
0.42230582 -0.014304757 0.53070426 4279112205
0.42231685 -0.013470456 0.53069645 4279047182
0.42225146 -0.012701154 0.53069109 4279047182
0.42225963 -0.011862874 0.53068334 4278915345
0.42226624 -0.011022493 0.53067559 4279046412
0.42219692 -0.010247737 0.53067029 4279046412
0.42220062 -0.0094033927 0.5306626 4278849033
0.42212874 -0.0086250752 0.53065735 4278979847
0.42190769 -0.0079817921 0.53065699 4279045640
0.42175984 -0.0072691143 0.53065425 4278783240
0.42146379 -0.0066927075 0.5306564 4278782987
0.42116737 -0.0061158687 0.53065854 4278782987
0.42079735 -0.0056078136 0.53066319 4278848010
0.42035416 -0.0051691681 0.53067023 4278848263
0.41976517 -0.0048701465 0.53068221 4278914056
0.41917706 -0.0045723617 0.53069413 4278979849
0.41851717 -0.0043458641 0.53070849 4279177228
0.41793108 -0.0040508062 0.53072041 4279899158
0.41734588 -0.0037570149 0.53073227 4280163094
0.41668937 -0.0035351366 0.53074664 4280492309
0.4158898 -0.0034566522 0.53076577 4280887069
0.415236 -0.0032385141 0.53078008 4280756258
0.41443977 -0.003164649 0.53079921 4280887844
0.41378874 -0.0029502809 0.53081346 4281151013
0.41321039 -0.002665922 0.53082532 4281676585
0.412633 -0.0023828149 0.53083712 4281742378
0.41198534 -0.0021730661 0.5308513 4282137134
0.41140988 -0.0018926859 0.53086311 4282334513
0.41090631 -0.0015410185 0.5308724 4282860346
0.41033256 -0.0012629181 0.53088421 4283056955
0.40983033 -0.00091312826 0.5308935 4283188026
0.40939915 -0.00049102306 0.53090042 4283779903
0.40910888 7.7441335e-05 0.5309025 4283846208
0.428193 -0.10122383 0.53184134 4280034337
0.42789972 -0.10082112 0.53184497 4280230433
0.42751032 -0.10045638 0.53185111 4280427042
0.42712122 -0.10009205 0.53185725 4279703313
0.42673248 -0.099728152 0.53186339 4279374348
0.42643964 -0.099326059 0.53186703 4279243273
0.42605132 -0.098962791 0.53187317 4279112205
0.42575863 -0.098560914 0.5318768 4279046412
0.42546594 -0.098159038 0.53188044 4279111954
0.42517322 -0.097757153 0.53188407 4279111954
0.4249754 -0.097315617 0.53188527 4278915596
0.42458785 -0.096953399 0.53189141 4279243019
0.42438972 -0.096511438 0.5318926 4279243019
0.42409688 -0.096109353 0.53189623 4279243019
0.42380401 -0.09570726 0.53189987 4279177226
0.42360526 -0.09526448 0.53190106 4279046933
0.42350012 -0.094780356 0.53189981 4278981136
0.42320681 -0.094377637 0.53190351 4278915343
0.42300713 -0.093933597 0.5319047 4279111952
0.42290065 -0.093447581 0.53190351 4279111952
0.42270023 -0.093002483 0.5319047 4279111952
0.42249948 -0.092556976 0.53190595 4279242768
0.42248446 -0.092026703 0.53190231 4279242768
0.42237568 -0.09153755 0.53190112 4279176975
0.4222663 -0.09104757 0.53189993 4279176975
0.42224884 -0.090513952 0.53189629 4279112205
0.42223048 -0.089979075 0.53189272 4279112205
0.4222112 -0.089442939 0.53188908 4279177998
0.42209893 -0.088948973 0.53188795 4279177228
0.42198598 -0.088454172 0.53188682 4278979849
0.42205608 -0.087870836 0.53188086 4278848780
0.42212492 -0.087285839 0.5318749 4278914573
0.42200959 -0.086787686 0.53187376 4278914573
0.42207634 -0.086199753 0.5318678 4278914573
0.42214185 -0.085610136 0.5318619 4279046159
0.42220613 -0.085018851 0.531856 4278914573
0.42217833 -0.084470987 0.53185248 4278849033
0.42224032 -0.083876565 0.53184664 4279045642
0.42221051 -0.083325982 0.53184319 4279112205
0.42227024 -0.082728416 0.53183734 4279046412
0.42223847 -0.082175098 0.53183389 4278914826
0.42229587 -0.081574395 0.53182811 4278914826
0.42235208 -0.080972016 0.53182226 4278915343
