# .PCD v0.7 - Point Cloud Data file format
VERSION 0.7
FIELDS x y z rgb
SIZE 4 4 4 4
TYPE F F F U
COUNT 1 1 1 1
WIDTH 1051
HEIGHT 1
VIEWPOINT 0 0 0 1 0 0 0
POINTS 1051
DATA ascii
0.41783729 -0.058354408 0.51622701 4278848782
0.41781917 -0.057667077 0.51590192 4278849033
0.41779956 -0.056977645 0.51557684 4278783240
0.41784316 -0.056243002 0.51518631 4278783238
0.41782033 -0.055549167 0.51486123 4278849033
0.41779599 -0.054853231 0.5145362 4278718217
0.41783443 -0.054111466 0.51414573 4278784010
0.41787106 -0.053367168 0.51375526 4278784010
0.41790587 -0.052620359 0.51336479 4278718215
0.41793883 -0.051871032 0.51297438 4278914824
0.41796997 -0.051119186 0.51258397 4278849031
0.41799927 -0.050364822 0.51219356 4278849031
0.41796339 -0.049652949 0.51186854 4278849031
0.41798919 -0.048893765 0.51147813 4278783238
0.41795009 -0.048177488 0.51115316 4278783238
0.41797242 -0.047413483 0.51076281 4278586629
0.41786733 -0.046738625 0.51050323 4278652422
0.41782367 -0.04601606 0.51017833 4278652424
0.41759101 -0.045430169 0.51004958 4278586631
0.41748244 -0.044750497 0.50979006 4278717447
0.41724825 -0.044162512 0.50966138 4278782468
0.41695142 -0.043620579 0.50959808 4278980101
0.41653055 -0.043172419 0.50966561 4279639051
0.4160482 -0.042771988 0.50979853 4280099602
0.41556647 -0.042372406 0.50993145 4280757530
0.41502392 -0.042021386 0.51012981 4281415460
0.41442102 -0.041719556 0.5103935 4281808421
0.41369709 -0.041515715 0.51078796 4282530348
0.47889104 -0.11036813 0.50088489 4282729525
0.47842792 -0.10986196 0.50095248 4283191355
0.47788197 -0.1093742 0.50108534 4283388734
0.47741961 -0.10886908 0.50115287 4280756762
0.47679189 -0.10840122 0.501351 4279900951
0.47624779 -0.10791598 0.50148386 4279506963
0.47578681 -0.10741274 0.50155139 4279506710
0.47540846 -0.10689084 0.50155365 4279572503
0.4748657 -0.10640751 0.50168645 4279309331
0.47432357 -0.10592499 0.50181925 4279374859
0.42547593 -0.10329201 0.5337373 4279637528
0.42517242 -0.10287332 0.53373909 4279506712
0.42494625 -0.10242863 0.53367555 4279309335
0.42464256 -0.10200973 0.5336774 4279178515
0.42433891 -0.10159083 0.53367919 4279244561
0.42411214 -0.10114531 0.53361571 4279178768
0.42380834 -0.1007262 0.5336175 4279309582
0.42358109 -0.10028005 0.53355402 4279178515
0.42335355 -0.099833488 0.53349054 4279178269
0.42320201 -0.099359035 0.53336179 4279178269
0.42297369 -0.09891142 0.53329831 4279112726
0.4228211 -0.098435506 0.53316963 4279243540
0.42266786 -0.097958758 0.53304088 4279309333
0.42251402 -0.097481169 0.53291214 4279243540
0.42235959 -0.097002745 0.53278345 4279309333
0.42220452 -0.096523464 0.5326547 4279440400
0.42212409 -0.096014433 0.53246075 4279243791
0.42196769 -0.095533282 0.53233206 4279309584
0.42188555 -0.095021933 0.53213805 4279309584
0.42172778 -0.094538897 0.53200936 4278981651
0.42156938 -0.094055012 0.53188068 4279113237
0.42148483 -0.093540311 0.53168672 4279113235
0.42139935 -0.093024358 0.53149277 4278915856
0.42123884 -0.092537537 0.53136408 4278652684
0.4210777 -0.092049874 0.53123546 4278783757
0.42106366 -0.091499746 0.53097624 4278783759
0.420901 -0.091009989 0.53084755 4278915343
0.42088485 -0.090456933 0.53058839 4278717964
0.42079407 -0.089933634 0.53039449 4278784010
0.42062911 -0.089440733 0.53026581 4278784010
0.42053664 -0.088915125 0.53007191 4278784010
0.4204433 -0.088388264 0.52987802 4278784010
0.420349 -0.087860137 0.52968413 4278849033
0.42032647 -0.087298267 0.52942502 4278849033
0.42023021 -0.08676742 0.52923113 4278848782
0.42020535 -0.086202398 0.52897203 4278914575
0.42010713 -0.085668817 0.5287782 4278652171
0.42000797 -0.085133992 0.5285843 4278783759
0.41997981 -0.084564358 0.5283252 4279046412
0.41987866 -0.084026791 0.52813137 4279046412
0.4198482 -0.083454013 0.52787226 4278914824
0.41981652 -0.082879558 0.52761316 4278717966
0.41978365 -0.08230342 0.52735412 4278652434
0.41967839 -0.081760198 0.52716029 4278849813
0.41957226 -0.081215709 0.52696645 4278652686
0.41953602 -0.080634952 0.52670741 4278717964
0.41956922 -0.080017313 0.52638316 4278783757
0.41945988 -0.079468429 0.52618933 4278783757
0.41949034 -0.078847006 0.52586508 4278783759
0.41937888 -0.078295171 0.5256713 4278652684
0.41933656 -0.077706039 0.52541232 4278783757
0.41929299 -0.077115215 0.52515328 4278915343
0.41924822 -0.076522723 0.5248943 4278914573
0.41920227 -0.075928539 0.52463531 4278849033
0.41915509 -0.075332694 0.52437633 4278914575
0.4190374 -0.074772261 0.52418256 4278914575
0.41898793 -0.074173257 0.52392364 4278848780
0.41893721 -0.073572591 0.52366465 4278849033
0.41881651 -0.073007964 0.52347088 4278784262
0.41883218 -0.072366193 0.52314675 4278784262
0.41877785 -0.071760476 0.52288783 4279111176
0.41872227 -0.071153089 0.52262884 4278914824
0.41859731 -0.070582591 0.52243519 4278850316
0.4184714 -0.070010841 0.52224147 4278850316
0.41841251 -0.069398835 0.52198255 4278586891
0.4182846 -0.068824351 0.52178884 4278717964
0.41822344 -0.068209201 0.52152991 4278915345
0.41816103 -0.067592375 0.52127105 4278784010
0.41816473 -0.066934034 0.52094698 4278784010
0.41809973 -0.066313632 0.52068806 4278849033
0.41810054 -0.065651305 0.52036399 4278717964
0.41809982 -0.064986877 0.52003992 4278717964
0.41809762 -0.064320356 0.51971585 4278718730
0.41809386 -0.063651733 0.51939178 4278850065
0.41808856 -0.062981017 0.51906776 4278782987
0.41808179 -0.0623082 0.51874369 4278782987
0.41807348 -0.061633296 0.51841968 4278782987
0.41799766 -0.060998008 0.51816088 4278914573
0.41798648 -0.060319103 0.51783687 4278914826
0.41797376 -0.059638113 0.51751286 4278914826
0.41789401 -0.058997363 0.51725405 4279046159
0.41787839 -0.058312386 0.5169301 4278914575
0.41786128 -0.057625294 0.51660609 4278849033
0.41784263 -0.056936122 0.51628214 4278783240
0.41782242 -0.05624485 0.51595819 4278718215
0.41786546 -0.055508077 0.51556903 4278783507
0.41784209 -0.054812402 0.51524508 4278915343
0.41781721 -0.054114625 0.51492119 4278717964
0.41785505 -0.053370714 0.51453203 4278783757
0.41789109 -0.0526243 0.51414293 4278718217
0.4179253 -0.051875353 0.51375383 4278914824
0.41789389 -0.051168561 0.51342994 4278849031
0.41792458 -0.050414793 0.5130409 4278849285
0.41788995 -0.049703598 0.51271701 4278849285
0.41791719 -0.04894501 0.51232797 4278652422
0.41781616 -0.048274897 0.51206928 4278586629
0.41777697 -0.047557399 0.51174545 4278586631
0.41773626 -0.046837814 0.51142162 4278586378
0.41763127 -0.046162248 0.511163 4278914056
0.41752511 -0.045485005 0.51090431 4278914056
0.41735524 -0.044852629 0.5107109 4278717447
0.41712219 -0.044265747 0.51058263 4278782470
0.41682637 -0.043724999 0.51051956 4278913797
0.41646826 -0.043231003 0.51052165 4279374855
0.41598648 -0.042831771 0.51065415 4279966992
0.41556701 -0.042385787 0.51072145 4280560153
0.41496325 -0.042083636 0.51098424 4281217311
0.41442204 -0.04173515 0.51118189 4281872931
0.41375935 -0.041484363 0.5115099 4282333482
0.41267061 -0.041574717 0.51229405 4282531115
0.47906971 -0.11019815 0.50151116 4282400047
0.47860661 -0.10969223 0.50157845 4283322684
0.47814384 -0.10918677 0.5016458 4283256891
0.47759831 -0.1087 0.50177824 4280690460
0.47713625 -0.10819557 0.50184554 4280229657
0.4765918 -0.10771026 0.50197792 4279506961
0.47604793 -0.10722584 0.5021103 4279506712
0.47566959 -0.10670394 0.50211251 4279572505
0.47512662 -0.10622074 0.50224495 4279309333
0.42576319 -0.10311641 0.53412062 4279375128
0.4254595 -0.10269751 0.53412241 4279506712
0.42515585 -0.10227861 0.5341242 4279309333
0.42477489 -0.10188599 0.53419101 4279309331
0.42454851 -0.1014408 0.53412777 4279244559
0.42432186 -0.10099521 0.53406453 4279244559
0.42401803 -0.1005761 0.53406632 4279440400
0.42379093 -0.10012987 0.53400308 4279309331
0.42356348 -0.09968324 0.53393984 4279178269
0.42341214 -0.099208638 0.53381157 4279178269
0.42326018 -0.098733209 0.53368324 4279178519
0.42310762 -0.098256931 0.53355497 4279309333
0.42295444 -0.097779818 0.5334267 4279309331
0.42280066 -0.097301871 0.53329843 4279177745
0.42264628 -0.096823081 0.53317016 4279309331
0.42249131 -0.09634345 0.53304189 4279440400
0.42233568 -0.095862985 0.53291363 4279243791
0.4221043 -0.095410883 0.53285038 4279375377
0.42202264 -0.094899528 0.53265715 4279309584
0.42194009 -0.09438692 0.53246379 4279047444
0.4217819 -0.093902878 0.53233558 4279113237
0.42169768 -0.093387961 0.53214228 4279113235
0.42161253 -0.092871778 0.53194904 4278915856
0.42145222 -0.092384808 0.53182077 4278521098
0.42136538 -0.091866314 0.53162754 4278717964
0.42127767 -0.091346577 0.5314343 4278783759
0.42118901 -0.090825558 0.53124106 4278850065
0.42109948 -0.090303302 0.53104782 4278652686
0.421009 -0.089779779 0.53085458 4278718730
0.42084429 -0.08928673 0.53072631 4278784008
0.42075214 -0.088760898 0.53053313 4278849033
0.42065907 -0.088233806 0.5303399 4278914826
0.42056513 -0.087705456 0.53014672 4278848780
0.42054299 -0.087143287 0.52988845 4278849033
0.42044705 -0.08661221 0.52969527 4278848780
0.42042261 -0.086046889 0.52943707 4278914573
0.42032471 -0.085513085 0.52924383 4278782989
0.42022586 -0.084978029 0.52905065 4278783759
0.42019811 -0.084408097 0.5287925 4279045642
0.42009729 -0.083870307 0.52859926 4279177228
0.42006725 -0.08329723 0.52834111 4279046410
0.42003599 -0.08272247 0.52808291 4278717966
0.42000353 -0.082146034 0.52782476 4278652434
0.4198986 -0.081602588 0.52763164 4278718227
0.41979277 -0.081057876 0.52743846 4278652686
0.41975695 -0.08047682 0.52718031 4278848780
0.41979069 -0.079858795 0.52685714 4278717964
0.41968167 -0.079309687 0.52666402 4278783757
0.41964218 -0.078723602 0.52640593 4278718481
0.4196015 -0.078135833 0.52614778 4278652686
0.41948944 -0.077582531 0.52595466 4278717964
0.41944647 -0.076991618 0.52569658 4278915343
0.41940227 -0.076399028 0.52543843 4279045642
0.41942656 -0.075767994 0.52511537 4278849033
0.41931027 -0.075208813 0.52492225 4278914577
0.41926241 -0.074611194 0.52466422 4278914577
0.41914412 -0.074049287 0.52447116 4278914575
0.41902491 -0.07348612 0.52427804 4278718217
0.41897374 -0.072883874 0.52402002 4278718469
0.41899014 -0.072241947 0.52369696 4278784262
0.41893637 -0.07163614 0.52343893 4279177226
0.41881287 -0.071067095 0.52324587 4279112203
0.41868851 -0.070496798 0.52305281 4278915596
0.4186314 -0.069886379 0.52279484 4279047182
0.41850501 -0.069313347 0.52260178 4278652171
0.41844565 -0.068699785 0.52234375 4278915343
0.41838503 -0.068084538 0.52208579 4278915343
0.41832322 -0.067467622 0.52182782 4278783757
0.41826016 -0.066849016 0.52156979 4278783757
0.4181959 -0.066228747 0.52131182 4278914826
0.41819757 -0.065566458 0.52098882 4278784010
0.41819769 -0.064902082 0.52066588 4278652424
0.41819626 -0.064235613 0.52034295 4278718217
0.41819334 -0.063567027 0.52002001 4278652688
0.41812238 -0.06293752 0.51976204 4278782987
0.41811657 -0.062264957 0.51943916 4278914573
0.41810924 -0.061590299 0.51911628 4278782987
0.41810036 -0.060913533 0.51879334 4278848780
0.41808999 -0.060234688 0.51847047 4278914826
0.41801238 -0.05959595 0.51821256 4279177745
0.41799909 -0.058913112 0.51788968 4279111952
0.41791886 -0.058270805 0.51763177 4278914573
0.41790271 -0.05758398 0.51730895 4278783240
0.41788504 -0.056895055 0.51698607 4278717964
0.41786584 -0.056204036 0.51666325 4278783757
0.41784513 -0.055510923 0.51634043 4278915095
0.41788757 -0.054772019 0.51595265 4278915347
0.41786367 -0.054074496 0.51562983 4278717966
0.41790259 -0.053330772 0.51524204 4278717966
0.4178755 -0.052628838 0.51491928 4278784010
0.41791093 -0.051880293 0.51453149 4278784008
0.41788065 -0.051173955 0.51420873 4278718215
0.41784883 -0.050465524 0.51388597 4278915078
0.41781551 -0.049754992 0.51356322 4278783492
0.41778064 -0.049042366 0.51324046 4278717699
0.41774428 -0.04832764 0.51291776 4278717699
0.41770637 -0.047610819 0.512595 4278586378
0.41766694 -0.046891898 0.5122723 4278586380
0.41756314 -0.046217084 0.51201457 4278848263
0.41745812 -0.045540594 0.51175678 4278848263
0.41728935 -0.044909038 0.51156402 4278848263
0.41711968 -0.044276223 0.51137125 4278848006
0.41682458 -0.043736234 0.51130843 4278848004
0.41646707 -0.04324308 0.51131052 4279309064
0.41604763 -0.042797379 0.51137757 4279769615
0.41550493 -0.04244744 0.51157457 4280494106
0.41496313 -0.042098761 0.51177156 4281085725
0.41442224 -0.04175134 0.51196849 4281742115
0.41388229 -0.041405171 0.51216543 4282005287
0.41328204 -0.04110878 0.51242733 4282334252
0.41256094 -0.040911496 0.51281917 4282334252
0.47933179 -0.11001056 0.5020721 4282400560
0.4788686 -0.10950472 0.50213921 4283584832
0.47832239 -0.10901751 0.50227118 4282466351
0.47777677 -0.1085311 0.50240314 4280557591
0.4773148 -0.10802694 0.5024702 4279769114
0.47677025 -0.10754201 0.5026021 4279244308
0.47630906 -0.10703892 0.50266922 4279244308
0.47584817 -0.10653623 0.50273633 4279244308
0.47530514 -0.1060534 0.50286824 4279244310
0.42605066 -0.10294066 0.53450441 4279440400
0.42574683 -0.10252155 0.5345062 4279506963
0.42536545 -0.10212858 0.53457284 4279309331
0.42506176 -0.10170968 0.53457463 4279375377
0.42475814 -0.10129078 0.53457642 4279244559
0.42453158 -0.10084511 0.53451335 4279178766
0.42422774 -0.100426 0.53451514 4279440398
0.42400074 -0.099979699 0.53445214 4279309331
0.42377341 -0.099532992 0.53438914 4279505944
0.42362225 -0.099058241 0.53426129 4279440151
0.42347053 -0.098582655 0.53413343 4279243542
0.42331818 -0.098106235 0.53400564 4279244312
0.4231652 -0.097628966 0.53387779 4279309584
0.42308754 -0.097122431 0.53368515 4279309584
0.42285746 -0.096671931 0.53362215 4279375377
0.42270267 -0.096192151 0.53349429 4279440398
0.42254728 -0.095711529 0.5333665 4279177996
0.4223913 -0.095230073 0.53323871 4279309582
0.42223465 -0.094747774 0.53311086 4279309582
0.42215243 -0.094234943 0.53291827 4279113235
0.42199445 -0.093750753 0.53279048 4279309331
0.42191052 -0.093235612 0.5325979 4279178517
0.42182571 -0.092719197 0.53240526 4278915345
0.42166561 -0.092232078 0.53227746 4278586631
0.42157909 -0.091713369 0.53208494 4278979847
0.42149168 -0.091193393 0.5318923 4278783757
0.42140335 -0.090672158 0.53169978 4278915347
0.42131412 -0.090149671 0.53150719 4278783761
0.42122397 -0.089625925 0.53131461 4278915856
0.42105943 -0.089132726 0.53118688 4278784008
0.42096764 -0.088606663 0.5309943 4278849031
0.42087489 -0.088079348 0.53080177 4278849031
0.42078125 -0.087550774 0.53060925 4278914826
0.4207595 -0.0869883 0.53035188 4278914826
0.42066389 -0.086456999 0.53015935 4278914573
0.42063987 -0.085891381 0.52990204 4278914573
0.4205423 -0.085357353 0.52970952 4278915347
0.42044377 -0.084822074 0.52951699 4278718481
0.42041641 -0.084251836 0.52925974 4278979849
0.42031592 -0.083713822 0.52906722 4278979849
0.4202863 -0.083140448 0.52880991 4278979849
0.42025548 -0.082565382 0.52855265 4278848780
0.42015192 -0.082023174 0.52836013 4278783761
0.42011881 -0.081444979 0.52810287 4278783761
0.42001331 -0.080900036 0.52791041 4278783759
0.4199779 -0.080318682 0.52765316 4278783759
0.41994128 -0.079735659 0.52739596 4278717966
0.41990346 -0.079150945 0.52713871 4278717966
0.41979381 -0.078600347 0.52694625 4278718481
0.4197537 -0.078012496 0.52668905 4278586895
0.41971236 -0.077422962 0.5264318 4278652686
0.41959971 -0.076868169 0.5262394 4278718479
0.41955608 -0.076275483 0.52598214 4278914826
0.41958106 -0.075644299 0.52566022 4278783240
0.41953486 -0.075048044 0.52540302 4278848780
0.41941795 -0.074487381 0.52521062 4278914573
0.41930014 -0.073925458 0.52501822 4279046159
0.41918138 -0.073362269 0.52482581 4278718728
0.41913077 -0.072759941 0.52456868 4278653189
0.41914782 -0.072117843 0.52424675 4278718982
0.41909462 -0.071511954 0.52398956 4278915078
0.41897166 -0.070942886 0.52379721 4279112203
0.41884774 -0.070372581 0.52360487 4278783757
0.41879117 -0.069762066 0.52334774 4278981136
0.41866532 -0.06918902 0.52315533 4278652173
0.41860649 -0.068575367 0.52289826 4278915345
0.41854644 -0.067960031 0.52264118 4278914573
0.41848519 -0.067343019 0.52238405 4278914573
0.41842273 -0.06672433 0.52212697 4278914573
0.41835904 -0.066103965 0.5218699 4278979849
0.41829413 -0.065481916 0.52161282 4279046412
0.41829509 -0.064817578 0.52129102 4278521098
0.41829449 -0.064151146 0.52096915 4278586891
0.4182924 -0.063482612 0.52064735 4278652684
0.41828877 -0.062811978 0.52032554 4278783757
0.41821718 -0.062180705 0.52006853 4278848780
0.41821069 -0.061506085 0.51974672 4278782987
0.41813651 -0.060871251 0.51948971 4279046412
0.41812709 -0.060192652 0.5191679 4278718215
0.41811621 -0.059511952 0.51884615 4279112205
0.41803807 -0.058871657 0.51858914 4279112205
0.41802424 -0.058186963 0.51826739 4278914573
0.41800892 -0.057500184 0.51794571 4278717964
0.41799206 -0.056811303 0.51762396 4278850065
0.41790861 -0.056163676 0.51736701 4278718479
0.41795382 -0.055427253 0.51698053 4278717714
0.41786763 -0.054775849 0.51672357 4278848782
0.4179095 -0.054034814 0.51633716 4278717966
0.41788504 -0.053335443 0.51601547 4278783759
0.41785908 -0.052633986 0.51569378 4278915343
0.41789576 -0.051885821 0.51530743 4278915596
0.41786659 -0.051179953 0.51498574 4278784262
0.41783592 -0.050471976 0.51466411 4278784262
0.4178037 -0.049761914 0.51434243 4278717699
0.41770643 -0.049095184 0.51408559 4278783238
0.41773474 -0.048335493 0.51369923 4278652422
0.41769797 -0.047619134 0.51337761 4278586629
0.41759658 -0.046946734 0.51312077 4278652171
0.41755691 -0.046226397 0.51279914 4278717447
0.41739011 -0.045596927 0.51260704 4278848263
0.41728508 -0.044919506 0.5123502 4278782470
0.41705382 -0.044334218 0.51222283 4278782470
0.41675958 -0.043795198 0.51216018 4278848006
0.41640285 -0.043303087 0.51216233 4278979849
0.41598403 -0.042858511 0.51222914 4279308814
0.41550368 -0.042462103 0.51236069 4280100120
0.41502392 -0.042066529 0.5124923 4281085727
0.41442159 -0.041768126 0.51275331 4281545251
0.41394335 -0.041374661 0.51288486 4281874214
0.41334313 -0.041079178 0.5131458 4282071080
0.41274416 -0.040785395 0.51340687 4282071080
0.4795101 -0.10984079 0.50269765 4282729271
0.47904697 -0.10933526 0.50276452 4283059258
0.47850069 -0.10884838 0.50289607 4281874984
0.47803831 -0.10834388 0.50296295 4280164118
0.47749311 -0.10785846 0.50309443 4279703323
0.47694853 -0.10737391 0.50322592 4279375124
0.47648737 -0.10687109 0.50329274 4279375124
0.47594383 -0.10638797 0.50342423 4279309331
0.47548342 -0.10588623 0.5034911 4279178265
0.42679852 -0.10313293 0.53475767 4279440400
0.42633832 -0.10276477 0.53488863 4279374607
0.42603433 -0.10234545 0.53489041 4279506191
0.42573038 -0.10192613 0.5348922 4279243538
0.42542642 -0.10150681 0.53489399 4279309584
0.42504507 -0.10111412 0.53496039 4279244813
0.42474127 -0.10069501 0.53496218 4279113227
0.4245145 -0.10024885 0.53489941 4279112973
0.42428744 -0.099802271 0.53483659 4279309335
0.42406005 -0.099355265 0.53477383 4279505683
0.42390898 -0.098880157 0.53464639 4279505683
0.42375731 -0.098404214 0.53451902 4279439890
0.42360502 -0.097927436 0.53439164 4279244310
0.42345208 -0.097449809 0.53426427 4279309582
0.4232986 -0.096971348 0.53413689 4279440398
0.42306864 -0.096520782 0.53407413 4279506191
0.42291409 -0.096040845 0.53394675 4279505934
0.42275888 -0.095560074 0.53381938 4279374605
0.42252773 -0.095107839 0.53375661 4279309582
0.4224467 -0.094596028 0.53356469 4279309582
0.42228967 -0.094112739 0.53343731 4279244308
0.422207 -0.093598627 0.53324538 4279178517
0.42212337 -0.093083255 0.53305346 4279309335
0.42203885 -0.092566624 0.53286153 4279046163
0.42187899 -0.092079349 0.53273422 4278717447
0.42179281 -0.091560408 0.53254229 4278849031
0.42170569 -0.091040209 0.53235036 4278915594
0.42161769 -0.09051875 0.53215849 4278784010
0.42160261 -0.089964584 0.53190202 4278718217
0.42143893 -0.08947207 0.5317747 4278915596
0.42134815 -0.088946834 0.53158283 4278718217
0.42125648 -0.088420346 0.53139091 4278784010
0.42109066 -0.08792489 0.53126365 4278981389
0.42107046 -0.087363586 0.53100717 4278915596
0.42097604 -0.086833321 0.53081536 4278915343
0.42095351 -0.086268865 0.53055888 4278914575
0.42092979 -0.085702747 0.53030252 4278848782
0.42083234 -0.08516828 0.53011066 4278915345
0.42073399 -0.084632561 0.52991879 4278718479
0.42063475 -0.084095582 0.52972698 4278783759
0.42053455 -0.083557338 0.52953517 4278783759
0.42050534 -0.082983658 0.52927876 4278849033
0.42047495 -0.082408294 0.5290224 4279045383
0.42037171 -0.081865862 0.52883053 4278849031
0.42033902 -0.081287369 0.52857423 4278849031
0.42016256 -0.08077722 0.52844697 4278915343
0.42012772 -0.080195777 0.52819061 4278850065
0.42009166 -0.079612665 0.52793425 4278717964
0.42005441 -0.079027861 0.52767789 4278783757
0.42001593 -0.078441381 0.52742159 4278652686
0.41990569 -0.077889308 0.52722985 4278586895
0.41986492 -0.077299684 0.52697349 4278652688
0.41982293 -0.076708376 0.52671719 4278652688
0.41970971 -0.076152101 0.52652544 4279046161
0.41973534 -0.075520739 0.52620459 4278718477
0.41968971 -0.074924402 0.52594829 4278652171
0.41957325 -0.074363723 0.5257566 4278717964
0.41945589 -0.073801786 0.52556485 4278784010
0.41940695 -0.073200829 0.52530855 4278784008
0.41928759 -0.072636165 0.52511686 4278784262
0.41930532 -0.071993895 0.52479607 4278784262
0.41925272 -0.071387909 0.52453983 4278915078
0.41919887 -0.070780247 0.52428353 4279046410
0.41907528 -0.070209712 0.5240919 4278784010
0.4189508 -0.06963791 0.52390021 4278783759
0.41889361 -0.069025621 0.52364397 4278717966
0.41883519 -0.068411678 0.52338779 4278783759
0.41877556 -0.067796037 0.52313155 4279045389
0.41871473 -0.067178726 0.52287537 4279112205
0.41858506 -0.066599794 0.52268368 4278914826
0.41852194 -0.065979339 0.5224275 4278979849
0.41839027 -0.065397672 0.52223587 4278914826
0.41839206 -0.064733386 0.5219152 4278586380
0.4183923 -0.064066991 0.52159446 4278652173
0.41839105 -0.063398495 0.52127379 4278652684
0.41838825 -0.062727913 0.52095306 4278915343
0.41831738 -0.06209676 0.52069694 4278979596
0.41824532 -0.061463922 0.52044082 4278913803
0.4183045 -0.060745522 0.52005565 4279045642
0.4182958 -0.060066745 0.51973498 4278849031
0.4182196 -0.059428252 0.51947886 4279046410
0.418208 -0.058745496 0.51915824 4279046410
0.41812921 -0.058103442 0.51890218 4278915596
0.41811472 -0.0574167 0.51858151 4278784010
0.41809869 -0.056727864 0.51826096 4278652686
0.41808116 -0.056036934 0.51794034 4278586893
0.41806212 -0.055343896 0.51761973 4278717968
0.41797662 -0.054692604 0.51736367 4278979596
0.41795468 -0.053995579 0.51704311 4278914573
0.4179312 -0.053296469 0.51672256 4278914573
0.41790622 -0.052595258 0.51640201 4278784010
0.41787973 -0.051891953 0.51608145 4278783757
0.41785169 -0.051186539 0.51576096 4278783238
0.41782212 -0.05047904 0.5154404 4278849031
0.41779107 -0.049769446 0.51511991 4278717445
0.41769481 -0.049103245 0.51486391 4278783240
0.41766083 -0.048389666 0.51454341 4278717445
0.41762537 -0.04767397 0.51422292 4278717445
0.41758835 -0.046956196 0.51390243 4278717447
0.41748679 -0.046282656 0.51364648 4278717447
0.41738397 -0.045607463 0.51339054 4278717445
0.4172172 -0.044977337 0.51319909 4278717445
0.4170495 -0.044345967 0.51300764 4278848261
0.41675597 -0.043807708 0.51294523 4278716677
0.41646215 -0.043269046 0.51288283 4278848263
0.41604376 -0.04282517 0.51294947 4279506191
0.41556361 -0.042429544 0.5130806 4280164121
0.41502225 -0.042082779 0.51327622 4280756510
0.41454348 -0.041689046 0.51340729 4281149726
0.41394225 -0.041393027 0.5136674 4282004519
0.41340363 -0.041050047 0.51386297 4282201637
0.41268218 -0.040854923 0.51425207 4282135844
0.47968823 -0.10967118 0.50332278 4282730043
0.47914144 -0.10918403 0.50345385 4282730293
0.47867882 -0.10867941 0.50352049 4281414433
0.47813311 -0.10819372 0.5036515 4279901203
0.477588 -0.10770889 0.50378257 4279572505
0.4771266 -0.10720593 0.50384921 4279375124
0.47658253 -0.10672256 0.50398028 4279309331
0.47612187 -0.10622066 0.50404692 4279309331
0.47566152 -0.10571918 0.5041135 4279178517
0.47520149 -0.10521813 0.50418013 4279177745
0.47482407 -0.10469749 0.50418234 4278981389
0.42708677 -0.10295694 0.53514278 4279440398
0.42670426 -0.10256287 0.53520894 4279374605
0.42639998 -0.10214312 0.53521073 4279506191
0.42601794 -0.10174967 0.53527689 4279309331
0.42571384 -0.10133015 0.53527874 4279309584
0.42533225 -0.10093731 0.53534484 4279244559
0.42502826 -0.10051799 0.53534669 4279112973
0.42480147 -0.10007155 0.5352841 4279309582
0.42449737 -0.099652022 0.53528589 4279309333
0.42434692 -0.09917739 0.53515893 4279505683
0.42419592 -0.098701924 0.53503203 4279505683
0.42404431 -0.098225623 0.53490508 4279440400
0.42389208 -0.097748473 0.53477812 4279309333
0.42366296 -0.097298883 0.53471559 4279178768
0.42350966 -0.096820273 0.53458869 4279375377
0.42327982 -0.096369632 0.53452611 4279375377
0.42312545 -0.095889546 0.53439915 4279440400
0.42297047 -0.095408626 0.53427225 4279374607
0.42273942 -0.094956309 0.53420973 4279375377
0.42265871 -0.094444275 0.53401846 4279243791
0.42250192 -0.093960837 0.53389156 4279244308
0.42241955 -0.093446493 0.53370029 4279178517
0.42233625 -0.092930898 0.53350902 4279243540
0.42225206 -0.092414044 0.5333178 4279046161
0.42209238 -0.091926619 0.53319091 4278717447
0.42200649 -0.091407456 0.53299963 4278849031
0.4219197 -0.090887032 0.53280842 4278981387
0.42190611 -0.090334028 0.53255284 4278915594
0.42181736 -0.089810878 0.53236163 4278718215
0.42172769 -0.089286469 0.53217041 4278784010
0.42163712 -0.088760793 0.5319792 4278718217
0.42147207 -0.088266045 0.53185236 4278784010
0.42137983 -0.087738059 0.53166115 4278981389
0.4213599 -0.087176241 0.53140563 4278981136
0.4212656 -0.086645544 0.53121442 4278981138
0.42124337 -0.086080581 0.53095889 4278914575
0.42114717 -0.085547164 0.53076774 4278848782
0.42105004 -0.085012466 0.53057659 4278783759
0.42095202 -0.084476523 0.53038538 4278783761
0.42085308 -0.083939321 0.53019422 4278783761
0.42075318 -0.083400853 0.53000307 4278915347
0.42072439 -0.082826875 0.52974761 4278914826
0.42069441 -0.082251213 0.52949214 4279045640
0.42059147 -0.08170855 0.52930099 4278849031
0.42048767 -0.081164643 0.52910984 4278849031
0.42038298 -0.080619462 0.52891874 4278850063
0.42034855 -0.080037713 0.52866328 4278850065
0.42031291 -0.079454303 0.52840781 4278914575
0.42020515 -0.078904927 0.52821672 4278914575
0.42016721 -0.078318357 0.52796125 4278717964
0.42012811 -0.077730119 0.52770585 4278718479
0.42008775 -0.077140197 0.52745044 4278652686
0.41997588 -0.076585151 0.52725935 4278652686
0.41993326 -0.075992085 0.52700394 4279046161
0.41988942 -0.075397335 0.52674854 4278718477
0.41984439 -0.074800909 0.52649313 4278718477
0.41979808 -0.074202806 0.52623773 4278652684
0.41961148 -0.073678255 0.52611101 4278915596
0.41956311 -0.073077209 0.52585566 4278981389
0.41951346 -0.072474495 0.52560031 4278784010
0.41946262 -0.071870096 0.52534497 4278784010
0.41941059 -0.071264021 0.52508962 4278914826
0.4193573 -0.070656262 0.52483428 4279046412
0.41930282 -0.070046842 0.52457893 4278784010
0.41917866 -0.069474809 0.5243879 4278915343
0.41905355 -0.068901524 0.52419686 4278717964
0.41899568 -0.068287477 0.52394158 4278717964
0.41893667 -0.067671753 0.52368629 4278979596
0.41887641 -0.067054346 0.52343094 4279046412
0.4188149 -0.06643527 0.52317566 4278914826
0.41875222 -0.06581451 0.52292037 4278849033
0.41862088 -0.06523262 0.5227294 4278914573
0.41855592 -0.064608708 0.52247417 4278652171
0.41848969 -0.063983135 0.52221888 4278717964
0.41848928 -0.063314691 0.52189928 4278717966
0.41848731 -0.062644154 0.52157974 4278915343
0.41841716 -0.062013105 0.52132452 4278848780
0.41841233 -0.061338581 0.52100497 4278717194
0.41833961 -0.06070397 0.52074969 4278914826
0.41833186 -0.060025468 0.52043021 4278849031
0.41832259 -0.059344858 0.52011073 4279177226
0.4183118 -0.058662146 0.51979119 4279177226
0.41823375 -0.058020204 0.51953596 4279046410
0.4182201 -0.057333507 0.51921648 4278784008
0.4182049 -0.056644715 0.518897 4278586895
0.41818821 -0.055953823 0.51857752 4278586895
0.41810483 -0.055304535 0.51832235 4278717968
0.41802025 -0.05465357 0.51806724 4278914573
0.41799927 -0.053956814 0.51774776 4278914573
0.4179768 -0.05325795 0.51742828 4278914573
0.41788822 -0.052601531 0.51717317 4278849033
0.41792721 -0.05185394 0.51678944 4278718217
0.4179002 -0.05114878 0.51647007 4278783240
0.41787159 -0.050441533 0.51615065 4278849033
0.4177776 -0.049777552 0.51589555 4278783240
0.41774613 -0.04906632 0.51557612 4278783240
0.41764954 -0.048398785 0.51532108 4278717445
0.41761518 -0.047683567 0.51500171 4278717445
0.41757932 -0.04696624 0.51468235 4278717445
0.41747874 -0.046293251 0.5144273 4278717445
0.417377 -0.045618579 0.5141722 4278717445
0.41721112 -0.044989087 0.51398146 4278717445
0.41698164 -0.044405378 0.51385498 4278651652
0.41675156 -0.043820836 0.5137285 4278716675
0.41645843 -0.043282926 0.51366633 4278848263
0.41604054 -0.042839974 0.51373267 4279308812
0.41562289 -0.042397432 0.51379907 4279900949
0.41508168 -0.042051531 0.51399404 4280756253
0.41466498 -0.041610248 0.51406038 4281149726
0.41406363 -0.041314967 0.5143196 4281938726
0.41352499 -0.04097262 0.51451451 4282070310
0.41280323 -0.040778369 0.51490223 4282070310
0.48066592 -0.10993607 0.50362432 4282466621
0.47986615 -0.10950173 0.50394744 4282993215
0.4792355 -0.10903312 0.50414222 4282073392
0.47877309 -0.10852897 0.50420868 4280889118
0.47822744 -0.10804388 0.50433922 4279769615
0.47768241 -0.1075596 0.50446987 4279506710
0.47722122 -0.10705714 0.50453627 4279375377
0.47667727 -0.10657434 0.50466681 4279243540
0.4762997 -0.10605349 0.50466907 4279309333
0.47575665 -0.10557195 0.50479966 4279112724
0.4752968 -0.10507139 0.50486606 4279243021
0.47491971 -0.10455117 0.50486827 4279177996
0.42783675 -0.10314992 0.53539824 4279440652
0.42745355 -0.10275507 0.53546423 4279506193
0.42707062 -0.10236065 0.53553015 4279440400
0.42676604 -0.10194048 0.535532 4279374605
0.42630571 -0.10157306 0.53566206 4279243789
0.42592376 -0.1011799 0.53572798 4279178515
0.42561963 -0.10076036 0.53572977 4279178768
0.4253155 -0.10034083 0.53573155 4279178768
0.4250114 -0.099921301 0.5357334 4279309836
0.42478436 -0.099474356 0.53567106 4279440400
0.42463404 -0.098999366 0.53554451 4279440400
0.42440626 -0.098551378 0.53548217 4279440400
0.42425483 -0.09807492 0.53535569 4279506193
0.42410284 -0.097597621 0.53522921 4279178519
0.4239502 -0.097119495 0.53510273 4279178515
0.42372072 -0.096669197 0.53504038 4279244308
0.42356706 -0.096189588 0.53491396 4279178515
0.42333686 -0.095738247 0.53485161 4279244308
0.42318207 -0.095257178 0.53472513 4279243791
0.4229511 -0.094804779 0.53466284 4279309584
0.42287073 -0.094292521 0.53447223 4279243791
0.42271414 -0.093808934 0.53434575 4279375377
0.4226321 -0.093294367 0.53415519 4279375124
0.4225491 -0.092778549 0.53396463 4279243538
0.42246521 -0.092261463 0.53377402 4278914573
0.42230573 -0.091773897 0.5336476 4278717447
0.42229474 -0.091223523 0.53339291 4278914308
0.42213371 -0.090733856 0.53326648 4278916107
0.42212057 -0.090180546 0.53301179 4278718728
0.42210618 -0.089625567 0.53275716 4278652684
0.42201668 -0.089100718 0.53256655 4278652684
0.42185247 -0.088606641 0.53244019 4278718217
0.42176127 -0.088079497 0.53224963 4278784010
0.42166919 -0.087551087 0.53205913 4278784010
0.42164949 -0.086988755 0.5318045 4279046412
0.42155543 -0.086457625 0.53161395 4279046159
0.42146045 -0.085925221 0.53142345 4278848782
0.42143738 -0.085358284 0.53116882 4278848782
0.42126772 -0.084856659 0.53104246 4278717964
0.42117 -0.084320486 0.53085196 4278652171
0.42107135 -0.08378306 0.53066146 4278783761
0.42104405 -0.083210245 0.53040689 4278783761
0.42094344 -0.082670093 0.5302164 4278849031
0.42091388 -0.082094125 0.52996182 4279045894
0.4208113 -0.081551239 0.52977139 4278849031
0.42070776 -0.081007108 0.52958095 4278849031
0.42060336 -0.080461696 0.52939045 4278915594
0.42056939 -0.079879656 0.52913594 4278718477
0.42053416 -0.079295933 0.52888137 4278849033
0.42042673 -0.078746334 0.52869093 4279046412
0.42038921 -0.078159466 0.52843642 4278914826
0.42035049 -0.07757093 0.52818185 4278850063
0.42024004 -0.077017128 0.52799141 4278717964
0.42019904 -0.076425433 0.5277369 4278717964
0.42015684 -0.075832069 0.52748239 4278914573
0.42004329 -0.07527408 0.52729201 4278783757
0.42006877 -0.074640289 0.52697343 4278718479
0.41995311 -0.074079379 0.52678305 4278718479
0.41983652 -0.073517188 0.52659267 4278915343
0.41971904 -0.072953746 0.52640229 4279046929
0.41966999 -0.072350942 0.52614784 4278718217
0.41961974 -0.071746446 0.52589333 4278718217
0.41956824 -0.071140282 0.52563894 4278784010
0.41958445 -0.070493698 0.52532035 4278784010
0.41953039 -0.069883972 0.5250659 4278915596
0.4194065 -0.069311716 0.52487558 4279046412
0.41928172 -0.068738207 0.52468526 4278914826
0.41922429 -0.068123862 0.52443087 4278783759
0.41916567 -0.067507833 0.52417642 4278979598
0.41910583 -0.066890128 0.52392203 4278848780
0.41897696 -0.066310957 0.52373171 4278848780
0.41884714 -0.06573052 0.52354145 4278914826
0.41878393 -0.065108202 0.52328706 4278914575
0.41871953 -0.064484209 0.52303267 4278914573
0.41872114 -0.063817486 0.5227142 4279046159
0.41865414 -0.063189924 0.52245986 4278782987
0.41858596 -0.062560678 0.52220547 4279046159
0.41851652 -0.061929762 0.52195114 4278717964
0.41851252 -0.061255284 0.52163273 4278652171
0.41844052 -0.060620792 0.5213784 4278718217
0.41843361 -0.059942327 0.52105999 4278718215
0.4184913 -0.059219241 0.52067751 4279112205
0.41841519 -0.058579095 0.52042317 4278849033
0.41833788 -0.057937264 0.5201689 4278849031
0.41832507 -0.057250611 0.51985055 4278849031
0.4183107 -0.056561865 0.5195322 4278717966
0.41829479 -0.055871025 0.5192138 4278652173
0.41827741 -0.055178083 0.51889551 4278717968
0.4181934 -0.054527022 0.51864123 4278718217
0.41810817 -0.053874291 0.51838696 4278849031
0.41802168 -0.05321987 0.51813269 4278849031
0.41799867 -0.052519172 0.5178144 4278783240
0.41790962 -0.051861197 0.51756018 4278849033
0.41794804 -0.051111475 0.51717782 4278849033
0.41792047 -0.050404474 0.51685953 4278849033
0.41782731 -0.049740836 0.51660532 4278717447
0.41773295 -0.049075507 0.5163511 4278717447
0.41770113 -0.048362635 0.51603287 4278717445
0.41766775 -0.04764767 0.51571465 4278717445
0.41756943 -0.046976902 0.51546043 4278717445
0.41746992 -0.046304442 0.51520628 4278717445
0.41736913 -0.045630313 0.51495212 4278651652
0.41720423 -0.045001425 0.51476204 4278651652
0.41703838 -0.044371277 0.51457191 4278585859
0.41680893 -0.043787219 0.5144459 4278585861
0.4164539 -0.043297417 0.51444799 4278651654
0.41616118 -0.042759851 0.51438606 4278914826
0.41574377 -0.042317815 0.51445222 4279243791
0.41520256 -0.04197254 0.51464641 4280427290
0.41472411 -0.041580155 0.51477665 4281017624
0.41424632 -0.041188598 0.51490682 4281675554
0.41364592 -0.040895499 0.51516515 4282070564
0.41292381 -0.040702119 0.51555157 4282136357
0.47941306 -0.10886423 0.50476575 4281940782
0.4788669 -0.10837886 0.50489593 4280756508
0.47832137 -0.10789433 0.5050261 4279703822
0.47777647 -0.10741062 0.50515622 4279637777
0.47731543 -0.10690865 0.50522244 4279309333
0.47677159 -0.10642642 0.50535256 4279243288
0.47631133 -0.10592552 0.50541872 4279309081
0.47585136 -0.10542502 0.50548488 4279112724
0.47547442 -0.104905 0.50548708 4279177998
0.47501493 -0.10440515 0.50555331 4279112203
0.42820436 -0.1029481 0.53572083 4279440652
0.4277423 -0.10257871 0.53585047 4279375377
0.42743742 -0.10215813 0.53585225 4279309584
0.42705444 -0.10176378 0.535918 4279309584
0.42674971 -0.10134341 0.53591979 4279112973
0.42628932 -0.10097635 0.53604943 4279178515
0.42598489 -0.10055639 0.53605127 4279178768
0.42560294 -0.10016352 0.53611696 4279178768
0.42537606 -0.099716492 0.53605485 4279309582
0.4250716 -0.09929654 0.53605664 4279374605
0.42492133 -0.098821193 0.53593057 4279440398
0.42469352 -0.098372921 0.53586847 4279440398
0.42454213 -0.097896107 0.5357424 4279506193
0.42439017 -0.09741845 0.5356164 4279244058
0.42416114 -0.096968502 0.53555429 4279178515
0.42393181 -0.096518122 0.53549218 4279244561
0.42377833 -0.096038371 0.53536618 4279244561
0.42354822 -0.095586948 0.53530407 4279178515
0.42339367 -0.095105723 0.53517801 4279243791
0.42323852 -0.09462367 0.535052 4279309584
0.42308274 -0.094140768 0.534926 4279243791
0.42292637 -0.093657039 0.53479999 4279375377
0.42284462 -0.093142241 0.53461009 4279375124
0.42276198 -0.092626199 0.53442019 4279177745
0.42267838 -0.09210889 0.53423029 4278848780
0.42259392 -0.091590315 0.53404039 4278848261
0.42250851 -0.091070496 0.53385049 4278783492
0.4224222 -0.090549409 0.53366065 4278915856
0.4224093 -0.089995593 0.53340685 4278718477
0.42232102 -0.089471787 0.53321695 4278652684
0.42223182 -0.088946715 0.53302711 4278521868
0.42214173 -0.088420391 0.53283727 4278652684
0.42205071 -0.087892801 0.53264737 4278783757
0.42195877 -0.087363958 0.53245753 4278717964
0.42186591 -0.08683385 0.53226769 4278784010
0.42177218 -0.086302489 0.53207785 4278784010
0.42175061 -0.085736714 0.53182411 4278979596
0.42165485 -0.085202619 0.53163433 4278979596
0.4215582 -0.08466728 0.53144449 4278652171
0.42146066 -0.084130667 0.53125465 4278652171
0.42136216 -0.083592817 0.53106487 4278915343
0.4212628 -0.083053678 0.53087503 4278783757
0.42116252 -0.082513303 0.53068525 4278849031
0.42113334 -0.081937045 0.53043157 4279045894
0.42103106 -0.081393927 0.53024179 4278849033
0.42092788 -0.080849573 0.53005201 4278849033
0.42082378 -0.080303937 0.52986223 4278915594
0.42071879 -0.079757057 0.52967244 4278718477
0.42075542 -0.079137579 0.52935493 4278784010
0.42064828 -0.078587748 0.52916515 4278915596
0.4206112 -0.078000575 0.52891153 4278914824
0.42057294 -0.077411741 0.52865791 4278784010
0.42046273 -0.076857716 0.52846813 4278717964
0.42042217 -0.076265723 0.52821451 4278717964
0.42031002 -0.075708985 0.52802479 4279045389
0.42026716 -0.07511384 0.52777123 4278914573
0.42022309 -0.074517019 0.52751756 4278783759
0.42017782 -0.073918536 0.527264 4278783759
0.42006156 -0.073356122 0.52707428 4278915343
0.41994438 -0.072792456 0.52688462 4278981136
0.41982627 -0.07222753 0.52669489 4278718217
0.41984591 -0.071584553 0.52637744 4278718217
0.41979486 -0.07097809 0.52612394 4278718730
0.41974258 -0.070369944 0.52587038 4278784010
0.41968906 -0.069760121 0.52561682 4279046410
0.41963437 -0.069148615 0.52536333 4279045389
0.41950989 -0.068574883 0.52517366 4279045389
0.41945291 -0.06796024 0.52492011 4278914573
0.41932645 -0.067383766 0.52473044 4278848780
0.41926718 -0.066765979 0.52447701 4278914573
0.41920668 -0.066146508 0.52422345 4278848780
0.41900942 -0.065606341 0.52409768 4278914573
0.4189468 -0.064983934 0.52384424 4278914573
0.41888297 -0.064359844 0.52359074 4278914573
0.41881791 -0.063734084 0.52333724 4279046159
0.41881883 -0.063065305 0.52301991 4278717964
0.41875118 -0.06243597 0.52276647 4278915343
0.41868234 -0.061804965 0.52251303 4278652686
0.41861227 -0.061172277 0.52225959 4278652686
0.41860756 -0.060495734 0.52194232 4278652684
0.4185349 -0.059859484 0.52168888 4278652424
0.41852731 -0.059178956 0.5213716 4278981389
0.41851819 -0.058496341 0.52105433 4278718217
0.41844159 -0.057854638 0.52080095 4278718215
0.41836375 -0.05721125 0.52054751 4278849031
0.4183504 -0.056522757 0.52023029 4278848780
0.4183355 -0.055832162 0.51991308 4278782987
0.41831908 -0.055139467 0.51959586 4278717968
0.41830114 -0.054444686 0.51927865 4278718217
0.41821662 -0.053792074 0.51902527 4278717445
0.41813087 -0.053137779 0.51877189 4278783238
0.41804394 -0.0524818 0.51851857 4278849031
0.41802037 -0.051779255 0.51820141 4278914826
0.41799527 -0.051074609 0.51788425 4278849033
0.41790438 -0.050413184 0.51763093 4278849033
0.41781229 -0.049750082 0.51737761 4278651654
0.4177829 -0.049039565 0.51706046 4278717447
0.41775209 -0.048326939 0.5167433 4278717445
0.417656 -0.047658384 0.51649004 4278717445
0.41762224 -0.04694178 0.51617289 4278782468
0.41752359 -0.046269655 0.51591963 4278651652
0.41742373 -0.045595855 0.51566637 4278651652
0.41725954 -0.044967376 0.51547694 4278651652
0.41709447 -0.04433763 0.51528752 4278651652
0.41680294 -0.043801457 0.51522577 4278585861
0.41651112 -0.043264873 0.51516402 4278651654
0.41615653 -0.042775698 0.5151661 4278783240
0.4157396 -0.042334571 0.51523203 4279046412
0.41532296 -0.04189387 0.51529795 4280098328
0.41490665 -0.041453578 0.51536387 4280689429
0.41430506 -0.041159734 0.5156213 4281543966
0.41382813 -0.040769793 0.515751 4282004771
0.41316712 -0.040527984 0.51607227 4282070564
0.47896034 -0.10822904 0.50558233 4280229907
0.47833118 -0.10776382 0.50577575 4279637777
0.47787008 -0.10726193 0.50584173 4279375377
0.47740924 -0.10676046 0.50590765 4279309333
0.47686547 -0.1062788 0.50603735 4279309335
0.47640541 -0.10577839 0.50610328 4279309335
0.47594565 -0.1052784 0.5061692 4279112726
0.47556901 -0.10475881 0.50617146 4278981389
0.47510973 -0.10425944 0.50623739 4278981387
0.42887789 -0.10316738 0.53604245 4279309331
0.42849374 -0.10277164 0.53610802 4279374354
0.42810982 -0.10237632 0.53617346 4279243538
0.42772627 -0.10198142 0.53623897 4279243538
0.42742124 -0.10156062 0.53624082 4279178766
0.4270381 -0.10116635 0.53630626 4279112973
0.42665529 -0.10077249 0.53637177 4279112973
0.42627281 -0.10037906 0.53643727 4279112975
0.42596823 -0.099958897 0.53643906 4279178768
0.42566365 -0.099538736 0.53644085 4279178515
0.42543638 -0.099091008 0.53637898 4279440141
0.42520884 -0.098642871 0.53631705 4279505934
0.42498097 -0.098194316 0.53625518 4279440141
0.4247528 -0.097745329 0.53619325 4279309333
0.42460102 -0.097267523 0.53606772 4279309335
0.42444867 -0.096788883 0.53594214 4279178515
0.42421931 -0.096338227 0.53588021 4279178768
0.42406589 -0.095858112 0.53575468 4279178768
0.42383572 -0.095406398 0.53569281 4279309584
0.42360526 -0.094954275 0.53563088 4279440143
0.42345032 -0.094472066 0.53550535 4279374607
0.42329475 -0.093989015 0.53537977 4279374607
0.42321408 -0.093475051 0.53519052 4279440400
0.42305714 -0.092990115 0.535065 4279505940
0.42297482 -0.092473842 0.53487575 4279308814
0.42289156 -0.091956303 0.53468657 4278979849
0.4228074 -0.091437511 0.53449732 4278914054
0.42272231 -0.090917468 0.53430808 4278849033
0.4227109 -0.090364814 0.53405523 4278850065
0.42262384 -0.089842044 0.53386605 4278718479
0.42261016 -0.089286238 0.53361315 4278587661
0.42252111 -0.088760734 0.53342396 4278521868
0.42243117 -0.088233978 0.53323478 4278652684
0.42226648 -0.087738335 0.53310925 4278850063
0.42217487 -0.087209269 0.53292006 4278652684
0.42215586 -0.08664614 0.53266728 4278784010
0.42206228 -0.086114347 0.53247809 4279177226
0.42196777 -0.08558128 0.53228891 4279045132
0.42187232 -0.085046962 0.53209978 4278979339
0.421776 -0.084511399 0.5319106 4278782989
0.42167878 -0.083974555 0.53172147 4278782987
0.42158061 -0.083436474 0.53153235 4279046159
0.42148152 -0.082897119 0.53134322 4278914573
0.42145383 -0.082322031 0.53109044 4278914824
0.4213528 -0.081779957 0.53090131 4279045894
0.42125085 -0.081236616 0.53071219 4278914824
0.42114797 -0.080692038 0.53052306 4278914824
0.4210442 -0.080146179 0.530334 4278914824
0.42093951 -0.079599068 0.53014487 4278784010
0.42097667 -0.078979209 0.52982843 4279046412
0.42086983 -0.078429163 0.52963936 4279046412
0.42090428 -0.077805527 0.52932298 4279045640
0.42079532 -0.077252552 0.52913392 4279046410
0.42068547 -0.076698303 0.52894485 4278849033
0.4206453 -0.076106004 0.52869213 4278849033
0.42053348 -0.075549036 0.52850306 4279045642
0.42049104 -0.074953601 0.52825034 4278914826
0.42044741 -0.074356481 0.52799767 4279046412
0.42040253 -0.073757693 0.52774501 4278914826
0.4202866 -0.073195055 0.52755594 4278914573
0.4201 -0.072669216 0.52743053 4279111952
0.42005193 -0.072066009 0.52717793 4278849033
0.4200027 -0.071461126 0.52692521 4278914826
0.42002147 -0.070815891 0.52660894 4278784010
0.41990048 -0.070246339 0.52641994 4278915596
0.41984758 -0.069636419 0.52616727 4278981387
0.41979343 -0.069024831 0.52591467 4278979596
0.41966945 -0.068451077 0.52572566 4279045389
0.419613 -0.067836344 0.52547306 4278848780
0.41955537 -0.067219928 0.52522039 4279046159
0.41949651 -0.066601828 0.52496779 4278914573
0.41936839 -0.066022418 0.52477884 4278848780
0.4192394 -0.065441743 0.5245899 4279046159
0.41910946 -0.064859822 0.52440095 4278914573
0.41904616 -0.064235635 0.52414834 4278717966
0.4189817 -0.063609779 0.5238958 4278783759
0.41891602 -0.062982246 0.52364326 4278652686
0.41884911 -0.06235303 0.52339065 4278850067
0.41884795 -0.061680317 0.52307451 4278718481
0.41877848 -0.061047532 0.5228219 4278652688
0.41870773 -0.060413077 0.52256942 4278718479
0.41870236 -0.059734479 0.52225322 4278652171
0.41862905 -0.05909647 0.52200073 4279046412
0.41862074 -0.058413893 0.52168459 4278783240
0.41854486 -0.057772301 0.52143204 4279046410
0.41853368 -0.057085738 0.52111596 4278849033
0.41845524 -0.056440577 0.52086341 4278849033
0.41844115 -0.055750035 0.52054733 4278783240
0.41842556 -0.055057392 0.52023125 4278782987
0.41840845 -0.054362655 0.51991516 4278783240
0.41832465 -0.053710148 0.51966268 4278586631
0.41823965 -0.053055979 0.51941025 4278784010
0.41815343 -0.05240012 0.51915777 4278784008
0.41806599 -0.051742598 0.51890534 4279177226
0.41804188 -0.051038198 0.51858926 4278913803
0.41801625 -0.050331712 0.51827323 4278913803
0.4179891 -0.049623117 0.51795721 4278651401
0.41789633 -0.048958249 0.51770484 4278717445
0.41773844 -0.04833772 0.51751602 4278783238
0.4177072 -0.047623478 0.51719999 4278783238
0.41767442 -0.046907119 0.51688403 4278716675
0.41751313 -0.046281971 0.51669526 4278651654
0.41747764 -0.04556185 0.51637924 4278651654
0.41725105 -0.044980846 0.51625413 4278651654
0.4170869 -0.044351712 0.51606536 4278651654
0.41685897 -0.043768823 0.51594025 4278585608
0.41650498 -0.04328049 0.51594234 4278585861
0.41621357 -0.042744242 0.51588082 4278717447
0.415797 -0.042303823 0.51594651 4278783240
0.41538072 -0.041863814 0.51601219 4279704089
0.41496477 -0.04142423 0.51607788 4280886554
0.41442519 -0.041082561 0.51627076 4281215001
0.41401011 -0.040644236 0.5163365 4281544990
0.41322544 -0.040501341 0.51678377 4281808162
0.47959927 -0.10856375 0.50613856 4281151009
0.47888541 -0.10811675 0.5063948 4280164114
0.478508 -0.10759612 0.50639701 4279638031
0.47796327 -0.10711356 0.50652629 4279309584
0.47750264 -0.10661257 0.50659204 4279309331
0.47704232 -0.10611203 0.50665772 4279309331
0.47658229 -0.10561191 0.50672346 4279309331
0.47612259 -0.10511218 0.50678921 4279046933
0.4757461 -0.1045928 0.50679141 4278981389
0.47528684 -0.10409373 0.50685716 4279112457
0.42916769 -0.10299093 0.5364303 4279309584
0.42886204 -0.1025693 0.53643215 4279374356
0.42839915 -0.10219958 0.53656089 4279112722
0.42809379 -0.10177837 0.53656268 4279112722
0.42771012 -0.10138355 0.53662795 4279178768
0.42732674 -0.10098913 0.53669322 4279112973
0.42694366 -0.10059515 0.53675848 4279112973
0.42656091 -0.10020158 0.53682375 4279112722
0.42625618 -0.0997812 0.53682554 4279112722
0.42595148 -0.099360839 0.53682733 4279178768
0.42572415 -0.098912828 0.53676569 4279440141
0.42549655 -0.0984644 0.536704 4279505934
0.42526865 -0.098015554 0.53664231 4279440141
0.42504042 -0.097566284 0.53658068 4279309333
0.4248119 -0.097116597 0.53651905 4279309333
0.42465973 -0.096637815 0.53639388 4279309331
0.42443049 -0.09618707 0.53633225 4279178768
0.42427725 -0.095706806 0.53620708 4279178768
0.4240472 -0.095255025 0.53614545 4279309331
0.42389292 -0.094773293 0.53602028 4279570706
0.423738 -0.094290726 0.53589523 4279440143
0.42358252 -0.093807325 0.53577012 4279440143
0.42342642 -0.093323074 0.53564501 4279571727
0.42334515 -0.092807621 0.53545642 4279505940
0.42326295 -0.092290908 0.53526789 4279308814
0.42317986 -0.091772944 0.53507936 4278979849
0.42309588 -0.091253713 0.53489077 4278914054
0.42301095 -0.09073323 0.53470224 4278848780
0.42292511 -0.090211481 0.53451371 4278915343
0.42291293 -0.08965686 0.5342617 4278981136
0.4228251 -0.089132383 0.53407323 4278719247
0.42273641 -0.088606656 0.53388464 4278521868
0.42264676 -0.088079676 0.53369617 4278652684
0.42248228 -0.087583885 0.53357112 4278850063
0.422391 -0.087054588 0.53338265 4278652684
0.4223724 -0.086491153 0.53313065 4278915343
0.42227912 -0.085959136 0.53294218 4279045642
0.42225823 -0.08539255 0.53269029 4279045391
