# .PCD v0.7 - Point Cloud Data file format
VERSION 0.7
FIELDS x y z rgb
SIZE 4 4 4 4
TYPE F F F U
COUNT 1 1 1 1
WIDTH 1067
HEIGHT 1
VIEWPOINT 0 0 0 1 0 0 0
POINTS 1067
DATA ascii
0.43642825 0.064165935 0.49046826 4279311397
0.43678892 0.064378425 0.49042705 4279442985
0.4375594 0.064725593 0.49039027 4279574571
0.43791884 0.064937681 0.49034905 4279442985
0.43832886 0.065072432 0.49035347 4279640364
0.43868756 0.065284282 0.49031225 4279640364
0.43889105 0.065726981 0.49013418 4279705642
0.43914437 0.066092104 0.49000168 4279837482
0.43939623 0.066456735 0.48986921 4279837482
0.4396466 0.06682092 0.48973671 4279903275
0.44005319 0.066954538 0.48974109 4280100654
0.44040698 0.067164764 0.48969981 4280035374
0.44076025 0.067374825 0.48965853 4280035374
0.44111305 0.067584738 0.48961726 4280166708
0.4415189 0.067718118 0.48962161 4280035122
0.44187099 0.067927763 0.48958033 4279838523
0.44227657 0.068061054 0.48958468 4279969589
0.44257361 0.06834659 0.48949775 4280559922
0.44297874 0.068479732 0.48950207 4280625715
0.44332904 0.068688825 0.4894608 4280757301
0.44373393 0.068821877 0.48946512 4280823353
0.44408351 0.069030732 0.48942381 4281086012
0.44454366 0.069087997 0.48947382 4281086012
0.44494852 0.06922105 0.48947817 4281217598
0.44529739 0.069429658 0.48943686 4281283391
0.44570202 0.069562629 0.48944119 4281217859
0.44610661 0.069695607 0.48944554 4281218883
0.4464545 0.069903895 0.4894042 4281350469
0.44691586 0.069961563 0.48945421 4281876041
0.44732049 0.070094533 0.48945856 4281876041
0.44772512 0.070227511 0.48946291 4281942606
0.44812974 0.070360489 0.48946726 4282008147
0.44859233 0.070418559 0.4895173 4282205528
0.4489972 0.070551619 0.48952162 4282401370
0.44946054 0.070609927 0.48957169 4282401370
0.44992438 0.070668407 0.48962173 4282796382
0.4503887 0.070727043 0.48967177 4282731870
0.4508535 0.070785858 0.48972183 4282995040
0.45137829 0.070770398 0.48981759 4283258212
0.4518443 0.0708296 0.48986766 4283389028
0.41229498 0.0033573955 0.5162192 4281218853
0.41281837 0.0036232322 0.51617956 4280955681
0.41336823 0.0038039237 0.51618546 4280890147
0.41386369 0.0041544139 0.51610017 4280758561
0.41438562 0.0044197738 0.51606047 4280758815
0.41493472 0.0046002418 0.51606637 4280100120
0.41545591 0.0048653483 0.51602668 4279968534
0.41597658 0.005130291 0.51598698 4279836950
0.41652519 0.0053105801 0.51599288 4279376145
0.43180272 0.056116879 0.49405539 4279178015
0.43191352 0.056810051 0.49373955 4279244062
0.4320665 0.057423294 0.49346945 4279310368
0.43217069 0.05811426 0.49315351 4279245345
0.43227139 0.058804125 0.49283758 4279245345
0.43250775 0.059257105 0.49265897 4279375396
0.43274218 0.05970943 0.49248031 4279310116
0.43302149 0.060082689 0.49234742 4279179298
0.4332993 0.060455441 0.49221456 4279245343
0.43367034 0.06067121 0.49217325 4279179550
0.43399331 0.060965016 0.49208614 4278982171
0.4342196 0.061414674 0.49190742 4279047964
0.43425155 0.062175751 0.49154544 4279047712
0.43423122 0.063013464 0.49113759 4279179300
0.43444937 0.063460454 0.49095878 4279245354
0.43471438 0.06382902 0.49082577 4279245352
0.43497795 0.064197108 0.4906927 4279114534
0.43533868 0.064409465 0.49065131 4279245858
0.43569887 0.064621687 0.49060988 4279377444
0.43610841 0.064756274 0.49061427 4279311397
0.43641785 0.06504561 0.490527 4279442985
0.43682688 0.065180033 0.49053138 4279640362
0.43723595 0.065314472 0.4905358 4279640103
0.43764502 0.065448895 0.49054018 4279640103
0.438003 0.065660387 0.49049875 4279574569
0.43830922 0.065948665 0.49041146 4279640362
0.4385114 0.06639038 0.49023247 4279639849
0.43881515 0.066677868 0.49014515 4279771689
0.43901387 0.067118466 0.48996609 4280033837
0.43936747 0.067328483 0.48992461 4280033837
0.43972054 0.067538336 0.48988312 4280099630
0.44007313 0.06774804 0.48984161 4280035120
0.44047824 0.067881182 0.48984596 4280035120
0.44088337 0.068014324 0.48985031 4280035636
0.44128847 0.068147451 0.48985466 4279969843
0.44163984 0.068356752 0.48981315 4279772984
0.4419907 0.068565875 0.4897716 4280167222
0.44239533 0.068698861 0.48977596 4280755761
0.44274545 0.068907753 0.48973444 4280690738
0.44309509 0.069116496 0.4896929 4280888117
0.44349921 0.06924931 0.48969725 4280823607
0.44390336 0.069382116 0.48970157 4280823353
0.44430748 0.069514938 0.48970592 4281020221
0.44471163 0.069647744 0.48971027 4280954428
0.44511575 0.069780566 0.48971459 4281020221
0.44551986 0.069913372 0.48971894 4281152066
0.44598046 0.069970906 0.48976916 4281350469
0.44632813 0.070179008 0.48972762 4281415492
0.44678921 0.070236698 0.48977786 4281678664
0.44719359 0.070369594 0.48978221 4281744457
0.44759798 0.07050249 0.48978654 4281942606
0.44806004 0.070560522 0.48983678 4281942352
0.4485226 0.070618711 0.48988706 4282073940
0.44892746 0.070751771 0.48989138 4282204758
0.44939077 0.070810206 0.48994166 4282073172
0.4499132 0.070794262 0.49003786 4282599262
0.45037773 0.070853114 0.49008811 4282534491
0.45084274 0.070912115 0.49013841 4282731868
0.45130825 0.07097128 0.49018869 4282929247
0.45177427 0.071030609 0.49023899 4283257696
0.45224077 0.071090095 0.49028927 4283257183
0.45276791 0.071075678 0.49038553 4283585894
0.41170242 0.0032783896 0.51680726 4281416230
0.41222662 0.0035443306 0.51676738 4281218853
0.41277695 0.003725186 0.51677328 4280955681
0.41330037 0.0039909035 0.51673341 4281021222
0.41382331 0.0042564571 0.51669347 4280692768
0.41437316 0.0044371486 0.51669943 4280626716
0.41489536 0.0047024488 0.5166595 4280100118
0.41541708 0.0049676001 0.51661956 4279902739
0.41596642 0.0051481426 0.51662546 4279836180
0.43141019 0.059503034 0.49285024 4279245345
0.4317379 0.059798107 0.49276274 4279178530
0.43206465 0.060092866 0.49267522 4279178530
0.43234384 0.060465664 0.49254167 4279310886
0.43266836 0.060759708 0.49245411 4279179298
0.43299189 0.06105341 0.49236655 4279310884
0.43336177 0.061268643 0.49232501 4279047966
0.43363601 0.06163983 0.49219143 4278982171
0.43371758 0.062322453 0.49187368 4278982171
0.43384373 0.062926039 0.49160194 4279047964
0.43401527 0.063450843 0.49137622 4279310114
0.43428141 0.063819364 0.49124253 4279311147
0.43449727 0.064265057 0.49106276 4279114280
0.43480924 0.06455496 0.49097511 4279179811
0.43516952 0.064767048 0.49093345 4279376929
0.43552929 0.064978972 0.49089181 4279442722
0.43588856 0.065190732 0.49085015 4279311136
0.43624735 0.065402329 0.49080849 4279508263
0.43660563 0.065613762 0.49076682 4279639333
0.43701395 0.065747961 0.49077117 4279638820
0.43732074 0.066036165 0.49068344 4279704613
0.43762657 0.066324025 0.4905957 4279770919
0.43793139 0.066611588 0.49050796 4279639849
0.43823525 0.066898823 0.49042019 4279640103
0.4385381 0.06718573 0.49033239 4279968298
0.43883997 0.067472309 0.49024463 4280229933
0.43903643 0.06791161 0.49006468 4280164140
0.43949327 0.067968056 0.49011508 4280360751
0.43984514 0.068177402 0.49007335 4280164910
0.44019657 0.068386585 0.4900316 4279968814
0.44060069 0.068519399 0.49003595 4280100915
0.44100481 0.068652213 0.49004027 4280035122
0.44135523 0.06886106 0.48999852 4279707702
0.44175911 0.068993792 0.49000287 4280035634
0.44210881 0.069202401 0.48996109 4280428334
0.44251245 0.069335058 0.48996544 4280559150
0.4429161 0.069467708 0.48996976 4280756529
0.44331971 0.069600359 0.48997408 4280429365
0.44372335 0.069733009 0.48997843 4280429115
0.44412699 0.069865666 0.48998278 4280757562
0.44453064 0.069998316 0.48998711 4280757562
0.44493425 0.070130967 0.48999143 4280889148
0.44533789 0.070263624 0.48999578 4280954687
0.44579795 0.070321128 0.49004623 4281283652
0.44620186 0.07045386 0.49005055 4281348934
0.44660574 0.070586592 0.49005491 4281546311
0.44706678 0.070644423 0.49010536 4281546311
0.4474709 0.070777237 0.49010971 4281744457
0.44793266 0.070835292 0.49016017 4281547848
0.44839495 0.070893526 0.49021065 4281745227
0.44885772 0.070951924 0.49026114 4282008147
0.44932097 0.071010485 0.49031162 4281942354
0.44984335 0.070994779 0.49040827 4282008410
0.45024896 0.071128085 0.49041262 4282140248
0.45077279 0.071112879 0.49050927 4282402905
0.45123827 0.071172163 0.49055979 4282600284
0.4516446 0.071305707 0.49056417 4283125345
0.45217067 0.071291223 0.49066082 4283453022
0.45269775 0.071277045 0.49075752 4283322722
0.45316541 0.071337059 0.49080807 4283585894
0.41116044 0.0030294061 0.51748824 4281548070
0.41163367 0.0034655929 0.5173561 4281284644
0.41215813 0.003731519 0.51731598 4281284392
0.4127087 0.0039124489 0.51732188 4280955427
0.41323245 0.0041781068 0.51728177 4280955431
0.41378278 0.0043589771 0.51728767 4280561184
0.41433311 0.0045398325 0.51729357 4280495130
0.41485584 0.0048051775 0.51725346 4280100118
0.41537809 0.0050703585 0.51721334 4279902739
0.41592795 0.0052510649 0.51721925 4279639317
0.41647777 0.0054317564 0.51722515 4278915858
0.43054339 0.059355959 0.49327093 4279441954
0.43106312 0.060181618 0.49295631 4279376161
0.43143547 0.060397536 0.49291456 4279047714
0.43176106 0.060691655 0.49282658 4279047714
0.43208566 0.060985446 0.4927386 4279179300
0.43245608 0.061200723 0.49269682 4279179298
0.43277895 0.061493918 0.49260882 4279245091
0.43310085 0.061786816 0.49252078 4279047712
0.43327922 0.062313214 0.49229401 4278982171
0.43345514 0.062838763 0.49206719 4279245343
0.4336766 0.063285753 0.49188662 4279047964
0.43379956 0.063887477 0.49161348 4279310368
0.4340651 0.064255401 0.4914791 4279311147
0.43437788 0.064545304 0.491391 4279114534
0.4346897 0.064834878 0.49130285 4279179811
0.43504974 0.065046757 0.49126098 4279441952
0.43535984 0.065335765 0.49117282 4279507745
0.43571866 0.065547243 0.49113095 4279507745
0.436077 0.065758571 0.49108905 4279573286
0.43638462 0.066046745 0.49100086 4279639333
0.43674174 0.066257671 0.49095896 4279638820
0.43704763 0.066545308 0.49087077 4279836199
0.43735254 0.066832632 0.49078256 4279836199
0.43765646 0.067119613 0.49069434 4279770665
0.43815798 0.067845732 0.49042529 4279902503
0.43845847 0.068131596 0.49033701 4280295210
0.43881017 0.068340734 0.49029505 4280426542
0.43921381 0.068473384 0.4902994 4280294956
0.43961746 0.068606034 0.49030373 4280165164
0.4400211 0.068738692 0.49030805 4280034091
0.44042471 0.068871342 0.4903124 4280231216
0.44077495 0.069079973 0.49027041 4279772210
0.44117832 0.069212548 0.49027473 4279969589
0.44158173 0.069345117 0.49027908 4280035636
0.44193095 0.069553442 0.49023709 4280363056
0.44233412 0.069685929 0.49024141 4280362543
0.44268259 0.069894016 0.49019942 4280363320
0.44308549 0.07002642 0.49020374 4280363320
0.44354355 0.070083402 0.4902544 4280298042
0.44394666 0.070215896 0.49025872 4280560181
0.44434983 0.070348382 0.49026304 4280757560
0.44475296 0.070480876 0.4902674 4280823355
0.44521224 0.07053826 0.49031806 4281020734
0.44555926 0.070745856 0.49027604 4281217859
0.44601902 0.070803404 0.4903267 4281283141
0.44647926 0.070861124 0.4903774 4281546311
0.44694 0.070918992 0.49042809 4281480518
0.44734392 0.071051732 0.49043241 4281612871
0.4478054 0.071109839 0.49048311 4281415492
0.44832525 0.071093559 0.49058017 4281810250
0.44878796 0.071152076 0.49063089 4281810766
0.44925117 0.071210757 0.49068159 4281942352
0.44971487 0.071269602 0.49073231 4282008662
0.45017907 0.071328603 0.49078304 4282074201
0.45070285 0.071313642 0.49088013 4282336342
0.45116824 0.071373053 0.49093089 4282599514
0.45157462 0.07150659 0.49093524 4282862688
0.45210057 0.071492352 0.49103236 4283256161
0.45256752 0.071552232 0.49108315 4283322722
0.45315552 0.071464837 0.49122667 4283717993
0.45462319 0.071572967 0.4914254 4284112238
0.4110654 0.0033020824 0.51799196 4281285157
0.4115909 0.0035682023 0.51795161 4281087267
0.4121159 0.0038341582 0.51791131 4281218599
0.41264042 0.0040999502 0.51787096 4281021220
0.41316444 0.0043655783 0.51783061 4280955431
0.41374207 0.0044619888 0.51788282 4280560671
0.41426557 0.0047274679 0.51784247 4280429337
0.41481614 0.0049083978 0.51784837 4279968534
0.41533893 0.0051736087 0.51780802 4279705362
0.41588926 0.005354479 0.51781392 4279442451
0.41643959 0.0055353343 0.51781982 4279047444
0.42972028 0.059130102 0.49373847 4278982173
0.42996088 0.059582844 0.49355718 4278916380
0.43028998 0.059877828 0.49346879 4279310116
0.43057263 0.060250953 0.49333394 4279309862
0.43089953 0.060545221 0.49324551 4279441441
0.43122545 0.060839176 0.49315709 4279047714
0.43155038 0.061132804 0.49306864 4278981667
0.43187433 0.061426088 0.49298018 4278915874
0.43224406 0.061640993 0.49293819 4279047714
0.43251929 0.062011704 0.49280325 4279047712
0.43274584 0.062459841 0.49262181 4278982432
0.4329704 0.062907293 0.49244034 4279047966
0.43314531 0.063431844 0.49221241 4279441952
0.4333657 0.06387794 0.49203092 4279441952
0.43358412 0.064323395 0.49184939 4279310116
0.4338975 0.064613208 0.49176085 4279245354
0.43420988 0.064902708 0.49167225 4278983718
0.43452129 0.06519188 0.49158368 4279180065
0.43483168 0.065480724 0.49149507 4279441950
0.43519056 0.065692082 0.49145293 4279441950
0.43554893 0.065903276 0.49141082 4279441954
0.43585691 0.066191301 0.49132222 4279507493
0.43616387 0.066479027 0.49123359 4279639333
0.4365707 0.066612735 0.49123794 4279703841
0.43682551 0.066976726 0.49110278 4279639329
0.43707889 0.067340225 0.4909676 4279639329
0.43743306 0.067550048 0.49092543 4279573536
0.43758112 0.068065807 0.49069721 4279770919
0.43788171 0.068351403 0.49060851 4279836712
0.43828511 0.068483979 0.49061283 4280098601
0.43863633 0.068692818 0.49057063 4280295210
0.43903947 0.068825312 0.49057496 4280295210
0.43939 0.069033921 0.49053276 4280165162
0.43974 0.069242358 0.49049056 4280033576
0.4401958 0.069298737 0.4905414 4280165164
0.44054532 0.069507018 0.4904992 4279968816
0.44089434 0.069715142 0.49045697 4280100402
0.44129676 0.06984739 0.49046129 4280035120
0.44169915 0.069979638 0.49046561 4280166193
0.44210154 0.070111886 0.49046993 4280297009
0.44250396 0.070244133 0.49047425 4280297781
0.44290638 0.070376381 0.49047858 4280297781
0.44330877 0.070508629 0.4904829 4280494390
0.44371119 0.070640877 0.49048722 4280560181
0.44411358 0.070773125 0.49049154 4280757560
0.444516 0.070905373 0.49049586 4280758332
0.44491839 0.07103762 0.49050018 4280889918
0.44537714 0.07109496 0.49055105 4281021250
0.44583637 0.071152471 0.49060196 4281217348
0.4462961 0.071210138 0.49065286 4281414727
0.4467563 0.07126797 0.49070376 4281348934
0.44721702 0.071325973 0.49075469 4281481285
0.44767821 0.071384132 0.4908056 4281284676
0.44819772 0.071368009 0.49090311 4281678664
0.44866014 0.07142657 0.49095404 4281876043
0.44918138 0.071411036 0.49105158 4281941836
0.44964504 0.071469992 0.49110252 4282270801
0.45010918 0.07152912 0.49115348 4282402133
0.45063287 0.071514405 0.49125102 4282992987
0.45109826 0.071573935 0.49130198 4283321952
0.45150459 0.07170748 0.49130633 4283256931
0.45203051 0.07169348 0.49140391 4283257444
0.45249736 0.07175348 0.4914549 4283520616
0.45302498 0.071740046 0.4915525 4283652202
0.45361412 0.071653426 0.49169672 4283717995
0.4540832 0.071714163 0.49174774 4283914859
0.45455277 0.071775071 0.49179873 4284177261
0.41097039 0.0035747588 0.51849568 4281285159
0.41152194 0.0037560165 0.51850158 4281087267
0.41204724 0.0040219426 0.51846105 4281218599
0.41259855 0.0042031258 0.51846695 4281021220
0.41314986 0.0043843091 0.51847285 4280889638
0.41364717 0.0047343075 0.51838583 4280758050
0.41422522 0.0048310012 0.51843822 4280363290
0.41472131 0.0051805824 0.5183512 4279968534
0.41527188 0.0053615272 0.5183571 4279705362
0.41579446 0.0056265444 0.51831651 4279442451
0.41634479 0.0058073997 0.51832241 4278981651
0.41689509 0.0059882551 0.51832831 4278652175
0.42922723 0.05919981 0.49411809 4278982169
0.42951366 0.059573799 0.49398261 4279178782
0.42979863 0.059947297 0.49384707 4279178782
0.43008214 0.060320288 0.49371156 4279178528
0.43040961 0.060614482 0.49362269 4279243808
0.43073612 0.060908362 0.49353382 4279179552
0.43106163 0.0612019 0.49344492 4278981919
0.43138617 0.061495095 0.49335605 4279047712
0.43161681 0.061944023 0.49317375 4278981919
0.43189219 0.062314376 0.49303812 4279047712
0.43221304 0.062606364 0.49294919 4279047712
0.4324857 0.062975824 0.49281353 4279048739
0.43270946 0.063422471 0.49263117 4278982948
0.43293124 0.063868493 0.49244881 4279245091
0.43310314 0.064391389 0.49221969 4279244839
0.43341711 0.064681128 0.4921307 4279244839
0.43373007 0.064970538 0.49204165 4279179561
0.43404204 0.065259635 0.49195263 4279179813
0.43435305 0.06554839 0.49186358 4279180063
0.4347122 0.065759718 0.49182123 4279311136
0.43502146 0.066047892 0.49173218 4279311136
0.43532977 0.066335768 0.4916431 4279441952
0.43568695 0.066546455 0.49160075 4279441954
0.43599349 0.066833764 0.49151167 4279573540
0.43624872 0.067197472 0.49137583 4279507747
0.43655306 0.067484051 0.49128672 4279442724
0.43690729 0.06769374 0.49124432 4279442724
0.43710768 0.068132728 0.49106172 4279508515
0.4374088 0.068418249 0.49097258 4279508513
0.43776059 0.068627149 0.49093014 4279836712
0.4381119 0.068835869 0.49088773 4279967785
0.43846267 0.069044434 0.49084532 4279967783
0.43881297 0.069252841 0.49080288 4280033576
0.43916279 0.069461077 0.49076045 4280099369
0.43956494 0.069593251 0.49076477 4280033576
0.4399671 0.069725417 0.49076909 4280099371
0.44036925 0.069857582 0.49077338 4280231216
0.44071785 0.070065424 0.49073094 4280231216
0.44111976 0.070197508 0.49073526 4280100400
0.44152167 0.070329592 0.49073958 4280231986
0.44186926 0.070537105 0.49069712 4280166447
0.44227093 0.070669115 0.49070144 4280363056
0.44267261 0.070801117 0.49070573 4280428849
0.44307429 0.070933118 0.49071005 4280494388
0.44347593 0.071065128 0.49071437 4280560181
0.44387761 0.07119713 0.49071866 4280691767
0.44433507 0.071254194 0.49076977 4280560953
0.44473699 0.071386278 0.4907741 4280692539
0.4451952 0.071443588 0.49082521 4280758595
0.44565389 0.071501054 0.49087632 4281020484
0.44611308 0.071558684 0.49092746 4281283654
0.44657275 0.071616471 0.49097857 4281546565
0.44709021 0.071599968 0.4910765 4281743944
0.44755113 0.071658172 0.49112764 4281941834
0.44801253 0.071716532 0.49117878 4281941321
0.44853243 0.071700819 0.49127674 4282466897
0.44905332 0.071685448 0.49137473 4282598483
0.44957519 0.071670398 0.49147272 4282730839
0.45003933 0.071729638 0.49152389 4282861655
0.45050392 0.071789064 0.49157506 4282927446
0.45096901 0.071848631 0.49162626 4283124825
0.45143461 0.071908362 0.49167743 4283124825
0.45196041 0.071894608 0.49177545 4283255643
0.45242724 0.071954727 0.49182665 4283518561
0.45295477 0.07194154 0.4919247 4283388517
0.45354378 0.071855277 0.4920696 4283388517
0.45401281 0.071916141 0.49212083 4283848300
0.45454329 0.071903929 0.49221891 4283782507
0.41034931 0.0035813898 0.51904017 4281285677
0.41087538 0.0038474351 0.5189994 4281284394
0.41142693 0.0040286928 0.5190053 4281087015
0.41197848 0.0042099655 0.5190112 4281087013
0.41250357 0.0044756681 0.51897043 4281021220
0.41305488 0.0046568513 0.51897633 4280823841
0.4136062 0.0048380345 0.51898229 4280626464
0.41410309 0.0051876307 0.51889479 4280297499
0.4146539 0.00536865 0.51890069 4279902741
0.4152047 0.0055496693 0.51890659 4279705362
0.41575554 0.0057306886 0.51891255 4279311119
0.41624999 0.0060794652 0.51882499 4278850065
0.41680029 0.0062603205 0.5188309 4278652686
0.42877832 0.059190899 0.4945446 4279047192
0.42906588 0.059564844 0.49440843 4279047192
0.42935199 0.059938297 0.49427226 4279047966
0.42968151 0.060232893 0.49418297 4279311138
0.43001008 0.060527146 0.49409366 4279047712
0.43029219 0.060899317 0.49395746 4279244062
0.43061852 0.061192855 0.49386811 4279047966
0.43089798 0.061564118 0.49373186 4278981919
0.43112981 0.062012866 0.49354869 4279310114
0.43135965 0.062461004 0.4933655 4279178528
0.4316808 0.062752828 0.49327612 4279047966
0.43195409 0.063122079 0.4931398 4279047966
0.43217877 0.063568488 0.49295655 4278851360
0.43244886 0.063936695 0.4928202 4278982694
0.43262219 0.064459383 0.49258998 4279179813
0.43293673 0.064749032 0.49250051 4279179046
0.43325025 0.065038368 0.49241105 4279244839
0.43356282 0.065327376 0.49232158 4279179559
0.43387437 0.065616071 0.49223208 4279245604
0.43418497 0.065904424 0.49214259 4279180063
0.43454367 0.066115439 0.49210003 4279245856
0.43485254 0.06640324 0.4920105 4279180065
0.43516043 0.066690728 0.49192098 4279245858
0.4354673 0.066977873 0.49183145 4279245858
0.43577322 0.067264691 0.4917419 4279639333
0.4361285 0.067474589 0.49169931 4279507495
0.43643266 0.06776084 0.49160972 4279376938
0.43663421 0.068199664 0.49142623 4279443237
0.43693593 0.068485111 0.49133664 4279443237
0.43723667 0.06877023 0.49124703 4279508513
0.43758801 0.068978839 0.49120438 4279705894
0.43793884 0.069187284 0.49116173 4279902503
0.43828917 0.069395564 0.49111909 4279967783
0.43863904 0.069603682 0.49107641 4279967783
0.43898839 0.069811642 0.49103376 4279968296
0.43939006 0.069943652 0.49103808 4279967783
0.43979174 0.070075653 0.49104238 4280033578
0.4401401 0.070283286 0.4909997 4280231216
0.44054151 0.070415214 0.49100402 4280231216
0.44094294 0.070547134 0.49100831 4280100400
0.44129032 0.070754454 0.49096563 4280100654
0.44169152 0.070886299 0.49096996 4280100652
0.44209269 0.071018137 0.49097425 4280166445
0.44249386 0.071149983 0.49097857 4280232238
0.44289505 0.071281821 0.49098286 4280428849
0.44329622 0.071413666 0.49098718 4280494388
0.44369739 0.071545511 0.49099147 4280560181
0.44415432 0.071602531 0.49104279 4280429367
0.44461173 0.071659714 0.49109411 4280626746
0.4450134 0.071791723 0.49109843 4280758341
0.44547158 0.071849145 0.49114978 4281152070
0.44593024 0.071906738 0.4912011 4281283652
0.44638938 0.071964487 0.49125245 4282007114
0.44690624 0.071948059 0.49135083 4281941321
0.44742411 0.071931958 0.49144924 4282204747
0.44794294 0.0719162 0.49154764 4282335309
0.44840479 0.071974836 0.49159902 4282663506
0.44892538 0.071959615 0.49169743 4282729299
0.44944692 0.071944721 0.49179587 4282795862
0.44996944 0.071930163 0.4918943 4282927448
0.450434 0.0719897 0.49194571 4282796630
0.45089906 0.072049394 0.49199712 4282862423
0.45136458 0.072109245 0.49204853 4282796630
0.45189032 0.072095737 0.49214703 4283123800
0.45235711 0.072155982 0.49219844 4283320925
0.45288455 0.072143033 0.49229693 4283453542
0.45394242 0.072118126 0.49249396 4283387749
0.45447284 0.072106153 0.49259248 4283388519
0.41027969 0.0037695467 0.51959097 4281284905
0.41083172 0.0039509684 0.51959693 4281349415
0.41138378 0.00413239 0.51960284 4281152040
0.41193581 0.0043138266 0.5196088 4281087015
0.41246143 0.0045795739 0.51956779 4281021222
0.41301325 0.004760921 0.51957369 4280626464
0.41353813 0.0050264299 0.51953268 4280494878
0.41406253 0.0052917749 0.51949167 4280100120
0.41455901 0.0056409538 0.51940376 4279836948
0.41510981 0.005821988 0.51940966 4279507983
0.41566065 0.0060030073 0.51941556 4279112973
0.41615516 0.0063515306 0.51932758 4278718479
0.41670549 0.0065323859 0.51933348 4278652171
0.42870581 0.059398964 0.49492896 4279047192
0.42899352 0.059772536 0.4947921 4278915608
0.42932436 0.060067296 0.4947024 4279047966
0.42960936 0.060439974 0.49456555 4279311138
0.42989284 0.06081216 0.49442863 4278982686
0.43017489 0.0611839 0.49429175 4278982171
0.43050104 0.06147711 0.49420196 4278916380
0.43068862 0.062003791 0.49397078 4279047712
0.43087375 0.062529698 0.49373955 4279375646
0.43114915 0.062899202 0.49360257 4279178780
0.43142307 0.063268259 0.4934656 4279178780
0.43169549 0.06363681 0.4933286 4279178780
0.43191934 0.064082414 0.49314445 4279179550
0.43218857 0.064449936 0.49300742 4278982946
0.43245634 0.064816952 0.49287036 4279179811
0.43272263 0.065183491 0.4927333 4279179046
0.43303549 0.065472335 0.49264336 4279244839
0.4333474 0.065760866 0.49255344 4279179300
0.4336583 0.066049039 0.4924635 4279245091
0.43401706 0.06625995 0.4924207 4279245343
0.43437535 0.066470712 0.49237791 4279311138
0.4346838 0.066758111 0.49228793 4279245345
0.43504083 0.066968456 0.49224514 4279376931
0.43529773 0.06733191 0.49210796 4279376931
0.43560326 0.067618325 0.49201795 4279442724
0.43590775 0.067904413 0.49192795 4279311145
0.43621129 0.068190202 0.49183792 4279180075
0.43646306 0.068551958 0.49170071 4279443245
0.43676436 0.068837002 0.49161065 4279443245
0.43706471 0.069121726 0.49152058 4279311911
0.43736404 0.069406122 0.49143052 4279705896
0.43776596 0.069538206 0.49143484 4279836712
0.43816787 0.06967029 0.49143916 4279967781
0.43846524 0.069954045 0.49134907 4280033574
0.43881416 0.070161723 0.49130619 4279968296
0.43921533 0.070293561 0.49131048 4279968296
0.43956351 0.070501 0.49126759 4279968298
0.43996444 0.070632756 0.49127188 4280034091
0.44036537 0.070764519 0.4912762 4280034091
0.4407663 0.070896283 0.4912805 4280099884
0.44111323 0.071103312 0.49123758 4280099882
0.44156817 0.07115981 0.49128911 4280099882
0.4419691 0.071291573 0.4912934 4280363054
0.44231528 0.071498357 0.49125049 4280363054
0.44277096 0.071555093 0.49130201 4280428847
0.44317189 0.071686856 0.4913063 4280428595
0.44357282 0.07181862 0.49131063 4280494388
0.44397375 0.071950383 0.49131495 4280889148
0.44443065 0.072007529 0.49136648 4281283906
0.444888 0.072064832 0.491418 4281546313
0.44534588 0.072122298 0.49146956 4281480520
0.44580424 0.072179928 0.49152115 4281613387
0.4462631 0.072237715 0.49157271 4282007114
0.44677967 0.072221458 0.49167153 4282007114
0.44729716 0.072205521 0.49177039 4282270538
0.44781566 0.07218992 0.49186921 4282204747
0.44833517 0.072174624 0.4919681 4282729294
0.44885564 0.072159648 0.49206695 4282663501
0.44937712 0.072145 0.49216583 4282729551
0.4498409 0.072204411 0.49221748 4282861137
0.45036405 0.072190344 0.49231637 4282599251
0.45082909 0.072250158 0.49236798 4282467665
0.451354 0.072236642 0.49246693 4282402385
0.45182025 0.072296865 0.49251854 4282926676
0.45234686 0.072283901 0.49261749 4283058264
0.45287448 0.072271295 0.49271643 4283058784
0.45340309 0.072258994 0.49281541 4283387749
0.45393267 0.072247021 0.49291438 4283125093
0.45446324 0.072235368 0.49301335 4282995042
0.41020995 0.0039579123 0.52014232 4281284907
0.41076225 0.0041394234 0.52014822 4281349417
0.41131455 0.0043209344 0.52015418 4280955431
0.41184071 0.0045867413 0.52011293 4281087017
0.41236639 0.0048523694 0.52007174 4280955431
0.41294482 0.0049495846 0.52012479 4280626466
0.41346997 0.0052150637 0.52008355 4280363294
0.41399467 0.005480364 0.5200423 4280165145
0.41451883 0.0057455003 0.52000111 4279836180
0.41501492 0.0060942918 0.51991272 4279573008
0.41553789 0.0063590258 0.51987141 4279047182
0.41606036 0.006623596 0.51983017 4278718479
0.41661069 0.0068044513 0.51983607 4278652173
0.4286333 0.059607029 0.49531332 4278981401
0.42892113 0.059980243 0.49517581 4278915608
0.42925206 0.06027475 0.49508563 4278982432
0.42953718 0.06064707 0.49494809 4279114018
0.42982081 0.061018884 0.49481052 4278982686
0.43005764 0.061468229 0.49462563 4278982173
0.43024692 0.061994791 0.49439332 4278916380
0.43043372 0.062520564 0.49416098 4279179300
0.43066415 0.062967777 0.493976 4279376159
0.43093893 0.0633367 0.49383834 4279047964
0.43116567 0.063782707 0.4936533 4278982171
0.43148404 0.064073086 0.493563 4279178780
0.43175438 0.064440563 0.49342531 4279376159
0.43202323 0.064807534 0.49328756 4279245345
0.43229064 0.065174043 0.49314985 4279114272
0.43255657 0.065540045 0.4930121 4279114020
0.43291706 0.065751404 0.4929691 4279179813
0.43318051 0.066116586 0.49283135 4279245093
0.43353957 0.066327468 0.49278831 4279376677
0.43384933 0.06661503 0.49269792 4279245345
0.43420714 0.066825494 0.49265489 4279310884
0.43456447 0.067035794 0.49261189 4279310884
0.43487176 0.067322537 0.49252144 4279310884
0.43512833 0.06768547 0.4923836 4279376931
0.43548346 0.06789504 0.49234053 4279376677
0.43573755 0.068257183 0.49220267 4279376938
0.43604067 0.068542555 0.49211216 4279180073
0.43634281 0.068827577 0.49202168 4279245868
0.43664396 0.069112301 0.4919312 4279311661
0.43694413 0.069396697 0.49184069 4279443499
0.43729481 0.069604814 0.49179757 4279639849
0.43759325 0.069888644 0.49170706 4279639849
0.43799469 0.070020571 0.49171135 4279902505
0.43834388 0.070228204 0.49166825 4279968298
0.43869257 0.07043568 0.49162513 4279771689
0.43909353 0.070567444 0.49162942 4279837480
0.4394415 0.070774674 0.4915863 4279903275
0.43984216 0.070906356 0.49159059 4279968298
0.44024286 0.071038038 0.49159491 4280034091
0.44064355 0.071169719 0.4915992 4280034091
0.44104421 0.071301401 0.49160349 4280231470
0.44139069 0.071508139 0.49156034 4280099882
0.44179115 0.071639746 0.49156466 4280297261
0.44219157 0.071771346 0.49156895 4280428847
0.44264695 0.071828127 0.49162072 4280363056
0.44304764 0.071959808 0.49162501 4280691767
0.44344831 0.07209149 0.4916293 4280691769
0.44390467 0.072148591 0.4916811 4281218113
0.4443056 0.072280355 0.49168539 4281415492
0.44476271 0.072337702 0.49173716 4281808713
0.44522029 0.072395205 0.49178892 4281480522
0.44567835 0.072452873 0.49184072 4281548109
0.44619381 0.072436534 0.49193999 4281810766
0.44665313 0.072494611 0.49199179 4281744973
0.44722772 0.072404824 0.49213856 4282139213
0.44774616 0.072389469 0.49223787 4281810502
0.44826555 0.072374418 0.49233717 4282597965
0.44878596 0.072359681 0.49243647 4282532172
0.44924894 0.072418965 0.49248832 4282663758
0.44977105 0.072404802 0.49258766 4282729551
0.45023531 0.072464496 0.49263951 4282467667
0.45075911 0.072450921 0.49273887 4282467667
0.45128393 0.072437651 0.49283823 4282467667
0.45175016 0.072497994 0.49289012 4283058259
0.45227671 0.072485276 0.49298948 4283059034
0.45274413 0.07254602 0.4930414 4283124577
0.45380163 0.072522081 0.49324021 4282928481
0.45433187 0.0725106 0.49333963 4282863969
0.40961275 0.0038804859 0.5207355 4281286192
0.41014019 0.0041465461 0.52069408 4281088300
0.41071832 0.0042438209 0.52074736 4281087017
0.4112711 0.0044254959 0.52075326 4280955431
0.41179779 0.0046913177 0.52071184 4281021224
0.41229767 0.0050410777 0.52062303 4280889638
0.41284969 0.0052224994 0.52062893 4280494880
0.41340175 0.0054039359 0.52063489 4280363040
0.41389963 0.0057530403 0.52054608 4280164893
0.41442388 0.0060180575 0.52050459 4279704342
0.4149476 0.0062829256 0.52046311 4279375377
0.41547087 0.0065476149 0.52042162 4278981138
0.4159936 0.0068121552 0.52038014 4278850065
0.4165442 0.0069931 0.5203861 4278718481
0.42822757 0.059520096 0.49578828 4278916126
0.42856079 0.059815094 0.49569768 4278982171
0.42889306 0.060109764 0.49560708 4278915608
0.42922431 0.060404107 0.49551642 4278916893
0.429465 0.060854167 0.49533066 4278916893
0.42970371 0.061303556 0.49514484 4278851098
0.42989516 0.061830178 0.49491143 4278982686
0.42999309 0.062511504 0.49458283 4278982432
0.43017915 0.063036337 0.49434939 4279245093
0.43040875 0.063482746 0.49416348 4279179811
0.43063641 0.063928515 0.49397758 4279047966
0.43090859 0.064296186 0.4938392 4279374876
0.43122607 0.064585999 0.49374843 4279506462
0.43149555 0.064952776 0.49361005 4279376159
0.43181083 0.065241873 0.49351925 4279376161
0.43207762 0.065607756 0.49338084 4279178782
0.43243843 0.06581907 0.49333763 4279114018
0.43275073 0.066107184 0.49324679 4279179811
0.43306208 0.06639497 0.49315596 4279179811
0.43337241 0.066682458 0.49306509 4279245604
0.43373051 0.066892877 0.49302185 4279179811
0.43403915 0.067179784 0.49293098 4279310886
0.4343468 0.067466348 0.49284011 4279311138
0.43465343 0.0677526 0.49274921 4279245345
0.43495911 0.068038538 0.49265832 4279311647
0.43526378 0.068324164 0.49256739 4279311397
0.4355675 0.068609446 0.49247646 4279180073
0.43587023 0.068894394 0.49238554 4279180073
0.43617195 0.069179028 0.49229461 4279311659
0.43647268 0.069463342 0.49220365 4279311659
0.43677247 0.069747336 0.49211267 4279442985
0.43712267 0.06995517 0.49206933 4279770665
0.4374724 0.070162848 0.492026 4279508011
0.43782166 0.070370361 0.49198267 4279639851
0.4381704 0.070577711 0.49193931 4279705644
0.4385711 0.070709392 0.49194363 4279771437
0.4389191 0.070916504 0.49190027 4279771435
0.43931955 0.071048103 0.49190456 4280034091
0.43966681 0.071254969 0.49186119 4279902505
0.4401204 0.071311302 0.49191317 4279968816
0.44046718 0.071518011 0.49186981 4280100402
0.44086736 0.071649529 0.4918741 4280100661
0.44126755 0.071781047 0.49187839 4280362802
0.44166777 0.071912572 0.49188268 4280560435
0.44206795 0.072044089 0.49188697 4280824123
0.44246814 0.072175607 0.49189126 4280758330
0.44292349 0.072232507 0.49194324 4280889918
0.44332391 0.072364107 0.49194756 4280889918
0.44372433 0.072495714 0.49195185 4281677897
0.44418067 0.072552934 0.49200386 4281480518
0.44463748 0.072610319 0.49205583 4281808713
0.44509476 0.072667874 0.49210784 4281480522
0.44560915 0.072651446 0.49220753 4281547596
0.44606769 0.072709404 0.49225956 4281744205
0.44658381 0.072693549 0.49235928 4281678412
0.44710094 0.072678015 0.49245903 4282007114
0.44761902 0.072662808 0.49255878 4281942858
0.44819593 0.072574206 0.49270624 4282270538
0.44871622 0.072559714 0.49280602 4282270538
0.44923753 0.072545551 0.4929058 4282598731
0.44970125 0.072605208 0.49295786 4282598735
0.45016542 0.072665021 0.49300992 4282532438
0.45068917 0.072651684 0.49310973 4282598231
0.45115459 0.0727119 0.49316183 4282795862
0.45168006 0.072699115 0.49326164 4282992723
0.45214671 0.072759733 0.49331376 4282927446
0.40954259 0.0040694028 0.52128792 4281285679
0.4100956 0.0042511523 0.52129382 4281022507
0.41067421 0.0043486953 0.52134734 4281087017
0.41117588 0.0046987832 0.52125812 4280955431
0.4117547 0.0047964007 0.52131164 4281021222
0.41228145 0.0050621182 0.52126998 4280955429
0.41278115 0.0054115206 0.52118075 4280429087
0.41330665 0.0056768507 0.52113903 4280297247
0.41383165 0.005941987 0.52109736 4280099100
0.4143289 0.0062906146 0.52100807 4279507480
0.41485268 0.0065553486 0.52096635 4279244308
0.41537598 0.0068199188 0.52092469 4279046931
0.41589877 0.0070843399 0.52088296 4278850065
0.42786419 0.059355035 0.49631193 4278785303
0.42819875 0.059650198 0.49622089 4278850583
0.4285323 0.059945017 0.49612981 4278982169
0.42882064 0.060317576 0.49599096 4279046681
0.42910749 0.060689658 0.49585211 4278982171
0.42934808 0.061139137 0.4956654 4278916378
0.4294517 0.061821416 0.49533531 4278916889
0.42959714 0.062424809 0.49505296 4279180061
0.43010771 0.064074248 0.49430138 4279179298
0.43038052 0.064441711 0.49416235 4279310366
0.43069834 0.064731359 0.49407113 4279375648
0.43101519 0.065020695 0.4939799 4279507234
0.43137801 0.06523253 0.49393648 4279375648
0.43164587 0.065598384 0.49379742 4279376161
0.43195975 0.065886736 0.49370614 4279178782
0.43227264 0.066174775 0.49361485 4279179300
0.43258458 0.066462472 0.49352357 4279375907
0.43289548 0.066749871 0.49343228 4279375907
0.43320543 0.067036942 0.49334097 4279310884
0.43351439 0.067323685 0.49324965 4279245091
0.4338713 0.067533568 0.49320617 4279244839
0.43417853 0.067819744 0.49311483 4279179811
0.43448478 0.068105593 0.49302348 4279245604
0.43479005 0.068391129 0.49293214 4279180577
0.4350943 0.068676338 0.49284077 4279311649
0.43539762 0.068961203 0.49274939 4279311397
0.43569994 0.069245763 0.49265799 4279180327
0.43600124 0.069529995 0.49256659 4279377192
0.43630159 0.069813907 0.49247518 4279377192
0.43660095 0.070097491 0.49238378 4279573288
0.43695074 0.070305042 0.49234021 4279638827
0.43730003 0.070512436 0.49229664 4279508013
0.43770069 0.070644118 0.49230093 4279442731
0.43804923 0.070851266 0.49225736 4279640364
0.43839729 0.071058251 0.49221379 4279640364
0.43879747 0.071189776 0.49221808 4279836458
0.43919766 0.071321294 0.49222237 4279902505
0.43954474 0.071527958 0.4921788 4279902253
0.43994468 0.071659394 0.49218309 4279968562
0.44039825 0.071715854 0.49223527 4280231734
0.44079843 0.071847372 0.49223956 4280495421
0.44119862 0.071978889 0.49224386 4281152320
0.44159883 0.072110415 0.49224815 4281349438
0.44199902 0.072241932 0.49225247 4281284928
0.44234434 0.07244803 0.49220884 4281153342
0.44279939 0.072504967 0.49226105 4281218111
0.44319957 0.072636493 0.49226534 4281217598
0.44365537 0.072693676 0.49231756 4281611586
0.4440558 0.072825275 0.49232185 4281611586
0.44451231 0.072882704 0.49237406 4281677379
0.44496933 0.072940297 0.49242631 4281545541
0.44548339 0.072924033 0.49252644 4281678414
0.44599843 0.072908096 0.49262661 4281744975
0.44645742 0.072966337 0.49267885 4281679182
0.4470315 0.072877198 0.49282697 4282138448
0.44754952 0.07286223 0.49292716 4282138702
0.44812632 0.072773993 0.49307531 4282270286
0.44864655 0.07275974 0.49317554 4282204493
0.44910944 0.07281927 0.49322781 4282139213
0.44963139 0.072805598 0.49332806 4282139467
0.4501543 0.072792269 0.49342829 4282072391
0.45061922 0.072852448 0.49348062 4282138184
0.45108458 0.072912782 0.49353293 4282202955
0.40901816 0.0037394464 0.52202606 4281350702
0.40954742 0.0040058345 0.52198422 4281284909
0.41007614 0.0042720735 0.52194232 4281088300
0.41062993 0.0044540614 0.52194828 4281022253
0.41115794 0.004720062 0.52190644 4280693542
0.41168544 0.0049858838 0.52186453 4280824356
0.41223872 0.0051677227 0.52187049 4280758563
0.4127655 0.0054333061 0.52182859 4280100633
0.41323829 0.0058660656 0.52169102 4280034588
0.41376358 0.0061311871 0.52164912 4279837209
0.41426116 0.0064796507 0.52155942 4279441940
0.41478524 0.0067443401 0.52151746 4279244561
0.41528106 0.0070922375 0.52142769 4279310614
0.41583189 0.0072732568 0.52143365 4278915858
0.42779148 0.059563711 0.49669743 4278982423
0.4281261 0.05985862 0.4966059 4278850837
0.42845976 0.060153201 0.49651441 4279112985
0.42879245 0.060447454 0.49642289 4278981399
0.42920914 0.063173473 0.49509618 4279180061
0.42939562 0.063697085 0.49486047 4279114018
0.42957962 0.064219892 0.49462473 4279114020
0.42985302 0.064587161 0.49448505 4279178528
0.43017119 0.064876646 0.49439338 4279375646
0.43053478 0.065088615 0.49434975 4279244062
0.43085122 0.065377533 0.49425805 4279441441
0.43116665 0.065666139 0.49416637 4279375646
0.43148112 0.065954417 0.49407464 4279376161
0.43179458 0.066242367 0.49398291 4279178782
0.43210706 0.066529974 0.49389121 4279179300
0.43241856 0.066817299 0.49379945 4279441700
0.43277723 0.067027643 0.49375576 4279310114
0.43303859 0.067390949 0.49361593 4279245091
0.4333958 0.067600787 0.49357224 4279245091
0.43365473 0.067963272 0.4934324 4279310634
0.43401045 0.068172649 0.49338865 4279245606
0.43431628 0.06845811 0.49329686 4279114786
0.43462116 0.068743229 0.49320504 4279114786
0.43492502 0.06902802 0.49311325 4279311649
0.43517777 0.069388486 0.49297333 4279376931
0.43547943 0.069672555 0.49288148 4279311651
0.43578011 0.069956303 0.49278963 4279377190
0.43613067 0.07016398 0.49274585 4279311397
0.43642962 0.070447162 0.49265397 4279573288
0.43683028 0.070578843 0.49265826 4279638827
0.43712777 0.070861533 0.49256638 4279508013
0.43752795 0.070993058 0.49257067 4279442731
0.43787605 0.071199924 0.49252686 4279574571
0.43827599 0.071331359 0.49253118 4279574571
0.43862334 0.071537979 0.49248734 4279836458
0.43902305 0.07166934 0.49249163 4279902251
0.43942276 0.071800701 0.49249592 4280033585
0.43987578 0.071857117 0.49254835 4280428597
0.44027573 0.071988553 0.49255264 4280823355
0.44067568 0.072119996 0.49255693 4280758591
0.44102156 0.072326131 0.49251309 4281217859
0.44147557 0.072382867 0.49256551 4281414977
0.44187552 0.07251431 0.4925698 4281349951
0.44227543 0.072645746 0.4925741 4281284158
0.44273046 0.07270281 0.49262652 4281218111
0.44313064 0.072834335 0.49263084 4281283645
0.44353083 0.072965853 0.49263513 4281481024
0.4439868 0.073023237 0.49268755 4281546817
0.44444329 0.073080793 0.49274001 4281808965
0.44495654 0.073064536 0.49284059 4281808713
0.44541425 0.073122486 0.49289304 4281744205
0.44587243 0.073180601 0.49294549 4281744975
0.44638813 0.073165148 0.49304613 4281679182
0.44690484 0.073150024 0.49314678 4282006862
0.4474225 0.07313522 0.49324742 4282006862
0.44799894 0.073047265 0.49339622 4281941069
0.44851881 0.073033184 0.49349689 4281875276
0.44898146 0.073092751 0.49354941 4281678664
0.44956157 0.073006004 0.49369827 4281810502
0.45008439 0.072992906 0.49379894 4281809217
0.45060822 0.072980128 0.49389964 4281875010
0.40899688 0.0037608445 0.52267635 4281482034
0.40952691 0.0040273666 0.52263427 4281088046
0.41008165 0.0042096823 0.52264023 4280825387
0.41061094 0.0044759512 0.52259815 4280825128
0.41113973 0.004742071 0.52255607 4280758563
0.41166803 0.005008027 0.52251399 4280758563
0.41219583 0.0052738041 0.52247185 4280495391
0.41269669 0.0056230724 0.52238166 4280100122
0.41319656 0.0059720129 0.52229154 4279903002
0.41369545 0.0063206106 0.52220136 4279574037
0.41419333 0.0066689253 0.52211118 4279179028
0.4147177 0.0069335848 0.52206904 4279113235
0.41521388 0.0072813034 0.5219788 4279179802
0.4280535 0.060067043 0.49699095 4278850837
0.42854446 0.06355232 0.49527657 4278982684
0.42877656 0.063997924 0.49508801 4279180063
0.42909747 0.06428805 0.49499592 4279114272
0.42937177 0.0646552 0.49485555 4279114020
0.42969051 0.064944595 0.49476343 4279310114
0.43000826 0.065233693 0.49467131 4279310366
0.430325 0.065522447 0.4945792 4279178782
0.43068743 0.06573388 0.49453533 4279310368
0.43100244 0.066022083 0.49444315 4279375646
0.43131649 0.066309959 0.494351 4279376161
0.43162954 0.066597492 0.49425882 4279179298
0.43194163 0.066884726 0.49416664 4279047460
0.43225273 0.067171633 0.49407443 4279441700
0.43261096 0.06738168 0.49403054 4279310114
0.43292034 0.067668006 0.4939383 4279441700
0.43318009 0.068030372 0.49379778 4279245091
0.43348727 0.068315983 0.49370557 4279310634
0.43379343 0.06860128 0.4936133 4279310632
0.43414795 0.068810128 0.49356934 4279245858
0.43445241 0.069094829 0.49347708 4279245858
0.4346562 0.069531128 0.49328822 4279311649
0.43495819 0.069815032 0.49319589 4279442722
0.43530953 0.070022829 0.4931519 4279442722
0.43560979 0.070306174 0.49305961 4279639331
0.43595991 0.070513561 0.49301559 4279638820
0.43625844 0.070796341 0.49292326 4279638820
0.43665862 0.070927858 0.49292755 4279442472
0.43700725 0.071134761 0.49288353 4279639597
0.4373554 0.071341507 0.49283952 4279442731
0.43775511 0.071472868 0.49284381 4279442731
0.43810248 0.071679369 0.49279976 4279574317
0.43850195 0.07181064 0.49280405 4279771437
0.43890139 0.07194192 0.49280834 4280033837
0.43935388 0.071998298 0.49286097 4280824125
0.43975359 0.072129652 0.49286526 4281152570
0.4401533 0.072261013 0.49286956 4281349949
0.44055298 0.072392374 0.49287385 4281218111
0.44095269 0.072523728 0.49287814 4281217859
0.44140667 0.072580591 0.49293077 4281218113
0.44180661 0.072712034 0.49293506 4281349184
0.44220653 0.07284347 0.49293935 4281349184
0.44260651 0.072974913 0.49294364 4281349951
0.44306171 0.073032178 0.49299631 4281546817
0.44346189 0.073163696 0.4930006 4281481024
0.44391781 0.073221207 0.49305326 4281546817
0.44437426 0.073278874 0.49310595 4281743944
0.44483119 0.073336713 0.49315861 4281874758
0.44534507 0.073320933 0.49325964 4281546563
0.44580323 0.073379174 0.49331233 4281612871
0.44631886 0.073363967 0.49341342 4281678664
0.44683546 0.073349081 0.49351448 4281939781
0.44735307 0.073334523 0.4936156 4281939781
0.44781393 0.07339365 0.49366832 4281414725
0.4483912 0.073306389 0.49381781 4281414725
0.44891173 0.073292784 0.49391893 4280889664
0.44943327 0.073279515 0.49402004 4281087043
0.44995579 0.073266581 0.49412119 4281349697
0.45047927 0.073253974 0.49422234 4281218111
0.45100376 0.073241681 0.49432352 4281414209
0.40900004 0.0036989003 0.52337623 4281415728
0.40953109 0.0039656162 0.52333397 4281088048
0.41006166 0.0042321831 0.52329165 4280628524
0.41061714 0.0044147372 0.52329761 4280628008
0.41109562 0.0048485696 0.52315879 4280627749
0.41165036 0.0050308853 0.52316475 4280627749
0.41215277 0.0053803921 0.52307415 4280495391
0.41265419 0.005729571 0.52298355 4280100122
0.4131813 0.0059949905 0.52294123 4279968284
0.41365409 0.0064269602 0.52280229 4279639319
0.41412544 0.0068584532 0.52266341 4279179030
0.41465008 0.007123068 0.52262104 4279179030
0.41514659 0.0074706227 0.52253038 4279114268
0.42829385 0.064066157 0.49545962 4278982684
0.42857024 0.064433575 0.49531862 4279114270
0.42893589 0.064645946 0.49527454 4279114270
0.42920983 0.065012559 0.49513352 4279114020
0.42957401 0.065224439 0.49508944 4279375394
0.42989159 0.065513194 0.49499685 4279310366
0.43025452 0.065724671 0.49495274 4279310368
0.43052378 0.066089749 0.49481165 4279310368
0.43083841 0.066377535 0.49471906 4279310366
0.43119913 0.066588268 0.49467495 4279310368
0.43146473 0.066952154 0.49453381 4279179298
0.4317764 0.067238972 0.49444118 4279179046
0.4321349 0.067448989 0.49439704 4279375909
0.43244487 0.067735225 0.49430436 4279310116
0.4327538 0.068021163 0.4942117 4279376161
0.43301323 0.068382993 0.49407053 4279376161
0.43331999 0.068668216 0.49397781 4279310634
0.43362576 0.068953082 0.49388513 4279310632
0.43393052 0.069237635 0.49379241 4279245858
0.43418476 0.069597773 0.49365115 4279311651
0.43448731 0.069881603 0.49355841 4279311649
0.43478891 0.070165105 0.49346566 4279376929
0.43513978 0.070372619 0.49342144 4279376929
0.43543965 0.070655555 0.49332869 4279639331
0.43578929 0.070862666 0.49328443 4279638820
0.43613845 0.071069606 0.49324021 4279638820
0.4365384 0.071201049 0.4932445 4279442472
0.43688685 0.07140775 0.49320024 4279508011
0.43723476 0.071614288 0.49315599 4279639597
0.43763423 0.071745567 0.49316028 4279508011
0.43803367 0.071876846 0.49316454 4279639597
0.43843311 0.072008118 0.49316883 4280100402
0.43883258 0.072139397 0.49317312 4280626744
0.43923205 0.072270676 0.49317741 4281087810
0.43963149 0.072401956 0.49318171 4281218363
0.44008443 0.07245861 0.49323457 4281349949
0.44053787 0.072515436 0.49328744 4281414459
0.44088382 0.072721332 0.49324316 4281414207
0.44128352 0.072852686 0.49324745 4281217598
0.44173771 0.07290975 0.49330032 4281283645
0.44213766 0.073041193 0.49330461 4281349438
0.44253761 0.073172629 0.4933089 4281415744
0.44293755 0.073304072 0.49331319 4281546817
0.44339293 0.073361538 0.49336606 4281481024
0.44384885 0.073419169 0.49341896 4281546817
0.44430524 0.073476963 0.49347186 4281480772
0.44476211 0.073534921 0.49352476 4281283391
0.4452759 0.073519386 0.49362624 4281217852
0.44567734 0.073651314 0.49363056 4281481024
0.44619262 0.073636264 0.49373209 4281546817
0.44670892 0.073621541 0.4938336 4281676352
0.44722617 0.073607147 0.49393517 4281742402
0.44774443 0.073593073 0.4940367 4281283139
0.44832158 0.073506176 0.49418688 4281283139
0.44884205 0.073492818 0.49428844 4280889664
0.44936347 0.073479794 0.49439004 4281021250
0.4498859 0.073467098 0.49449164 4281217859
0.40849471 0.0032868087 0.52416891 4281482034
0.40953493 0.0039048493 0.52403545 4280956722
0.41006652 0.0041716099 0.5239929 4280496685
0.41062301 0.0043544918 0.52399892 4280496424
0.41110256 0.0047882795 0.52385938 4280561956
0.41165832 0.0049709231 0.52386534 4280561956
0.4121618 0.0053205043 0.52377433 4280429598
0.41266429 0.0056697726 0.52368331 4279968536
0.41316581 0.0060187131 0.52359223 4279902491
0.41363949 0.0064505488 0.52345264 4279507480
0.41411167 0.0068819076 0.52331305 4279179030
0.41458237 0.0073127896 0.52317345 4279310616
0.42745286 0.062175453 0.49679178 4278982423
0.42840928 0.064791262 0.49559659 4279114272
0.42877448 0.06500335 0.49555227 4279114272
0.4291392 0.06521526 0.49550799 4278982686
0.4294576 0.065504029 0.49541497 4279375648
0.42982107 0.065715536 0.49537066 4279244060
0.43013775 0.06600374 0.49527761 4279244060
0.43045345 0.0662916 0.49518457 4279441439
0.43076816 0.066579148 0.4950915 4279375646
0.43103483 0.06694296 0.49494973 4279310368
0.43139464 0.067153275 0.49490535 4279114018
0.4316113 0.067592725 0.4947148 4279113766
0.43201715 0.067726105 0.49471918 4279245091
0.4322789 0.068088293 0.49457735 4279179298
0.43258744 0.068373814 0.49448422 4279245345
0.43284649 0.068735152 0.49434233 4279245345
0.43320161 0.068943918 0.49429792 4279311138
0.43371332 0.069664426 0.49401411 4279180065
0.43396693 0.070023961 0.49387217 4279245858
0.4343186 0.070231594 0.49382776 4279245858
0.43461978 0.070514694 0.49373454 4279376677
0.43497023 0.070721917 0.49369007 4279310884
0.43532017 0.070928983 0.49364561 4279442470
0.4356696 0.071135893 0.49360114 4279376931
0.43596759 0.071417935 0.49350792 4279442724
0.43636703 0.071549214 0.49351221 4279442470
0.43676651 0.071680494 0.4935165 4279508265
