# .PCD v0.7 - Point Cloud Data file format
VERSION 0.7
FIELDS x y z rgb
SIZE 4 4 4 4
TYPE F F F U
COUNT 1 1 1 1
WIDTH 1055
HEIGHT 1
VIEWPOINT 0 0 0 1 0 0 0
POINTS 1055
DATA ascii
0.43421814 0.046424799 0.48618287 4278652171
0.43422234 0.045904577 0.48618194 4278652424
0.43422654 0.045384355 0.48618102 4278652424
0.43423074 0.044864129 0.4861801 4278652424
0.43423495 0.044343907 0.48617917 4278586631
0.43423915 0.043823685 0.48617825 4278652424
0.43424335 0.04330346 0.48617733 4278652171
0.43424755 0.042783238 0.48617643 4278520585
0.43425176 0.042263016 0.48617548 4278521100
0.43425456 0.041759148 0.4862746 4278586893
0.43425876 0.041238666 0.48627365 4278455307
0.43426159 0.04073403 0.48637277 4278586641
0.43426579 0.040213287 0.48637185 4278586893
0.43426999 0.039692543 0.48637092 4278521098
0.4342742 0.039171804 0.48637 4278586891
0.4342784 0.038651057 0.48636907 4278586891
0.4342826 0.038130321 0.48636815 4278586631
0.43428683 0.037609577 0.48636723 4278586378
0.43429103 0.037088837 0.4863663 4278652171
0.43429524 0.036568098 0.48636538 4278586378
0.43429944 0.036047354 0.48636445 4278652171
0.43430364 0.035526615 0.48636353 4278390282
0.43430784 0.035005871 0.48636261 4278521102
0.43431205 0.034485132 0.48636168 4278586895
0.43431625 0.033964388 0.48636076 4278521098
0.43432048 0.033443648 0.48635983 4278521098
0.43432468 0.032922905 0.48635891 4278586893
0.43432888 0.032402165 0.48635799 4278521102
0.43433309 0.031881422 0.48635706 4278521102
0.43433595 0.031371862 0.48645616 4278521102
0.43434015 0.030850863 0.48645523 4278521098
0.43434301 0.030340526 0.48655432 4278521098
0.43434721 0.029819265 0.4865534 4278325002
0.43435144 0.029298006 0.48655248 4278325002
0.43435431 0.028786629 0.4866516 4278390284
0.43435851 0.028265111 0.48665065 4278390284
0.43436274 0.027743591 0.48664972 4278455307
0.43436694 0.027222075 0.4866488 4278455825
0.43437114 0.026700556 0.48664787 4278390032
0.43437538 0.026179038 0.48664695 4278389782
0.43437958 0.02565752 0.48664603 4278455309
0.43438378 0.025136 0.4866451 4278521102
0.43438801 0.024614481 0.48664418 4278455309
0.43439221 0.024092961 0.48664325 4278521102
0.43439773 0.023564149 0.48654231 4278455305
0.43440196 0.023042891 0.48654139 4278455558
0.43440616 0.02252163 0.48654047 4278521100
0.43441036 0.022000371 0.48653954 4278521100
0.43441457 0.021479111 0.48653862 4278455307
0.4344188 0.020957854 0.48653769 4278586893
0.434423 0.020436592 0.48653677 4278586893
0.43442592 0.019920815 0.48663586 4278455305
0.43443012 0.019399295 0.48663491 4278521098
0.43443432 0.018877776 0.48663402 4278717198
0.43443853 0.018356258 0.48663306 4278586380
0.43444276 0.017834738 0.48663217 4278586380
0.43444696 0.01731322 0.48663121 4278586631
0.43445116 0.016791701 0.48663032 4278586631
0.43445539 0.016270183 0.48662937 4278586631
0.4344596 0.015748665 0.48662847 4278587144
0.4344638 0.015227146 0.48662752 4278455305
0.43446931 0.014702739 0.48652661 4278586378
0.43447351 0.01418148 0.48652565 4278586378
0.434479 0.013657848 0.48642474 4278520585
0.4344832 0.013136849 0.48642382 4278390282
0.4344874 0.012615847 0.4864229 4278390284
0.43449163 0.012094848 0.48642197 4278521098
0.43449584 0.011573847 0.48642105 4278521098
0.43449879 0.011053922 0.48652011 4278520585
0.43450299 0.010532662 0.48651922 4278520587
0.43450719 0.010011403 0.48651826 4278651921
0.43451139 0.0094901435 0.48651737 4278586128
0.43451563 0.0089688841 0.48651642 4278586382
0.43451858 0.008447405 0.48661551 4278521102
0.43452278 0.0079258867 0.48661458 4278521102
0.43452573 0.0074036298 0.48671365 4278521102
0.43452871 0.0068808552 0.48681271 4278521102
0.43453291 0.0063588182 0.48681182 4278586382
0.43453589 0.0058352668 0.48691088 4278455309
0.43453887 0.0053111962 0.48700994 4278521102
0.43454307 0.0047886409 0.48700902 4278520585
0.43454605 0.0042637945 0.48710808 4278586378
0.43454906 0.0037384285 0.48720714 4278586891
0.43455327 0.0032153553 0.48720622 4278586380
0.4345575 0.0026922827 0.4872053 4278520585
0.43456173 0.0021692095 0.48720437 4278520585
0.43456596 0.0016461364 0.48720342 4278520585
0.43457016 0.0011230637 0.48720253 4278521098
0.43457562 0.00060409773 0.48710158 4278586380
0.43457985 8.128304e-05 0.48710066 4278651401
0.43458527 -0.00043690763 0.48699975 4278521098
0.43458951 -0.00095946249 0.48699883 4278455305
0.43459374 -0.0014820164 0.4869979 4278455305
0.43459794 -0.0020045722 0.48699698 4278521351
0.43460339 -0.0025214665 0.48689604 4278455305
0.4346076 -0.0030437624 0.48689514 4278455305
0.43461183 -0.0035660584 0.48689419 4278586895
0.43461603 -0.0040883543 0.4868933 4278455307
0.43462026 -0.0046106502 0.48689234 4278521098
0.43462446 -0.0051329462 0.48689142 4278521100
0.4346287 -0.0056552412 0.48689049 4278521100
0.4346329 -0.0061775371 0.48688957 4278586382
0.43463713 -0.006699834 0.48688865 4278586382
0.43464133 -0.0072221272 0.48688772 4278520587
0.43464556 -0.007744424 0.4868868 4278520585
0.43465096 -0.0082582068 0.48678589 4278520585
0.43465519 -0.0087802447 0.48678493 4278586380
0.43465939 -0.0093022808 0.48678404 4278586380
0.43466479 -0.0098150335 0.48668313 4278717445
0.43466902 -0.010336811 0.48668218 4278651906
0.43467441 -0.010848783 0.48658127 4278651906
0.43467861 -0.011370299 0.48658037 4278651652
0.43468282 -0.01189182 0.48657942 4278586629
0.43468705 -0.012413336 0.48657852 4278586382
0.43469125 -0.012934856 0.48657757 4278586380
0.43469545 -0.013456374 0.48657668 4278520587
0.43469852 -0.013989253 0.48667574 4278652424
0.43470272 -0.014511032 0.48667479 4278783240
0.43470576 -0.015044687 0.48677385 4278651654
0.43471 -0.015566722 0.48677292 4278652171
0.4347142 -0.01608876 0.486772 4278586378
0.43471843 -0.016610796 0.48677105 4278520850
0.4347215 -0.017145749 0.48687011 4278390036
0.4347257 -0.017668044 0.48686922 4278586895
0.43472877 -0.018203774 0.48696825 4278455307
0.434733 -0.018726328 0.48696733 4278521100
0.43473721 -0.019248884 0.48696637 4278586893
0.43474144 -0.019771438 0.48696548 4278521100
0.43474567 -0.020293996 0.48696452 4278652424
0.43474987 -0.020816548 0.48696363 4278651906
0.4347541 -0.021339102 0.48696268 4278586113
0.43475831 -0.021861659 0.48696175 4278783492
0.43476254 -0.022384211 0.48696083 4278587144
0.43476677 -0.022906769 0.4869599 4278521098
0.43477097 -0.023429323 0.48695898 4278586891
0.43477407 -0.02396816 0.48705801 4278586378
0.4347783 -0.024490971 0.48705709 4278586631
0.43478251 -0.025013786 0.48705614 4278848263
0.43478563 -0.025553666 0.4871552 4278651654
0.43478984 -0.026076734 0.48715428 4278585861
0.43479407 -0.02659981 0.48715335 4278652173
0.4347983 -0.027122881 0.4871524 4278586378
0.43480253 -0.027645953 0.4871515 4278521098
0.43480673 -0.028169028 0.48715055 4278652171
0.43481097 -0.028692104 0.48714963 4278652171
0.4348152 -0.029215176 0.4871487 4278586629
0.43481943 -0.029738244 0.48714778 4278586629
0.43482363 -0.030261323 0.48714685 4278651652
0.43482786 -0.030784395 0.4871459 4278652173
0.4348321 -0.031307466 0.48714501 4278717966
0.43483633 -0.031830538 0.48714405 4278586380
0.43484053 -0.032353614 0.48714316 4278717194
0.43484476 -0.032876685 0.48714221 4278520585
0.43484899 -0.033399757 0.48714128 4278717445
0.43485323 -0.033922832 0.48714036 4278717445
0.43485743 -0.034445904 0.48713943 4278652422
0.43486166 -0.034968976 0.48713851 4278586631
0.43486589 -0.035492051 0.48713756 4278652175
0.43487012 -0.036015127 0.48713666 4278782991
0.43487433 -0.036538195 0.48713571 4278717198
0.43487856 -0.037061267 0.48713478 4278586380
0.43488172 -0.037607357 0.48723382 4278717194
0.43488595 -0.038130686 0.48723289 4278586631
0.43489015 -0.038654022 0.48723197 4278718217
0.43489438 -0.039177354 0.48723102 4278718217
0.43489861 -0.039700687 0.48723012 4278521102
0.43490285 -0.040224016 0.48722917 4278586391
0.43490812 -0.04072278 0.48712832 4278586643
0.43491235 -0.041245855 0.48712736 4278521100
0.43491659 -0.041768927 0.48712644 4278652686
0.43492079 -0.042291999 0.48712552 4278717966
0.43492606 -0.042789463 0.48702464 4278652173
0.43493029 -0.043312274 0.48702371 4278848782
0.43493453 -0.043835092 0.48702276 4278914575
0.4349398 -0.044331525 0.48692191 4278848263
0.434944 -0.044854078 0.48692098 4278782987
0.43494824 -0.045376629 0.48692006 4278652173
0.43495244 -0.045899183 0.48691913 4278520585
0.43495667 -0.04642174 0.48691821 4278652171
0.43495986 -0.046971973 0.48701721 4278717964
0.43496409 -0.047494788 0.48701629 4278848010
0.43496728 -0.048045799 0.48711532 4278913803
0.43497148 -0.048568875 0.48711437 4278979849
0.4349747 -0.049120665 0.4872134 4278979849
0.43497893 -0.049643997 0.48721248 4278849285
0.43498212 -0.050196566 0.48731148 4278717445
0.43498635 -0.050720155 0.48731059 4278849031
0.43499058 -0.051243749 0.48730963 4279177226
0.43499482 -0.051767338 0.48730871 4279045640
0.43499804 -0.052321203 0.48740774 4278979844
0.43500227 -0.05284505 0.48740679 4278586378
0.4350065 -0.0533689 0.48740587 4278717194
0.43501073 -0.053892758 0.48740494 4278848780
0.43501496 -0.054416608 0.48740402 4278914573
0.4350192 -0.054940451 0.48740309 4278586128
0.43502241 -0.05549613 0.4875021 4278782991
0.43502665 -0.056020241 0.48750117 4278848782
0.43503088 -0.056544352 0.48750025 4278783492
0.43503511 -0.057068456 0.4874993 4278849285
0.43503934 -0.057592567 0.4874984 4278717966
0.43504357 -0.058116678 0.48749745 4278783240
0.43504781 -0.058640789 0.48749653 4278783492
0.43505204 -0.0591649 0.4874956 4278783240
0.43505627 -0.059689004 0.48749465 4278717447
0.4350605 -0.060213115 0.48749375 4278521100
0.43506473 -0.060737226 0.4874928 4278782987
0.43506896 -0.061261337 0.48749188 4279045385
0.4350732 -0.061785448 0.48749095 4278979596
0.43507743 -0.062309552 0.48749 4278979596
0.43508166 -0.062833667 0.4874891 4278651921
0.43508589 -0.06335777 0.48748815 4278652175
0.43509012 -0.063881874 0.48748723 4278848780
0.43509436 -0.064405993 0.4874863 4278717194
0.43509859 -0.064930096 0.48748535 4278651401
0.43510282 -0.0654542 0.48748446 4278783240
0.43510705 -0.065978318 0.4874835 4278914054
0.43511131 -0.066502422 0.48748258 4278652171
0.43511555 -0.067026541 0.48748165 4278652171
0.43511978 -0.067550644 0.4874807 4278652173
0.43512401 -0.068074748 0.48747981 4278784010
0.43512824 -0.068598866 0.48747885 4278783757
0.43513247 -0.06912297 0.48747793 4278717194
0.43513671 -0.069647089 0.487477 4278848780
0.43514094 -0.070171192 0.48747608 4279046412
0.43514517 -0.070695311 0.48747516 4278652434
0.43514845 -0.071259007 0.48757416 4278914575
0.43515363 -0.071743518 0.48747328 4279176201
0.43515787 -0.072267637 0.48747236 4279176201
0.43516117 -0.072832108 0.48757136 4279045383
0.43516541 -0.073356494 0.48757041 4278914054
0.43516964 -0.073880851 0.48756951 4278717445
0.43517295 -0.07444638 0.48766851 4278652688
0.43517718 -0.074971005 0.48766756 4278586895
0.43518141 -0.075495645 0.48766664 4279045134
0.43518564 -0.076020256 0.48766571 4279111178
0.4351899 -0.076544896 0.48766476 4279373580
0.43519413 -0.077069521 0.48766384 4279110155
0.43519837 -0.077594146 0.48766291 4279175948
0.4352026 -0.078118771 0.48766199 4279111178
0.43520683 -0.078643396 0.48766106 4279373580
0.43521106 -0.079168022 0.48766011 4279504402
0.43521532 -0.079692662 0.48765919 4279175437
0.43522045 -0.080173269 0.48755834 4279175437
0.43522468 -0.080697641 0.48755741 4278913807
0.43522891 -0.081222013 0.48755646 4278913807
0.43523404 -0.081701592 0.48745561 4278913807
0.43523827 -0.08222571 0.48745471 4278913807
0.4352425 -0.082749814 0.48745376 4278913807
0.43524587 -0.083319485 0.48755276 4278913807
0.43525097 -0.083798036 0.48745191 4278913807
0.43525523 -0.08432214 0.48745096 4278913807
0.43525946 -0.084846243 0.48745006 4278913807
0.43526369 -0.085370362 0.48744911 4278913807
0.43526793 -0.085894465 0.48744819 4278913807
0.43527216 -0.086418584 0.48744726 4278913807
0.43527639 -0.086942688 0.48744634 4278913807
0.43528062 -0.087466791 0.48744541 4278913807
0.43528485 -0.08799091 0.48744446 4278913807
0.43528908 -0.088515013 0.48744354 4278913807
0.43529245 -0.089087531 0.48754251 4278913807
0.43529582 -0.08966057 0.48764151 4278913807
0.43530005 -0.09018521 0.48764056 4278913807
0.43530342 -0.090759024 0.48773956 4278913807
0.43530682 -0.091333345 0.48783854 4278913807
0.43531105 -0.091858491 0.48783761 4278913807
0.43531445 -0.092433587 0.48793659 4278913807
0.43531698 -0.093059435 0.48813546 4278913807
0.43532038 -0.093635842 0.48823446 4278913807
0.43532377 -0.09421277 0.48833343 4278913807
0.43532717 -0.094790205 0.48843241 4278913807
0.4353306 -0.095368177 0.48853138 4278913807
0.435334 -0.09594664 0.48863035 4278913807
0.43533742 -0.096525639 0.4887293 4278913807
0.43534085 -0.097105145 0.4888283 4278913807
0.43534428 -0.097685173 0.48892725 4278913807
0.43451247 0.072422162 0.48782957 4279969314
0.43452045 0.071804404 0.48752844 4279376660
0.43452594 0.071249947 0.48742747 4279441940
0.43453264 0.070665389 0.48722643 4279702545
0.43453935 0.070081875 0.48702541 4279506445
0.4345448 0.069529474 0.48692441 4279506445
0.43455276 0.06891793 0.48662335 4279179020
0.43455943 0.068337522 0.4864223 4279113488
0.43456611 0.067758158 0.48622128 4279047442
0.43457153 0.067208871 0.48612031 4278981902
0.43457699 0.066660106 0.48601934 4278981902
0.43458241 0.066111863 0.48591837 4279440398
0.43458784 0.065564133 0.48581737 4279308812
0.43459201 0.065044954 0.48581648 4279308812
0.43459743 0.064497992 0.48571551 4279308814
0.43460163 0.063979074 0.48571458 4279243021
0.43460581 0.063460141 0.48571366 4278849033
0.43461001 0.062941216 0.48571274 4278849033
0.43461299 0.062449016 0.48581189 4278849033
0.43461716 0.061929822 0.48581094 4279111952
0.43462014 0.061436847 0.48591006 4279046159
0.43462434 0.060917404 0.48590916 4278783238
0.43462735 0.060423646 0.48600829 4278652422
0.43463153 0.059903942 0.48600736 4278718217
0.43463573 0.059384234 0.48600644 4278652424
0.43463993 0.058864526 0.48600551 4278784010
0.43464413 0.058344822 0.48600459 4278652424
0.43464833 0.057825118 0.48600367 4278586629
0.43465373 0.057281278 0.48590273 4278652424
0.4346579 0.056761831 0.48590177 4278718217
0.4346621 0.056242384 0.48590088 4278652173
0.43466631 0.055722941 0.48589993 4278718477
0.43467051 0.055203494 0.48589903 4278456328
0.43467468 0.05468405 0.48589808 4278456328
0.43467772 0.054187182 0.4859972 4278456328
0.43468189 0.053667478 0.48599631 4278456075
0.43468609 0.05314777 0.48599538 4278521098
0.4346903 0.05262807 0.48599446 4278652686
0.4346945 0.052108362 0.48599353 4278521100
0.4346987 0.051588658 0.48599261 4278521100
0.4347029 0.051068954 0.48599169 4278586893
0.43470708 0.050549246 0.48599076 4278456077
0.43471128 0.050029542 0.48598984 4278390282
0.43471548 0.049509834 0.48598891 4278652684
0.43471968 0.048990134 0.48598802 4278586891
0.43472388 0.04847043 0.48598707 4278652937
0.43472809 0.047950719 0.48598617 4278586891
0.43473226 0.047431018 0.48598522 4278521100
0.43473646 0.04691131 0.48598433 4278586893
0.43474066 0.04639161 0.4859834 4278717966
0.43474486 0.045871902 0.48598248 4278586380
0.43474907 0.045352194 0.48598155 4278652171
0.43475327 0.04483249 0.48598063 4278849033
0.43475744 0.044312786 0.48597971 4278783240
0.43476164 0.043793086 0.48597878 4278979849
0.43476585 0.043273374 0.48597786 4278521100
0.43477005 0.04275367 0.48597693 4278455307
0.43477425 0.042233966 0.48597604 4278521102
0.43477845 0.041714262 0.48597509 4278586895
0.43478152 0.041210663 0.48607421 4278389262
0.43478569 0.040690698 0.48607329 4278586643
0.43478879 0.040186323 0.48617238 4278586641
0.434793 0.039666094 0.48617148 4278521098
0.4347972 0.039145872 0.48617053 4278521098
0.4348014 0.03862565 0.48616964 4278587144
0.4348056 0.038105428 0.48616868 4278587142
0.4348098 0.037585199 0.48616779 4278586893
0.43481401 0.037064981 0.48616683 4278652686
0.43481818 0.036544755 0.48616594 4278586891
0.43482238 0.036024533 0.48616502 4278652171
0.43482658 0.035504311 0.48616409 4278521098
0.43483078 0.034984086 0.48616317 4278520848
0.43483499 0.034463864 0.48616225 4278718227
0.43483919 0.033943638 0.48616132 4278521100
0.43484339 0.033423416 0.4861604 4278390284
0.43484759 0.032903194 0.48615947 4278456077
0.4348518 0.032382969 0.48615855 4278521100
0.434856 0.031862747 0.48615763 4278521100
0.43485913 0.031353705 0.48625672 4278456077
0.43486333 0.030833226 0.48625579 4278390282
0.43486643 0.030323405 0.48635489 4278521098
0.43487066 0.029802665 0.48635396 4278325004
0.43487376 0.029292068 0.48645306 4278325004
0.43487799 0.028771067 0.48645213 4278390284
0.43488112 0.028259695 0.48655123 4278456077
0.43488532 0.027738435 0.4865503 4278455307
0.43488953 0.027217176 0.48654938 4278521102
0.43489373 0.026695916 0.48654845 4278521102
0.43489796 0.026174657 0.48654753 4278520848
0.43490216 0.025653398 0.48654661 4278520589
0.43490744 0.025124064 0.48644567 4278586893
0.43491164 0.024603063 0.48644474 4278521100
0.43491584 0.024082065 0.48644382 4278521102
0.43492112 0.023553766 0.48634288 4278521098
0.43492532 0.023033027 0.48634195 4278520838
0.43492952 0.022512287 0.48634103 4278586378
0.43493372 0.021991543 0.48634011 4278586378
0.43493792 0.021470804 0.48633918 4278586378
0.43494108 0.020956062 0.48643827 4278586893
0.43494532 0.020435061 0.48643735 4278586893
0.43494847 0.019919541 0.48653644 4278455305
0.43495268 0.019398283 0.48653552 4278586891
0.43495688 0.018877022 0.4865346 4278652173
0.43496111 0.018355764 0.48653367 4278521102
0.43496531 0.017834503 0.48653275 4278521098
0.43496951 0.017313244 0.48653182 4278586631
0.43497372 0.016791984 0.4865309 4278586631
0.43497795 0.016270727 0.48652995 4278586631
0.43498215 0.015749466 0.48652905 4278718217
0.43498737 0.015225057 0.48642811 4278520585
0.4349916 0.014704056 0.48642719 4278586378
0.43499681 0.014180424 0.48632628 4278586378
0.43500102 0.013659682 0.48632532 4278586378
0.43500522 0.013138941 0.48632443 4278586891
0.43500942 0.012618199 0.48632348 4278456077
0.43501365 0.012097458 0.48632258 4278586378
0.43501785 0.011576717 0.48632163 4278586378
0.43502206 0.011055975 0.48632073 4278520585
0.43502626 0.010535235 0.48631978 4278586380
0.43503046 0.010014493 0.48631889 4278717966
0.43503368 0.0094940523 0.48641795 4278586380
0.43503788 0.0089730518 0.48641703 4278520585
0.43504107 0.0084518334 0.48651612 4278586893
0.4350453 0.007930574 0.48651516 4278521100
0.43504852 0.0074085784 0.48661426 4278586380
0.43505272 0.0068870597 0.48661333 4278586380
0.43505594 0.0063642873 0.4867124 4278586382
0.43505916 0.0058409963 0.48681146 4278520848
0.43506339 0.0053189597 0.48681056 4278521102
0.43506661 0.0047948915 0.48690963 4278520585
0.43506986 0.0042703059 0.48700869 4278586378
0.43507409 0.003747751 0.48700777 4278586891
0.43507829 0.0032251962 0.48700684 4278521100
0.43508253 0.0027026413 0.48700589 4278586382
0.43508577 0.0021767598 0.48710495 4278586380
0.43509096 0.0016575307 0.48700404 4278520587
0.43509519 0.0011349767 0.48700315 4278586893
0.43509939 0.00061242189 0.48700219 4278586380
0.43510458 9.4230287e-05 0.48690128 4278651401
0.43510976 -0.00042344444 0.48680037 4278521098
0.435114 -0.00094548147 0.48679942 4278455305
0.4351182 -0.0014675185 0.48679852 4278455307
0.4351224 -0.0019895555 0.48679757 4278521351
0.43512759 -0.0025059339 0.48669666 4278586631
0.43513179 -0.0030277111 0.48669577 4278586380
0.43513507 -0.0035556648 0.48679483 4278652173
0.43513927 -0.0040777009 0.48679388 4278455307
0.43514442 -0.0045930436 0.48669297 4278521351
0.43514866 -0.0051148217 0.48669204 4278586631
0.43515286 -0.0056365989 0.48669112 4278652424
0.43515709 -0.006158377 0.48669019 4278520585
0.43516129 -0.0066801552 0.48668927 4278782991
0.43516549 -0.0072019342 0.48668835 4278651401
0.43516973 -0.0077237096 0.48668742 4278717447
0.43517485 -0.0082369801 0.48658651 4278717447
0.43517908 -0.0087584965 0.48658559 4278783240
0.43518329 -0.0092800166 0.48658466 4278717194
0.43518841 -0.0097922478 0.48648375 4278717445
0.43519264 -0.010313509 0.48648283 4278717445
0.43519685 -0.010834768 0.4864819 4278783238
0.43520105 -0.011356028 0.48648098 4278848780
0.43520617 -0.011866964 0.48638007 4278652424
0.43521038 -0.012387967 0.48637915 4278521100
0.43521369 -0.012919806 0.48647821 4278586893
0.43521789 -0.013441065 0.48647726 4278521100
0.43522209 -0.013962325 0.48647636 4278784010
0.4352254 -0.014495203 0.48657542 4278586631
0.43522963 -0.01501672 0.48657447 4278520838
0.43523383 -0.015538238 0.48657358 4278652424
0.43523714 -0.016072152 0.48667261 4278652424
0.43524137 -0.016593931 0.48667169 4278521100
0.43524557 -0.017115708 0.48667076 4278455825
0.43524888 -0.017650653 0.4867698 4278586641
0.43525311 -0.018172693 0.4867689 4278520587
0.43525732 -0.018694727 0.48676795 4278586380
0.43526155 -0.019216765 0.48676705 4278586380
0.43526575 -0.019738801 0.4867661 4278521102
0.43526998 -0.020260839 0.48676521 4278587144
0.43527418 -0.020782877 0.48676425 4278521090
0.43527842 -0.021304911 0.48676333 4278455297
0.43528175 -0.021842195 0.48686236 4278652676
0.43528596 -0.02236449 0.48686147 4278587142
0.43529019 -0.022886787 0.48686051 4278586629
0.43529528 -0.023393057 0.48675963 4278652422
0.43529862 -0.02393138 0.48685867 4278586631
0.43530285 -0.024453674 0.48685777 4278914056
0.43530706 -0.024975967 0.48685682 4278783240
0.43531042 -0.025515325 0.48695588 4278651654
0.43531463 -0.026037876 0.48695493 4278651654
0.43531886 -0.026560433 0.48695403 4278652171
0.43532309 -0.027082991 0.48695308 4278586378
0.43532729 -0.027605545 0.48695216 4278586380
0.43533152 -0.028128099 0.48695123 4278652171
0.43533573 -0.028650653 0.48695031 4278652171
0.43533996 -0.029173207 0.48694938 4278520838
0.43534419 -0.029695764 0.48694846 4278587142
0.43534839 -0.030218318 0.48694754 4278455558
0.43535262 -0.030740872 0.48694658 4278652171
0.43535683 -0.031263426 0.48694569 4278652171
0.43536106 -0.03178598 0.48694474 4278455305
0.43536529 -0.032308541 0.48694384 4278585861
0.43536949 -0.032831091 0.48694289 4278520838
0.43537372 -0.033353645 0.48694196 4278783238
0.43537793 -0.033876203 0.48694104 4278783238
0.43538216 -0.034398757 0.48694012 4278652676
0.43538639 -0.034921315 0.48693919 4278848261
0.43539059 -0.035443865 0.48693827 4278848784
0.43539482 -0.035966422 0.48693734 4278913805
0.43539903 -0.036488976 0.48693639 4278848012
0.43540326 -0.03701153 0.4869355 4278848010
0.43540749 -0.037534088 0.48693454 4278848263
0.43541089 -0.038079914 0.48703358 4278586631
0.43541512 -0.038602728 0.48703265 4278652937
0.43541932 -0.039125539 0.4870317 4278652937
0.43542355 -0.039648354 0.4870308 4278521100
0.43542778 -0.040171172 0.48702985 4278520848
0.43543279 -0.040669415 0.486929 4278520848
0.43543702 -0.041191969 0.48692805 4278520587
0.43544126 -0.041714523 0.48692715 4278652173
0.43544546 -0.042237081 0.4869262 4278848780
0.43545046 -0.042734027 0.48682535 4278717196
0.4354547 -0.04325632 0.48682439 4278979598
0.4354597 -0.043752495 0.48672354 4278979592
0.43546391 -0.044274531 0.48672259 4278913799
0.43546814 -0.044796564 0.48672169 4278717194
0.43547234 -0.0453186 0.48672074 4278586380
0.43547657 -0.04584064 0.48671982 4278520585
0.43548077 -0.046362679 0.48671889 4278783240
0.43548423 -0.046912394 0.48681793 4278849033
0.43548766 -0.047462631 0.48691696 4278848261
0.43549189 -0.047985181 0.48691601 4278914056
0.43549609 -0.048507735 0.48691511 4278979849
0.43549955 -0.049059007 0.48701411 4278914056
0.43550301 -0.049610797 0.48711312 4278849031
0.43550724 -0.050133869 0.48711219 4278717447
0.43551147 -0.050656941 0.48711127 4278783240
0.43551493 -0.051209766 0.48721027 4279046410
0.43551916 -0.051733103 0.48720938 4278849031
0.43552339 -0.052256431 0.48720843 4278979844
0.43552762 -0.05277976 0.4872075 4278652175
0.43553182 -0.053303093 0.48720658 4278586378
0.43553606 -0.053826433 0.48720565 4278652424
0.43553954 -0.054381069 0.48730469 4278718217
0.43554378 -0.054904651 0.48730373 4278586128
0.43554801 -0.055428248 0.48730281 4278717968
0.43555224 -0.055951837 0.48730189 4278914575
0.43555647 -0.056475427 0.48730093 4278652422
0.4355607 -0.056999024 0.48730004 4278718215
0.43556491 -0.057522606 0.48729908 4278652434
0.43556842 -0.058079321 0.48739809 4278652173
0.43557265 -0.058603171 0.48739719 4278783492
0.43557689 -0.059127029 0.48739624 4278783240
0.43558112 -0.059650879 0.48739532 4278717447
0.43558535 -0.060174722 0.48739439 4278521100
0.4355903 -0.060664158 0.48729354 4278652171
0.43559453 -0.061187748 0.48729259 4279045132
0.43559876 -0.061711337 0.48729166 4278979596
0.43560296 -0.062234934 0.48729074 4278979596
0.43560719 -0.06275852 0.48728982 4278651921
0.43561143 -0.063282117 0.48728889 4278652175
0.43561566 -0.063805699 0.48728794 4278913805
0.43561989 -0.064329296 0.48728704 4278651401
0.43562412 -0.064852893 0.48728609 4278651401
0.43562835 -0.065376475 0.48728517 4278783238
0.43563259 -0.065900072 0.48728424 4278783492
0.43563682 -0.066423655 0.48728329 4278652424
0.43564102 -0.066947252 0.4872824 4278521102
0.43564525 -0.067470849 0.48728144 4278586895
0.4356488 -0.068032473 0.48738045 4278849033
0.43565303 -0.068556339 0.48737952 4278849033
0.43565726 -0.069080174 0.4873786 4278717194
0.43566149 -0.069604024 0.48737767 4278848780
0.43566641 -0.070088804 0.48727679 4278915343
0.43567064 -0.070612386 0.4872759 4278651921
0.43567488 -0.071135983 0.48727494 4278848782
0.43567842 -0.071699426 0.48737395 4279110408
0.43568265 -0.072223276 0.48737302 4279176201
0.43568689 -0.072747126 0.4873721 4278979844
0.43569112 -0.073270977 0.48737115 4278914308
0.43569535 -0.073794827 0.48737025 4278782722
0.4356989 -0.074359834 0.48746926 4278783759
0.43570313 -0.074883938 0.4874683 4278717966
0.43570736 -0.075408056 0.48746738 4278979343
0.43571159 -0.07593216 0.48746645 4279241741
0.43571582 -0.076456264 0.4874655 4279569674
0.4357194 -0.077022836 0.4875645 4279306502
0.43572363 -0.077547193 0.48756358 4279438088
0.43572852 -0.078028604 0.48746273 4279307272
0.43573275 -0.078552708 0.48746181 4279438860
0.43573698 -0.079076812 0.48746085 4279504404
0.43574122 -0.07960093 0.48745996 4279437328
0.43574545 -0.080125034 0.487459 4279371535
0.43574971 -0.080649152 0.48745808 4278913807
0.43575457 -0.081128731 0.48735723 4278913807
0.4357588 -0.081652582 0.48735631 4278913807
0.43576303 -0.082176432 0.48735535 4278913807
0.43576726 -0.082700282 0.48735446 4278913807
0.4357715 -0.083224133 0.4873535 4278913807
0.43577573 -0.083747983 0.48735258 4278913807
0.43577996 -0.084271833 0.48735166 4278913807
0.43578419 -0.084795684 0.48735073 4278913807
0.43578905 -0.085272938 0.48724988 4278913807
0.43579325 -0.085796535 0.48724896 4278913807
0.43579748 -0.086320117 0.487248 4278913807
0.43580171 -0.086843714 0.48724711 4278913807
0.43580595 -0.087367296 0.48724616 4278913807
0.43580955 -0.087938786 0.48734516 4278913807
0.43581319 -0.088510782 0.48744416 4278913807
0.43581742 -0.0890349 0.48744321 4278913807
0.43582106 -0.089607671 0.48754221 4278913807
0.43582529 -0.090132043 0.48754126 4278913807
0.43582892 -0.090705588 0.48764026 4278913807
0.43583316 -0.091230229 0.48763931 4278913807
0.43583679 -0.091804549 0.48773831 4278913807
0.43584043 -0.092379391 0.48783726 4278913807
0.43584409 -0.092954755 0.48793626 4278913807
0.43584773 -0.09353064 0.48803523 4278913807
0.4358514 -0.094107047 0.48813421 4278913807
0.43585506 -0.09468396 0.48823321 4278913807
0.43585873 -0.095261395 0.48833215 4278913807
0.43586239 -0.095839366 0.48843116 4278913807
0.43586665 -0.096366048 0.4884302 4278913807
0.43587032 -0.096944794 0.48852918 4278913807
0.43587342 -0.097576335 0.48872805 4278913807
0.43503982 0.072332218 0.48752999 4279903774
0.43504602 0.071746364 0.48732895 4279310867
0.43505123 0.071192421 0.48722795 4279441940
0.43505841 0.07057777 0.48692685 4279571729
0.43506363 0.070025384 0.48682588 4279506445
0.4350698 0.069443397 0.48662484 4279506445
0.43507597 0.068862468 0.48642382 4279179020
0.43508214 0.068282574 0.4862228 4279113235
0.43508732 0.067733034 0.48612183 4278916626
0.43509346 0.067154944 0.48592079 4279047695
0.43509862 0.0666067 0.48581982 4278981902
0.43510377 0.066058971 0.48571885 4279440398
0.43510798 0.065540045 0.48571795 4279374605
0.43511313 0.064993098 0.48561698 4279308812
0.43511733 0.064474419 0.48561603 4279177996
0.43512246 0.063928246 0.48551506 4279112203
0.43512666 0.063409835 0.48551416 4278849033
0.43512988 0.062918417 0.48561329 4278783240
0.43513408 0.062399749 0.48561236 4278848780
0.43513826 0.061881077 0.48561144 4279112205
0.4351415 0.061388619 0.48571056 4278914826
0.43514475 0.060895644 0.48580968 4278783492
0.43514892 0.060376458 0.48580879 4278652422
0.43515313 0.059857272 0.48580787 4278718215
0.43515733 0.059338082 0.48580694 4278718215
0.43516153 0.058818895 0.48580602 4278784010
0.4351657 0.058299709 0.48580509 4278718217
0.43516991 0.057780519 0.48580417 4278586629
0.43517411 0.057261333 0.48580325 4278718217
0.43517828 0.056742147 0.48580235 4278718217
0.43518248 0.05622296 0.4858014 4278652173
0.43518761 0.05568042 0.48570043 4278652684
0.43519181 0.055161487 0.48569953 4278587144
0.43519598 0.054642562 0.48569861 4278521349
0.43519926 0.054146212 0.48579773 4278587142
0.43520346 0.053627025 0.48579681 4278587142
0.43520764 0.053107835 0.48579589 4278521098
0.43521184 0.052588653 0.48579496 4278586893
0.43521604 0.052069467 0.48579407 4278521100
0.43521932 0.051571567 0.48589316 4278521100
0.43522441 0.05103109 0.48579222 4278586895
0.43522769 0.050532676 0.48589134 4278456079
0.43523189 0.050013233 0.48589039 4278521098
0.4352361 0.049493782 0.48588949 4278652684
0.4352403 0.048974339 0.48588854 4278586891
0.43524447 0.048454892 0.48588765 4278587144
0.43524867 0.047935445 0.48588672 4278586891
0.43525377 0.047396787 0.48578578 4278521098
0.43525797 0.046877593 0.48578483 4278521098
0.43526214 0.04635841 0.48578393 4278586893
0.43526635 0.04583922 0.48578298 4278586380
0.43527055 0.045320038 0.48578209 4278652173
0.43527472 0.044800848 0.48578116 4278849033
0.43527892 0.044281662 0.48578024 4278783240
0.43528312 0.043762475 0.48577932 4278979849
0.4352873 0.043243289 0.48577839 4278521100
0.4352915 0.042724099 0.48577747 4278455055
0.4352957 0.042204913 0.48577654 4278520848
0.4352999 0.041685726 0.48577565 4278586641
0.43530408 0.04116654 0.4857747 4278389262
0.43530741 0.040663201 0.48587382 4278520850
0.43531075 0.040159341 0.48597294 4278586641
0.43531492 0.039639637 0.48597199 4278390284
0.43531913 0.039119937 0.48597109 4278390284
0.43532333 0.038600229 0.48597017 4278456328
0.43532753 0.038080525 0.48596925 4278587142
0.43533173 0.037560821 0.48596832 4278652688
0.43533593 0.037041113 0.4859674 4278521100
0.43534011 0.036521412 0.48596647 4278586893
0.43534431 0.036001705 0.48596555 4278586891
0.43534851 0.035482001 0.48596463 4278521098
0.43535271 0.034962293 0.4859637 4278521102
0.43535691 0.034442589 0.48596281 4278652688
0.43536112 0.033922881 0.48596185 4278521100
0.43536529 0.033403181 0.48596096 4278390284
0.43536949 0.032883473 0.48596001 4278456077
0.43537369 0.032363769 0.48595911 4278521100
0.4353779 0.031844065 0.48595819 4278521100
0.43538126 0.03133554 0.48605728 4278586891
0.43538463 0.030826502 0.48615637 4278587144
0.43538883 0.03030628 0.48615545 4278456075
0.43539304 0.029786054 0.48615456 4278325004
0.4353964 0.02927598 0.48625362 4278325004
0.43540061 0.028755497 0.4862527 4278390282
0.435404 0.028244643 0.48635179 4278456075
0.4354082 0.027723903 0.48635086 4278521100
0.43541241 0.027203161 0.48634994 4278521102
0.43541661 0.02668242 0.48634902 4278521102
0.43542084 0.02616168 0.48634809 4278520848
0.43542504 0.025640937 0.48634717 4278455309
0.43543005 0.025112122 0.48624623 4278521100
0.43543425 0.02459164 0.4862453 4278521100
0.43543845 0.024071157 0.48624438 4278521100
0.43544266 0.023550674 0.48624346 4278586631
0.43544766 0.023023155 0.48614255 4278520838
0.43545187 0.022502933 0.48614162 4278586378
0.43545526 0.021989226 0.48624068 4278586378
0.43545946 0.021468746 0.48623979 4278520585
0.43546289 0.020954266 0.48633885 4278521100
0.43546709 0.020433523 0.48633793 4278521100
0.4354713 0.019912783 0.48633701 4278455305
0.4354755 0.01939204 0.48633608 4278586891
0.43547893 0.018876266 0.48643517 4278652173
0.43548313 0.018355265 0.48643425 4278521100
0.43548733 0.017834265 0.48643333 4278521100
0.43549156 0.017313264 0.4864324 4278521351
0.43549654 0.016788334 0.48633146 4278521351
0.43550074 0.016267594 0.48633057 4278521351
0.43550494 0.015746852 0.48632962 4278652171
0.43550992 0.015222957 0.4862287 4278520585
0.43551412 0.014702477 0.48622775 4278586378
0.43551907 0.01417936 0.48612684 4278586378
0.43552327 0.013659136 0.48612595 4278586378
0.43552747 0.013138914 0.48612499 4278586891
0.43553168 0.012618691 0.4861241 4278390282
0.43553588 0.012098467 0.48612314 4278586378
0.43553934 0.011579582 0.48622224 4278586378
0.43554354 0.0110591 0.48622131 4278520585
0.43554774 0.010538618 0.48622039 4278520587
0.4355512 0.010018697 0.48631948 4278717966
0.4355554 0.0094979554 0.48631853 4278454792
0.4355596 0.0089772148 0.48631763 4278520585
0.43556383 0.0084564732 0.48631668 4278521100
0.43556729 0.0079352576 0.48641577 4278521100
0.43557149 0.0074142572 0.48641485 4278586380
0.43557498 0.0068922634 0.48651391 4278586380
0.43557918 0.006371004 0.48651302 4278520335
0.43558267 0.0058482336 0.48661208 4278455309
0.43558687 0.0053267148 0.48661113 4278521100
0.43559036 0.0048031672 0.48671022 4278520585
0.43559387 0.0042791013 0.48680931 4278586378
0.43559808 0.0037570642 0.48680836 4278586891
0.43560156 0.0032322211 0.48690742 4278521102
0.43560579 0.0027099256 0.48690653 4278520335
0.43561 0.0021876292 0.48690557 4278586380
0.43561423 0.0016653338 0.48690468 4278520587
0.43561915 0.0011468814 0.48680374 4278586380
0.43562338 0.0006248448 0.48680282 4278586378
0.43562829 0.00010716822 0.48670191 4278454792
0.43563321 -0.00040998869 0.486601 4278521098
0.43563741 -0.00093150698 0.48660004 4278455305
0.43564162 -0.0014530262 0.48659915 4278455305
0.43564585 -0.0019745445 0.48659819 4278521098
0.43565005 -0.0024960637 0.48659727 4278717447
0.43565425 -0.003017582 0.48659635 4278586380
0.43565848 -0.0035391012 0.48659542 4278586380
0.43566269 -0.0040606186 0.4865945 4278520587
0.43566689 -0.0045821369 0.48659357 4278520585
0.43567112 -0.0051036561 0.48659265 4278652171
0.43567532 -0.0056251744 0.48659173 4278586378
0.43567953 -0.0061466936 0.4865908 4278520585
0.43568441 -0.0066604838 0.48648989 4278586380
0.43568864 -0.0071817413 0.48648897 4278651403
0.43569285 -0.0077030007 0.48648804 4278651654
0.43569705 -0.0082242601 0.48648712 4278717447
0.43570194 -0.0087367576 0.48638621 4278782987
0.43570614 -0.009257758 0.48638529 4278782219
0.43571034 -0.0097787585 0.48638436 4278782468
0.43571523 -0.010290215 0.48628345 4278651654
0.43571943 -0.010810958 0.48628253 4278717447
0.43572363 -0.011331698 0.4862816 4278717194
0.43572783 -0.011852438 0.48628068 4278783240
0.43573204 -0.012373181 0.48627976 4278586378
0.43573624 -0.012893921 0.48627883 4278455307
0.43574044 -0.013414664 0.48627791 4278455307
0.43574402 -0.013946762 0.48637697 4278587144
0.43574756 -0.014479375 0.486476 4278586629
0.4357518 -0.015000636 0.48647511 4278651652
0.435756 -0.015521893 0.48647416 4278586378
0.43575957 -0.016055545 0.48657322 4278586378
0.43576378 -0.016577065 0.48657233 4278586380
0.43576798 -0.017098583 0.48657137 4278521100
0.43577221 -0.017620102 0.48657045 4278586128
0.43577641 -0.018141622 0.48656952 4278520587
0.43577999 -0.018676827 0.48666859 4278586380
0.43578422 -0.019198608 0.48666766 4278717194
0.43578842 -0.019720383 0.48666674 4278520585
0.43579262 -0.020242164 0.48666579 4278521351
0.43579686 -0.020763939 0.48666489 4278586883
0.43580106 -0.021285715 0.48666394 4278521090
0.43580529 -0.021807496 0.48666304 4278586883
0.43580949 -0.022329271 0.48666209 4278586883
0.4358131 -0.022866808 0.48676115 4278520836
0.43581793 -0.023372825 0.48666024 4278717445
0.43582213 -0.023894604 0.48665935 4278783238
0.43582636 -0.02441638 0.48665839 4278848004
0.43582997 -0.024954956 0.48675746 4278848261
0.43583417 -0.025476992 0.4867565 4278782470
0.4358384 -0.025999032 0.48675561 4278782470
0.4358426 -0.026521068 0.48675466 4278586380
0.43584684 -0.027043104 0.48675376 4278520587
0.43585104 -0.02756514 0.48675281 4278586382
0.43585524 -0.028087176 0.48675191 4278848012
0.43585947 -0.028609216 0.48675096 4278848012
0.43586311 -0.029150121 0.48685002 4278454022
0.43586791 -0.029653285 0.48674911 4278586629
0.43587154 -0.030194711 0.48684818 4278455558
0.43587574 -0.030717004 0.48684722 4278390284
0.43587998 -0.031239301 0.4868463 4278456077
0.43588418 -0.031761598 0.48684537 4278324489
0.43588898 -0.032263473 0.48674449 4278717445
0.43589321 -0.032785505 0.48674357 4278586629
0.43589741 -0.033307545 0.48674262 4278586629
0.43590164 -0.033829581 0.48674172 4278652422
0.43590584 -0.034351617 0.48674077 4278783238
0.43591008 -0.034873653 0.48673987 4278717445
0.43591428 -0.035395689 0.48673892 4278783240
0.43591848 -0.035917729 0.48673803 4278913803
0.43592271 -0.036439765 0.48673707 4278848010
0.43592691 -0.036961801 0.48673615 4278782219
0.43593115 -0.037483837 0.48673522 4278848263
0.43593535 -0.038005874 0.4867343 4278520838
0.43593901 -0.038551442 0.48683333 4278717964
0.43594325 -0.039073739 0.48683241 4278652171
0.43594745 -0.039596036 0.48683149 4278782219
0.43595222 -0.040094022 0.48673061 4278651405
0.43595645 -0.040616058 0.48672968 4278521100
0.43596065 -0.041138098 0.48672873 4278651401
0.43596488 -0.04166013 0.48672783 4278782987
0.43596908 -0.04218217 0.48672688 4278979849
0.43597332 -0.042704202 0.48672599 4278782470
0.43597806 -0.043200374 0.48662508 4278913803
0.43598279 -0.043696035 0.48652422 4278782987
0.435987 -0.044217553 0.48652327 4278651401
0.43599123 -0.044739071 0.48652238 4278586382
0.43599543 -0.04526059 0.48652142 4278586380
0.43599963 -0.045782104 0.48652053 4278520838
0.43600386 -0.046303626 0.48651958 4278717699
0.43600807 -0.046825148 0.48651868 4278717699
0.43601125 -0.047402535 0.48671764 4278717699
0.43601546 -0.047924571 0.48671672 4278979592
0.43601969 -0.048446607 0.48671579 4278913799
0.43602338 -0.048997361 0.4868148 4278913799
0.43602711 -0.04954863 0.48691383 4278783240
0.43603131 -0.050071184 0.48691291 4278717447
0.43603554 -0.050593738 0.48691198 4278717447
0.43603927 -0.051146045 0.48701099 4278849031
0.43604347 -0.051668856 0.48701006 4278849031
0.4360477 -0.052191667 0.48700914 4278717445
0.43605193 -0.052714486 0.48700821 4278717966
0.43605617 -0.053237297 0.48700726 4278586631
0.43606037 -0.053760115 0.48700637 4278586629
0.43606412 -0.05431423 0.48710537 4278652422
0.43606833 -0.054837305 0.48710445 4278782989
0.43607256 -0.055360373 0.48710352 4278914575
0.43607679 -0.055883456 0.48710257 4278783757
0.43608102 -0.056406524 0.48710167 4278652422
0.43608522 -0.056929592 0.48710072 4278586629
0.43608898 -0.057485517 0.48719975 4278652434
0.43609321 -0.058008853 0.48719883 4278848784
0.43609744 -0.05853219 0.48719788 4278783240
0.43610168 -0.059055518 0.48719698 4278782989
0.43610588 -0.059578855 0.48719603 4278782989
0.43611011 -0.060102176 0.4871951 4278455309
0.43611434 -0.060625512 0.48719418 4278717196
0.43611857 -0.061148856 0.48719326 4278848782
0.4361228 -0.061672177 0.48719233 4278848780
0.43612748 -0.062160324 0.48709145 4278914573
0.43613172 -0.062683403 0.48709053 4278586382
0.43613592 -0.063206479 0.4870896 4278586382
0.43614015 -0.063729554 0.48708868 4278848780
0.43614438 -0.064252615 0.48708773 4278848263
0.43614861 -0.06477569 0.48708683 4278782470
0.43615282 -0.065298766 0.48708588 4278849031
0.43615705 -0.065821841 0.48708498 4278914824
0.43616128 -0.066344917 0.48708403 4278586380
0.43616551 -0.066867977 0.48708311 4278521100
0.4361693 -0.067428827 0.48718211 4278586893
0.43617353 -0.067952156 0.48718119 4278979849
0.43617773 -0.0684755 0.48718026 4278849033
0.43618196 -0.068998829 0.48717934 4278783240
0.43618619 -0.069522157 0.48717839 4278717966
0.43619043 -0.070045486 0.48717749 4278783759
0.43619466 -0.07056883 0.48717654 4278586382
0.43619886 -0.071092159 0.48717561 4278979600
0.43620309 -0.071615487 0.48717469 4278979592
0.43620732 -0.072138816 0.48717377 4279045385
0.43621156 -0.07266216 0.48717284 4278848515
0.43621579 -0.073185489 0.48717189 4278979849
0.4362196 -0.073749721 0.48727089 4278914054
0.43622383 -0.074273303 0.48727 4278850067
0.43622807 -0.074796885 0.48726904 4278652688
0.43623227 -0.075320497 0.48726812 4278979089
0.4362365 -0.075844079 0.4872672 4279045136
0.43624035 -0.076409861 0.4873662 4279110927
0.43624458 -0.076933712 0.48736525 4279437587
0.43624881 -0.077457562 0.48736435 4279437587
0.43625304 -0.077981412 0.4873634 4279438340
0.43625727 -0.078505263 0.48736247 4279569425
0.43626189 -0.078985631 0.48726162 4279438872
0.43626612 -0.079509214 0.4872607 4279437326
0.43627033 -0.080032811 0.48725975 4279371533
0.43627456 -0.080556408 0.48725885 4279045132
0.43627879 -0.08107999 0.4872579 4279045132
0.43628302 -0.081603587 0.48725697 4279045132
0.43628725 -0.082127169 0.48725605 4279045132
0.43629149 -0.082650766 0.48725513 4279045132
0.43629572 -0.083174363 0.4872542 4279045132
0.43629995 -0.083697945 0.48725325 4279045132
0.43630418 -0.084221542 0.48725235 4279045132
0.43630838 -0.084745124 0.4872514 4279045132
0.436313 -0.085222125 0.48715055 4279045132
0.43631721 -0.085745454 0.48714963 4279045132
0.43632144 -0.086268783 0.4871487 4279045132
0.43632567 -0.086792111 0.48714778 4279045132
0.4363299 -0.087315455 0.48714685 4279045132
0.43633378 -0.087886676 0.48724586 4279045132
0.43633801 -0.088410273 0.4872449 4279045132
0.43634224 -0.088933855 0.48724398 4279045132
0.43634611 -0.089506119 0.48734295 4279045132
0.43634999 -0.09007889 0.48744196 4279045132
0.43635422 -0.090602994 0.487441 4279045132
0.43635812 -0.09117654 0.48754001 4279045132
0.43636236 -0.091700912 0.48753908 4279045132
0.43636593 -0.092325196 0.48773795 4279045132
0.43637016 -0.092850074 0.48773706 4279045132
0.43637407 -0.093425438 0.487836 4279045132
0.43637797 -0.094001338 0.48793501 4279045132
0.43638158 -0.094628721 0.48813388 4279045132
0.43638581 -0.095154643 0.48813295 4279045132
0.43638974 -0.095732078 0.48823193 4279045132
0.43639398 -0.096258268 0.488231 4279045132
0.43639791 -0.096836463 0.48832995 4279045132
0.43640184 -0.097415194 0.48842895 4279045132
0.43640578 -0.097994447 0.48852789 4279045132
0.43556488 0.072273657 0.48733044 4280164893
0.43557057 0.071688324 0.48712945 4279442453
0.43557623 0.07110402 0.4869284 4279179281
0.43558192 0.070520744 0.48672736 4279505942
0.43558684 0.069968872 0.48662639 4279309584
0.4355925 0.069387414 0.48642534 4279309584
0.43559816 0.068806991 0.48622432 4279178766
0.4356038 0.068227619 0.48602331 4278981651
0.43560871 0.067678586 0.48592234 4278916628
0.43561432 0.067101017 0.48572129 4279047695
0.43561924 0.06655328 0.48562032 4278981902
0.43562344 0.066034615 0.4856194 4279440141
0.43562832 0.065487668 0.48551843 4279308812
0.43563321 0.064941227 0.48541746 4279308812
0.43563741 0.064423077 0.48541653 4279112203
0.43564159 0.063904926 0.48541564 4279046410
0.43564576 0.063386783 0.48541468 4278849031
0.43564996 0.062868625 0.48541379 4278783238
0.43565413 0.062350482 0.48541287 4278848782
0.43565762 0.061858796 0.48551199 4279046412
0.43566182 0.061340388 0.48551106 4278849033
0.43566531 0.060847927 0.48561019 4278783238
0.43566951 0.060329262 0.48560929 4278652422
0.43567368 0.059810594 0.48560834 4278783238
0.43567789 0.059291922 0.48560745 4278784008
0.43568206 0.058773253 0.48560652 4278784008
0.43568626 0.058254585 0.4856056 4278783238
0.43569043 0.057735916 0.48560467 4278717445
0.43569463 0.057217252 0.48560375 4278849031
0.43569884 0.056698576 0.48560286 4278849031
0.43570301 0.056179911 0.4856019 4278783240
0.43570721 0.055661242 0.48560101 4278652937
0.43571138 0.055142574 0.48560008 4278521349
0.43571559 0.054623906 0.48559916 4278652422
0.43571976 0.054105233 0.48559824 4278718215
0.43572396 0.053586569 0.48559731 4278718215
0.43572813 0.053067897 0.48559642 4278521098
0.43573168 0.052571036 0.48569554 4278586895
0.43573588 0.05205211 0.48569459 4278586893
0.43574005 0.051533181 0.48569369 4278521100
0.43574426 0.051014252 0.48569274 4278586895
0.4357478 0.050516095 0.48579186 4278455825
0.43575263 0.049976397 0.48569092 4278456077
0.43575683 0.049457468 0.48569 4278652684
0.435761 0.048938539 0.48568907 4278586891
0.43576521 0.048419613 0.48568815 4278586891
0.43576941 0.047900684 0.48568726 4278652686
0.43577358 0.047381759 0.4856863 4278521100
0.43577778 0.046862833 0.48568541 4278586895
0.43578196 0.046343904 0.48568448 4278586895
0.43578616 0.045824975 0.48568356 4278521102
0.43579036 0.045306049 0.48568264 4278586891
0.43579453 0.04478712 0.48568171 4278783240
0.43579873 0.044268191 0.48568082 4278783240
0.43580353 0.043731861 0.48557985 4278914056
0.43580773 0.043213192 0.48557892 4278586380
0.43581194 0.042694524 0.485578 4278521102
0.43581548 0.042192478 0.48567712 4278520848
0.43581969 0.041673552 0.4856762 4278586641
0.43582326 0.041170731 0.48577529 4278455055
0.43582746 0.040651541 0.4857744 4278455055
0.43583167 0.040132359 0.48577344 4278521102
0.43583584 0.039613172 0.48577255 4278521100
0.43584004 0.039093986 0.48577163 4278521100
0.43584424 0.0385748 0.4857707 4278587144
0.43584841 0.038055614 0.48576978 4278587144
0.43585262 0.037536424 0.48576885 4278586893
0.43585682 0.037017241 0.48576796 4278455307
0.43586102 0.036498055 0.48576701 4278521100
0.43586519 0.035978865 0.48576611 4278586891
0.4358694 0.035459679 0.48576516 4278521098
0.4358736 0.034940489 0.48576427 4278586380
0.43587777 0.034421302 0.48576334 4278652173
0.43588197 0.033902116 0.48576242 4278520587
0.43588617 0.03338293 0.48576149 4278324493
0.43589035 0.032863744 0.48576057 4278390286
0.43589455 0.032344557 0.48575965 4278520587
0.43589818 0.031836815 0.48585874 4278586380
0.43590236 0.031317368 0.48585784 4278652171
0.43590599 0.030808849 0.48595694 4278587144
0.4359102 0.030289145 0.48595601 4278456075
0.43591383 0.029779848 0.48605511 4278390284
0.43591803 0.029259883 0.48605418 4278390284
0.43592167 0.028749811 0.4861533 4278521098
0.43592587 0.028229587 0.48615235 4278521098
0.43593007 0.027709363 0.48615146 4278521100
0.43593428 0.027189141 0.4861505 4278521100
0.43593848 0.026668917 0.48614961 4278521100
0.43594268 0.026148695 0.48614866 4278455309
0.43594688 0.02562847 0.48614776 4278455309
0.43595108 0.025108248 0.48614681 4278521102
0.43595529 0.024588024 0.48614591 4278455307
0.43595949 0.0240678 0.48614496 4278521100
0.43596423 0.023540277 0.48604405 4278455558
0.43596843 0.023020314 0.48604313 4278520838
0.4359726 0.022500351 0.4860422 4278586378
0.43597627 0.021986909 0.48614129 4278586378
0.43598047 0.021466684 0.48614037 4278586378
0.43598467 0.020946462 0.48613945 4278521100
0.43598887 0.02042624 0.48613852 4278521102
0.43599308 0.019906016 0.4861376 4278521100
0.43599677 0.019391019 0.48623669 4278586893
0.43600097 0.018870536 0.48623574 4278586378
0.43600518 0.018350054 0.48623484 4278520585
0.43600938 0.017829571 0.48623389 4278586380
0.43601358 0.017309088 0.486233 4278521098
0.43601778 0.016788606 0.48623204 4278455305
0.43602249 0.016264454 0.48613113 4278455305
0.43602669 0.01574423 0.48613024 4278586378
0.43603089 0.015224006 0.48612928 4278520585
0.4360356 0.014700888 0.48602837 4278717447
0.43603981 0.014180924 0.48602745 4278717447
0.43604401 0.013660959 0.48602653 4278586631
0.43604821 0.013140996 0.4860256 4278521102
0.43605241 0.012621031 0.48602468 4278521100
0.43605661 0.012101067 0.48602375 4278521098
0.43606079 0.011581103 0.48602283 4278521098
0.43606451 0.011062221 0.48612192 4278454792
0.43606871 0.010541998 0.486121 4278520587
0.43607292 0.010021774 0.48612007 4278652173
0.43607712 0.0095015513 0.48611915 4278520585
0.43608132 0.0089813285 0.48611823 4278520585
0.43608505 0.0084608914 0.48621729 4278586378
0.43608877 0.0079399366 0.48631638 4278586378
0.43609297 0.007419195 0.48631543 4278586380
0.43609717 0.0068984535 0.48631454 4278586380
0.4361009 0.006376463 0.4864136 4278520337
0.43610513 0.0058554625 0.48641267 4278520589
0.43610886 0.0053326935 0.48651177 4278521100
0.43611306 0.0048114341 0.48651081 4278520587
0.43611681 0.0042878888 0.48660988 4278520587
