# .PCD v0.7 - Point Cloud Data file format
VERSION 0.7
FIELDS x y z rgb
SIZE 4 4 4 4
TYPE F F F U
COUNT 1 1 1 1
WIDTH 1038
HEIGHT 1
VIEWPOINT 0 0 0 1 0 0 0
POINTS 1038
DATA ascii
0.41903052 -0.00081518292 0.55593699 4285293906
0.41957468 -0.00054827332 0.55599129 4284964941
0.42011836 -0.00028149784 0.55604559 4284243016
0.42069131 -9.7289681e-05 0.55605155 4283717699
0.42123425 0.00016924739 0.55610585 4283585856
0.42183718 0.00027112663 0.55606353 4283190326
0.42241013 0.00045533478 0.55606949 4282861361
0.42298305 0.00063954294 0.55607545 4282269224
0.42361796 0.00065976381 0.5559848 4282006052
0.42422265 0.0007621944 0.55594248 4281742878
0.42485929 0.00078293681 0.55585188 4281282327
0.42549688 0.00080400705 0.55576122 4280360716
0.42610353 0.00090707839 0.55571896 4278717447
0.42674288 0.00092868507 0.5556283 4278651654
0.42735076 0.0010321587 0.55558604 4278914056
0.42795911 0.0011357963 0.55554378 4278979849
0.42856798 0.0012395829 0.55550146 4279111176
0.42911091 0.00150612 0.55555576 4278914575
0.42961991 0.0018536896 0.55565834 4278717968
0.4301616 0.0021198243 0.55571264 4278783759
0.43066889 0.0024668723 0.55581516 4278652173
0.43110678 0.0029755384 0.5560143 4278717964
0.43171489 0.0030790865 0.55597198 4278586629
0.43218476 0.0035060495 0.55612278 4278783238
0.43584689 0.013880476 0.56102431 4278915343
0.43639541 0.014056832 0.56103003 4278915345
0.43690556 0.014312819 0.56108403 4278915594
0.43749246 0.014409557 0.56104147 4278915594
0.43804097 0.014585912 0.5610472 4278915594
0.43858951 0.014762267 0.56105292 4279046410
0.43921676 0.01478 0.5609622 4279045640
0.43976578 0.014956504 0.56096792 4279045642
0.4403148 0.015133023 0.56097364 4279045642
0.44094405 0.015151411 0.56088293 4278914323
0.44153389 0.015249103 0.56084049 4278915093
0.44204307 0.015504748 0.56089443 4278783757
0.44381955 0.022881687 0.56451184 4279243273
0.44426465 0.023208737 0.5646137 4279045640
0.4447521 0.023457423 0.56466746 4278716929
0.4451955 0.023783907 0.56476933 4279177226
0.44568169 0.024032205 0.56482303 4279308812
0.44612336 0.024358153 0.5649249 4279047182
0.44656405 0.024683774 0.56502676 4279047182
0.4180567 -0.0017213225 0.55630213 4287991930
0.41854444 -0.0012881607 0.55645245 4285228626
0.41914693 -0.0011865646 0.55641031 4285030995
0.41969132 -0.00091943145 0.55646443 4284899409
0.42020565 -0.00056986511 0.5565666 4284635976
0.42077857 -0.00038565695 0.55657256 4284307522
0.42135152 -0.0002014488 0.55657852 4283912764
0.42192447 -1.7240644e-05 0.55658454 4283583801
0.42249739 0.00016696751 0.5565905 4283452215
0.42307034 0.00035117567 0.55659646 4282860080
0.42367429 0.00045324862 0.55655438 4282465318
0.42431003 0.00047343969 0.5564642 4282071330
0.42494673 0.00049394369 0.55637395 4281742365
0.42558444 0.00051476061 0.55628383 4280885775
0.42622313 0.00053589046 0.55619365 4279045894
0.42686281 0.00055734813 0.55610353 4278651654
0.42750347 0.00057911873 0.55601341 4278783240
0.42811236 0.00068277121 0.55597132 4278849033
0.42872173 0.0007866025 0.55592924 4278979849
0.42926514 0.0010534078 0.55598336 4278848780
0.42984152 0.0012387335 0.55598938 4278848784
0.43038416 0.0015053153 0.55604345 4278652173
0.43092632 0.0017717332 0.55609751 4278586380
0.43143377 0.0021190792 0.55619961 4278718217
0.43197471 0.0023851097 0.55625367 4278783238
0.43670803 0.01330176 0.56124079 4278915345
0.43721962 0.013558358 0.56129456 4278784008
0.4378854 0.013496071 0.56115627 4278784008
0.43835804 0.013832271 0.56125802 4278784008
0.43898636 0.013850063 0.56116772 4278914824
0.43953687 0.014027059 0.56117344 4279242762
0.44004771 0.014283404 0.5612272 4279045640
0.44059795 0.014460325 0.56123292 4278979847
0.44114819 0.014637232 0.56123871 4279045391
0.44169843 0.014814153 0.56124443 4278914577
0.4422487 0.01499106 0.56125015 4278979847
0.44271716 0.015325904 0.5613519 4278783240
0.44326693 0.015502661 0.56135762 4278783240
0.4437753 0.015758201 0.56141132 4278717447
0.41817275 -0.0020933598 0.5567764 4286281330
0.41871834 -0.0018257052 0.55683023 4285294689
0.41923434 -0.0014753193 0.55693203 4284768343
0.41974932 -0.0011252612 0.55703378 4284768343
0.4203521 -0.00102368 0.55699188 4284702032
0.42086586 -0.00067403913 0.55709356 4284373056
0.42143881 -0.00048983097 0.55709958 4283978296
0.42198142 -0.00022311509 0.5571534 4283714872
0.42255414 -3.8996339e-05 0.55715936 4283649079
0.42315763 6.2793493e-05 0.55711746 4283254838
0.42373055 0.00024700165 0.55712342 4282860076
0.42436612 0.0002668798 0.55703372 4282202916
0.42500266 0.00028704107 0.55694395 4281808158
0.42567199 0.00022551417 0.55680639 4281083667
0.42631075 0.0002463907 0.55671668 4279505668
0.42698279 0.00018575788 0.55657911 4278914054
0.42762378 0.00020734966 0.55648947 4278782989
0.42826575 0.00022926927 0.55639976 4278848782
0.42887565 0.00033313036 0.55635798 4278848782
0.42945278 0.00051867962 0.55636394 4278848782
0.43002993 0.00070422888 0.55636996 4278782991
0.43060705 0.00088979304 0.55637598 4278586378
0.43111613 0.0012379438 0.55647767 4278586378
0.43165851 0.0015045851 0.55653155 4278718215
0.43220037 0.0017710477 0.55658537 4278718217
0.43284607 0.0017941445 0.55649573 4278915596
0.4369829 0.012625158 0.56150198 4278915345
0.4375726 0.012722507 0.56145996 4278915594
0.43804666 0.013059407 0.56156129 4278718215
0.43859765 0.013236567 0.56156701 4278784008
0.43918782 0.013334066 0.56152499 4278914826
0.43973908 0.0135113 0.56153077 4279046159
0.44025061 0.013768017 0.56158423 4278848780
0.44076166 0.014024571 0.56163776 4278848780
0.44135261 0.014122322 0.56159574 4279045389
0.44186315 0.014378712 0.56164926 4279045642
0.44237322 0.014634937 0.56170279 4279045383
0.44292369 0.014811933 0.56170851 4278848261
0.44343302 0.015067935 0.56176203 4278782468
0.44394183 0.015323773 0.5618155 4278585608
0.44440851 0.015658289 0.56191671 4278585861
0.41828889 -0.0024656504 0.5572511 4285360482
0.41880581 -0.0021146983 0.55735236 4285295200
0.41937998 -0.0019301027 0.55735838 4284637270
0.41992477 -0.0016625524 0.55741203 4284637270
0.4203802 -0.0011466146 0.5576086 4284768595
0.42098302 -0.0010451823 0.55756694 4284504640
0.42152607 -0.00077819824 0.55762058 4284044341
0.42206866 -0.00051136315 0.55767417 4283649846
0.42264137 -0.0003272444 0.55768013 4283584053
0.42324489 -0.00022557378 0.55763847 4283320631
0.42381784 -4.1365623e-05 0.55764449 4282991662
0.42445347 -2.1740794e-05 0.5575552 4282334504
0.42509007 -1.8179417e-06 0.55746591 4281873953
0.4257277 1.8402934e-05 0.55737662 4281149460
0.42639837 -4.3094158e-05 0.55723971 4279965704
0.42703819 -2.2128224e-05 0.55715048 4279045637
0.42771158 -8.2761049e-05 0.55701363 4278782989
0.42835361 -6.107986e-05 0.55692434 4278848782
0.42899665 -3.9115548e-05 0.55683517 4278848782
0.42957404 0.00014652312 0.55684119 4278848782
0.43018496 0.00025057793 0.55679959 4278782991
0.43076259 0.0004362911 0.55680561 4278586631
0.43134022 0.00062200427 0.55681163 4278652424
0.43188354 0.00088906288 0.55686527 4278652422
0.43239182 0.0012372583 0.55696648 4278717964
0.43289912 0.001585111 0.55706769 4278718730
0.43733466 0.011787146 0.5616703 4278914573
0.4378106 0.012124941 0.56177121 4279046159
0.43828559 0.012462407 0.56187212 4278849285
0.43883756 0.012639865 0.56187785 4279046410
0.43938953 0.012817338 0.56188363 4279046159
0.43994153 0.012994811 0.56188935 4278914575
0.44049346 0.013172269 0.56189513 4278914575
0.44100547 0.013429269 0.56194842 4278914573
0.441517 0.013686091 0.56200171 4279045640
0.44198751 0.014022142 0.56210256 4278979847
0.4425385 0.014199302 0.56210828 4279045383
0.44304854 0.014455661 0.56216156 4278913797
0.44355804 0.014711857 0.56221485 4278782468
0.44406709 0.014967889 0.56226814 4278585861
0.44457564 0.015223786 0.56232136 4278585861
0.41837645 -0.002754882 0.55777365 4285229144
0.41892219 -0.0024869144 0.55782706 4285427038
0.41946745 -0.0022190958 0.55788052 4284768854
0.42004162 -0.0020344853 0.55788648 4284637268
0.42058611 -0.0017668903 0.55793989 4284702802
0.42110026 -0.001416564 0.55804074 4284504901
0.42161337 -0.0010665655 0.55814159 4283979063
0.42218632 -0.00088235736 0.55814755 4283846710
0.42275923 -0.0006981492 0.55815351 4283649331
0.42333218 -0.00051394105 0.55815947 4283452215
0.42390513 -0.00032973289 0.55816549 4283124020
0.42450947 -0.00022795796 0.55812407 4282335535
0.42514589 -0.00020834804 0.55803519 4282138156
0.42581519 -0.0002707094 0.55789894 4281412380
0.42642173 -0.00016820431 0.55785757 4280359946
0.42712587 -0.0003118664 0.55767393 4279374602
0.4277994 -0.00037287176 0.55753773 4278848014
0.42844149 -0.00035144389 0.55744898 4278913807
0.42911774 -0.00041158497 0.55731279 4278782989
0.42969537 -0.0002258718 0.55731881 4278782987
0.43030655 -0.0001218617 0.55727744 4278717196
0.43095213 -9.9331141e-05 0.55718875 4278717196
0.43153051 8.6635351e-05 0.55719477 4278782987
0.43207452 0.00035405159 0.55724818 4278849285
0.43254888 0.0007840991 0.55739635 4278784010
0.4330914 0.0010510534 0.5574497 4278915596
0.43356329 0.0014803112 0.55759788 4279047693
0.43399838 0.0019902438 0.55779332 4278981900
0.43443146 0.0024995506 0.55798882 4279178250
0.43852481 0.011864394 0.56218469 4278914824
0.43903875 0.012122154 0.5622378 4278915078
0.43959147 0.012299851 0.56224358 4278914573
0.44014418 0.012477562 0.5622493 4278914325
0.44065711 0.012734994 0.56230241 4278914325
0.44116956 0.012992278 0.56235552 4278914575
0.4416815 0.013249382 0.56240857 4279111176
0.44219297 0.013506353 0.56246167 4279045640
0.44266319 0.013842553 0.56256205 4278914308
0.44321442 0.014019787 0.56256777 4278848515
0.44368315 0.014355525 0.56266814 4278716675
0.44423389 0.014532596 0.56267387 4278716675
0.44470116 0.014867857 0.56277424 4278585861
0.44520941 0.015123785 0.56282729 4278651654
0.4185214 -0.0032109767 0.55820179 4285098325
0.41906762 -0.0029427111 0.55825502 4285427290
0.4196133 -0.0026746094 0.55830824 4284769108
0.42015854 -0.0024066716 0.55836141 4284637522
0.42067355 -0.0020557642 0.55846179 4284702802
0.42121756 -0.0017882138 0.55851501 4284571468
0.42173085 -0.0014379025 0.55861539 4284044604
0.42227361 -0.0011707395 0.55866855 4283846712
0.42284653 -0.00098653138 0.55867451 4283649333
0.42341948 -0.00080232322 0.55868053 4283452215
0.4239924 -0.00061811507 0.55868649 4283189813
0.42459679 -0.00051645935 0.55864525 4282532914
0.4252333 -0.00049708784 0.55855685 4282269742
0.42583889 -0.00039502978 0.55851567 4281413150
0.42650929 -0.00045743585 0.55838013 4280556812
0.42714876 -0.00043715537 0.55829179 4279440395
0.42785454 -0.00058083236 0.55810905 4278848012
0.42849648 -0.00055974722 0.55802071 4278913805
0.42917258 -0.00062032044 0.55788523 4278782989
0.42978334 -0.00051660836 0.5578441 4278717194
0.43042824 -0.00049455464 0.55775583 4278716944
0.43104026 -0.00039042532 0.5577147 4278716944
0.43161863 -0.00020447373 0.55772072 4278782987
0.43216258 6.3061714e-05 0.55777389 4278849285
0.43267149 0.0004119724 0.5578742 4278784010
0.43314445 0.00084201992 0.55802166 4278915594
0.43365109 0.0011902004 0.55812204 4279113227
0.43415678 0.001538083 0.55822229 4279113227
0.43459022 0.0020480454 0.5584169 4279374600
0.43498582 0.0026385039 0.5586586 4279308807
0.43868667 0.011425748 0.56259334 4279046412
0.43920106 0.011683777 0.56264621 4279045894
0.43975428 0.011861652 0.56265199 4278914573
0.4403075 0.012039512 0.56265771 4278783509
0.44082087 0.012297213 0.56271064 4278783509
0.44137385 0.012474999 0.56271636 4278915345
0.44184619 0.012812182 0.56281632 4279177226
0.44235814 0.013069436 0.56286919 4278914573
0.44282877 0.013406038 0.56296915 4278914308
0.44333947 0.013662875 0.56302196 4278848515
0.44380835 0.013998955 0.56312186 4278716675
0.44431782 0.014255404 0.56317472 4278716929
0.44482678 0.014511675 0.56322753 4278585861
0.44533524 0.014767811 0.56328034 4278651654
0.44584322 0.015023798 0.56333315 4278585861
0.41863775 -0.0035840124 0.55867779 4284570962
0.41918418 -0.0033155531 0.55873084 4285360984
0.41970086 -0.002963841 0.5588308 4285031765
0.42027551 -0.0027790815 0.55883676 4284834386
0.42085019 -0.002594322 0.55884278 4284702800
0.42133492 -0.0021601021 0.5589897 4284637261
0.42184839 -0.0018094331 0.55908966 4284110913
0.4223609 -0.0014591068 0.55918956 4283519030
0.42293382 -0.0012748986 0.55919552 4283453237
0.42350674 -0.0010906905 0.55920148 4283321399
0.42407969 -0.00090648234 0.5592075 4283255606
0.42465264 -0.00072227418 0.55921346 4282401587
0.42525727 -0.00062066317 0.55917245 4282006570
0.42592633 -0.00068390369 0.55903757 4281282847
0.42656463 -0.00066426396 0.55894965 4280688909
0.42720395 -0.00064428151 0.55886173 4279703567
0.42787692 -0.00070627034 0.55872691 4278848263
0.42855141 -0.00076776743 0.55859208 4278848263
0.42919415 -0.00074668229 0.55850416 4278717194
0.42983791 -0.00072529912 0.55841631 4278651654
0.43048263 -0.00070357323 0.55832845 4278717198
0.43109444 -0.00059966743 0.55828756 4278651405
0.43167254 -0.00041379035 0.55829358 4278782987
0.43225068 -0.00022791326 0.5582996 4278914304
0.4327248 0.00020287931 0.55844641 4279046664
0.43326727 0.00047008693 0.55849934 4279046410
0.43373892 0.00090008974 0.55864614 4279309064
0.43420911 0.0013296157 0.55879295 4279374857
0.43467778 0.0017586797 0.5589397 4279505414
0.43514502 0.002187252 0.55908644 4279374602
0.43561074 0.0026153624 0.55923319 4279309064
0.436075 0.003042981 0.55937988 4279112203
0.4365744 0.003389135 0.55947965 4279112203
0.43908185 0.010504812 0.56272155 4278915596
0.43936357 0.011244908 0.56305552 4278914824
0.43991727 0.011422932 0.5630613 4278784010
0.44043136 0.011681005 0.56311393 4278783757
0.44098482 0.011858955 0.56311971 4278915343
0.44149816 0.012116805 0.56317234 4278915596
0.44197071 0.012454286 0.56327188 4279177226
0.44248283 0.012711748 0.56332445 4279242770
0.4430353 0.01288937 0.56333023 4278979847
0.44350561 0.013226151 0.56342971 4278848261
0.44397494 0.01356262 0.56352919 4278782722
0.44444329 0.013898775 0.56362867 4278782470
0.44495246 0.014155269 0.56368124 4278848006
0.44546112 0.014411598 0.56373388 4278847753
0.44592699 0.014746964 0.5638333 4278847753
0.44651955 0.014844686 0.56379223 4278978309
0.41881177 -0.0041246265 0.55906081 4282334254
0.41930082 -0.0036886334 0.55920708 4285229398
0.41984695 -0.0034201145 0.55925983 4285229398
0.4203926 -0.0031517595 0.55931258 4284900179
0.42093772 -0.0028835535 0.55936533 4284768593
0.42145237 -0.0025322586 0.55946487 4284571468
0.42196602 -0.0021812618 0.55956435 4284176708
0.42250919 -0.0019136965 0.55961704 4283518776
0.42302111 -0.0015632808 0.55971652 4283452983
0.42359403 -0.0013790727 0.55972254 4283387192
0.42416698 -0.0011948645 0.5597285 4283190074
0.4247399 -0.0010106415 0.55973446 4282467378
0.42531285 -0.0008264333 0.55974042 4282203433
0.42598176 -0.00089013577 0.55960619 4281479710
0.42661989 -0.00087080896 0.55951875 4280558091
0.42725903 -0.00085115433 0.55943125 4279769356
0.42789918 -0.00083120167 0.55934381 4278914054
0.42857325 -0.00089323521 0.55920964 4278848261
0.42921561 -0.0008725673 0.5591222 4278651654
0.42989239 -0.00093373656 0.55898809 4278717447
0.43053696 -0.0009123534 0.55890065 4278717194
0.43114853 -0.00080862641 0.55886 4278717194
0.43176061 -0.00070476532 0.55881929 4278849031
0.43230429 -0.00043705106 0.55887204 4279111428
0.43281275 -8.7723136e-05 0.55897146 4279243019
0.43332022 0.00026129186 0.55907089 4279046410
0.43382671 0.00060997903 0.55917031 4279243271
0.43429679 0.0010398775 0.5593164 4279309064
0.43476537 0.0014693141 0.55946249 4279308807
0.4352684 0.0018168837 0.55956185 4279308809
0.43577045 0.0021641552 0.55966127 4279243271
0.43619868 0.0026735216 0.55985397 4279112457
0.43673494 0.0029388666 0.5599066 4279112457
0.43715996 0.0034472048 0.5600993 4279177996
0.43951654 0.0095015019 0.56280667 4279177480
0.43960446 0.010644868 0.56337237 4278784262
0.44011977 0.010903478 0.56342483 4278784262
0.44067422 0.01108174 0.56343061 4278784008
0.44114888 0.01142019 0.56352967 4278784008
0.44166273 0.011678308 0.56358212 4278981389
0.44217604 0.011936277 0.56363451 4279374602
0.44268888 0.012194082 0.56368697 4279374605
0.44316036 0.012531519 0.56378603 4279177480
0.44367194 0.012788922 0.56383842 4278914308
0.44414169 0.013125792 0.56393743 4279243271
0.44461045 0.01346235 0.56403643 4279308812
0.44512007 0.013719127 0.56408882 4279045909
0.44562918 0.013975754 0.56414121 4278914573
0.44609547 0.014311507 0.56424022 4278848780
0.44668859 0.014409289 0.56419933 4278914056
0.41889954 -0.004414618 0.55958474 4281411353
0.41941756 -0.0040619522 0.5596838 4285163601
0.4199639 -0.0037932396 0.55973631 4285229394
0.42048019 -0.0034411252 0.55983543 4284900179
0.42102528 -0.0031727999 0.55988795 4284702800
0.42153984 -0.0028212517 0.55998695 4284637007
0.42211401 -0.0026366413 0.55999297 4284308294
0.42259654 -0.0022023171 0.56013852 4283716668
0.42313918 -0.0019348115 0.56019104 4283650875
0.42368132 -0.0016674399 0.56024355 4283321914
0.42425424 -0.0014832318 0.56024951 4283190074
0.42482719 -0.0012990236 0.56025547 4282532914
0.42540014 -0.0011148155 0.56026143 4282005541
0.42603713 -0.0010961145 0.56017441 4281479197
0.42667511 -0.0010771155 0.56008738 4280688907
0.42731407 -0.0010578036 0.56000036 4279966219
0.42795402 -0.0010381639 0.55991334 4278979592
0.42862797 -0.0011006594 0.55977982 4278913799
0.42930341 -0.001162678 0.55964637 4278717447
0.42994681 -0.0011419207 0.5595594 4278717447
0.43059123 -0.0011208653 0.55947244 4278717194
0.43123657 -0.0010994822 0.55938548 4278717194
0.43181443 -0.0009136945 0.5593915 4279046410
0.43239233 -0.00072789192 0.55939752 4279111428
0.43286598 -0.0002964288 0.55954301 4279243021
0.43340811 -2.9057264e-05 0.55959547 4279177480
0.43391454 0.00031986833 0.55969447 4279243271
0.43441996 0.00066849589 0.55979341 4279309064
0.43488869 0.0010983646 0.55993879 4279243273
0.43542787 0.0013647825 0.5599913 4279243271
0.43593034 0.0017124563 0.56009018 4279308807
0.43635887 0.0022224933 0.56028205 4279178248
0.43685889 0.0025693476 0.56038094 4279112455
0.43732095 0.0029971004 0.56052631 4279243273
0.43796757 0.0030188709 0.56043935 4279242768
0.44036195 0.010302857 0.56374329 4278915078
0.44083804 0.010642052 0.56384194 4278784008
0.44135302 0.010900706 0.56389415 4278915594
0.44186756 0.011159196 0.56394637 4278915594
0.44234118 0.011497587 0.56404495 4279308809
0.44285446 0.01175566 0.56409717 4279440652
0.44332635 0.012093514 0.56419581 4279243273
0.44383842 0.012351185 0.56424797 4278914308
0.44430858 0.012688488 0.56434655 4279309064
0.44477773 0.013025448 0.56444514 4279374605
0.44528782 0.013282508 0.56449729 4279177497
0.44579741 0.013539404 0.56454945 4278785042
0.44630653 0.013796151 0.5646016 4278785042
0.44677246 0.014132082 0.56470013 4278784010
0.41953436 -0.0044355094 0.56016099 4285030995
0.4200809 -0.0041666031 0.56021327 4285359960
0.42059737 -0.0038141757 0.56031191 4285031765
0.42111284 -0.0034620464 0.5604105 4284439882
0.42165738 -0.0031937659 0.56046283 4284637261
0.42220148 -0.0029256344 0.56051511 4284374339
0.42271447 -0.0025742948 0.56061369 4283914301
0.42325732 -0.0023065656 0.56066597 4283716922
0.42376861 -0.0019558072 0.56076455 4283321914
0.42434153 -0.0017715991 0.56077051 4283059258
0.42491448 -0.0015873909 0.56077647 4282335535
0.4254874 -0.0014031827 0.56078243 4282004256
0.42609242 -0.0013018698 0.56074214 4281543705
0.42673022 -0.0012831688 0.56065559 4280819718
0.42740157 -0.0013469309 0.56052274 4280360714
0.42800879 -0.0012448877 0.56048244 4279374348
0.42871568 -0.0013903975 0.56030333 4279045383
0.42939121 -0.0014527887 0.56017053 4278913803
0.4300347 -0.0014322847 0.56008399 4278652424
0.43067917 -0.0014114827 0.55999744 4278652424
0.4313246 -0.0013903379 0.55991095 4278652424
0.43190247 -0.0012045503 0.55991697 4278981389
0.43248034 -0.0010187477 0.55992305 4279045894
0.43298867 -0.00066894293 0.56002158 4279308555
0.43353102 -0.00040136278 0.56007385 4279112203
0.43403763 -5.209446e-05 0.56017232 4279178250
0.43454322 0.00029686093 0.56027085 4279112457
0.43501207 0.00072717667 0.56041563 4279047182
0.43551546 0.0010754168 0.56051409 4278981639
0.43601784 0.0014233291 0.56061256 4279112455
0.43651927 0.0017709434 0.56071103 4279178248
0.43698293 0.0021995902 0.56085575 4279112455
0.43751913 0.0024651885 0.56090796 4279112455
0.43798032 0.0028930753 0.56105262 4279111952
0.4410814 0.010041028 0.56416178 4278915078
0.44151747 0.010460809 0.56430614 4279046664
0.44203243 0.010719582 0.56435817 4279046410
0.44250646 0.01105839 0.56445634 4279308812
0.44302022 0.011316746 0.56450832 4279506191
0.44349253 0.011654988 0.56460649 4279308812
0.44400501 0.011912972 0.5646584 4279177226
0.44447559 0.012250662 0.56475657 4279244043
0.44494519 0.012588039 0.56485474 4279506963
0.4454138 0.012925088 0.56495285 4279309081
0.44596577 0.013102561 0.56495857 4279113237
0.44647533 0.013359591 0.56501055 4278915858
0.44694173 0.013695925 0.56510866 4278981136
0.44753587 0.013793752 0.56506819 4279046931
0.41965124 -0.0048093498 0.56063855 4284965202
0.42016861 -0.0044563413 0.56073678 4285294167
0.42071462 -0.0041874647 0.56078881 4285032019
0.42123026 -0.0038350075 0.56088698 4284571468
0.42177504 -0.0035665184 0.56093907 4284637259
0.42228895 -0.0032146275 0.56103724 4284308546
0.42283249 -0.0029465407 0.56108928 4283914301
0.42334467 -0.0025951862 0.56118745 4283716922
0.42388701 -0.0023275167 0.56123948 4283321912
0.42442882 -0.0020599812 0.56129152 4283059512
0.42500177 -0.0018757731 0.56129748 4282269747
0.42560655 -0.0017746538 0.56125742 4281809196
0.42621183 -0.0016733557 0.56121731 4281478427
0.42681763 -0.0015719235 0.56117725 4280951306
0.4274891 -0.0016360432 0.56104505 4280623886
0.4281292 -0.0016168952 0.56095898 4279506188
0.42880335 -0.0016801357 0.56082678 4279111430
0.429479 -0.0017428994 0.56069469 4278979592
0.43012258 -0.0017226487 0.56060857 4278652424
0.43080094 -0.0017845482 0.56047648 4278652171
0.43144673 -0.0017635822 0.56039041 4278652171
0.43205917 -0.0016599894 0.56035042 4278981389
0.43263751 -0.0014740378 0.56035644 4279045640
0.43318108 -0.001205951 0.56040853 4279308555
0.43372414 -0.0009380132 0.56046057 4279112203
0.43426669 -0.00067025423 0.5605126 4279177996
0.43477321 -0.00032073259 0.56061065 4279177996
0.43527874 2.8461218e-05 0.56070876 4279046929
0.43578327 0.00037735701 0.56080681 4278981641
0.43628684 0.00072591007 0.56090486 4279112455
0.43678939 0.0010741502 0.56100285 4279178248
0.43725419 0.0015035868 0.56114691 4279112455
0.4377175 0.0019325614 0.56129092 4279112455
0.43817934 0.0023610294 0.56143492 4279111952
0.44215721 0.010359868 0.56481683 4279177226
0.4426719 0.010618687 0.56486857 4279374097
0.44314536 0.010957599 0.56496632 4279506191
0.44365883 0.011216 0.56501806 4279440141
0.44413057 0.011554331 0.56511575 4279308555
0.44460133 0.011892349 0.56521344 4279309836
0.44511282 0.012150124 0.56526518 4279506961
0.44558182 0.012487605 0.56536287 4279309333
0.44609207 0.012744993 0.56541455 4279047442
0.44664431 0.01292254 0.56542033 4279047442
0.44715381 0.013179675 0.56547207 4279243538
0.42028573 -0.0048300773 0.56121439 4285163605
0.42080227 -0.0044770837 0.56131208 4285032017
0.42131785 -0.0041243732 0.56140983 4284637772
0.42186257 -0.0038557649 0.56146169 4284506186
0.42237642 -0.0035036206 0.56155938 4284308292
0.4229506 -0.003319025 0.56156534 4284110913
0.42343205 -0.0028838068 0.56170887 4283847995
0.42400548 -0.0026994348 0.56171489 4283453237
0.42457891 -0.0025150776 0.56172085 4283125303
0.42512068 -0.0022474378 0.56177264 4282335283
0.42572576 -0.0021463335 0.56173283 4281808939
0.42633134 -0.0020451099 0.56169295 4281347872
0.4269698 -0.0020267814 0.56160724 4281083669
0.42760924 -0.0020081252 0.56152159 4280952851
0.42828253 -0.0020720661 0.5613901 4279571977
0.4289242 -0.0020526797 0.56130445 4279308805
0.42960021 -0.0021157563 0.56117296 4278914056
0.43031132 -0.0022609979 0.5609957 4278849033
0.43099055 -0.0023230016 0.56086427 4278784010
0.43167126 -0.0023845583 0.5607329 4278784010
0.43228471 -0.0022807866 0.56069309 4278981389
0.43286407 -0.0020945072 0.56069916 4278981389
0.43340856 -0.0018259883 0.56075102 4279112203
0.43398768 -0.0016397983 0.56075704 4278916109
0.43449607 -0.0012893975 0.56085467 4278916109
0.43500349 -0.0009393245 0.56095231 4279047695
0.43554577 -0.00067149103 0.56100416 4278981649
0.43605149 -0.00032196939 0.56110173 4279047182
0.43659252 -5.453825e-05 0.56115353 4279112205
0.43705991 0.00037613511 0.56129694 4279177998
0.43752581 0.00080633163 0.56144035 4278981387
0.43799025 0.0012360662 0.5615837 4279177996
0.4384532 0.0016653091 0.56172705 4279046929
0.43883955 0.0022568554 0.56196189 4278981399
0.44279698 0.010258943 0.56532747 4279440149
0.44331139 0.010517806 0.56537902 4279506191
0.44378427 0.010856792 0.5654763 4279571211
0.44425619 0.011195451 0.56557351 4279505418
0.44476861 0.011453658 0.56562507 4279374859
0.4452388 0.011791781 0.56572229 4279375375
0.44575 0.0120496 0.56577379 4279177745
0.44621846 0.012387156 0.565871 4279047442
0.44677094 0.012564778 0.56587678 4279047442
0.44728065 0.012822136 0.56592828 4279112975
0.44783288 0.012999684 0.565934 4279177998
0.44834185 0.013256788 0.5659855 4278982423
0.42037344 -0.0051199496 0.56173807 4285229394
0.42091966 -0.0048507452 0.56178969 4285032015
0.42140543 -0.0044137388 0.56193262 4284571979
0.42195013 -0.0041449964 0.56198424 4284506186
0.42252481 -0.0039602369 0.56199026 4284243012
0.42300737 -0.0035242736 0.56213307 4283979581
0.42361224 -0.0034234077 0.56209344 4283913788
0.42415521 -0.0031552166 0.56214505 4283584053
0.4246977 -0.0028871894 0.56219667 4283321397
0.42527139 -0.0027027428 0.56220269 4282400558
0.42587698 -0.0026016384 0.562163 4282005800
0.42648309 -0.002500385 0.56212342 4281544736
0.42712212 -0.0024821311 0.56203818 4281150232
0.42776212 -0.0024635792 0.56195295 4280953364
0.42843604 -0.0025276989 0.56182218 4279506695
0.42911142 -0.0025913864 0.56169134 4279177730
0.42978829 -0.0026545674 0.56156057 4278914056
0.43046662 -0.0027172863 0.5614298 4278914573
0.43118036 -0.0028622299 0.56125343 4279046412
0.43193021 -0.0030891597 0.56103152 4279046412
0.43254495 -0.0029851049 0.560992 4278915343
0.43316019 -0.0028809011 0.56095248 4278784010
0.43374103 -0.0026941597 0.5609585 4279046412
0.43428671 -0.0024251044 0.56101018 4278915856
0.43483192 -0.0021562129 0.5610618 4278915856
0.43537661 -0.0018874854 0.56111342 4279047695
0.43588495 -0.0015368313 0.56121063 4278981649
0.43642843 -0.0012684911 0.56126225 4279046929
0.43693504 -0.00091840327 0.56135941 4278981136
0.43744066 -0.00056862831 0.56145656 4279046929
0.43787158 -5.5670738e-05 0.56164485 4278981389
0.43830049 0.00045666099 0.56183314 4279177996
0.43876481 0.0008867532 0.56197584 4278981649
0.43915245 0.0014794022 0.56220961 4278850583
0.44296268 0.00981839 0.5657413 4279506963
0.44347754 0.010077521 0.56579256 4279309582
0.44395086 0.01041691 0.56588942 4279505164
0.44438189 0.010836303 0.56603175 4279570957
0.44489452 0.011094734 0.56608307 4279440141
0.44536489 0.011433169 0.56617987 4279309331
0.4458763 0.011691198 0.56623113 4278981389
0.4463872 0.011949062 0.56628239 4278981389
0.4468551 0.012286708 0.56637919 4278981389
0.44740754 0.012464345 0.56638491 4279112973
0.44791698 0.012721747 0.56643617 4279178248
0.44846922 0.012899294 0.56644195 4278982421
0.42097759 -0.0050563067 0.56235862 4285229394
0.421523 -0.0047872066 0.56241 4284637257
0.42206791 -0.0045182705 0.56246138 4284637257
0.42261234 -0.0042494833 0.56251281 4284308292
0.42315626 -0.003980875 0.56256419 4284110913
0.42373067 -0.00379619 0.56257021 4283913788
0.42427388 -0.0035277903 0.56262159 4283649846
0.42484805 -0.0033431947 0.56262755 4283387444
0.42542222 -0.0031585842 0.56263357 4282727977
0.42599639 -0.0029739738 0.56263953 4282464805
0.426635 -0.0029561371 0.56255478 4282333732
0.42727458 -0.0029379874 0.56246996 4281873955
0.42791516 -0.00291951 0.5623852 4281151772
0.42858967 -0.0029838681 0.56225508 4279375109
0.42926568 -0.0030477494 0.56212497 4279046144
0.42994314 -0.0031111538 0.56199485 4278979849
0.43065578 -0.0032569915 0.56181943 4278981136
0.43140435 -0.0034850091 0.5615986 4278915343
0.43215537 -0.0037122518 0.56137782 4278981136
0.4328056 -0.0036906749 0.56129313 4278981389
0.43345678 -0.0036687851 0.56120849 4278915596
0.43400413 -0.0033990741 0.56125993 4278981136
0.43462139 -0.0032943487 0.56122065 4278981649
0.43513286 -0.002942428 0.56131744 4278981649
0.43571466 -0.0027553588 0.56132346 4279047442
0.43622464 -0.0024039149 0.56142026 4279047695
0.43676981 -0.0021348894 0.56147164 4279047182
0.43727809 -0.0017839968 0.56156838 4279046931
0.43778533 -0.0014334172 0.56166512 4279112724
0.43832853 -0.0011650473 0.5617165 4279177998
0.4387598 -0.00065141916 0.56190389 4279243789
0.44312853 0.0093773305 0.56615597 4279507215
0.44360301 0.0097173601 0.56625235 4279309582
0.44407648 0.010057062 0.56634879 4279374348
0.44454899 0.010396481 0.56644511 4279374348
0.4450205 0.010735542 0.56654149 4279308812
0.44549102 0.011074305 0.56663787 4279177745
0.44596058 0.011412755 0.56673419 4279112205
0.44651377 0.01159063 0.56673998 4278981387
0.44698185 0.011928588 0.5668363 4278981387
0.44749171 0.012186274 0.56688732 4279177996
0.44800112 0.012443796 0.56693834 4278981641
0.44855332 0.012621343 0.56694412 4278982421
0.42164063 -0.0051609278 0.56288785 4284703052
0.42218578 -0.004891783 0.56293905 4284637257
0.42269987 -0.0045387149 0.56303537 4284242499
0.42327455 -0.0043539554 0.56304139 4284110913
0.42384923 -0.0041691959 0.56304735 4283782202
0.42439261 -0.0039006174 0.56309855 4283781432
0.42499855 -0.003799662 0.56305933 4283584053
0.4255732 -0.0036149025 0.56306535 4282597158
0.42614788 -0.003430143 0.56307137 4282465572
0.42678705 -0.0034123957 0.56298703 4282465572
0.4274272 -0.0033943355 0.56290269 4282137638
0.42810109 -0.0034592897 0.56277323 4281480483
0.42874345 -0.0034405142 0.56268895 4279440902
0.42945331 -0.0035877973 0.56251431 4279046144
0.43013161 -0.0036513358 0.5623849 4278914826
0.43084517 -0.0037974268 0.56221032 4279111952
0.43162864 -0.0041087866 0.56194556 4279046159
0.43238086 -0.0043363273 0.56172585 4279111952
0.43306658 -0.0043974817 0.56159651 4279177996
0.43371907 -0.0043754578 0.56151235 4279308555
0.43433756 -0.0042704791 0.56147331 4279177998
0.43492138 -0.0040827841 0.56147939 4279177998
0.43550515 -0.003895089 0.56148547 4279047695
0.43605325 -0.0036249906 0.56153667 4279112973
0.43660083 -0.0033550411 0.56158787 4279047693
0.43711174 -0.003003031 0.56168419 4279113227
0.43762165 -0.0026513338 0.56178051 4279179020
0.43813056 -0.0022999495 0.56187683 4279244310
0.43860155 -0.001866892 0.56201828 4279243791
0.43907109 -0.0014342964 0.56215966 4279374354
0.43946427 -0.00083851814 0.56239122 4279309335
0.44285905 0.0085141212 0.56643057 4279506961
0.44333518 0.0088549703 0.56652653 4279506961
0.44381031 0.0091954768 0.5666225 4279374605
0.44424331 0.0096163303 0.56676346 4279308812
0.44467488 0.010036707 0.56690449 4279243019
0.44510493 0.010456607 0.56704545 4279243021
0.44561726 0.010715216 0.56709629 4279111952
0.44608694 0.011053979 0.5671922 4279046412
0.44659805 0.011312187 0.56724304 4279046662
0.44710863 0.011570215 0.56729388 4279046662
0.4475759 0.011908203 0.56738973 4279046662
0.44808525 0.012165859 0.56744051 4279112457
0.44863749 0.012343407 0.56744629 4278981649
0.42230371 -0.0052655339 0.56341708 4284571464
0.42284855 -0.0049963444 0.56346804 4284242753
0.42342371 -0.004811421 0.56347406 4283979581
0.42399886 -0.0046264976 0.56348002 4283847995
0.42454273 -0.0043576211 0.56353098 4283781430
0.42511764 -0.0041727871 0.563537 4283518258
0.42569256 -0.0039879382 0.56354296 4282728231
0.42629951 -0.0038868189 0.56350404 4282728231
0.42693925 -0.0038691461 0.56342018 4282334756
0.42757997 -0.0038511604 0.56333631 4282138406
0.42825446 -0.0039163381 0.56320751 4281612069
0.42893043 -0.0039810687 0.5630787 4279440648
0.42964116 -0.0041285902 0.56290501 4279045890
0.43032035 -0.0041922629 0.56277633 4278914826
0.43106854 -0.0044217706 0.5625577 4279111952
0.4318192 -0.0046504885 0.56233919 4279177998
0.43264088 -0.0050444007 0.56203079 4279112205
0.43332794 -0.0051055253 0.56190217 4279308812
0.43398175 -0.0050833523 0.56181842 4279374348
0.43460152 -0.0049781054 0.56177962 4279374607
0.43522179 -0.0048726797 0.56174082 4279308814
0.43580705 -0.0046845078 0.5617469 4279243789
0.43632084 -0.0043313056 0.5618428 4279112973
0.43690562 -0.0041432828 0.56184894 4279047947
0.43745416 -0.0038729012 0.5618999 4279179020
0.43796575 -0.0035203993 0.5619958 4279179020
0.43847632 -0.0031682253 0.56209171 4279505942
0.43894893 -0.002734229 0.56223243 4279309331
0.4394573 -0.0023827553 0.56232828 4279505936
0.43992719 -0.001949653 0.56246901 4279375126
0.44210872 0.0073069483 0.56661177 4279046662
0.44250712 0.0078110844 0.56679702 4279243789
0.4429844 0.0081525594 0.56689256 4279506961
0.44350135 0.0084127933 0.56694323 4279506961
0.44393599 0.0088345706 0.5670836 4279374605
0.44436914 0.0092558712 0.56722397 4279308812
0.44480082 0.0096766949 0.56736428 4279177226
0.44523102 0.010097057 0.56750458 4279112205
0.44574356 0.01035586 0.56755519 4279111954
0.44621342 0.010694951 0.56765068 4278915594
0.44668233 0.011033744 0.5677461 4278784260
0.44719288 0.011291891 0.56779671 4278915846
0.44766006 0.011630133 0.56789213 4279046664
0.44816938 0.011887908 0.56794268 4279046664
0.4486782 0.012145504 0.56799328 4279046412
0.44923019 0.012322977 0.56799906 4279047695
0.42299739 -0.0054544508 0.5639016 4284242235
0.42357302 -0.0052693635 0.56390762 4283979063
0.42414868 -0.0050842911 0.56391364 4284044856
0.42469299 -0.0048151463 0.56396437 4283781430
0.42526841 -0.0046301484 0.56397033 4283648817
0.42587563 -0.004529044 0.56393164 4282991403
0.4264513 -0.0043439716 0.56393766 4282991403
0.4270916 -0.0043263882 0.56385422 4282926123
0.42773288 -0.0043085217 0.56377077 4282467625
0.42844081 -0.0044575036 0.56359798 4281481507
0.42908457 -0.0044388175 0.56351459 4279309834
0.42979595 -0.0045867115 0.5633418 4279112455
0.43050927 -0.004733935 0.563169 4279243019
0.43125844 -0.004963845 0.56295156 4279243021
0.43204406 -0.0052761286 0.56268948 4279308814
0.43283266 -0.0055874586 0.5624274 4279308814
0.43355516 -0.0057317764 0.56225473 4279308812
0.43421 -0.0057095438 0.56217146 4279374605
0.43483081 -0.0056041032 0.56213284 4279506193
0.4354521 -0.0054984987 0.56209427 4279374607
0.43600282 -0.0052272826 0.56214511 4279374859
0.43662462 -0.0051215142 0.56210649 4279309836
0.43713883 -0.0047678798 0.56220198 4279047693
0.43768832 -0.0044970661 0.56225276 4279113486
0.43820077 -0.004143998 0.56234825 4279113486
0.43878579 -0.0039559007 0.56235433 4279375126
0.43929681 -0.0036033094 0.56244975 4279375898
0.43973231 -0.003086701 0.56263447 4279505940
0.44024083 -0.0027348995 0.5627299 4279375124
0.4421939 0.007025525 0.56712025 4279243269
0.44267258 0.0073677301 0.56721532 4279374605
0.44310981 0.0077907443 0.56735504 4279375629
0.44366771 0.0079701245 0.56736088 4279177998
0.4441027 0.0083924234 0.56750053 4279046159
0.44453627 0.0088142604 0.56764024 4279046159
0.44492686 0.0093164295 0.56782448 4279243021
0.4453572 0.0097372532 0.56796414 4279112205
0.44582796 0.01007691 0.56805915 4279046159
0.44629776 0.010416254 0.56815416 4278915594
0.44676661 0.010755301 0.56824917 4278849281
0.44727713 0.011013582 0.56829953 4278915074
0.44774422 0.011352062 0.56839448 4278849033
0.44825351 0.011609957 0.56844485 4278849031
0.4487623 0.011867687 0.56849521 4278979847
0.44931427 0.01204516 0.568501 4279046412
0.44945803 0.026213765 0.57526016 4279243019
0.44997302 0.026379332 0.57526553 4279570708
0.45044062 0.026623815 0.57531548 4279636499
0.45090774 0.02686815 0.57536536 4280755233
0.42266139 -0.0063518286 0.56419653 4284309059
0.423177 -0.0059974939 0.5642916 4284111419
0.42372251 -0.0057278126 0.56434208 4283914040
0.42429864 -0.0055425763 0.5643481 4283978809
0.4248434 -0.0052731335 0.56439859 4283649844
0.4254193 -0.0050879717 0.56440461 4283648817
0.4259952 -0.0049028099 0.56441063 4283188782
0.42660323 -0.0048016161 0.56437212 4283122989
0.4272441 -0.0047841519 0.56428915 4283057709
0.42788595 -0.004766345 0.56420618 4282533164
0.42859453 -0.0049156696 0.56403428 4281612841
0.42927194 -0.004980728 0.56390685 4279968016
0.42995086 -0.0050452948 0.56377947 4279112457
0.43069845 -0.0052763671 0.56356311 4279177226
0.43141466 -0.0054232329 0.56339127 4279308557
0.43223512 -0.0058194399 0.56308603 4279374350
0.43305904 -0.0062145293 0.56278086 4279308814
0.43374807 -0.0062758774 0.56265354 4279308814
0.43443859 -0.0063367039 0.56252629 4279243791
0.43506038 -0.0062310696 0.5624879 4279637779
0.43568271 -0.0061252713 0.56244957 4279440400
0.43623438 -0.0058536083 0.56250018 4279374859
0.43685719 -0.005747661 0.56246185 4279375629
0.43737233 -0.0053934604 0.56255686 4279178768
0.43792278 -0.0051221997 0.56260741 4279179279
0.43843615 -0.0047685802 0.56270242 4279179279
0.43898535 -0.0044977218 0.56275296 4279244310
0.43953407 -0.0042270124 0.56280351 4279506714
0.44000769 -0.0037918687 0.56294298 4279637526
0.4423191 0.0066626817 0.56758428 4279374855
0.44279793 0.0070051998 0.56767893 4279374859
0.44331631 0.0072661638 0.56772918 4279440650
0.44379345 0.0076081306 0.56782377 4279112205
0.44422859 0.0080308914 0.56796283 4279046161
0.44462103 0.0085342079 0.56814623 4278914575
0.44509447 0.0088749975 0.56824082 4279111952
0.44548342 0.0093771964 0.56842417 4279046412
0.44591239 0.0097979754 0.5685631 4279046412
0.44642437 0.010056868 0.56861329 4279046410
0.4468509 0.010476857 0.56875223 4278849281
0.44736135 0.010735258 0.56880236 4278915074
0.44778541 0.011154473 0.5689413 4278914826
0.44833761 0.01133202 0.56894702 4278979847
0.4488464 0.01158987 0.56899714 4279045894
0.44902152 0.025788993 0.57572311 4279243016
0.44953647 0.025954559 0.57572848 4279308809
0.45000431 0.026199251 0.57577819 4279440141
0.45051903 0.026364744 0.57578355 4279505940
0.45093846 0.026688173 0.57587755 4280492578
0.45140478 0.026932389 0.57592726 4282269494
0.42226294 -0.0070818365 0.56458223 4284571977
0.42274928 -0.0066421926 0.56472111 4284243005
0.42332613 -0.0064567178 0.56472713 4283979833
0.42387211 -0.0061867684 0.56477743 4283848247
0.42441759 -0.005916968 0.56482774 4283912757
0.42496255 -0.0056473166 0.56487805 4283715124
0.42553872 -0.0054620802 0.56488407 4283583538
0.42614675 -0.0053610057 0.5648458 4283386161
0.42672315 -0.0051756948 0.56485176 4283386161
0.42739674 -0.0052423775 0.56472498 4283188782
0.42803919 -0.0052246898 0.56464249 4282926639
0.4287155 -0.0052904934 0.56451571 4280888094
0.42942643 -0.0054396093 0.5643447 4279901199
0.43013933 -0.0055880845 0.56417376 4279374607
0.4308542 -0.0057359338 0.56400281 4279374354
0.43160495 -0.0059666634 0.56378758 4279374354
0.43235815 -0.0061966032 0.56357241 4279374354
0.4331826 -0.0065924823 0.56326884 4279374354
0.43394122 -0.0068206787 0.56305373 4279309331
0.4345977 -0.0067984611 0.56297135 4279178768
0.43518496 -0.0066096485 0.56297749 4279376145
0.4358429 -0.0065869391 0.56289512 4279244559
0.43643063 -0.0063979775 0.56290126 4279440652
0.43701839 -0.0062090158 0.5629074 4279506961
0.43753392 -0.0058544278 0.56300199 4279375894
0.43812114 -0.0056656152 0.56300807 4279375375
0.43856201 -0.0051461905 0.56319112 4279375375
0.43914828 -0.0049577057 0.5631972 4279375124
0.43966034 -0.0046042055 0.56329179 4279375124
0.44017142 -0.0042510331 0.56338632 4279703319
0.44244435 0.0062995851 0.56804878 4279702793
0.44292337 0.0066424608 0.56814295 4279374600
0.44344196 0.0069036037 0.56819296 4279243021
0.44391927 0.0072459131 0.56828713 4278914575
0.44435453 0.0076691061 0.56842554 4278914575
0.44470578 0.0082541555 0.56865221 4278914575
0.44517913 0.0085951835 0.56874633 4279046159
0.44556797 0.0090978891 0.56892884 4279046412
0.44599682 0.0095190406 0.56906712 4279177228
0.44646651 0.0098588765 0.56916118 4279046410
0.44693518 0.010198414 0.56925529 4278980097
0.4474456 0.010456949 0.56930524 4279177476
0.44786954 0.010876521 0.56944346 4278915078
0.4483785 0.01113458 0.56949335 4279045892
0.44893047 0.011312053 0.56949914 4279111428
0.44863144 0.025284737 0.57614189 4279308807
0.44914669 0.025450394 0.57614726 4279111428
0.44961494 0.025695369 0.57619679 4279308807
0.45003551 0.026019424 0.57629037 4279506186
0.45059747 0.026105672 0.57625163 4279506191
0.45106447 0.02635026 0.5763011 4280427042
0.4514831 0.026673689 0.57639468 4282335287
0.42241138 -0.0075422376 0.56501937 4284702534
0.42292857 -0.0071868449 0.56511354 4284373821
0.4235062 -0.0070011318 0.56511956 4284110647
0.4240219 -0.006646201 0.56521368 4283913268
0.42456782 -0.0063761175 0.56526375 4283781682
0.42511323 -0.0061062127 0.56531382 4283781682
0.42568988 -0.0059208125 0.56531984 4283518512
0.42626652 -0.0057354122 0.56532586 4283715124
0.42690754 -0.0057184249 0.56524378 4283649331
0.42754954 -0.0057011247 0.56516171 4283320114
0.42819256 -0.0056835115 0.56507969 4282927152
0.42886946 -0.0057495385 0.56495363 4280887837
0.42954788 -0.0058151037 0.56482756 4279900942
0.43026116 -0.0059639812 0.56465745 4279309331
0.43097645 -0.0061122626 0.5644874 4279309081
0.43176153 -0.0064271688 0.56422931 4279440147
0.43251544 -0.0066575706 0.56401527 4279374354
0.433375 -0.007137686 0.5636692 4279571476
0.43406525 -0.0071994215 0.56354326 4279505940
0.43472207 -0.0071773678 0.56346136 4279375629
0.4353447 -0.0070717335 0.56342345 4279309834
0.43600324 -0.0070491284 0.56334156 4279309834
0.43659148 -0.0068600029 0.5633477 4279375896
0.43717968 -0.0066708773 0.56335384 4279572505
0.4377318 -0.0063988119 0.56340396 4279441687
0.43828338 -0.0061268955 0.56345409 4279244559
0.43879786 -0.005772382 0.56354821 4279376145
0.43931133 -0.0054181665 0.56364238 4279441940
0.43982384 -0.0050642937 0.56373644 4279441938
0.44260979 0.0058545619 0.56846976 4279506186
0.44304889 0.0062794387 0.56860745 4279243273
0.4435271 0.0066222996 0.56870121 4279045642
0.44404516 0.0068834275 0.56875098 4279046159
0.4444806 0.0073070973 0.56888866 4278915343
0.44487318 0.0078115612 0.56907028 4278915343
0.44526383 0.0083153844 0.56925189 4278783757
0.44569433 0.0087374598 0.56938946 4279046412
0.44608125 0.0092401057 0.56957108 4279046412
0.44655085 0.009580195 0.56966472 4279046410
0.4469769 0.01000084 0.56980228 4278914824
0.44748706 0.010259435 0.56985199 4279046410
0.44791061 0.01067929 0.56998956 4278914824
0.4484193 0.010937408 0.57003921 4279045890
0.44897103 0.011114791 0.57004499 4279045389
0.44866341 0.025105014 0.57665431 4279177478
0.44922516 0.025191069 0.57661581 4279177476
0.44969338 0.025436163 0.57666504 4279243269
0.45011389 0.025760472 0.57675821 4279440391
0.45062837 0.02592589 0.57676357 4279703570
0.45114285 0.026091307 0.57676893 4280033058
0.45151341 0.026494116 0.57690597 4282597954
0.45197892 0.026738346 0.5769552 4283058505
0.4220714 -0.0084443092 0.5653199 4284899661
0.4225297 -0.007918179 0.56550127 4284702534
0.42307755 -0.0076473504 0.56555116 4284373821
0.42362493 -0.0073766708 0.56560099 4284044854
0.42417181 -0.0071061552 0.56565088 4283847475
0.42474943 -0.006920442 0.5656569 4283781682
0.42526406 -0.0065655708 0.56575054 4283781682
0.42584121 -0.0063800216 0.56575656 4283584305
0.42645031 -0.0062788725 0.56571877 4283650098
0.4270277 -0.0060932338 0.56572479 4283650098
0.42763755 -0.0059918612 0.565687 4283255088
0.42831334 -0.0060586482 0.56556159 4282861613
0.42899063 -0.0061249882 0.56543618 4280822298
0.42970258 -0.0062748492 0.56526697 4279901196
0.43038309 -0.0063401461 0.56514162 4279309331
0.43109876 -0.0064888299 0.56497246 4279309081
0.43185037 -0.0067206323 0.56475949 4279505942
0.43267286 -0.0071190596 0.56445897 4279440149
0.43346435 -0.0074327588 0.56420231 4279505940
0.43418938 -0.0075784177 0.56403327 4279505940
0.43488145 -0.0076399744 0.56390798 4279440652
0.43550462 -0.0075343251 0.56387037 4279506695
0.43609285 -0.0073451996 0.56387651 4279638281
0.43675244 -0.0073225051 0.56379503 4279441689
0.43730527 -0.007050097 0.56384498 4279441687
0.43785754 -0.006777823 0.56389487 4279507733
0.43840936 -0.0065057129 0.56394482 4279441940
0.43892398 -0.0061508566 0.56403846 4279441938
0.43940073 -0.0057134926 0.5641759 4279507733
0.44273522 0.0054908693 0.56893533 4279309066
0.44317448 0.0059161782 0.56907237 4279046664
0.44365287 0.0062593818 0.56916571 4278849033
0.44417113 0.0065206885 0.56921524 4279046159
0.44456556 0.0070262998 0.56939602 4279046159
0.44495803 0.0075312555 0.56957668 4279046159
0.44539011 0.0079542696 0.56971371 4278783757
0.44577891 0.0084580183 0.56989437 4279046412
0.4461236 0.0090423226 0.57011873 4279046412
0.44659287 0.0093825907 0.57021195 4279046410
0.44706112 0.0097225308 0.57030511 4279046410
0.44752842 0.010062158 0.57039833 4279046410
0.44795161 0.010482311 0.57053518 4278914824
0.44846004 0.010740459 0.57058465 4279045894
0.44896793 0.010998458 0.57063413 4279176977
0.44827318 0.024600446 0.57707357 4279440147
0.44874188 0.024845809 0.57712263 4279243014
0.44925687 0.02501139 0.57712799 4279243271
0.44977182 0.025176957 0.57713336 4279309064
0.45019227 0.025501519 0.57722604 4279571979
0.45065922 0.02574636 0.5772751 4279703570
0.45117348 0.025911689 0.57728046 4280163874
0.45163971 0.026156291 0.57732946 4282466368
0.45210543 0.026400715 0.57737851 4283058505
0.42215964 -0.0087359101 0.56584668 4284899661
0.42267841 -0.0083794743 0.56593996 4284702534
0.42322671 -0.0081083477 0.56598961 4284307774
0.42377454 -0.00783737 0.56603926 4284110395
0.42429084 -0.007481724 0.56613255 4283978809
0.42483741 -0.0072111636 0.56618214 4283847223
0.42544657 -0.0071101338 0.56614459 4283847223
0.42599267 -0.0068397373 0.56619418 4283584053
0.4266023 -0.0067385435 0.56615663 4283715124
0.42718017 -0.0065527558 0.56616265 4283649331
0.4278231 -0.0065357089 0.56608152 4283188782
0.42846698 -0.006518364 0.56600034 4282925869
0.42917788 -0.006669119 0.56583202 4280689429
0.42985749 -0.0067350864 0.56570733 4280097292
0.43053856 -0.0068006217 0.56558263 4279309331
0.43125489 -0.0069496185 0.56541437 4279374874
0.43200719 -0.0071819127 0.56520259 4279506712
0.43279618 -0.0074972063 0.56494719 4279506712
0.43358815 -0.0078115463 0.56469184 4279506712
0.43431357 -0.0079576522 0.5645237 4279637528
0.43497103 -0.0079359263 0.56444269 4279375375
0.43559423 -0.0078303963 0.56440526 4279638281
0.43621796 -0.0077246875 0.56436783 4279638281
0.43684214 -0.0076188296 0.5643304 4279572754
0.43746683 -0.0075127929 0.56429303 4279769363
0.43798339 -0.0071570873 0.56438625 4279638547
0.43857187 -0.0069678724 0.56439239 4279572754
0.43908691 -0.0066126138 0.56448561 4279573008
0.44282061 0.0052088201 0.56944489 4279112203
0.44330013 0.0055526644 0.56953776 4279046664
0.44377869 0.0058961958 0.56963062 4278914824
0.44425625 0.0062393993 0.56972349 4279111952
0.44465056 0.0067454875 0.56990331 4279046159
0.44504285 0.0072509497 0.57008314 4279046159
0.4454332 0.0077557713 0.57026291 4279046163
0.44582158 0.0082599521 0.57044274 4279046159
0.44620797 0.008763507 0.57062244 4279177228
0.44659239 0.0092664212 0.57080221 4279374350
0.44710273 0.0095253289 0.57085145 4279177998
0.4475697 0.0098651499 0.57094419 4279177998
0.44803566 0.010204613 0.57103693 4279243791
0.44850066 0.010543779 0.57112962 4279046933
0.44830537 0.024421036 0.57758558 4279571476
0.44877377 0.024666458 0.57763439 4279505934
0.44928849 0.024831951 0.57763976 4279309064
0.44975618 0.025077149 0.57768857 4279374857
0.45027065 0.025242567 0.57769394 4279638029
0.45073757 0.025487527 0.5777427 4279900949
0.4511562 0.025811777 0.57783496 4280295201
0.45157385 0.026135728 0.57792717 4282267959
0.42230809 -0.0091981143 0.56628674 4284964939
0.42282724 -0.0088412464 0.56637961 4284570948
0.4234066 -0.0086549819 0.56638563 4284307776
0.42395514 -0.0083836615 0.56643504 4284110395
0.42450315 -0.0081124902 0.56648445 4283978809
0.42501938 -0.0077565759 0.56657726 4283978296
0.42559773 -0.0075706244 0.56658328 4283913018
0.4261761 -0.0073846728 0.56658936 4283649592
0.42675447 -0.0071987212 0.56659538 4283649592
0.42736512 -0.0070973486 0.566558 4283583799
0.42800885 -0.0070803314 0.5664773 4283320114
0.42862076 -0.0069785416 0.56643999 4283122737
0.42933229 -0.0071296394 0.56627262 4280623382
0.43001252 -0.0071958452 0.56614858 4280097038
