# .PCD v0.7 - Point Cloud Data file format
VERSION 0.7
FIELDS x y z rgb
SIZE 4 4 4 4
TYPE F F F U
COUNT 1 1 1 1
WIDTH 1071
HEIGHT 1
VIEWPOINT 0 0 0 1 0 0 0
POINTS 1071
DATA ascii
0.45770267 0.063075557 0.54290009 4278914323
0.45821986 0.063152492 0.5427013 4279046159
0.45873556 0.063229918 0.54250252 4278914826
0.45924976 0.063307807 0.54230368 4278915596
0.45976251 0.063386172 0.54210484 4278915596
0.46025872 0.063389316 0.54197347 4279047182
0.46076873 0.063468531 0.54177463 4278981138
0.46127728 0.063548222 0.54157579 4278915345
0.46177003 0.063552454 0.54144436 4279112205
0.46227586 0.063632995 0.54124552 4279112205
0.46278018 0.063714042 0.54104662 4279177998
0.4632695 0.063719377 0.54091519 4279112205
0.4637711 0.063801259 0.54071629 4279178248
0.46427125 0.063883632 0.54051733 4279244041
0.46475711 0.06389007 0.5403859 4279243789
0.46525455 0.063973278 0.54018694 4279309584
0.46573815 0.06398043 0.54005551 4279243791
0.47230908 0.067282468 0.53557748 4279243789
0.47277763 0.06737487 0.53537834 4279309582
0.47323608 0.06739004 0.53524667 4279375375
0.47369352 0.067405507 0.535115 4279637528
0.47415 0.067421287 0.53498334 4279375124
0.47460547 0.067437366 0.53485167 4279179279
0.47505996 0.067453787 0.53471994 4279179279
0.47550607 0.067392379 0.53465581 4279310865
0.47595167 0.067331135 0.53459167 4279442451
0.47638991 0.067191765 0.53459501 4279573526
0.4768348 0.067130744 0.53453082 4279573790
0.47727919 0.067069903 0.53446662 4279443487
0.4298507 0.067770258 0.54684317 4284903270
0.43036318 0.067687616 0.54677927 4284705891
0.43087518 0.067605123 0.54671538 4284903019
0.43135735 0.067451775 0.54671907 4285231984
0.43186861 0.067369506 0.54665518 4286350985
0.43237936 0.067287415 0.54659128 4286153608
0.43291822 0.067276731 0.54645979 4286086280
0.43345609 0.06726636 0.54632831 4281150515
0.43396488 0.06718488 0.54626441 4280821550
0.43450102 0.067175046 0.54613292 4280427562
0.43500856 0.067093968 0.54606897 4280164644
0.43551564 0.067013055 0.54600507 4280033054
0.43602219 0.066932306 0.54594111 4279375126
0.43652827 0.06685169 0.54587722 4279045391
0.43703383 0.066771254 0.54581326 4279045391
0.43753892 0.066690952 0.54574937 4278979596
0.4380435 0.066610798 0.54568541 4278979849
0.43852174 0.066458717 0.54568911 4278914575
0.43902558 0.066378817 0.54562515 4278783761
0.43950358 0.066226795 0.54562879 4278783761
0.43998155 0.066074789 0.54563248 4278717964
0.44045955 0.065922782 0.54563618 4278717964
0.44093752 0.06577076 0.54563981 4278914573
0.44141552 0.065618753 0.54564351 4278914573
0.44191763 0.065539405 0.54557955 4278849031
0.44239539 0.065387473 0.54558319 4278914054
0.44287312 0.06523554 0.54558688 4278979847
0.44335085 0.065083608 0.54559052 4278914824
0.44382858 0.064931676 0.54559422 4278914824
0.44430631 0.064779729 0.54559791 4278914824
0.4447614 0.064554662 0.5456692 4279045640
0.44526178 0.064475864 0.54560518 4278914573
0.44573954 0.064323932 0.54560888 4278914323
0.44621727 0.064172 0.54561257 4278914323
0.44671667 0.064093515 0.54554856 4278848784
0.44721559 0.064015195 0.5454846 4278718217
0.44769281 0.063863412 0.54548824 4278718215
0.44819099 0.063785329 0.54542428 4278784008
0.44868869 0.063707396 0.54536027 4278718215
0.44918585 0.063629597 0.54529631 4278718217
0.44968253 0.063551977 0.5452323 4278783238
0.45017874 0.063474506 0.54516828 4278849031
0.45067444 0.063397199 0.54510427 4278784010
0.4511891 0.063394219 0.5449726 4278784010
0.45170277 0.063391536 0.54484093 4278915596
0.45219651 0.06331484 0.54477692 4278718215
0.45270842 0.063312709 0.54464519 4278784010
0.45321938 0.063310891 0.54451346 4278915343
0.45372936 0.063309401 0.5443818 4279046159
0.45423833 0.063308209 0.54425007 4278914573
0.45474631 0.06330733 0.54411834 4278783757
0.45525333 0.063306764 0.54398662 4278783759
0.45577657 0.063381389 0.54378718 4278915345
0.45626438 0.063306585 0.54372311 4278915345
0.45678514 0.063381985 0.54352367 4278783759
0.45730442 0.063457862 0.54332423 4278915345
0.45780599 0.063459024 0.54319245 4278914325
0.45832258 0.063535765 0.54299295 4279046161
0.45882192 0.063537627 0.54286122 4278914826
0.45933577 0.063615218 0.54266167 4278915596
0.45983291 0.063617811 0.54252988 4278915596
0.46034405 0.063696265 0.54233038 4279047180
0.4608537 0.063775197 0.54213083 4278981136
0.46136189 0.063854605 0.54193127 4278915343
0.46185431 0.063858688 0.54179943 4279177745
0.46235979 0.063938931 0.54159987 4279046412
0.46285 0.063943714 0.54146802 4279112205
0.46335274 0.064024851 0.54126847 4279112203
0.46385401 0.064106449 0.54106885 4279178248
0.4643538 0.064188525 0.54086924 4279178248
0.46483931 0.064194798 0.54073739 4279177998
0.46533638 0.064277723 0.54053771 4279243538
0.46581969 0.064284697 0.54040581 4279243538
0.46631405 0.064368516 0.54020619 4279177998
0.4728266 0.067439064 0.53591609 4279375375
0.47328547 0.067453817 0.53578401 4279637777
0.47374335 0.067468882 0.53565192 4279768855
0.47420022 0.067484275 0.53551978 4279375124
0.47465611 0.067499951 0.53538764 4279376660
0.47510344 0.067438036 0.53532326 4279180051
0.4755576 0.067454278 0.53519118 4279180051
0.47600368 0.067392752 0.53512675 4279442453
0.47644925 0.067331389 0.53506237 4279770135
0.47688773 0.067191944 0.53506577 4279704859
0.47733894 0.06720911 0.53493357 4279836960
0.43094799 0.067844734 0.54715502 4285034343
0.43143019 0.067691386 0.54715872 4285297515
0.43194139 0.067608997 0.54709464 4286547333
0.43248093 0.067597836 0.54696268 4286284424
0.43299091 0.067515865 0.5468986 4286022022
0.43350041 0.067434028 0.54683447 4286020221
0.43403745 0.067423642 0.5467025 4285428084
0.4345457 0.067342207 0.54663837 4280427046
0.43508101 0.067332357 0.5465064 4280690216
0.43558803 0.067251325 0.54644227 4280296226
0.43612164 0.067242041 0.54631031 4279704861
0.43662742 0.067161396 0.54624611 4279440151
0.43713272 0.0670809 0.54618198 4279440151
0.43763751 0.067000553 0.54611778 4279176975
0.43814182 0.06692037 0.54605365 4279177228
0.43861979 0.066768363 0.54605734 4278783757
0.43912336 0.066688418 0.54599315 4278783761
0.43960112 0.066536486 0.54599679 4278783761
0.44007885 0.066384554 0.54600048 4278915596
0.44058144 0.066304922 0.54593629 4278914826
0.4410589 0.066153064 0.54593992 4278979849
0.4415364 0.066001222 0.54594362 4278979596
0.44201389 0.065849364 0.54594731 4278979596
0.44249138 0.065697506 0.54595095 4278782987
0.44296888 0.065545648 0.54595464 4278979596
0.44344637 0.065393791 0.54595828 4278914573
0.44392386 0.065241933 0.54596198 4278848780
0.44440135 0.065090075 0.54596561 4278914573
0.44487882 0.064938232 0.54596931 4278914826
0.44537869 0.064859465 0.54590511 4279046161
0.44585595 0.064707682 0.54590875 4278848532
0.44633317 0.064555913 0.54591244 4278914325
0.44681042 0.06440413 0.54591608 4278914575
0.44730905 0.064325765 0.54585189 4278848780
0.44780719 0.064247549 0.54578769 4278717964
0.44828394 0.064095929 0.54579133 4278784008
0.44880196 0.064091563 0.54565924 4278718215
0.44929862 0.064013824 0.54559505 4278718215
0.44979477 0.063936248 0.5455308 4278849285
0.45029044 0.063858822 0.54546654 4278784262
0.45078561 0.063781545 0.54540229 4278718215
0.4512803 0.063704431 0.54533809 4278718217
0.45179364 0.06370157 0.54520595 4278915596
0.45228708 0.063624859 0.5451417 4278784008
0.45279869 0.063622549 0.54500955 4278784008
0.45330933 0.063620567 0.54487741 4279046412
0.45381898 0.063618913 0.54474521 4278914573
0.45432764 0.063617542 0.54461306 4278848780
0.454853 0.06369108 0.54441297 4278914573
0.45534199 0.063615769 0.54434872 4278848780
0.45586488 0.063690096 0.54414856 4278915343
0.45635238 0.063615263 0.54408431 4278783759
0.45687279 0.063690364 0.54388416 4278783759
0.45737529 0.063690975 0.54375196 4278783759
0.45789298 0.063766941 0.5435518 4278915093
0.45839325 0.063768268 0.5434196 4278915345
0.45890823 0.063845098 0.54321945 4278915596
0.45940626 0.06384711 0.54308718 4278915594
0.45991853 0.063924819 0.54288697 4278915594
0.46041435 0.063927546 0.54275477 4279112203
0.46092388 0.064006105 0.5425545 4278981136
0.46143195 0.064085141 0.54235435 4278915343
0.46193853 0.064164653 0.54215407 4279046929
0.46244365 0.064244628 0.54195386 4278915343
0.46293354 0.064249232 0.54182154 4278981136
0.46343592 0.064330071 0.54162127 4279112205
0.46393684 0.064411387 0.541421 4279243019
0.46443626 0.064493179 0.54122072 4279047434
0.4649342 0.064575419 0.54102045 4279308561
0.46541816 0.064581916 0.54088807 4279177749
0.46590117 0.06458874 0.54075569 4279177749
0.46639514 0.064672247 0.54055536 4279111952
0.47241548 0.067489713 0.53658736 4279375375
0.47287574 0.067503765 0.5364548 4279375375
0.47333503 0.0675181 0.53632224 4279703315
0.47378501 0.067455187 0.53625768 4279899924
0.47424257 0.067470089 0.53612512 4279637526
0.47469911 0.067485303 0.53599256 4279507484
0.4751547 0.067500815 0.53585994 4279245341
0.47560927 0.06751667 0.53572738 4279376927
0.4760558 0.067454845 0.53566277 4279573788
0.47650185 0.067393214 0.53559816 4279836696
0.47694081 0.067253605 0.53560156 4280230684
0.43147376 0.067860231 0.54766643 4285560687
0.4319562 0.067706808 0.54767013 4286612354
0.43255365 0.067837089 0.54740167 4286218116
0.43309209 0.067825988 0.54726928 4286152836
0.43360132 0.067744121 0.54720497 4285889403
0.43413803 0.067733556 0.54707253 4286086782
0.43464601 0.067652076 0.54700816 4281810239
0.43515348 0.067570761 0.54694378 4281019181
0.43568772 0.067560986 0.5468114 4280624421
0.43619397 0.067480072 0.54674703 4280033056
0.43672651 0.067470834 0.54661459 4279638300
0.43723151 0.067390293 0.54655021 4279572507
0.43773603 0.067309916 0.54648578 4279308814
0.43824005 0.067229703 0.54642141 4279243273
0.43874359 0.067149639 0.54635704 4278783759
0.43922108 0.066997781 0.54636067 4278783761
0.43969858 0.066845924 0.54636437 4278915347
0.4402011 0.066766173 0.54629993 4278784010
0.44067836 0.066614404 0.54630363 4278914826
0.44115558 0.066462621 0.54630727 4278914573
0.44165716 0.066383183 0.54624283 4278848782
0.44211009 0.06615907 0.5463146 4278848782
0.44261113 0.066079795 0.54625022 4278848782
0.44308814 0.065928087 0.54625386 4278848780
0.44356513 0.065776393 0.5462575 4278914573
0.44404212 0.065624699 0.54626119 4278848780
0.44451913 0.06547299 0.54626483 4278848780
0.44499612 0.065321296 0.54626852 4278914826
0.4454731 0.065169603 0.54627216 4278914575
0.44595012 0.065017894 0.54627585 4278914323
0.44644895 0.064939335 0.54621136 4278914323
0.4469257 0.064787701 0.54621506 4278914575
0.44742379 0.06470935 0.54615062 4278848780
0.4479003 0.064557821 0.54615426 4278783757
0.44839764 0.064479709 0.54608983 4278718730
0.4488945 0.064401761 0.5460254 4278718730
0.44939089 0.064323977 0.54596096 4278652935
0.44988674 0.064246342 0.54589647 4278718469
0.45040199 0.064242631 0.54576391 4278915848
0.45087701 0.064091563 0.54576755 4278652422
0.4513908 0.0640883 0.54563498 4278718217
0.45188445 0.06401138 0.54557049 4278784010
0.45239648 0.064008668 0.54543793 4278914824
0.45288891 0.063932136 0.54537344 4278849031
0.45339921 0.06392999 0.54524082 4278914824
0.45392668 0.064002454 0.54504007 4278914573
0.45441687 0.063926637 0.54497558 4278848780
0.45494184 0.063999876 0.54477483 4278914826
0.45544797 0.063999072 0.54464221 4278718217
0.45595309 0.063998565 0.54450953 4278850316
0.45645723 0.063998386 0.54437685 4278783761
0.45697704 0.06407328 0.5441761 4278783759
0.45746255 0.063998953 0.54411155 4278783759
0.45797989 0.064074621 0.54391074 4278915347
0.45847982 0.064075768 0.54377806 4278783759
0.45899445 0.064152315 0.54357719 4278915596
0.45949215 0.064154163 0.54344451 4278915596
0.45998889 0.064156339 0.54331183 4278915596
0.46049955 0.064234138 0.54311097 4279112205
0.46100876 0.064312413 0.54291004 4278981136
0.46151647 0.064391166 0.54270917 4279046161
0.46202269 0.064470366 0.54250824 4279177745
0.46252742 0.064550057 0.54230738 4278915343
0.4630307 0.064630225 0.54210639 4278981136
0.46353248 0.064710841 0.54190552 4279046159
0.46403277 0.064791963 0.54170454 4279112205
0.46451864 0.06479758 0.54157174 4278981387
0.46501625 0.064879537 0.54137075 4279308561
0.46549988 0.06488587 0.54123795 4279046933
0.46599475 0.064968705 0.54103696 4279046933
0.46648812 0.065051988 0.54083598 4278915343
0.46696833 0.065059423 0.54070312 4279112722
0.47199342 0.067464843 0.53732854 4279179030
0.47245532 0.067478076 0.53719556 4279179281
0.47290748 0.067414343 0.53713077 4279179281
0.47337618 0.067505509 0.53692961 4279506963
0.47382689 0.067442238 0.53686482 4279834899
0.47429311 0.067534164 0.53666359 4279506710
0.47474232 0.06747137 0.5365988 4279507482
0.47519857 0.06748642 0.53646576 4279507482
0.47565383 0.067501798 0.53633273 4279573790
0.4761081 0.067517459 0.53619969 4279968546
0.47655457 0.06745553 0.53613484 4280099619
0.47700712 0.067471743 0.5360018 4282600002
0.43367392 0.067983001 0.54764324 4285955196
0.43421057 0.067972198 0.54751039 4286020989
0.43471849 0.067890584 0.54744583 4285231984
0.43522593 0.06780915 0.54738122 4283257164
0.43576011 0.067799136 0.54724836 4281348146
0.4362933 0.06778945 0.54711545 4280624423
0.43679878 0.067708611 0.54705083 4280229665
0.43733025 0.067699462 0.54691797 4279966493
0.43783447 0.067619041 0.54685336 4279703313
0.43833822 0.067538783 0.54678875 4279375375
0.43881571 0.067386925 0.54679239 4279046681
0.43931872 0.067306891 0.54672778 4278980886
0.43982121 0.067227021 0.54666317 4278915093
0.44032323 0.067147315 0.54659855 4278783759
0.44079995 0.066995695 0.54660219 4278914573
0.44127673 0.066844061 0.54660583 4279046163
0.44175348 0.066692442 0.54660952 4278848784
0.44223022 0.066540822 0.54661316 4278848784
0.44273075 0.066461563 0.54654849 4278914573
0.44320723 0.066310033 0.54655218 4278914573
0.44368374 0.066158488 0.54655582 4278848780
0.44416025 0.066006944 0.54655951 4278848780
0.44463676 0.065855399 0.54656315 4278848780
0.44511324 0.065703854 0.54656684 4278849033
0.44558975 0.065552324 0.54657048 4278849033
0.44606626 0.065400779 0.54657412 4278914575
0.44654277 0.065249234 0.54657781 4278914575
0.44704083 0.065170765 0.54651314 4278848780
0.44753838 0.065092459 0.54644847 4278914573
0.44801438 0.064941078 0.54645211 4278717964
0.44851121 0.064863011 0.54638743 4278652686
0.44900754 0.064785108 0.54632276 4278652684
0.44950339 0.064707354 0.54625809 4278586891
0.44999874 0.064629763 0.54619342 4278718215
0.45049357 0.064552322 0.54612875 4278718982
0.45098794 0.06447503 0.54606402 4278718215
0.45148179 0.064397916 0.54599935 4278784010
0.45199424 0.064394802 0.54586631 4278784010
0.45248687 0.064318061 0.54580158 4278783240
0.45299762 0.064315513 0.54566854 4278979847
0.45348901 0.064239189 0.54560381 4278914824
0.45401609 0.064311355 0.54540241 4278914826
0.45452386 0.064309731 0.54526931 4278914826
0.45504826 0.064382777 0.54506791 4278849033
0.4555538 0.064381868 0.54493481 4278915596
0.45605835 0.064381287 0.54480171 4278850063
0.45656192 0.064381003 0.54466856 4278914575
0.45706451 0.064381048 0.54453546 4278783759
0.45756611 0.064381391 0.54440236 4278783759
0.4580667 0.064382061 0.5442692 4278783759
0.45856634 0.06438303 0.54413605 4278915345
0.45908058 0.064459279 0.54393458 4278915343
0.45957798 0.064460978 0.54380143 4278783759
0.46007439 0.06446299 0.54366827 4278783759
0.4605847 0.064540491 0.54346669 4278981138
0.46109354 0.064618483 0.5432651 4279046159
0.4616009 0.064696938 0.54306358 4279176975
0.46209261 0.06470041 0.54293036 4279308555
0.46259725 0.064779744 0.54272878 4279046159
0.46311405 0.064935133 0.54245877 4279111952
0.46361548 0.065015465 0.54225719 4278914323
0.46411541 0.065096289 0.54205555 4279046161
0.46460098 0.065101728 0.54192233 4278981136
0.4650982 0.065183401 0.54172063 4279111952
0.46558151 0.06518957 0.54158741 4278981136
0.46608821 0.065348178 0.54131734 4278981136
0.46658099 0.065431267 0.54111564 4278915343
0.4670606 0.065438613 0.54098237 4278981136
0.46753925 0.065446258 0.54084909 4279242768
0.46803927 0.065606982 0.54057896 4279111952
0.46859202 0.066150621 0.53996682 4279046412
0.47155032 0.067288116 0.53820884 4279375896
0.47203282 0.067454427 0.53793859 4279310364
0.47249541 0.067467198 0.53780514 4279310364
0.47295699 0.067480236 0.53767174 4279310364
0.47341761 0.067493632 0.53753829 4279507482
0.47387722 0.067507342 0.53740484 4279638549
0.47432789 0.067443952 0.53733981 4279572505
0.47479349 0.067535684 0.53713793 4279573275
0.47524267 0.067472756 0.5370729 4279704861
0.47570583 0.067565277 0.53687096 4279771167
0.4761675 0.06765826 0.53666908 4280033826
0.47661424 0.067596123 0.53660399 4280164640
0.43428308 0.068210825 0.54794824 4286020987
0.43479097 0.068129092 0.54788345 4285692788
0.43532583 0.068118617 0.54775012 4285363570
0.4358325 0.068037286 0.54768533 4282928718
0.4363656 0.068027347 0.54755199 4280756011
0.43687105 0.067946389 0.54748714 4280295456
0.43740243 0.067936987 0.5473538 4280229663
0.43793285 0.067927912 0.54722047 4279835156
0.4384363 0.06784761 0.54715562 4279572503
0.43891355 0.067695826 0.54715931 4279178267
0.43941626 0.067615762 0.5470944 4279177749
0.43991849 0.067535847 0.54702955 4279177749
0.44042021 0.067456067 0.5469647 4278915345
0.44089669 0.067304537 0.54696834 4278915345
0.4413977 0.067224994 0.54690349 4278915345
0.44187394 0.067073539 0.54690719 4278783759
0.44235021 0.066922069 0.54691082 4278717966
0.44282645 0.066770598 0.54691446 4278914573
0.44330272 0.066619143 0.54691815 4279045642
0.44377896 0.066467687 0.54692179 4278979849
0.44425523 0.066316217 0.54692543 4278979849
0.44473147 0.066164747 0.54692912 4278979849
0.44523025 0.066085935 0.54686421 4278979849
0.44570625 0.065934554 0.54686785 4278979849
0.44618225 0.065783173 0.54687154 4278914573
0.44668004 0.065704659 0.54680663 4278914573
0.44715577 0.065553352 0.54681027 4278914573
0.44763154 0.065402061 0.54681396 4278783757
0.44812834 0.065323874 0.54674906 4278783757
0.44862464 0.065245837 0.54668415 4278717966
0.44912043 0.065167964 0.54661924 4278652684
0.44959545 0.065016896 0.54662287 4278652684
0.45009053 0.06493926 0.54655802 4278718215
0.45058507 0.06486176 0.54649305 4278784262
0.45107916 0.064784437 0.54642814 4278652937
0.45157272 0.064707249 0.54636323 4278849033
0.45208487 0.064703986 0.54622972 4278914826
0.4525772 0.064627215 0.54616481 4278849033
0.45308763 0.064624503 0.5460313 4278914824
0.45359704 0.064622089 0.54589778 4278914826
0.45412353 0.064694047 0.54569566 4278914826
0.45463073 0.064692348 0.54556215 4278849031
0.45513695 0.064690962 0.54542863 4278849285
0.45564216 0.06468989 0.54529506 4278915596
0.45614639 0.06468913 0.54516155 4278915596
0.45666647 0.064763144 0.54495937 4278914575
0.45716849 0.064763084 0.54482579 4278848780
0.45766953 0.064763352 0.54469222 4278914573
0.45816955 0.064763919 0.54455864 4278914575
0.45866859 0.064764827 0.54442507 4278914573
0.45915106 0.064691171 0.54436004 4279046159
0.45966375 0.06476754 0.54415786 4278914577
0.46015984 0.064769372 0.54402423 4278848784
0.46066979 0.06484659 0.54382199 4278914577
0.46117824 0.0649243 0.54361975 4279046159
0.46167088 0.064927235 0.54348612 4279176975
0.46217665 0.065005779 0.54328388 4279243016
0.46268091 0.065084815 0.54308158 4279177226
0.4631837 0.065164313 0.54287934 4279177226
0.46369839 0.065319836 0.54260844 4279046159
0.46419799 0.065400377 0.54240608 4279046161
0.4646832 0.065405637 0.54227245 4279111952
0.46519271 0.065562814 0.54200149 4279111952
0.46567547 0.065568909 0.54186773 4278915343
0.46616936 0.065651208 0.54166543 4278915343
0.46666178 0.065734014 0.54146308 4278850063
0.46712944 0.065665096 0.54139793 4278915343
0.4676308 0.065824851 0.54112697 4279046412
0.46810788 0.065832734 0.54099321 4279046412
0.46862757 0.066146269 0.54058492 4279046410
0.47111398 0.067190945 0.53902358 4279506712
0.47159877 0.06735599 0.53875244 4279506714
0.47206327 0.067367852 0.53861862 4279441689
0.47254464 0.067533985 0.53834742 4279507482
0.47300664 0.067546651 0.53821355 4279506714
0.47346768 0.067559615 0.53807968 4279703319
0.47392771 0.067572922 0.53794581 4279703572
0.47437882 0.067509264 0.53788054 4279507482
0.47484484 0.067600474 0.537678 4279639066
0.47530192 0.067614704 0.53754407 4279836445
0.47575802 0.067629248 0.53741014 4279769884
0.47622702 0.067799315 0.53713888 4283192151
0.43486348 0.068367615 0.54832113 4285692786
0.43539825 0.068356887 0.54818732 4285692786
0.43590489 0.068275422 0.54812229 4285561202
0.43643793 0.068265244 0.54798853 4284443238
0.43697 0.06825535 0.54785472 4280559649
0.43747464 0.068174526 0.54778963 4280428063
0.43800497 0.068165198 0.54765582 4280164123
0.43853432 0.068156198 0.54752207 4279902242
0.43901131 0.068004504 0.5475257 4279573277
0.43951374 0.06792438 0.54746062 4279375126
0.44001567 0.067844406 0.54739553 4279375126
0.44049218 0.067692861 0.54739916 4279243540
0.44099337 0.067613125 0.54733413 4279046931
0.44146961 0.067461669 0.54733777 4278981136
0.44197008 0.067382172 0.54727268 4278783757
0.44244608 0.067230791 0.54727632 4278717964
0.44292209 0.06707941 0.54727995 4278914575
0.44342154 0.06700024 0.54721487 4279045642
0.44389731 0.066848934 0.54721856 4278979849
0.44437307 0.066697627 0.5472222 4278979849
0.44484884 0.066546321 0.54722583 4278914056
0.4453246 0.066395015 0.54722953 4278979849
0.4458226 0.066316307 0.54716438 4278979849
0.44629809 0.066165075 0.54716802 4279045642
0.44679534 0.06608662 0.54710293 4278784010
0.44727063 0.065935463 0.54710656 4278784010
0.44776711 0.065857232 0.54704142 4278783757
0.44824213 0.065706164 0.54704511 4278717964
0.44873789 0.065628171 0.54697996 4278783761
0.44921267 0.065477178 0.5469836 4278652171
0.44970769 0.065399393 0.54691845 4278652171
0.45020223 0.065321788 0.5468533 4278652676
0.45069626 0.065244332 0.54678822 4278784262
0.45118982 0.06516704 0.54672301 4278587144
0.45168287 0.065089911 0.54665792 4278717964
0.45219442 0.065086558 0.54652393 4278717964
0.45268622 0.065009817 0.54645878 4278783238
0.45319608 0.065007001 0.54632485 4278915078
0.45370492 0.065004498 0.54619086 4279046410
0.45421278 0.065002322 0.54605687 4278849031
0.45471966 0.06500046 0.54592288 4278849031
0.45522556 0.06499891 0.54578888 4278980101
0.45574772 0.065071836 0.54558611 4278915343
0.45625141 0.065070987 0.54545212 4278784010
0.45675409 0.06507045 0.54531807 4278914573
0.45727232 0.065144643 0.54511523 4278848780
0.45775649 0.065070331 0.54505002 4278914573
0.45827225 0.065145314 0.54484719 4278914573
0.4587391 0.064996824 0.54485077 4279176975
0.45925266 0.065072507 0.54464787 4278914573
0.4597494 0.065073863 0.54451382 4278914575
0.46026024 0.065150395 0.54431093 4278914575
0.46075478 0.065152451 0.54417688 4278914575
0.46126288 0.065229878 0.54397392 4279046159
0.46175522 0.065232635 0.54383987 4279046412
0.4622606 0.065310895 0.54363692 4279177480
0.4627645 0.065389648 0.54343396 4279177226
0.46328053 0.065544188 0.54316223 4279112205
0.46378124 0.065623969 0.54295921 4278914826
0.46428046 0.065704197 0.5427562 4279046412
0.46477821 0.065784886 0.54255325 4279046159
0.46527448 0.065866083 0.54235023 4279111952
0.46576926 0.065947726 0.54214722 4279046159
0.46625045 0.065954015 0.54201305 4278848780
0.46674252 0.066036537 0.54181004 4278850063
0.46720988 0.065967575 0.54174471 4278915343
0.46768811 0.065974802 0.54161048 4278915596
0.4681876 0.066134617 0.54133856 4279046412
0.46869597 0.066371277 0.54099774 4279112203
0.47017589 0.066856638 0.54018188 4279244041
0.47066525 0.067019671 0.5399099 4279637777
0.4711526 0.067183331 0.53963786 4279572507
0.47161925 0.067194268 0.53950357 4279572505
0.47209403 0.067282274 0.53930044 4279441689
0.47258511 0.067524418 0.5389595 4279507482
0.47305644 0.067613542 0.53875631 4279441689
0.47351789 0.067626134 0.53862196 4279769365
0.4739702 0.067561939 0.53855652 4279703572
0.47443783 0.067652211 0.53835332 4279835158
0.47488865 0.067588508 0.53828782 4279835675
0.47534639 0.067602277 0.53815347 4279967261
0.47579598 0.067538962 0.53808796 4282534475
0.43485314 0.068393901 0.54896557 4285757815
0.43541592 0.068453491 0.54876244 4285889403
0.43597725 0.068513572 0.54855925 4285626742
0.43651024 0.068503141 0.54842502 4285298547
0.43704221 0.068492994 0.54829079 4285167474
0.43754682 0.068412051 0.54822552 4284443751
0.43807709 0.068402484 0.54809123 4280494375
0.43858045 0.068321943 0.54802597 4280493607
0.43908334 0.068241537 0.54796064 4280033058
0.43958575 0.068161294 0.54789531 4279704091
0.44008765 0.0680812 0.54782999 4279638298
0.44058904 0.06800127 0.54776472 4279703062
0.44106531 0.0678498 0.54776835 4279178517
0.44156596 0.067770109 0.54770303 4279112724
0.44204196 0.067618728 0.54770672 4279111956
0.442518 0.067467347 0.54771036 4278914577
0.44301766 0.067387968 0.54764503 4278915345
0.44349343 0.067236662 0.54764867 4278783757
0.44396919 0.067085356 0.54765236 4278848780
0.44446787 0.06700629 0.54758704 4278914826
0.44494337 0.066855073 0.54759067 4278783240
0.44544134 0.066776246 0.54752535 4278849031
0.44591659 0.066625088 0.54752898 4278849031
0.44639188 0.066473946 0.54753262 4278849033
0.44688883 0.066395432 0.54746729 4278783759
0.44738528 0.066317081 0.54740191 4278783759
0.44786006 0.066166088 0.5474056 4278783757
0.44835579 0.066087946 0.54734021 4278783757
0.44883031 0.065937042 0.54734385 4278914573
0.44932532 0.065859154 0.54727852 4278782987
0.4497996 0.065708324 0.54728216 4278782987
0.45029384 0.065630659 0.54721677 4278783490
0.45078757 0.065553173 0.54715145 4278652676
0.45128083 0.065475836 0.54708606 4278587142
0.45179284 0.065472081 0.54695165 4278652937
0.45228484 0.065395132 0.54688627 4278652937
0.45279509 0.065391913 0.54675186 4278783238
0.45328587 0.065315366 0.54668647 4278914824
0.45381266 0.065386429 0.54648304 4278914824
0.45431995 0.065384179 0.54634857 4278914054
0.45482627 0.065382212 0.54621416 4278849031
0.45534909 0.065454528 0.54601067 4278849031
0.45585316 0.065453291 0.54587626 4278783759
0.45635626 0.065452352 0.5457418 4278784010
0.45684162 0.065377533 0.54567635 4278718217
0.45735949 0.065451428 0.54547286 4278652171
0.45785964 0.065451428 0.54533833 4278783757
0.45835876 0.065451756 0.54520386 4278783759
0.45884117 0.065377876 0.54513836 4279045389
0.45933858 0.065378755 0.54500389 4278914826
0.45983502 0.065379933 0.54486936 4278914573
0.46034548 0.065456182 0.54466581 4278914573
0.46085447 0.065532908 0.5444622 4278914573
0.46136197 0.065610096 0.54425859 4279046159
0.46183944 0.065537781 0.54419315 4278914826
0.46234447 0.065615773 0.54398954 4279045640
0.46286184 0.065769359 0.54371685 4278914824
0.46336365 0.065848365 0.54351318 4279046410
0.463864 0.065927848 0.54330957 4278914824
0.46436289 0.066007778 0.5431059 4278914826
0.46486026 0.0660882 0.54290223 4278914826
0.46583828 0.06617482 0.54256392 4278914573
0.46633148 0.066256568 0.54236025 4278915345
0.46681136 0.06626302 0.5422256 4278915345
0.46729025 0.06626977 0.54209095 4278981136
0.46776819 0.066276863 0.54195631 4279047442
0.46824512 0.066284239 0.54182166 4279112724
0.4687427 0.066444114 0.54154879 4279243789
0.46972165 0.066689521 0.54107219 4279244559
0.47021356 0.066851214 0.54079932 4279243789
0.47070351 0.067013517 0.54052639 4279506460
0.47117227 0.067023486 0.54039168 4279638048
0.47164941 0.06711036 0.54018784 4279638300
0.47213417 0.067274302 0.53991497 4279573273
0.47261697 0.0674389 0.53964198 4279573273
0.47308916 0.067527309 0.53943813 4279639319
0.47355989 0.067616224 0.53923428 4279900951
0.47401291 0.067551687 0.5391686 4280098330
0.47448903 0.067718372 0.53889561 4279966742
0.43551576 0.068762705 0.54913092 4285757817
0.43604964 0.068751723 0.54899621 4285888631
0.43655568 0.068670183 0.5489307 4285626482
0.43706125 0.068588793 0.5488652 4285298800
0.43761903 0.06864959 0.54866135 4285298800
0.43812311 0.068568677 0.54859579 4283586899
0.43865255 0.068559095 0.54846108 4281348397
0.4391554 0.068478584 0.54839557 4280098847
0.43965775 0.068398222 0.54833007 4280098079
0.44015962 0.068317994 0.5482645 4279900700
0.44066098 0.068237945 0.548199 4279769112
0.44113722 0.068086475 0.54820263 4279375124
0.44163787 0.068006665 0.54813707 4279179030
0.44211388 0.067855284 0.54814076 4279309333
0.44261375 0.067775711 0.5480752 4279243540
0.44308951 0.067624405 0.54807889 4278915345
0.44356528 0.067473099 0.54808253 4278981136
0.44406417 0.067393824 0.54801697 4278783757
0.44456258 0.067314729 0.5479514 4278849033
0.44503784 0.067163572 0.54795504 4278783240
0.44553551 0.0670847 0.54788947 4278915594
0.44601053 0.066933632 0.54789311 4278849031
0.44650745 0.066854998 0.54782754 4278849031
0.4470039 0.066776499 0.54776198 4278717964
0.44747841 0.066625595 0.54776561 4278717964
0.44795293 0.066474676 0.54776925 4278783757
0.44844839 0.06639652 0.54770368 4278848780
0.44892266 0.066245675 0.54770732 4278914573
0.44941735 0.066167742 0.54764175 4278783240
0.44991156 0.066089973 0.54757619 4278783240
0.45040527 0.066012353 0.54751056 4278783492
0.4508985 0.065934896 0.54744494 4278783492
0.45139122 0.065857604 0.54737937 4278652676
0.45188347 0.065780461 0.54731375 4278652424
0.45239413 0.06577684 0.54717886 4278784010
0.45288512 0.065700084 0.5471133 4278783240
0.45339409 0.065697014 0.54697841 4278914824
0.45392025 0.065767884 0.54677427 4278914824
0.45442697 0.065765515 0.54663938 4278783238
0.45493272 0.065763488 0.5465045 4278849031
0.45543745 0.065761745 0.54636961 4278849031
0.45595843 0.065834254 0.54616547 4278717964
0.456444 0.065759227 0.54609978 4278718217
0.45694578 0.065758452 0.54596484 4278652424
0.45744658 0.06575796 0.54582995 4278652173
0.45794642 0.065757811 0.54569501 4278783759
0.45844522 0.06575796 0.54556006 4278717966
0.45892733 0.065684035 0.54549438 4279045642
0.45942444 0.065684751 0.54535943 4278914826
0.45993578 0.065760314 0.54515517 4278914573
0.46043065 0.065761715 0.54502022 4278914573
0.46093929 0.065838158 0.54481596 4278914573
0.46144643 0.065915048 0.54461169 4279046159
0.46193784 0.065917566 0.54447669 4278784010
0.46244228 0.06599535 0.54427242 4278914824
0.46294525 0.066073567 0.5440681 4278914826
0.46344671 0.06615229 0.54386377 4279046412
0.4639467 0.066231489 0.54365945 4278914826
0.4644452 0.066311121 0.54345512 4278914826
0.46492946 0.066315919 0.54332006 4278784010
0.46542528 0.066396445 0.54311574 4279177228
0.46591958 0.066477403 0.54291135 4278914826
0.46640038 0.066483304 0.54277629 4278981136
0.4668802 0.066489518 0.54264116 4279046929
0.46735904 0.066496015 0.5425061 4278981651
0.46783686 0.066502854 0.54237098 4279113235
0.46831372 0.066509992 0.54223585 4279113239
0.46878958 0.066517457 0.54210073 4279309582
0.469275 0.066601261 0.54189634 4279375375
0.46976924 0.066761672 0.54162252 4279244559
0.4702414 0.066770315 0.5414874 4279243791
0.47072238 0.066855535 0.54128295 4279506462
0.47119233 0.066864893 0.54114777 4279572255
0.47166127 0.066874534 0.54101259 4279638300
0.47214738 0.067037538 0.54073876 4279638300
0.47264913 0.067354336 0.5403263 4279769882
0.47308794 0.067135409 0.54039907 4279836445
0.47356883 0.067300051 0.54012519 4280098077
0.47403163 0.067311674 0.53998995 4280033305
0.43550631 0.068789348 0.54977655 4285955196
0.43606794 0.068848535 0.54957199 4286019447
0.43662804 0.0689082 0.54936743 4286020470
0.43713358 0.06882669 0.54930174 4285889652
0.43766493 0.068816215 0.54916656 4285758066
0.43816921 0.068735108 0.54910088 4285691503
0.43869883 0.068725213 0.54896569 4285559149
0.43920189 0.068644494 0.54889995 4284507483
0.43972975 0.068635136 0.54876477 4280164640
0.44020653 0.068483517 0.5487684 4280230433
0.4407081 0.068403259 0.54870266 4280163874
0.44120917 0.06832315 0.54863691 4279769884
0.44170976 0.06824322 0.54857111 4279573275
0.44218576 0.068091825 0.54857481 4279572505
0.4426856 0.068012133 0.548509 4279506712
0.44316137 0.067860827 0.5485127 4279112724
0.44363713 0.06770952 0.54851633 4279112724
0.44415909 0.067702055 0.54838109 4279046933
0.44463438 0.067550912 0.54838479 4279046412
0.44513223 0.067471832 0.54831898 4278914826
0.44562963 0.067392915 0.54825318 4278914824
0.44610438 0.067241922 0.54825681 4278849033
0.44660103 0.067163229 0.54819101 4278849031
0.44709718 0.067084715 0.54812521 4278849033
0.44757146 0.066933885 0.54812884 4278914826
0.44806686 0.06685558 0.54806304 4278848780
0.44856176 0.066777453 0.54799724 4278848780
0.44903556 0.066626772 0.54800087 4278979596
0.44952971 0.066548884 0.54793507 4278782987
0.45002341 0.066471145 0.54786927 4278782987
0.45051658 0.066393569 0.5478034 4278849033
0.45100927 0.066316143 0.5477376 4278849033
0.45150146 0.066238865 0.54767174 4278586631
0.45199317 0.066161752 0.54760593 4278652424
0.45250326 0.066158041 0.54747063 4278718217
0.45299375 0.06608133 0.54740477 4278849033
0.45350212 0.066078186 0.54726946 4278914826
0.45400953 0.06607534 0.5471341 4278914826
0.45451593 0.066072822 0.5469988 4278849033
0.45503899 0.066144243 0.54679394 4278849031
0.45554319 0.06614244 0.54665864 4278849031
0.45604637 0.06614092 0.54652327 4278717964
0.4565486 0.066139743 0.54638791 4278652424
0.45704982 0.066138849 0.54625249 4278652424
0.45753363 0.066064253 0.54618663 4278652686
0.45803311 0.066063926 0.54605126 4278652686
0.45853162 0.066063926 0.54591584 4278783759
0.45901343 0.065989956 0.54584992 4278849033
0.45952564 0.066064835 0.545645 4278848780
0.4600212 0.066065758 0.54550958 4278848782
0.4605307 0.066141531 0.54530466 4279045389
0.46102405 0.06614317 0.54516923 4279045389
0.4615308 0.066219762 0.54496431 4278784010
0.46202192 0.066222116 0.54482883 4278784010
0.46252599 0.066299602 0.54462385 4278914824
0.46302858 0.066377535 0.54441893 4278784008
0.46352971 0.066455975 0.54421389 4278914826
0.46402931 0.066534862 0.54400891 4278914826
0.46452749 0.066614226 0.54380393 4278784008
0.46501142 0.066618845 0.54366839 4278981387
0.46550685 0.066699073 0.54346335 4279111952
0.46598858 0.066704392 0.54332781 4279047182
0.46646929 0.06671004 0.54319227 4279309331
0.46694905 0.066716 0.54305673 4279177745
0.46742779 0.066722259 0.54292119 4278916628
0.46790555 0.066728845 0.54278564 4279113488
0.46837133 0.066659972 0.5427196 4279244312
0.46885812 0.066742957 0.54251456 4279309584
0.46934342 0.066826403 0.5423094 4279506963
0.46981701 0.066834331 0.5421738 4279506961
0.47028959 0.066842556 0.5420382 4279572756
0.47076118 0.066851109 0.54190266 4279572507
0.47123179 0.066859961 0.541767 4279441437
0.43600532 0.068734244 0.55035758 4286019447
0.43664685 0.069004983 0.54994345 4286086261
0.43720588 0.069064587 0.54973823 4286086261
0.43773714 0.069053873 0.54960263 4285888882
0.43824139 0.068972632 0.54953671 4285757296
0.43877095 0.068962499 0.54940104 4285691252
0.43927395 0.068881646 0.54933512 4285494643
0.43977648 0.068800971 0.54926914 4284047199
0.44027853 0.06872043 0.54920316 4282007616
0.44075528 0.068568811 0.54920679 4279834907
0.44125655 0.068488508 0.54914081 4280163870
0.44175735 0.068408355 0.54907483 4279902240
0.44225767 0.068328381 0.54900885 4279507482
0.44273368 0.068177 0.54901248 4279441689
0.44323322 0.068097249 0.5489465 4279244310
0.44370899 0.067945942 0.54895014 4279244310
0.44423088 0.067938238 0.54881448 4279112726
0.44472897 0.067858964 0.54874849 4279308814
0.44520399 0.067707896 0.54875207 4279243021
0.44570133 0.06762886 0.54868609 4278914826
0.44619817 0.067549959 0.54862005 4278914826
0.44669452 0.067471236 0.54855406 4278914826
0.4471904 0.067392662 0.54848802 4278849033
0.44768575 0.067314252 0.54842198 4278914826
0.44815955 0.067163572 0.54842561 4278914573
0.44865417 0.0670854 0.54835957 4278914573
0.4491483 0.067007378 0.54829353 4279045389
0.44964194 0.066929519 0.54822749 4278782987
0.45013508 0.066851825 0.54816145 4278782987
0.4506079 0.066701457 0.54816508 4278717964
0.4511199 0.066696867 0.5480293 4278848780
0.45161155 0.06661965 0.54796326 4278586378
0.45210272 0.066542551 0.54789722 4278652171
0.45261228 0.066538766 0.54776144 4278717964
0.4531022 0.066462085 0.5476954 4278783240
0.45361 0.066458836 0.54755962 4278849033
0.45411685 0.066455916 0.54742384 4278914826
0.45462269 0.066453293 0.54728806 4278979849
0.45512754 0.066451013 0.54715222 4278979847
0.45564878 0.066522613 0.5469467 4278979847
0.45613426 0.066447347 0.5468806 4278849033
0.45663616 0.066445991 0.54674482 4278652424
0.45713705 0.066444948 0.54660892 4278652171
0.45763695 0.066444218 0.54647315 4278652686
0.45813587 0.066443801 0.54633725 4278718479
0.45863381 0.066443712 0.54620147 4278717964
0.45911512 0.066369772 0.54613531 4278848780
0.45961133 0.066370219 0.54599941 4278848782
0.46010655 0.066370979 0.54586357 4278848784
0.46061569 0.066446453 0.54565793 4279045391
0.46110868 0.066447914 0.54552209 4279045391
0.46161512 0.066524237 0.54531646 4278784010
0.4621059 0.066526413 0.54518056 4278784010
0.46260962 0.066603601 0.54497492 4278849031
0.46311185 0.066681266 0.54476923 4278784008
0.46361262 0.066759408 0.54456359 4278784008
0.46411186 0.066837996 0.5443579 4278915594
0.46459672 0.066842064 0.54422194 4278784008
0.46509328 0.066921532 0.54401624 4279047182
0.4655759 0.066926301 0.54388028 4279112724
0.46605754 0.066931367 0.54374433 4279178768
0.46653819 0.066936776 0.54360831 4279309335
0.46701786 0.066942498 0.54347235 4279243542
0.4674851 0.066873029 0.54340607 4278982421
0.46796304 0.066879287 0.54327011 4279178768
0.46844 0.066885844 0.54313409 4279375126
0.46891594 0.066892743 0.54299808 4279637526
0.46940139 0.066975743 0.54279226 4279769112
0.46987513 0.066983342 0.54265624 4279703319
0.47033793 0.066915303 0.54258996 4280229665
0.47080019 0.066847399 0.54252368 4280163872
0.4366391 0.069031775 0.55059022 4286086263
0.43722522 0.069161341 0.55031449 4285888884
0.4377569 0.069150254 0.55017841 4285888882
0.43828762 0.069139436 0.55004239 4285822838
0.43879157 0.069058165 0.54997623 4285626231
0.43929505 0.068977028 0.54991001 4285560953
0.43982327 0.068967029 0.54977393 4285495158
0.44032553 0.06888631 0.54970771 4285495158
0.44082728 0.068805739 0.54964149 4285822838
0.44130403 0.06865412 0.54964519 4284703581
0.44180503 0.068573758 0.54957896 4280560673
0.44228154 0.068422213 0.5495826 4280297249
0.44278181 0.068342105 0.54951644 4279902491
0.44328159 0.06826216 0.54945016 4279573786
0.44378084 0.068182364 0.54938394 4279442202
0.44430268 0.068174422 0.54924786 4279375894
0.44477794 0.068023264 0.5492515 4279507215
0.44527572 0.067943946 0.54918528 4279375629
0.44577304 0.067864791 0.549119 4279112973
0.44626984 0.06778577 0.54905272 4279047182
0.44676617 0.067706928 0.54898649 4279046929
0.44726199 0.06762822 0.54892027 4278915596
0.4477573 0.067549691 0.54885399 4278981389
0.44825214 0.067471325 0.54878771 4278914826
0.4487257 0.067320719 0.54879135 4278914573
0.44924033 0.067315042 0.54865521 4278979598
0.4497337 0.067237139 0.54858893 4278652173
0.45022655 0.067159384 0.54852265 4278652173
0.45071894 0.067081794 0.54845637 4278717964
0.4512108 0.067004353 0.54839009 4278848780
0.45172149 0.066999927 0.54825389 4278652175
0.45221213 0.066922888 0.54818761 4278717966
0.45270228 0.066845998 0.54812127 4278717966
0.4532105 0.066842347 0.54798508 4278652424
0.45369941 0.06676586 0.5479188 4278783240
0.45420593 0.066762775 0.54778254 4278849033
0.45471144 0.066759989 0.54764628 4279045640
0.45521596 0.06675753 0.54751003 4278979847
0.45573685 0.066828847 0.54730386 4278914054
0.45622206 0.066753536 0.54723752 4278849031
0.4567405 0.066825643 0.54703128 4278914824
0.45724082 0.066824511 0.54689503 4278652424
0.4577238 0.066749901 0.54682869 4278652684
0.45822239 0.066749319 0.54669237 4278718477
0.45872003 0.066749051 0.54655612 4278718217
0.45921665 0.066749111 0.54641974 4278718217
0.4597123 0.066749454 0.54628348 4278914575
0.46020693 0.066750139 0.54614711 4278848784
0.4607006 0.066751137 0.54601079 4278914575
0.46119326 0.066752419 0.54587448 4278914575
0.46169937 0.06682846 0.54566813 4278717964
0.46218979 0.066830471 0.54553181 4278718477
0.46269315 0.066907361 0.54532546 4278849033
0.46319503 0.066984743 0.54511917 4279046664
0.46368203 0.066987857 0.54498279 4278914824
0.46419436 0.067140892 0.54470646 4279046410
0.46466598 0.067069903 0.54464 4279046410
0.46514976 0.067074031 0.54450357 4279112722
0.46564499 0.067153528 0.54429722 4279309333
0.46612653 0.067158356 0.54416078 4279244559
0.46660712 0.067163512 0.54402435 4279178517
0.46707505 0.0670937 0.54395789 4279178517
0.46755388 0.067099407 0.54382145 4279179800
0.46803176 0.067105398 0.54368496 4279506963
0.46850863 0.067111731 0.54354852 4279637779
0.46898451 0.067118376 0.54341209 4279900698
0.46945941 0.067125335 0.54327559 4279900698
0.46992317 0.06705685 0.54320908 4279834905
0.47039634 0.06706436 0.54307258 4280361249
0.47086853 0.067072168 0.54293609 4280164640
0.43721828 0.069188133 0.55096167 4286086263
0.43772441 0.069106013 0.55089527 4285757815
0.43830794 0.069235906 0.55061865 4285692024
0.43883806 0.069224998 0.55048215 4285757817
0.4393672 0.069214448 0.5503456 4285626744
0.43987015 0.069133356 0.5502792 4285560951
0.44037262 0.069052428 0.55021274 4285626744
0.44087458 0.068971649 0.55014634 4285757045
0.44137603 0.068891034 0.55007988 4285822319
0.44185278 0.068739414 0.55008352 4284771425
0.44235352 0.068659022 0.55001712 4280494375
0.44283003 0.068507478 0.55002075 4279704859
0.44335347 0.068498716 0.5498842 4279902753
0.44385272 0.068418801 0.5498178 4279967265
0.44435146 0.06833905 0.54975128 4279968031
0.44484973 0.068259448 0.54968488 4279640084
0.44536996 0.068251714 0.54954827 4279574291
0.44584474 0.068100736 0.5495519 4279180051
0.44634151 0.068021595 0.54948545 4279376407
0.44683781 0.067942619 0.54941893 4279244308
0.44735509 0.067935824 0.54928237 4279243791
0.44782889 0.067785144 0.54928601 4279309584
0.44834468 0.067778826 0.54914939 4279440143
0.44883874 0.067700565 0.54908288 4279177495
0.44931179 0.067550123 0.54908651 4279111956
0.44980511 0.0674721 0.54902005 4278915347
0.45031795 0.067466706 0.54888338 4278915347
0.45081005 0.067389071 0.54881692 4278915345
0.45130163 0.067311585 0.5487504 4278914573
0.451812 0.067306995 0.54861373 4278783759
0.45230237 0.067229912 0.54854721 4278718477
0.45279223 0.067152992 0.54848069 4278784010
0.45330012 0.067149162 0.54834402 4278718217
0.45380706 0.067145675 0.54820734 4278849033
0.45429495 0.067069367 0.54814076 4278849033
0.45480013 0.067066431 0.54800409 4278914824
0.45532191 0.067137063 0.54779726 4278849031
0.45582488 0.067134827 0.54766053 4278849031
0.4563098 0.067059457 0.54759395 4278849033
0.45682785 0.067131296 0.54738712 4278849033
0.45732787 0.067129984 0.54725039 4278652171
0.45781055 0.06705533 0.54718375 4278718217
0.45830885 0.0670546 0.54704702 4278914824
0.45880613 0.067054152 0.54691029 4278783238
0.45930243 0.067054018 0.54677349 4278782989
0.45979777 0.067054227 0.5466367 4278979596
0.4602921 0.067054734 0.54649997 4278979339
0.46078545 0.067055553 0.54636317 4279045642
0.46127778 0.067056686 0.54622638 4278979849
0.4617835 0.067132443 0.54601943 4278652937
0.46228775 0.067208663 0.54581243 4278718730
0.46277663 0.067210883 0.54567564 4278914573
0.46327814 0.067287982 0.54546857 4279111952
0.46376485 0.067290932 0.54533172 4279112205
0.46426362 0.06736885 0.54512471 4279112205
0.46473521 0.067297742 0.54505807 4279440398
0.46523157 0.06737648 0.54485101 4279309331
0.46570167 0.067305833 0.54478431 4279309331
0.46618339 0.067310333 0.54464746 4279506961
0.46666417 0.067315161 0.5445106 4279309582
0.46714392 0.067320302 0.54437369 4279375894
0.46761131 0.06725052 0.54430699 4279442972
0.46810049 0.067331523 0.54409987 4279639579
0.46856642 0.067262217 0.54403317 4279770133
0.46904245 0.067268535 0.54389626 4280164893
0.46950713 0.067199618 0.54382956 4280230686
0.46997133 0.067130849 0.5437628 4280230686
0.43787536 0.06955564 0.55112177 4285693055
0.43835434 0.069403306 0.55112547 4285561723
0.43885899 0.069321558 0.55105883 4285692537
0.43938851 0.069310561 0.55092186 4285626995
0.43991712 0.069299921 0.55078489 4285692788
0.44041976 0.069218785 0.55071825 4285692788
0.44089726 0.069066927 0.55072188 4285888884
0.44139919 0.068986028 0.55065525 4285889652
0.44187641 0.06883426 0.55065894 4285429614
0.44240153 0.068824708 0.55052191 4285430133
0.44287831 0.068673089 0.55052561 4285824891
0.44340193 0.068663985 0.55038857 4284639334
0.44390136 0.068583876 0.55032194 4282796613
0.44440034 0.068503931 0.55025524 4280165412
0.44492149 0.068495631 0.55011821 4279837211
0.44541922 0.068416074 0.55005151 4279837211
0.44591644 0.068336666 0.54998481 4279443736
0.44641319 0.068257406 0.54991812 4279508765
0.44693115 0.06825012 0.54978108 4279376409
0.44742665 0.068171263 0.54971439 4279441687
0.44792166 0.06809257 0.54964769 4279441687
0.44841617 0.068014026 0.54958093 4279505685
0.44891021 0.067935646 0.54951423 4279243288
0.44940373 0.067857414 0.54944754 4279243542
0.44989675 0.067779332 0.54938078 4279046931
0.45040929 0.067773789 0.54924369 4279112724
0.45090109 0.067696095 0.54917699 4279046933
0.45139238 0.067618579 0.54911023 4278914573
0.4518832 0.067541212 0.54904348 4278981389
0.45239252 0.067536697 0.54890639 4278915848
0.45288208 0.067459702 0.54883963 4278915848
0.45338967 0.067455739 0.54870248 4278784262
0.45389628 0.067452073 0.54856539 4278784008
0.45440188 0.06744872 0.54842824 4278849031
0.45488876 0.06737262 0.54836142 4278914824
0.45539263 0.067369804 0.54822433 4278849031
0.45589554 0.06736733 0.54808712 4278849031
0.45641446 0.067438468 0.54787958 4278718217
0.45689836 0.067363307 0.54781282 4278718217
0.4573983 0.067361757 0.54767561 4278652171
0.45789725 0.067360535 0.5475384 4278718217
0.45839521 0.067359611 0.54740119 4278914824
0.45889217 0.067359015 0.54726404 4278783238
0.45938817 0.067358717 0.54712677 4278848782
0.45988315 0.067358747 0.54698956 4278979596
0.46036214 0.06728515 0.54692274 4279045385
0.46087021 0.067359731 0.54671514 4279045642
0.46137679 0.067434803 0.54650748 4278979849
0.46185327 0.067361996 0.5464406 4278784008
0.4623574 0.067437842 0.54623294 4278850316
0.46284622 0.067439824 0.54609567 4279046161
0.46333405 0.067442134 0.5459584 4279046929
0.46384755 0.067593738 0.54568028 4279177998
0.46433291 0.067596823 0.54554302 4279177998
0.46480447 0.067525581 0.54547608 4279309584
0.46530071 0.067603946 0.54526842 4279375377
0.46578309 0.067607969 0.54513109 4279375894
0.46625245 0.067537442 0.54506415 4279703570
0.4667331 0.067542017 0.54492682 4279637777
0.4672012 0.067471877 0.54485989 4279769882
0.4676688 0.067401901 0.54479301 4279640351
0.46814701 0.067407265 0.54465568 4279706142
0.43827143 0.069219157 0.55198538 4285561723
0.43877751 0.069136798 0.55191857 4285824123
0.43933386 0.069195643 0.55171061 4285626995
0.43983847 0.069113746 0.55164379 4285626995
0.44036746 0.069102705 0.55150634 4285692788
0.44092008 0.069162697 0.55129838 4285955447
0.44142246 0.06908153 0.5512315 4286020470
0.44192436 0.069000512 0.55116463 4285758068
0.44242576 0.068919644 0.55109775 4285759351
0.44290298 0.068767861 0.55110145 4285693558
0.44345045 0.068829522 0.55089343 4285495156
0.44395012 0.068749204 0.55082655 4285626995
0.44447219 0.068740353 0.55068904 4285101170
0.44497061 0.068660423 0.55062211 4284508265
0.44549096 0.068652138 0.55048466 4283784542
0.44598818 0.068572596 0.55041772 4281350969
0.44648486 0.068493217 0.55035079 4279442724
0.44698107 0.068414003 0.55028391 4280033576
0.4474982 0.068406716 0.5501464 4279771169
0.44799319 0.068327889 0.55007946 4279771169
0.44850859 0.068321168 0.54994196 4279573790
0.44898164 0.068170726 0.54994559 4279441950
0.44949558 0.068164453 0.54980803 4279441691
0.44998834 0.068086341 0.54974109 4279244310
0.45048058 0.068008378 0.54967415 4279244310
0.45097235 0.067930564 0.54960716 4279375644
0.45148307 0.067925319 0.54946965 4279309335
0.45197359 0.067847922 0.54940265 4279440147
0.45246363 0.067770675 0.54933572 4279440650
0.45297188 0.067766204 0.54919815 4279374855
0.45346069 0.067689344 0.54913116 4279309062
0.45396721 0.067685425 0.54899359 4279178250
0.45447275 0.067681834 0.54885596 4279177996
0.45495957 0.067605615 0.54878896 4279308812
0.45546338 0.06760256 0.54865134 4278914824
0.45598343 0.067672938 0.54844314 4278914824
0.45648503 0.067670599 0.54830551 4278915594
0.45698562 0.067668572 0.54816788 4278784010
0.45748523 0.067666873 0.54803026 4278783759
0.45798385 0.067665473 0.54789263 4278783759
0.45846552 0.067590877 0.54782557 4278915596
0.45896241 0.067590043 0.54768789 4278784010
