# .PCD v0.7 - Point Cloud Data file format
VERSION 0.7
FIELDS x y z rgb
SIZE 4 4 4 4
TYPE F F F U
COUNT 1 1 1 1
WIDTH 1055
HEIGHT 1
VIEWPOINT 0 0 0 1 0 0 0
POINTS 1055
DATA ascii
0.45615947 -0.091732427 0.48206151 4279178778
0.45573741 -0.091777958 0.48210961 4279375644
0.45531487 -0.09182366 0.48215771 4279375644
0.4548918 -0.091869511 0.48220581 4279310114
0.45446825 -0.091915525 0.48225391 4279179552
0.45408896 -0.092040114 0.48225516 4279310884
0.45366466 -0.092086382 0.48230326 4279310884
0.45323992 -0.092132814 0.48235136 4279310886
0.45281464 -0.092179395 0.48239949 4279245345
0.45238888 -0.092226133 0.48244762 4279245341
0.45191669 -0.092195041 0.48254263 4279376929
0.45148969 -0.092242204 0.48259073 4279508515
0.4510622 -0.092289507 0.48263887 4279179559
0.45924956 -0.090928182 0.48239589 4279112474
0.45887125 -0.09105245 0.48239711 4279047194
0.4585349 -0.091255881 0.48235124 4278982171
0.45815682 -0.091380067 0.48235247 4278850585
0.45773625 -0.091425247 0.4824008 4279112989
0.45735794 -0.091549516 0.48240203 4279178782
0.45702258 -0.091752619 0.48235613 4279245341
0.45660129 -0.091798045 0.48240447 4279047962
0.45622298 -0.091922313 0.48240572 4279112989
0.45584464 -0.092046574 0.48240694 4279310368
0.45542237 -0.092092305 0.48245525 4279310368
0.45499963 -0.092138216 0.48250359 4279245345
0.45462078 -0.092262648 0.48250484 4279179552
0.45415261 -0.092230491 0.48260027 4279507747
0.45377329 -0.09235508 0.48260152 4279507747
0.45334882 -0.092401557 0.48264983 4279507493
0.45292383 -0.09244819 0.48269817 4279376931
0.46937013 -0.078810751 0.48728442 4279045909
0.46900102 -0.079024822 0.48723841 4279046163
0.46048874 -0.090824716 0.48268911 4279112472
0.46006972 -0.090869538 0.48273766 4279112476
0.45973259 -0.091073088 0.48269156 4279112476
0.45935449 -0.091197275 0.48269278 4279112476
0.45897642 -0.091321461 0.482694 4279047194
0.45859835 -0.09144564 0.48269522 4278916378
0.45822024 -0.091569826 0.48269647 4278850585
0.45779976 -0.091615133 0.48274502 4279112989
0.4574641 -0.091818199 0.48269892 4279178782
0.45708603 -0.091942385 0.48270014 4279179550
0.45670795 -0.092066564 0.48270136 4279047964
0.45632988 -0.09219075 0.48270261 4279112737
0.45590812 -0.092236459 0.48275116 4279310114
0.45552981 -0.092360727 0.48275238 4279310114
0.45510733 -0.09240666 0.48280093 4279310884
0.45468438 -0.092452772 0.48284948 4279179298
0.45426089 -0.092499033 0.48289806 4279507493
0.47070834 -0.078780606 0.48755139 4278980890
0.47027433 -0.078830481 0.48760021 4278915097
0.4699049 -0.079044506 0.48755401 4278980888
0.46953601 -0.079258367 0.48750782 4278915347
0.46916756 -0.079472065 0.4874616 4278981138
0.46879962 -0.079685599 0.48741537 4279112724
0.46853274 -0.080144018 0.48722661 4278981140
0.46168643 -0.090641923 0.48302943 4279243542
0.46130833 -0.09076611 0.48303065 4279177749
0.46093026 -0.090890296 0.48303187 4279046681
0.46051151 -0.090935156 0.48308066 4279178265
0.46013319 -0.091059424 0.48308188 4279112476
0.45975488 -0.091183685 0.4830831 4279047196
0.45937654 -0.091307953 0.48308432 4279112989
0.4589982 -0.091432221 0.48308557 4279047196
0.45866179 -0.091635399 0.48303923 4279112474
0.45828372 -0.091759585 0.48304045 4278784792
0.45790562 -0.091883771 0.4830417 4278916378
0.45752755 -0.092007957 0.4830429 4278982171
0.45714948 -0.092132144 0.48304415 4279179552
0.4567714 -0.092256323 0.48304537 4279047712
0.4563933 -0.092380509 0.48304659 4279047462
0.45601523 -0.092504695 0.48304781 4279179046
0.45563716 -0.092628881 0.48304904 4279179046
0.45417082 -0.096261881 0.48144192 4279311134
0.45375502 -0.096305765 0.48149067 4279376931
0.45366302 -0.096892104 0.48120651 4279376929
0.45301512 -0.096548796 0.48149306 4279311136
0.45292604 -0.097134165 0.48120892 4279508517
0.45251054 -0.097177967 0.48125768 4279508517
0.4520945 -0.097221941 0.4813064 4279640103
0.47120923 -0.078932405 0.48786786 4278915097
0.47083974 -0.079146296 0.48782143 4279046683
0.47047079 -0.079360023 0.487775 4279046681
0.47010231 -0.079573616 0.48772857 4278980886
0.46970159 -0.079705238 0.48772985 4278915347
0.46936685 -0.080000281 0.48763567 4278980886
0.46906632 -0.080376655 0.48749375 4279112472
0.46326217 -0.090334944 0.48336852 4278915356
0.46284497 -0.090379447 0.48341751 4278981403
0.46250603 -0.09058331 0.48337096 4279047192
0.46212792 -0.090707496 0.48337218 4279047446
0.46174985 -0.090831682 0.4833734 4279243542
0.46133167 -0.090876505 0.4834224 4279177749
0.46099371 -0.091080055 0.48337588 4279112476
0.46061563 -0.091204241 0.4833771 4279112474
0.46019667 -0.091249302 0.48342609 4279112476
0.45981836 -0.09137357 0.48342732 4279047196
0.45944002 -0.091497838 0.48342854 4279047196
0.45910332 -0.091700979 0.48338199 4278850587
0.45872521 -0.091825157 0.48338324 4279112474
0.45834714 -0.091949344 0.48338446 4278784794
0.45796907 -0.09207353 0.48338568 4278916378
0.457591 -0.092197716 0.4833869 4278982171
0.45729858 -0.092478871 0.48329258 4279179550
0.45611495 -0.096662194 0.48134348 4279442983
0.45570242 -0.096705146 0.48139244 4279442470
0.45528936 -0.096748263 0.48144144 4279376927
0.45492136 -0.096869141 0.48144263 4279376927
0.45450759 -0.096912496 0.4814916 4279376931
0.45413935 -0.097033449 0.48149279 4279376931
0.45377114 -0.097154401 0.48149398 4279376931
0.45335639 -0.097198077 0.48154297 4279311138
0.45294112 -0.097241923 0.48159194 4279442724
0.45257241 -0.097363032 0.48159313 4279508517
0.45215642 -0.097407132 0.48164213 4279640103
0.45178744 -0.097528324 0.48164332 4279508517
0.47134003 -0.07929787 0.48813722 4278783509
0.47097102 -0.079511493 0.48809057 4279178267
0.4706347 -0.079806775 0.48799592 4279046681
0.47026694 -0.080019996 0.48794925 4278915095
0.46989965 -0.080233052 0.48790261 4278915093
0.46956581 -0.080527544 0.48780799 4278980890
0.46916658 -0.080658674 0.48780927 4279112474
0.4636651 -0.090320796 0.48375928 4278915097
0.46328676 -0.090445064 0.48376048 4278980890
0.46294755 -0.09064889 0.48371375 4279112474
0.46256948 -0.090773076 0.48371494 4279178265
0.46219137 -0.090897255 0.48371619 4279047446
0.4618133 -0.091021441 0.48371741 4278981399
0.46143523 -0.091145627 0.48371863 4278981399
0.46105716 -0.091269813 0.48371986 4279178269
0.46067905 -0.091394 0.48372108 4279178267
0.46030098 -0.091518179 0.48372233 4279244060
0.45988184 -0.091563448 0.48377153 4278981403
0.45954484 -0.091766551 0.48372477 4278981403
0.45916677 -0.091890737 0.48372599 4278981403
0.45883048 -0.092093609 0.48367923 4279047194
0.45764661 -0.096363805 0.48167306 4279376679
0.45723507 -0.096406564 0.48172227 4279311399
0.45691162 -0.096605219 0.48167545 4279311397
0.45649958 -0.096648142 0.48172465 4279376931
0.45617661 -0.09684664 0.48167783 4279376931
0.45580912 -0.096967347 0.48167902 4279638820
0.45544162 -0.097088054 0.48168021 4279573025
0.45507413 -0.097208761 0.48168141 4279507745
0.45466089 -0.097252086 0.48173064 4279376931
0.45429313 -0.097372875 0.48173183 4279376931
0.45387918 -0.097416438 0.48178101 4279377444
0.45351118 -0.097537309 0.4817822 4279376677
0.45309645 -0.097581118 0.48183143 4279310884
0.45272824 -0.097702071 0.48183262 4279442470
0.45236 -0.097823024 0.48183382 4279574823
0.45199177 -0.097943969 0.48183501 4279508263
0.45162353 -0.098064922 0.4818362 4279508265
0.47143897 -0.079580992 0.48845387 4278783507
0.47110212 -0.079876199 0.4883588 4279178267
0.47073406 -0.080089375 0.48831189 4279046681
0.4703989 -0.080384016 0.48821682 4279045911
0.47006473 -0.080678329 0.48812175 4278915093
0.46979737 -0.081135243 0.4879303 4278915095
0.46376714 -0.090590276 0.48405528 4279045911
0.46338907 -0.090714462 0.4840565 4279111704
0.463011 -0.090838648 0.48405772 4279112474
0.46263289 -0.090962835 0.48405895 4279178265
0.46225482 -0.091087013 0.48406017 4279112472
0.46187675 -0.0912112 0.48406142 4279046683
0.46149868 -0.091335386 0.48406264 4279046683
0.46112061 -0.091459572 0.48406386 4279178015
0.4607425 -0.091583759 0.48406509 4279178267
0.46036443 -0.091707945 0.48406631 4279244060
0.45998636 -0.091832124 0.48406753 4279046942
0.4584865 -0.096384913 0.48195684 4279441441
0.45811927 -0.096505538 0.48195803 4279441441
0.45770827 -0.096548252 0.48200744 4279376679
0.45734078 -0.096668959 0.48200864 4279311399
0.45701751 -0.096867427 0.48196161 4279245604
0.45665026 -0.096988052 0.4819628 4279311138
0.456283 -0.097108677 0.48196399 4279376931
0.45591575 -0.097229302 0.48196518 4279638820
0.45554852 -0.097349934 0.48196638 4279573027
0.45518127 -0.097470559 0.48196757 4279507747
0.45481402 -0.097591184 0.48196876 4279442724
0.45440081 -0.097634628 0.48201817 4279507747
0.45403332 -0.097755335 0.48201936 4279442724
0.45366582 -0.097876042 0.48202056 4279376679
0.45325166 -0.097919814 0.48206997 4279376679
0.4528839 -0.098040603 0.48207116 4279442724
0.45251617 -0.098161392 0.48207235 4279508517
0.45214844 -0.098282181 0.48207355 4279508265
0.45173299 -0.098326355 0.48212299 4279376425
0.45136499 -0.098447226 0.48212418 4279574317
0.45099702 -0.098568097 0.48212537 4279574317
0.47120115 -0.080158755 0.48867452 4279046681
0.47086543 -0.080453306 0.48857901 4278980888
0.47053069 -0.08074753 0.48848349 4278915093
0.46383059 -0.090780035 0.48439926 4278980890
0.46345252 -0.090904221 0.48440051 4278980890
0.46307445 -0.091028407 0.4844017 4279112476
0.46269634 -0.091152593 0.48440295 4279112987
0.46231827 -0.09127678 0.48440418 4279178267
0.4619402 -0.091400959 0.4844054 4278915356
0.46160212 -0.091604151 0.48435819 4278915356
0.46122429 -0.091728255 0.48435941 4279112222
0.46084645 -0.091852359 0.48436064 4279112476
0.46010154 -0.09624327 0.48218933 4279179550
0.45969236 -0.096285544 0.48223895 4279114270
0.45932534 -0.096406087 0.48224014 4279047964
0.45895833 -0.096526638 0.48224133 4279179550
0.45859134 -0.096647181 0.48224252 4279375646
0.45822436 -0.096767731 0.48224372 4279375646
0.45785734 -0.096888274 0.48224491 4279245091
0.45749032 -0.097008824 0.4822461 4279179559
0.45712334 -0.097129367 0.48224729 4279245604
0.45675632 -0.097249918 0.48224849 4279311136
0.45638931 -0.097370461 0.48224968 4279376929
0.45602232 -0.097491011 0.48225087 4279507745
0.45565534 -0.097611554 0.48225206 4279441954
0.4552429 -0.097654887 0.48230171 4279441954
0.45492131 -0.097852647 0.48225445 4279507747
0.45455432 -0.097973198 0.48225564 4279507747
0.4541873 -0.098093741 0.48225683 4279376931
0.45377392 -0.098137394 0.48230648 4279376679
0.45340666 -0.098258018 0.48230767 4279376677
0.45303941 -0.098378651 0.48230886 4279508263
0.45267215 -0.098499276 0.48231006 4279508263
0.45225751 -0.098543324 0.48235971 4279508265
0.45193768 -0.098740533 0.48231244 4279376425
0.45152253 -0.098784737 0.48236209 4279574317
0.45115504 -0.098905444 0.48236328 4279442733
0.45078754 -0.099026158 0.48236448 4279442733
0.45046866 -0.09922304 0.48231721 4279640112
0.46389404 -0.090969793 0.48474327 4278915356
0.46351594 -0.09109398 0.48474449 4278981149
0.46313787 -0.091218166 0.48474571 4278981151
0.46275979 -0.091342352 0.48474693 4279112987
0.46238172 -0.091466539 0.48474818 4279112476
0.46204334 -0.091669686 0.48470074 4278915608
0.46166551 -0.09179379 0.48470196 4278915608
0.46085495 -0.096108101 0.48256931 4279047712
0.46052986 -0.096306875 0.48252183 4279179300
0.46016312 -0.096427344 0.48252302 4279047714
0.45979637 -0.096547812 0.48252422 4279179550
0.45942959 -0.096668273 0.48252541 4278982173
0.45906284 -0.096788742 0.4825266 4279179298
0.45869607 -0.09690921 0.48252779 4279245343
0.45832932 -0.097029671 0.48252898 4279179550
0.45796257 -0.09715014 0.48253015 4279179298
0.45755193 -0.097193025 0.48258001 4279113770
0.45718491 -0.097313568 0.4825812 4279245352
0.45681792 -0.097434118 0.48258239 4279245345
0.45645091 -0.097554661 0.48258358 4279311138
0.45612878 -0.097752467 0.48253611 4279376929
0.45576203 -0.097872928 0.4825373 4279245345
0.45539528 -0.097993396 0.48253849 4279376159
0.45502853 -0.098113865 0.48253968 4279573538
0.45466179 -0.098234326 0.48254088 4279573538
0.45429501 -0.098354794 0.48254204 4279441954
0.45392826 -0.098475263 0.48254323 4279507495
0.45356148 -0.098595724 0.48254442 4279573288
0.45319474 -0.098716192 0.48254561 4279507493
0.45282799 -0.09883666 0.48254681 4279573286
0.45246124 -0.098957121 0.482548 4279442218
0.4520945 -0.09907759 0.48254919 4279376425
0.45172772 -0.099198051 0.48255038 4279376938
0.45136097 -0.099318519 0.48255157 4279376940
0.45094588 -0.099362858 0.48260146 4279376940
0.45062745 -0.099559449 0.48255396 4279640112
0.46799135 -0.087537989 0.48629302 4278784792
0.46395749 -0.091159552 0.48508728 4278981149
0.46357939 -0.091283739 0.48508847 4278981149
0.46320131 -0.091407925 0.48508972 4278981149
0.46286243 -0.09161111 0.48504207 4279047196
0.4624846 -0.091735214 0.48504329 4279047196
0.46205842 -0.096009091 0.48285076 4279310366
0.46165052 -0.096051209 0.48290083 4279178780
0.46132493 -0.09625002 0.48285314 4278981919
0.46095818 -0.096370488 0.48285434 4279047712
0.46063331 -0.096569054 0.48280662 4279179298
0.4602668 -0.096689433 0.48280782 4279047964
0.45990026 -0.096809819 0.48280901 4279179550
0.45953375 -0.096930206 0.4828102 4278982173
0.45912439 -0.096972816 0.48286027 4279179298
0.45875764 -0.097093284 0.48286146 4279310366
0.45839089 -0.097213745 0.48286265 4279310366
0.45802411 -0.097334214 0.48286384 4279114018
0.45765737 -0.097454682 0.48286504 4279179563
0.45729059 -0.097575143 0.48286623 4279245352
0.45692384 -0.097695611 0.48286742 4279310884
0.4565571 -0.09781608 0.48286861 4279245091
0.45623517 -0.098013669 0.48282093 4279376929
0.45586866 -0.098134056 0.48282209 4279311138
0.45550215 -0.098254442 0.48282328 4279441950
0.45518124 -0.098451711 0.48277557 4279573536
0.45481497 -0.098572016 0.48277676 4279507743
0.4544487 -0.09869232 0.48277795 4279441952
0.45408243 -0.098812625 0.48277915 4279507493
0.45371619 -0.098932929 0.48278034 4279573288
0.45334992 -0.099053234 0.48278153 4279507241
0.45298365 -0.099173538 0.48278272 4279507241
0.45261741 -0.099293843 0.48278391 4279442218
0.45225114 -0.099414147 0.48278508 4279508265
0.45188487 -0.099534452 0.48278627 4279442472
0.45156664 -0.099730842 0.48273855 4279376427
0.45120063 -0.099851064 0.48273975 4279376427
0.45078608 -0.099895358 0.48278984 4279639599
0.4504686 -0.10009152 0.4827421 4279639597
0.45005354 -0.10013597 0.4827922 4279705644
0.44958872 -0.10010493 0.4828912 4279836460
0.46913958 -0.087191388 0.48673704 4279046679
0.4688243 -0.087478414 0.4866401 4278981399
0.46847501 -0.087684855 0.48659226 4278784540
0.46812624 -0.087891139 0.48654443 4278718999
0.4678134 -0.088177368 0.48644748 4278982171
0.46719068 -0.088748813 0.48625359 4278850587
0.46691698 -0.089113884 0.48610756 4278719001
0.46405932 -0.091428436 0.48538214 4278850333
0.46364284 -0.091473497 0.48543248 4278916126
0.46330366 -0.091676645 0.48538461 4278850333
0.46292582 -0.091800749 0.48538584 4278850594
0.46244612 -0.095994316 0.48323238 4279112985
0.46212 -0.096193165 0.48318446 4279178778
0.46179432 -0.096391849 0.48313653 4279178778
0.46142781 -0.096512236 0.48313773 4278981921
0.4610613 -0.096632615 0.48313892 4279178528
0.46073666 -0.096830986 0.483091 4279178528
0.46037039 -0.096951291 0.48309219 4279179032
0.46000412 -0.097071595 0.48309338 4279310618
0.45959526 -0.097114161 0.48314369 4279178782
0.45922875 -0.09723454 0.48314488 4279310368
0.45890534 -0.097432502 0.48309696 4279310364
0.45849574 -0.097475313 0.48314723 4279310364
0.45812923 -0.097595699 0.48314843 4279179552
0.45776272 -0.097716086 0.48314962 4279179559
0.45739621 -0.097836465 0.48315081 4279179813
0.4570297 -0.097956851 0.483152 4279441954
0.45670775 -0.098154329 0.48310408 4279376161
0.45634151 -0.098274633 0.48310524 4279441952
0.45597523 -0.098394938 0.48310643 4279311136
0.45565426 -0.098592095 0.48305851 4279311136
0.45528823 -0.098712318 0.4830597 4279442974
0.45492223 -0.09883254 0.4830609 4279311388
0.45460224 -0.09902937 0.48301294 4279441952
0.45423648 -0.09914951 0.48301414 4279441954
0.45387071 -0.099269658 0.4830153 4279573286
0.45350492 -0.099389799 0.48301649 4279507495
0.45313916 -0.09950994 0.48301768 4279507495
0.45277339 -0.09963008 0.48301888 4279507241
0.4524076 -0.099750221 0.48302007 4279442472
0.45204186 -0.099870369 0.48302126 4279442472
0.45167607 -0.099990509 0.48302245 4279507241
0.45131031 -0.10011065 0.48302361 4279573034
0.45089602 -0.100155 0.48307395 4279639081
0.45057875 -0.10035093 0.483026 4279770667
0.45021299 -0.10047108 0.48302719 4279771435
0.44979799 -0.10051566 0.4830775 4279639849
0.44938248 -0.10056041 0.48312783 4279771435
0.44886702 -0.10045454 0.48327643 4279705644
0.46987179 -0.086890429 0.48723254 4279046679
0.46958888 -0.087258115 0.48708582 4279375644
0.469273 -0.087545067 0.48698846 4279112472
0.46895811 -0.087831661 0.48689109 4278981399
0.46860927 -0.088037826 0.48684302 4278784540
0.46826094 -0.088243835 0.48679495 4278784794
0.46794853 -0.088529639 0.48669755 4279047194
0.46767274 -0.088895001 0.48655084 4278981401
0.46739843 -0.089259863 0.48640412 4278981401
0.4632417 -0.095937423 0.4835639 4279178780
0.46291503 -0.096136317 0.48351577 4279178269
0.46258885 -0.096335031 0.48346764 4279112985
0.46222234 -0.096455418 0.48346883 4279178778
0.46185583 -0.096575804 0.48347002 4279178778
0.46148932 -0.096696191 0.48347121 4279112735
0.46116439 -0.09689451 0.48342305 4279243808
0.46079811 -0.097014815 0.48342425 4279244062
0.4604739 -0.097212903 0.48337609 4279178519
0.4600656 -0.097255424 0.48342663 4279244312
0.45969933 -0.097375728 0.48342782 4279178780
0.45933306 -0.097496033 0.48342901 4279310114
0.45896679 -0.09761633 0.48343018 4279375646
0.45860052 -0.097736634 0.48343137 4279375646
0.45823428 -0.097856939 0.48343256 4279179552
0.45786801 -0.097977243 0.48343375 4279179813
0.45750174 -0.098097548 0.48343495 4279179811
0.4571355 -0.098217852 0.48343614 4279441952
0.45681372 -0.098415129 0.48338795 4279376159
0.45644772 -0.098535351 0.48338914 4279441952
0.45608169 -0.098655581 0.48339033 4279311138
0.45576096 -0.09885253 0.48334217 4279245858
0.45544067 -0.099049315 0.48329401 4279573536
0.45507514 -0.099169374 0.4832952 4279441952
0.4547556 -0.09936592 0.48324704 4279507745
0.45439035 -0.099485897 0.48324823 4279507232
0.45402506 -0.099605873 0.48324943 4279573027
0.45365977 -0.099725857 0.48325059 4279507495
0.45329449 -0.099845842 0.48325178 4279507495
0.4529292 -0.099965818 0.48325297 4279507495
0.45256394 -0.1000858 0.48325413 4279376679
0.45219865 -0.10020578 0.48325533 4279442472
0.45178542 -0.10024992 0.48330587 4279507495
0.45141989 -0.10036999 0.48330706 4279573288
0.45100591 -0.10041437 0.48335761 4279639081
0.45064014 -0.10053451 0.4833588 4279770665
0.45027435 -0.10065466 0.48335999 4279902505
0.44995779 -0.10085023 0.4833118 4279705896
0.44954282 -0.10089494 0.48336235 4279705896
0.44917706 -0.10101509 0.48336354 4279705644
0.44876134 -0.10106004 0.48341408 4279903023
0.445786 -0.10130461 0.48381734 4280231988
0.4697217 -0.087611705 0.48733681 4279178519
0.46937186 -0.087818056 0.48728853 4279046933
0.46905714 -0.088104337 0.48719069 4278981399
0.46874338 -0.088390298 0.48709285 4278850587
0.46843064 -0.088675931 0.48699501 4278784794
0.46815422 -0.089041084 0.48684764 4278981401
0.46784368 -0.089325994 0.4867498 4278981401
0.46407685 -0.095958993 0.48384589 4279112989
0.4637101 -0.096079461 0.48384708 4279112989
0.46334332 -0.096199922 0.48384827 4279112987
0.46301687 -0.096398599 0.4837999 4279178267
0.46265036 -0.096518986 0.4838011 4279178265
0.46232462 -0.096717425 0.48375273 4279244058
0.46195838 -0.096837729 0.48375392 4279244058
0.46159211 -0.096958034 0.48375511 4279112474
0.46126735 -0.09715616 0.48370674 4279374876
0.46090135 -0.097276382 0.4837079 4279374874
0.46053535 -0.097396605 0.4837091 4279244312
0.46016932 -0.097516827 0.48371029 4279375898
0.45984581 -0.097714543 0.48366192 4279244060
0.45943728 -0.097757272 0.48371267 4279178530
0.45907128 -0.097877502 0.48371387 4279244060
0.45870525 -0.097997725 0.48371506 4279178782
0.45833921 -0.098117948 0.48371625 4279178782
0.45801693 -0.098315254 0.48366785 4279376161
0.45765117 -0.098435394 0.48366904 4279310368
0.45724118 -0.098478615 0.4837198 4279376159
0.45691964 -0.098675683 0.48367143 4279376157
0.45655388 -0.098795824 0.48367262 4279376157
0.45623305 -0.098992646 0.48362422 4279179811
0.45586753 -0.099112712 0.48362541 4279245091
0.45554745 -0.099309288 0.48357701 4279507493
0.45518219 -0.099429272 0.48357821 4279507234
0.45486286 -0.099625617 0.48352981 4279573027
0.45449781 -0.099745519 0.483531 4279573023
0.4541328 -0.099865414 0.48353219 4279638048
0.45376778 -0.099985316 0.48353335 4279507234
0.45340273 -0.10010522 0.48353454 4279507493
0.45303771 -0.10022511 0.48353574 4279441700
0.45267266 -0.10034502 0.4835369 4279507493
0.45230764 -0.10046492 0.48353809 4279442470
0.45189467 -0.1005091 0.48358887 4279573286
0.45148122 -0.10055345 0.48363963 4279573286
0.4511157 -0.10067351 0.48364082 4279573540
0.45075017 -0.10079357 0.48364201 4279770919
0.45038465 -0.10091363 0.4836432 4280033576
0.45001912 -0.1010337 0.48364437 4279836710
0.4496536 -0.10115375 0.48364556 4279836710
0.44928807 -0.10127381 0.48364675 4279639849
0.44892254 -0.10139388 0.48364794 4279903534
0.44850689 -0.10143895 0.48369873 4280034091
0.44730783 -0.10164989 0.48380145 4280099882
0.44642121 -0.10166676 0.48395261 4280100402
0.44600257 -0.10171282 0.48400339 4280231988
0.44553161 -0.1016846 0.48410377 4280362802
0.44463909 -0.1017034 0.48425496 4280233015
0.44421798 -0.10175025 0.48430574 4280430144
0.44379643 -0.10179728 0.48435652 4280495937
0.44337437 -0.10184446 0.48440734 4280561730
0.46982029 -0.087884657 0.48763663 4279112724
0.46950498 -0.088170856 0.48753837 4278980886
0.46922526 -0.088536687 0.48739034 4279046679
0.46891218 -0.088822156 0.48729205 4279178528
0.46860006 -0.089107297 0.48719376 4278982173
0.46832427 -0.089471839 0.48704571 4278916378
0.46801439 -0.089756258 0.48694742 4278981401
0.46774131 -0.090119906 0.48679933 4278980886
0.46746969 -0.090483055 0.48665127 4279046679
0.46454442 -0.096101016 0.48412862 4279244058
0.46413839 -0.096143067 0.48417959 4279112989
0.4638114 -0.096341781 0.48413101 4279112989
0.46344489 -0.096462168 0.4841322 4279112987
0.46307838 -0.096582554 0.48413339 4279178519
0.46275237 -0.096780956 0.48408478 4279178519
0.4623861 -0.096901253 0.48408598 4279244312
0.46201983 -0.097021557 0.48408717 4279244312
0.46169481 -0.097219646 0.48403856 4279178267
0.46132877 -0.097339869 0.48403975 4279374878
0.46096277 -0.097460091 0.48404095 4279374876
0.46063873 -0.097657844 0.48399234 4279244060
0.46027297 -0.097777985 0.48399353 4279244060
0.45990717 -0.097898126 0.48399472 4279375644
0.45958412 -0.098095551 0.48394611 4279375648
0.45917565 -0.098138407 0.48399711 4279178267
0.45885307 -0.098335676 0.4839485 4279178780
0.45844409 -0.098378696 0.48399946 4279178780
0.45812201 -0.098575801 0.48395085 4279506460
0.45771256 -0.098618977 0.48400185 4279572255
0.45739096 -0.098815925 0.48395324 4279376157
0.456981 -0.098859265 0.4840042 4279310364
0.45661524 -0.098979406 0.48400539 4279376157
0.45629439 -0.099176109 0.48395678 4279311138
0.45597404 -0.099372648 0.48390818 4279245345
0.45560876 -0.099492624 0.48390937 4279311138
0.45528916 -0.099688932 0.48386073 4279311138
0.45497003 -0.099885061 0.48381212 4279311138
0.45460525 -0.10000488 0.48381332 4279245343
0.45424044 -0.1001247 0.48381451 4279441954
0.45387566 -0.10024452 0.48381567 4279441954
0.45351088 -0.10036434 0.48381686 4279441954
0.4531461 -0.10048416 0.48381805 4279376161
0.45273393 -0.10052823 0.48386905 4279507747
0.45236889 -0.10064813 0.48387021 4279573540
0.45200384 -0.10076803 0.4838714 4279703843
0.45159069 -0.10081241 0.48392242 4279835429
0.4512254 -0.10093239 0.48392358 4279835429
0.45086014 -0.10105237 0.48392478 4279967015
0.45049486 -0.10117236 0.48392597 4279967785
0.45012957 -0.10129233 0.48392713 4279770919
0.44971496 -0.10133721 0.48397815 4279770919
0.4493494 -0.10145728 0.48397931 4279508265
0.44898391 -0.10157733 0.48398051 4279903023
0.44861835 -0.1016974 0.4839817 4280099119
0.44820249 -0.10174268 0.48403269 4280099117
0.44783673 -0.10186282 0.48403388 4280033324
0.44742012 -0.10190835 0.48408487 4280099371
0.44700301 -0.10195402 0.4841359 4280165162
0.4465341 -0.10192542 0.48423672 4280231216
0.44611579 -0.10197151 0.48428771 4280494388
0.44564515 -0.10194346 0.48438853 4280428082
0.4451735 -0.10191575 0.48448938 4280363572
0.44475323 -0.10196248 0.4845404 4280429113
0.44433242 -0.10200937 0.48459139 4280495423
0.44385833 -0.10198247 0.48469222 4280561216
0.44348937 -0.10210366 0.48469344 4280495937
0.4430671 -0.10215104 0.48474446 4280758078
0.46935859 -0.088888451 0.48763859 4279046679
0.46908069 -0.089253254 0.48748988 4279310114
0.4688043 -0.089617588 0.48734117 4278916380
0.46849409 -0.089901835 0.4872424 4278916380
0.46818486 -0.090185776 0.48714367 4278981403
0.46791238 -0.090548798 0.48699492 4278980886
0.46764138 -0.090911351 0.48684621 4279046679
0.46501142 -0.096242957 0.48441091 4279112476
0.46456671 -0.09620668 0.48451209 4279244058
0.46419993 -0.096327148 0.48451328 4279178267
0.46387291 -0.096525736 0.48446447 4279178267
0.4635064 -0.096646123 0.48446566 4279112985
0.46318009 -0.096844479 0.48441684 4279178519
0.46285427 -0.09704268 0.48436803 4279178519
0.46248826 -0.097162902 0.48436922 4279244058
0.46216321 -0.097360849 0.4843204 4279244058
0.46179742 -0.097480997 0.48432159 4279244060
0.46143165 -0.097601138 0.48432279 4279243808
0.46110755 -0.097798765 0.48427394 4279244062
0.46074203 -0.097918831 0.48427513 4279178269
0.4604187 -0.098116212 0.48422632 4279244062
0.46001098 -0.098158948 0.48427752 4279244060
0.45964545 -0.098279014 0.48427868 4279310368
0.45932287 -0.098476157 0.48422986 4279178267
0.45895758 -0.098596133 0.48423105 4279244058
0.4585923 -0.098716117 0.48423225 4279244058
0.45813972 -0.098682418 0.48433346 4279441437
0.45777392 -0.098802559 0.48433465 4279572253
0.45631087 -0.099283129 0.48433939 4279441952
0.45594507 -0.099403277 0.48434058 4279376159
0.45567006 -0.099675961 0.48424172 4279441952
0.45539603 -0.099948332 0.48414284 4279311138
0.45507711 -0.10014426 0.48409402 4279245345
0.45466647 -0.10018797 0.48414522 4279245345
0.45434803 -0.10038374 0.48409638 4279507493
0.45398349 -0.10050347 0.48409757 4279375907
0.45361894 -0.10062321 0.48409876 4279441700
0.45320731 -0.10066725 0.48414996 4279375907
0.45288986 -0.10086269 0.48410112 4279573286
0.45243013 -0.10083134 0.48420236 4279507493
0.45206511 -0.10095124 0.48420352 4279637796
0.45170009 -0.10107114 0.48420471 4279835429
0.45128673 -0.10111573 0.48425594 4279835429
0.45096999 -0.10131094 0.48420709 4279835429
0.45055616 -0.10135569 0.48425829 4280032808
0.45019087 -0.10147567 0.48425949 4279770919
0.44982558 -0.10159565 0.48426068 4279836712
0.44946033 -0.10171563 0.48426187 4279705642
0.44904524 -0.10176079 0.48431307 4279968046
0.44867969 -0.10188086 0.48431426 4280033326
0.44826388 -0.10192626 0.48436549 4280033326
0.44789809 -0.1020464 0.48436669 4280033326
0.44748154 -0.10209205 0.48441792 4280164910
0.44706449 -0.10213785 0.48446915 4280165162
0.44659567 -0.1021095 0.48457038 4280362543
0.44617736 -0.10215572 0.48462164 4280559922
0.44570681 -0.10212791 0.48472291 4280493875
0.44523525 -0.10210044 0.48482418 4280428597
0.44481501 -0.1021473 0.48487544 4280560701
0.44439426 -0.10219431 0.48492667 4280495423
0.44392025 -0.10216766 0.48502794 4280561216
0.4435513 -0.10228885 0.48502913 4280692802
0.44312906 -0.10233635 0.48508039 4280824386
0.44270635 -0.10238402 0.48513162 4281217600
0.44228315 -0.10243185 0.48518288 4281414979
0.46959525 -0.089478858 0.48773536 4279177749
0.46928373 -0.089763269 0.48763618 4279244062
0.46897319 -0.090047352 0.48753697 4279112476
0.46866363 -0.090331107 0.48743778 4279046683
0.46536174 -0.096149825 0.4848434 4279374876
0.464995 -0.096270293 0.4848446 4279243290
0.46466741 -0.096468918 0.48479557 4279374874
0.4643009 -0.096589305 0.48479676 4279244058
0.46397406 -0.096787699 0.48474771 4279244058
0.46360782 -0.096908003 0.4847489 4279178265
0.46324155 -0.097028308 0.48475009 4279178517
0.46291569 -0.097226389 0.48470104 4279178519
0.46254969 -0.097346611 0.48470223 4279244062
0.46222457 -0.097544432 0.48465317 4279244062
0.46185881 -0.09766458 0.48465437 4279178267
0.46153444 -0.097862162 0.48460534 4279178267
0.46121055 -0.098059587 0.48455629 4279178269
0.46084526 -0.098179564 0.48455748 4279047196
0.46047997 -0.098299548 0.48455864 4279112989
0.46011472 -0.098419532 0.48455983 4279178782
0.45979208 -0.098616555 0.48451078 4279178782
0.45938414 -0.098659493 0.48456222 4279112987
0.45901889 -0.09877947 0.48456341 4279244312
0.45559534 -0.099630848 0.48472479 4279441437
0.45522934 -0.09975107 0.48472598 4279441437
0.45509246 -0.10025124 0.48447594 4279376161
0.45477372 -0.10044696 0.48442689 4279311138
0.45440918 -0.1005667 0.48442805 4279376931
0.45404467 -0.10068644 0.48442924 4279441954
0.45368013 -0.10080618 0.48443043 4279441954
0.45331559 -0.10092591 0.48443162 4279376161
0.45295104 -0.10104565 0.48443279 4279441702
0.45253897 -0.10108997 0.48448423 4279507495
0.45217416 -0.10120979 0.48448542 4279506980
0.45176134 -0.10125435 0.48453683 4279704613
0.45139629 -0.10137425 0.48453802 4279836199
0.45103127 -0.10149415 0.48453921 4279836199
0.45066625 -0.10161405 0.4845404 4279901992
0.45025218 -0.10165901 0.48459184 4279836712
0.44983763 -0.10170413 0.48464328 4279770919
0.4495216 -0.10189897 0.48459423 4279705642
0.44910657 -0.10194425 0.48464566 4279968046
0.44869101 -0.1019897 0.4846971 4280033326
0.44832528 -0.10210984 0.4846983 4280164912
0.44795948 -0.10222998 0.48469949 4280296498
0.44754297 -0.10227576 0.48475093 4280362802
0.44712597 -0.10232168 0.48480237 4280298033
0.44665718 -0.10229357 0.48490408 4280691767
0.44623893 -0.10233992 0.48495555 4280691767
0.44576848 -0.10231236 0.48505726 4280625463
0.445297 -0.10228513 0.48515898 4280823101
0.44487679 -0.10233212 0.48521048 4280889664
0.4444561 -0.10237925 0.48526192 4280823871
0.44398218 -0.10235284 0.48536366 4280823871
0.4436132 -0.10247403 0.48536485 4280824386
0.44319102 -0.10252167 0.48541632 4281021767
0.44276834 -0.10256946 0.48546779 4281283141
0.44234517 -0.10261741 0.48551926 4281677899
0.4419215 -0.10266553 0.48557073 4281677379
0.46914184 -0.090476356 0.48773146 4279112476
0.46579006 -0.096213438 0.48517591 4279112474
0.46542329 -0.096333899 0.4851771 4279309083
0.46509543 -0.096532486 0.48512784 4279243288
0.46472892 -0.096652873 0.48512903 4279309081
0.46440181 -0.096851222 0.48507977 4279309081
0.46407518 -0.097049423 0.4850305 4279374874
0.46370915 -0.097169645 0.48503169 4279244058
0.46334314 -0.097289868 0.48503289 4279244058
0.46297711 -0.09741009 0.48503408 4279178519
0.46265173 -0.097607873 0.48498482 4279244062
0.46232682 -0.0978055 0.48493552 4279244062
0.4619613 -0.097925559 0.48493671 4279310364
0.46163714 -0.098122939 0.48488745 4279178265
0.46131346 -0.098320171 0.48483819 4279178267
0.46094841 -0.098440066 0.48483935 4279112987
0.46058339 -0.098559968 0.48484054 4279112987
0.46021834 -0.09867987 0.48484173 4279178782
0.45981073 -0.098722845 0.48489338 4279178782
0.45447037 -0.10074966 0.48475975 4279311138
0.45415235 -0.10094503 0.48471045 4279441954
0.45378807 -0.10106468 0.48471165 4279441700
0.45342377 -0.10118434 0.48471281 4279375907
0.45305949 -0.10130399 0.484714 4279507495
0.45264769 -0.10134836 0.48476565 4279573288
0.45223537 -0.10139288 0.48481733 4279507493
0.45187059 -0.1015127 0.48481849 4279573540
0.45150581 -0.10163252 0.48481968 4279770919
0.45109254 -0.10167736 0.48487133 4279770917
0.45072749 -0.10179726 0.48487252 4279901992
0.45036244 -0.10191716 0.48487371 4279902505
0.44999743 -0.10203706 0.4848749 4279902505
0.4495829 -0.1020823 0.48492658 4279969068
0.44916791 -0.10212771 0.48497823 4280166195
0.4487524 -0.10217328 0.48502991 4280099630
0.44838664 -0.10229342 0.4850311 4280297009
0.44802088 -0.10241356 0.48503226 4280428595
0.44755366 -0.10238521 0.48513442 4280428595
0.44713646 -0.10243134 0.4851861 4280363826
0.44666755 -0.10240357 0.48528826 4280823607
0.44624907 -0.10245011 0.48533994 4280757814
0.44583014 -0.1024968 0.48539165 4280822842
0.44535875 -0.10246982 0.48549381 4280954687
0.4449386 -0.10251693 0.48554552 4281021250
0.44451794 -0.10256419 0.48559719 4280823871
0.44409674 -0.10261163 0.48564887 4280823871
0.4436222 -0.1025857 0.48575106 4281021250
0.44319981 -0.10263354 0.48580274 4281087045
0.44283032 -0.1027549 0.48580396 4281217861
0.44240722 -0.10280296 0.48585564 4281415240
0.44203752 -0.10292441 0.48585683 4281611588
0.46621835 -0.096277043 0.48550841 4278981403
0.4658516 -0.096397512 0.4855096 4278981403
0.46552345 -0.096596055 0.48546013 4279047194
0.46515694 -0.096716441 0.48546132 4278981399
0.46482953 -0.096914753 0.48541182 4279112474
0.4645026 -0.097112902 0.48536235 4279178267
0.4641366 -0.097233124 0.48536354 4279244060
0.46381041 -0.097431034 0.48531404 4279178267
0.46344465 -0.097551174 0.48531523 4279178267
0.46311921 -0.097748838 0.48526573 4279178265
0.46275368 -0.097868897 0.48526692 4279178780
0.46238816 -0.097988956 0.48526812 4279178780
0.4620637 -0.098186299 0.48521861 4279310618
0.46173972 -0.098383479 0.48516911 4279112726
0.46133316 -0.09842626 0.485221 4279112987
0.46096787 -0.098546237 0.48522216 4279112985
0.46060258 -0.098666221 0.48522335 4279112985
0.45416701 -0.10105237 0.48509261 4279506980
0.4538492 -0.10124752 0.48504311 4279572003
0.45348489 -0.10136718 0.48504427 4279637796
0.45312059 -0.10148683 0.48504546 4279704359
0.45270884 -0.10153132 0.48509735 4279704359
0.45229658 -0.10157597 0.4851492 4279966761
0.4519318 -0.10169579 0.4851504 4280033324
0.45156702 -0.1018156 0.48515159 4279967531
0.45120221 -0.10193542 0.48515275 4280296748
0.45078874 -0.10198047 0.48520464 4280362541
0.45042372 -0.10210037 0.48520583 4280559920
0.4500095 -0.10214566 0.48525774 4280494127
0.44959477 -0.10219111 0.48530963 4280494390
0.44922924 -0.10231117 0.48531079 4280559931
0.4488138 -0.10235687 0.48536271 4280428595
0.44839785 -0.10240272 0.48541459 4280559920
0.44798142 -0.10244873 0.48546648 4280625713
0.44761515 -0.10256904 0.48546767 4280560435
0.44714704 -0.10254126 0.48557028 4280560435
0.44672912 -0.10258777 0.4856222 4280757812
0.4463107 -0.10263443 0.48567408 4280757812
0.44584018 -0.10260745 0.48577672 4280888885
0.4454205 -0.10265452 0.48582864 4281216828
0.44500041 -0.10270175 0.48588055 4281020221
0.44452739 -0.10267558 0.48598316 4280889148
0.44410601 -0.10272322 0.48603508 4281020734
0.44368416 -0.10277101 0.48608699 4281152066
0.44331494 -0.10289229 0.48608819 4281217859
0.44289234 -0.10294033 0.4861401 4281349699
0.44252288 -0.10306168 0.48614129 4281283906
0.44209954 -0.10310996 0.48619324 4281349699
0.44167572 -0.10315841 0.48624516 4281414977
0.46664664 -0.096340656 0.48584092 4279178267
0.46631798 -0.096539237 0.48579121 4278981401
0.46595144 -0.096659623 0.4857924 4278981401
0.46562353 -0.096857972 0.48574269 4279047194
0.46525726 -0.096978277 0.48574388 4278981399
0.46493006 -0.097176388 0.48569417 4279112987
0.46460333 -0.097374327 0.48564446 4279178269
0.46423757 -0.097494468 0.48564565 4279178269
0.46387181 -0.097614616 0.48564684 4279178015
0.46354607 -0.097812235 0.48559713 4279112476
0.46318054 -0.097932294 0.48559833 4279112472
0.46281502 -0.098052353 0.48559949 4279244060
0.46249026 -0.098249651 0.48554978 4279244060
0.462125 -0.098369636 0.48555097 4279179032
0.46171844 -0.098412544 0.48560306 4279113237
0.45354605 -0.10155002 0.48537573 4279967015
0.45318174 -0.10166968 0.48537689 4280230187
0.45281744 -0.10178933 0.48537809 4279967531
0.45240548 -0.10183402 0.48543018 4280295728
0.45204094 -0.10195376 0.48543137 4280296496
0.45162824 -0.10199869 0.48548347 4280164910
0.45131186 -0.10219324 0.48543376 4280428336
0.45085001 -0.10216369 0.48553678 4280494129
0.45048496 -0.10228358 0.48553795 4280559668
0.4500708 -0.10232899 0.48559007 4280757047
0.44965613 -0.10237457 0.48564219 4280494138
0.44924092 -0.10242031 0.48569432 4280493886
0.44882527 -0.1024662 0.48574644 4280560183
0.44845927 -0.10258643 0.48574761 4280560431
0.44804287 -0.10263256 0.48579973 4280428845
0.44757533 -0.10260487 0.48590279 4280429617
0.44720858 -0.10272534 0.48590398 4280364337
0.44679072 -0.10277197 0.4859561 4280626998
0.44637233 -0.10281876 0.48600823 4280626998
0.44590187 -0.10279202 0.48611131 4280823092
0.4454304 -0.10276562 0.4862144 4281150517
0.44501007 -0.10281304 0.48626652 4281216312
0.44458926 -0.10286064 0.48631865 4281085242
0.44416791 -0.10290841 0.48637077 4281151035
0.44374612 -0.10295633 0.48642293 4280954939
0.4433769 -0.10307761 0.48642412 4281086012
0.44295436 -0.10312577 0.48647624 4281283391
0.44253129 -0.10317408 0.4865284 4281217598
0.44216159 -0.10329552 0.48652959 4281350467
0.4417378 -0.10334409 0.48658174 4281481537
0.46678376 -0.096680887 0.48607239 4279374874
0.46641749 -0.096801192 0.48607355 4279112472
0.46605125 -0.096921496 0.48607475 4279112472
0.46572351 -0.097119644 0.48602483 4279112474
0.46539626 -0.097317629 0.48597491 4279178265
0.46503049 -0.097437769 0.48597607 4279112987
0.46433845 -0.097755566 0.48592734 4279112735
0.45210212 -0.10213672 0.48576307 4280231216
0.45173758 -0.10225646 0.48576424 4280231216
0.45137304 -0.1023762 0.48576543 4280363056
0.45091128 -0.1023469 0.4858689 4280494129
0.45054623 -0.1024668 0.48587009 4280494388
0.45013207 -0.10251233 0.48592243 4280560181
0.44971746 -0.10255802 0.48597476 4280494136
0.44930232 -0.10260389 0.48602712 4280494140
0.44888669 -0.10264991 0.48607945 4280691769
0.44852069 -0.10277013 0.48608065 4280429615
0.44805399 -0.10274243 0.48618415 4280298029
0.4476369 -0.10278895 0.48623648 4280495923
0.44721931 -0.10283562 0.48628885 4280364339
0.44680122 -0.10288245 0.48634118 4280626744
0.44638264 -0.10292944 0.48639354 4280626744
0.44596356 -0.10297659 0.4864459 4280757814
0.44549221 -0.10295044 0.48654941 4281019701
0.44507191 -0.10299799 0.48660177 4281085496
0.44465113 -0.10304571 0.48665413 4280954426
0.44422984 -0.10309359 0.4867065 4281020219
0.44380808 -0.10314164 0.48675886 4281020219
0.44338581 -0.10318985 0.48681122 4281020219
0.44301635 -0.1033112 0.48681241 4281152318
0.44264686 -0.10343256 0.4868136 4281020732
0.44222361 -0.10348108 0.486866 4281284674
0.44185391 -0.10360251 0.48686719 4281284158
0.46798104 -0.09658201 0.48635072 4278850583
0.46688297 -0.096942686 0.48635429 4279440151
0.46651697 -0.097062908 0.48635548 4279177495
0.46618918 -0.097260922 0.4863053 4279243288
0.46582341 -0.09738107 0.48630649 4279112474
0.46549636 -0.097578846 0.48625636 4279178267
0.46516982 -0.097776458 0.48620617 4279112987
0.46480453 -0.097896442 0.48620737 4279112989
0.45179874 -0.10243943 0.48609591 4280231470
0.45138589 -0.10248469 0.48614848 4280363056
0.45097253 -0.10253011 0.48620102 4280428336
0.45060748 -0.10265001 0.48620221 4280428336
0.45019338 -0.10269566 0.48625478 4280559922
0.4497788 -0.10274149 0.48630732 4280494642
0.44936371 -0.10278747 0.48635989 4280428597
0.44894812 -0.10283361 0.48641247 4280560183
0.44853204 -0.10287992 0.48646504 4280429365
0.44811547 -0.10292639 0.48651761 4280429365
0.44769844 -0.10297303 0.48657018 4280626998
0.44728088 -0.10301982 0.48662275 4280429619
0.44686285 -0.10306677 0.48667532 4280626744
0.44639301 -0.10304037 0.48677927 4280560951
0.44597375 -0.10308773 0.48683187 4280757814
0.44550222 -0.1030619 0.48693585 4280888887
0.44508171 -0.10310966 0.48698843 4280888887
0.444713 -0.10323077 0.48698962 4280954426
0.44423926 -0.10320568 0.4870936 4281020219
0.44387004 -0.10332695 0.48709479 4280889146
0.4434478 -0.10337529 0.48714739 4280954939
0.44307834 -0.10349664 0.48714858 4281021504
0.44270888 -0.103618 0.48714978 4280889918
0.44228566 -0.10366664 0.48720235 4281153090
0.46804246 -0.096765719 0.48668373 4278850583
0.46771365 -0.096963942 0.48663336 4278916378
0.46734786 -0.097084083 0.48663455 4279178519
0.4670198 -0.097282059 0.48658419 4279505687
0.46669224 -0.097479872 0.48653379 4279177495
0.46636516 -0.097677529 0.4864834 4279243288
0.46596166 -0.097719833 0.48653618 4279112474
0.46559641 -0.09783981 0.48653734 4279112474
0.45258901 -0.10238291 0.48642522 4280297261
0.45222446 -0.10250265 0.48642641 4280099882
0.45181188 -0.10254796 0.48647919 4280231468
0.4514471 -0.10266778 0.48648036 4280363056
0.45103377 -0.10271332 0.48653316 4280428336
0.45061994 -0.10275902 0.48658594 4280428336
0.45025468 -0.102879 0.48658714 4280494129
0.44979084 -0.10285091 0.48669153 4280494127
0.44937557 -0.1028971 0.48674431 4280363056
0.44895977 -0.10294344 0.48679709 4280494390
0.44854349 -0.10298996 0.4868499 4280691767
0.44807649 -0.10296293 0.48695427 4280494388
0.44765896 -0.10300984 0.48700708 4280692021
0.44724098 -0.10305692 0.48705989 4280560433
0.44682246 -0.10310416 0.4871127 4280757814
0.4464035 -0.10315156 0.48716548 4280692021
0.44593254 -0.10312581 0.48726991 4280823094
0.44551232 -0.10317361 0.48732272 4280823094
0.44509161 -0.10322159 0.4873755 4280888887
0.44472265 -0.10334278 0.48737669 4280954426
0.44430119 -0.10339099 0.48742953 4281020219
0.443932 -0.10351226 0.48743072 4280889148
0.44350982 -0.10356072 0.48748353 4280954941
0.44308713 -0.10360932 0.48753634 4281021250
0.44266397 -0.1036581 0.48758915 4280889664
0.44234771 -0.1038522 0.48753875 4281087043
0.46781218 -0.09722539 0.48691437 4279047196
0.46744668 -0.097345456 0.48691556 4279112726
0.4671188 -0.097543225 0.48686495 4279374356
0.46679145 -0.097740844 0.48681435 4279308565
0.46646458 -0.097938292 0.48676375 4279243542
0.46606138 -0.097980641 0.4868167 4279309335
0.45260265 -0.10249141 0.48680872 4280297261
0.45228565 -0.10268562 0.48675808 4280231470
0.45192111 -0.10280535 0.48675928 4280297263
0.45150831 -0.10285087 0.48681226 4280297263
0.45109504 -0.10289653 0.48686528 4280428334
0.45073 -0.10301644 0.48686647 4280494127
0.45031595 -0.10306233 0.48691946 4280362541
0.44985223 -0.1030345 0.48702431 4280559920
0.44943696 -0.10308081 0.48707733 4280428847
0.44897151 -0.10305353 0.48718217 4280363826
0.44855505 -0.10310025 0.48723519 4280429619
0.44808784 -0.10307354 0.48734003 4280298033
0.44767013 -0.10312065 0.48739305 4280625713
0.44720122 -0.10309451 0.48749793 4280625715
0.44673133 -0.10306869 0.48760277 4280560181
0.44636285 -0.10318971 0.48760396 4280560181
0.44594294 -0.10323757 0.48765701 4280756277
0.44552252 -0.10328558 0.48771003 4281018679
0.44510159 -0.10333376 0.48776305 4281150265
0.44468021 -0.10338209 0.4878161 4281018679
0.44431072 -0.10350344 0.48781729 4281019197
0.44394127 -0.1036248 0.48781848 4280954428
0.44351888 -0.10367345 0.48787153 4280954428
0.44309598 -0.10372227 0.48792458 4281020221
0.44272605 -0.10384379 0.48792577 4281086014
0.46791068 -0.0974866 0.48719496 4279047194
0.46754539 -0.097606584 0.48719612 4279112726
0.46721774 -0.097804159 0.4871453 4279374356
0.46689057 -0.098001562 0.48709446 4279308565
0.45193431 -0.10291413 0.48714298 4280297263
0.45156953 -0.10303395 0.48714417 4280297263
0.45120472 -0.10315377 0.48714536 4280428336
0.45074254 -0.10312569 0.48725063 4280493357
0.45032832 -0.1031718 0.48730388 4280493357
0.44991362 -0.10321808 0.48735711 4280493105
0.44944897 -0.10319079 0.4874624 4280297009
0.44846678 -0.10306369 0.48772505 4280231986
0.44804913 -0.10311092 0.48777828 4280100400
0.44758055 -0.10308495 0.4878836 4280493357
0.44716164 -0.10313259 0.48793685 4280297263
0.44674224 -0.10318041 0.48799008 4280362804
0.44627121 -0.10315525 0.4880954 4280428597
0.44590199 -0.10327652 0.48809659 4280755761
0.44542947 -0.10325183 0.48820192 4280755761
0.44500786 -0.10330036 0.48825517 4280821300
0.44469005 -0.1034947 0.4882043 4280755507
0.44426793 -0.1035434 0.48825759 4280887095
0.44389799 -0.10366492 0.48825878 4280756277
0.44347516 -0.10371386 0.48831204 4280690484
0.44310495 -0.10383546 0.48831326 4280953658
0.46764404 -0.097867467 0.48747623 4279047192
0.46727899 -0.097987369 0.48747742 4279047446
0.44675326 -0.10329238 0.48837784 4280099630
0.44623095 -0.10319452 0.48853588 4280231216
0.44580984 -0.10324302 0.48858938 4280755761
0.4454399 -0.10336453 0.48859057 4280689968
0.44501808 -0.10341328 0.48864406 4280755507
0.44459578 -0.10346218 0.48869753 4280689714
0.44422531 -0.10358386 0.48869875 4280624691
0.44390747 -0.10377807 0.48864767 4280690738
0.44942385 -0.10333809 0.48828638 4280033578
0.44703239 -0.1031372 0.48886988 4280231470
0.47162145 -0.096686453 0.48965731 4279112989
0.47128862 -0.096884906 0.48960516 4279112472
0.4709214 -0.097005531 0.48960635 4279112472
0.47205061 -0.096750192 0.48999047 4278982171
0.47171751 -0.096948601 0.48993811 4279112989
0.47135025 -0.097069234 0.4899393 4279047192
0.47244594 -0.096736208 0.49037746 4279047194
0.47214639 -0.097012296 0.49027106 4279112987
0.4718478 -0.097288065 0.49016464 4279047196
0.47148106 -0.097408533 0.49016583 4279047194
0.47118396 -0.097683802 0.49005944 4279177495
0.47085276 -0.097881436 0.49000683 4279112472
0.47231016 -0.097429194 0.49044314 4279112987
0.47190934 -0.097472139 0.49049833 4279112989
0.47161168 -0.097747326 0.49039149 4279047194
0.47128022 -0.097944923 0.49033868 4279112474
0.47091419 -0.098065145 0.49033985 4279112987
0.47233766 -0.097535752 0.49083084 4279047194
0.4720394 -0.09781085 0.49072355 4279047194
0.47170764 -0.098008409 0.4906705 4279047194
0.47137636 -0.09820579 0.49061745 4279047196
0.47104558 -0.098403007 0.49056438 4279112989
0.47273225 -0.097522005 0.49121782 4279047194
0.47243315 -0.097797103 0.49111009 4279047194
0.47210088 -0.097994685 0.4910568 4279047194
0.47176906 -0.098192111 0.49100351 4279112474
0.47143775 -0.098389372 0.49095023 4279047194
0.47114187 -0.098663427 0.49084249 4279112989
0.47312739 -0.097508341 0.49160522 4279112472
0.47279382 -0.097706199 0.49155173 4279112472
0.47249466 -0.097981051 0.49144354 4279112472
0.47219652 -0.098255597 0.49133536 4279112474
0.47186491 -0.098452814 0.49128187 4279243290
0.47153381 -0.098649867 0.49122834 4279047194
0.47116828 -0.098769926 0.49122953 4279047196
0.4732224 -0.097769856 0.49188447 4279243542
0.47288904 -0.097967513 0.49183074 4279309335
0.47262394 -0.098319076 0.49166718 4279309335
0.47229207 -0.098516248 0.49161345 4279178519
0.47192627 -0.098636396 0.49161464 4279112726
0.47159514 -0.098833323 0.49156094 4279112474
0.47122961 -0.098953389 0.4915621 4279112474
0.47338405 -0.098185256 0.49205297 4279112726
0.47305137 -0.098382562 0.49199903 4279309335
0.47268537 -0.098502785 0.49200022 4279309335
0.47242162 -0.098853484 0.49183598 4279244310
0.472022 -0.09889672 0.49189231 4279309333
0.47169107 -0.099093452 0.49183837 4279243542
0.43117294 -0.094438389 0.50477588 4279967015
0.43075547 -0.094575509 0.50477725 4279967015
0.43039265 -0.094782285 0.50472271 4279968044
0.43019497 -0.095197663 0.50450057 4280296750
0.42977875 -0.095334381 0.50450194 4280494127
0.42952865 -0.095679373 0.50433564 4280297263
0.42900193 -0.095677167 0.50444877 4280166445
0.43753543 -0.094068184 0.5041846 4280099880
0.437071 -0.094133243 0.50424206 4280034087
0.43442714 -0.09403941 0.50486577 4280297261
0.43395829 -0.094105929 0.50492322 4280296746
0.43348891 -0.094172642 0.50498068 4280295980
0.43301907 -0.094239488 0.50503814 4279835429
0.43254873 -0.094306491 0.5050956 4279835429
0.43166044 -0.094510794 0.50515437 4279835429
0.43118888 -0.094578207 0.50521183 4279967013
0.43082553 -0.094785035 0.50515711 4279967013
0.43046266 -0.094991684 0.50510234 4279902505
0.43004546 -0.09512873 0.50510371 4280231216
0.42968333 -0.095335156 0.50504893 4280428334
0.42932171 -0.095541418 0.50499421 4280166447
0.42890495 -0.0956783 0.50499552 4280166447
0.42854407 -0.095884293 0.50494081 4280429619
0.42818367 -0.096090153 0.50488603 4280298031
0.42788008 -0.096364826 0.50477517 4280298031
0.42769063 -0.096776977 0.50455213 4280428336
0.43955719 -0.094158351 0.50421739 4280164644
0.43904513 -0.094151877 0.50433135 4280164644
0.43858248 -0.094216496 0.50438899 4280033828
0.43811929 -0.094281286 0.50444669 4279968548
0.43765563 -0.094346248 0.50450432 4280034341
0.43719149 -0.094411351 0.50456196 4280034341
0.43667549 -0.094406158 0.50467592 4280034087
0.43610692 -0.094330907 0.50484622 4280295980
0.43553686 -0.094256133 0.50501657 4280362543
0.4350695 -0.094322287 0.5050742 4280362543
0.43454933 -0.094318472 0.50518817 4280297263
