# .PCD v0.7 - Point Cloud Data file format
VERSION 0.7
FIELDS x y z rgb
SIZE 4 4 4 4
TYPE F F F U
COUNT 1 1 1 1
WIDTH 1054
HEIGHT 1
VIEWPOINT 0 0 0 1 0 0 0
POINTS 1054
DATA ascii
0.4353103 0.019074827 0.56057608 4278915848
0.43557423 0.019582748 0.56062889 4279243021
0.43583786 0.02009026 0.5606817 4279111952
0.43601811 0.020633057 0.56078166 4278981136
0.43628097 0.021139525 0.56083447 4278980888
0.43654352 0.021645561 0.56088722 4278980888
0.43680578 0.022151187 0.56094003 4278915345
0.43706775 0.022656396 0.56099284 4278915345
0.43732935 0.023161195 0.56104559 4279242768
0.43759069 0.023665577 0.56109834 4279308809
0.43785173 0.024169527 0.56115109 4279308809
0.4380281 0.024707109 0.56125104 4279177226
0.43828836 0.025210023 0.56130373 4279045892
0.43854833 0.02571252 0.56135648 4278981387
0.43863839 0.026281416 0.56150353 4278850063
0.43847269 0.02694869 0.56179202 4278719251
0.43873066 0.027448475 0.56184477 4278719251
0.4391588 0.027882263 0.56180316 4278915858
0.43958724 0.028316483 0.56176156 4279374101
0.43975937 0.028848201 0.5618614 4279177228
0.43993086 0.029379107 0.56196123 4279046929
0.44010168 0.029909164 0.56206107 4278915343
0.44035798 0.030406654 0.56211376 4279047182
0.44070011 0.030872189 0.56211931 4278916109
0.44095591 0.031369045 0.562172 4279177998
0.4412114 0.031865478 0.56222463 4279570957
0.44155324 0.032330602 0.56223017 4279570957
0.44189507 0.032795712 0.56223571 4279374607
0.4423238 0.033230349 0.56219417 4279046929
0.44275284 0.033665389 0.56215256 4278915608
0.44309497 0.034130916 0.56215811 4279046163
0.44352454 0.034566589 0.56211656 4279111956
0.44377923 0.035061985 0.56216919 4279439120
0.44412136 0.03552752 0.5621748 4279111176
0.44446349 0.035993055 0.56218028 4279177228
0.44471765 0.036487609 0.56223297 4279243021
0.44514775 0.036924124 0.56219143 4278848782
0.44540158 0.037418261 0.56224406 4278849031
0.44574356 0.037883587 0.5622496 4278849285
0.44617414 0.038320713 0.56220806 4278782989
0.44651628 0.038786251 0.5622136 4278848782
0.44703627 0.03919623 0.56212497 4278652175
0.44755685 0.039607044 0.56203634 4278979343
0.4480781 0.040018693 0.5619477 4278979596
0.4485999 0.040431179 0.56185913 4278914056
0.4492119 0.040817555 0.56172347 4278979849
0.44982481 0.041205183 0.56158781 4278783238
0.45043862 0.041594066 0.56145215 4278783238
0.45105338 0.0419842 0.56131655 4278717447
0.45157892 0.042401694 0.56122804 4278849033
0.45210499 0.042820025 0.56113946 4279046161
0.45254129 0.043264877 0.56109804 4279046163
0.45297784 0.043710146 0.56105655 4278783761
0.45323318 0.044206381 0.56110924 4278848780
0.45348823 0.044702195 0.56116188 4278914573
0.45365191 0.045222446 0.56126159 4279375629
0.45372373 0.045766518 0.56140834 4279507213
0.45388597 0.046284888 0.56150806 4279572505
0.45404768 0.046802424 0.56160772 4280428332
0.4542087 0.047319133 0.56170738 4280757297
0.45446098 0.047811188 0.56176001 4281019949
0.45471293 0.048302822 0.56181264 4281741875
0.41496831 -0.038598478 0.55118597 4283913536
0.41527757 -0.038028687 0.55123931 4283650362
0.41565454 -0.037515759 0.55124539 4283452983
0.41609967 -0.037059084 0.55120432 4282861359
0.41647676 -0.036545947 0.5512104 4282598187
0.41699082 -0.03614448 0.55112213 4282204201
0.41743687 -0.035686567 0.55108106 4281743650
0.417952 -0.035283625 0.55099279 4281414685
0.41846776 -0.034879863 0.55090451 4280822546
0.4190532 -0.034530237 0.55076915 4280427797
0.41963953 -0.034179389 0.55063373 4280164373
0.42029619 -0.033881858 0.55045116 4279769615
0.42088458 -0.033528268 0.55031574 4279045894
0.42154357 -0.033227608 0.55013323 4278782219
0.42206407 -0.032817364 0.55004501 4278585360
0.42265517 -0.032460019 0.54990971 4278782991
0.42310691 -0.031994373 0.5498687 4278782991
0.42355892 -0.031528324 0.54982775 4278783240
0.42401126 -0.031061828 0.54978675 4278651654
0.42432266 -0.030489117 0.54984009 4278586631
0.42463374 -0.029916808 0.54989344 4278652676
0.42487359 -0.029292434 0.54999399 4278718469
0.42511284 -0.028668895 0.55009443 4278784008
0.42528021 -0.027994126 0.55024207 4278848782
0.42544669 -0.027320608 0.55038971 4278914573
0.42554072 -0.02659668 0.55058444 4278848782
0.42570519 -0.025925875 0.55073202 4278848782
0.4257969 -0.025205091 0.55092674 4278783759
0.42588738 -0.024485976 0.55112141 4278784010
0.42604882 -0.023819327 0.55126894 4278784010
0.42620927 -0.023153961 0.55141646 4278915594
0.42629638 -0.022439428 0.55161113 4278981389
0.4264549 -0.021776766 0.55175859 4278784010
0.42661247 -0.021115355 0.55190605 4279046933
0.42684203 -0.020504974 0.55200642 4279308561
0.42707101 -0.019895427 0.55210674 4278914824
0.42729932 -0.0192867 0.55220705 4278848780
0.42760044 -0.018727973 0.55226022 4278914573
0.41980362 -0.0043050572 0.56024921 4284176710
0.42007664 -0.0037845299 0.56030196 4283848258
0.42050076 -0.0033564568 0.56026053 4283650627
0.42077348 -0.0028363466 0.56031322 4283650627
0.42119789 -0.0024078488 0.5602718 4283124281
0.42147031 -0.0018881559 0.56032455 4282861361
0.42181873 -0.001414068 0.56033015 4282860848
0.42247295 -0.0011198595 0.56014758 4282466092
0.42312843 -0.00082400441 0.55996495 4282005541
0.4239386 -0.00061557442 0.55968827 4281479197
0.42490447 -0.00049334019 0.55931747 4280295704
0.42556453 -0.0001912117 0.55913496 4278782722
0.42645746 -1.9200146e-05 0.55881125 4278914308
0.42742991 0.00011201948 0.55844057 4278980101
0.42840481 0.00024656951 0.55806994 4278914054
0.42907149 0.00055767596 0.55788755 4278717445
0.42958367 0.0009566471 0.55779922 4278717445
0.43001851 0.0013993382 0.55775797 4278521098
0.43029737 0.001927793 0.55781078 4278652171
0.43065423 0.0024133697 0.55781657 4278913805
0.4308542 0.0029834583 0.5579164 4278913807
0.4311322 0.0035106689 0.55796921 4278979600
0.43133107 0.0040792972 0.55806905 4278979598
0.43152934 0.0046470985 0.55816889 4278782989
0.43164796 0.0052554756 0.55831575 4278914575
0.43184483 0.0058214068 0.55841553 4279504651
0.43196177 0.0064274967 0.55856234 4279504651
0.43215728 0.0069915354 0.55866212 4279506191
0.43227249 0.007595323 0.55880892 4279440400
0.43246663 0.0081574842 0.5589087 4279506193
0.43266016 0.0087188184 0.55900842 4279506191
0.43277293 0.0093192756 0.55915517 4279571981
0.4329651 0.0098787099 0.55925488 4279440395
0.43315661 0.010437325 0.5593546 4279374607
0.43334752 0.010995105 0.55945432 4279504913
0.43361855 0.011512913 0.55950701 4279308311
0.43380839 0.012069233 0.55960667 4279374101
0.43399763 0.012624711 0.55970639 4279374101
0.43418625 0.013179362 0.55980605 4279177745
0.43437424 0.013733171 0.55990571 4279111956
0.43456161 0.014286146 0.56000537 4279177747
0.43474841 0.014838278 0.56010497 4279111952
0.43485272 0.015427254 0.56025159 4279177745
0.43503815 0.015977524 0.56035125 4279046412
0.43514079 0.01656419 0.56049782 4279112205
0.43532479 0.017112575 0.56059742 4279308308
0.43550819 0.017660126 0.56069696 4279374354
0.43560839 0.018243462 0.56084353 4278981389
0.43579042 0.018789135 0.56094307 4278981389
0.43605471 0.019297764 0.5609957 4279243021
0.43623564 0.019841969 0.56109524 4279112205
0.43658239 0.02031377 0.56110084 4278981136
0.43684572 0.020821139 0.56115341 4278981140
0.43710881 0.021328099 0.56120598 4279046933
0.43745524 0.021799475 0.56121159 4278981651
0.43763402 0.02234076 0.56131113 4278915860
0.43798015 0.022811718 0.56131673 4279308304
0.43824214 0.023317218 0.56136924 4279308304
0.43850383 0.023822293 0.56142181 4279374097
0.43884963 0.024292842 0.56142741 4279177226
0.43911088 0.024797291 0.56147993 4279177480
0.43937179 0.025301322 0.5615325 4279046410
0.43963242 0.025804952 0.56158501 4279177226
0.4397226 0.026374713 0.5617314 4279177226
0.43989712 0.026910156 0.56183088 4278587663
0.43998566 0.027477622 0.56197721 4278785555
0.43990225 0.028109163 0.56221735 4278980886
0.44033128 0.028543904 0.56217599 4278914323
0.44067478 0.029011324 0.56218159 4279045909
0.44076043 0.029574826 0.56232786 4278916109
0.44093123 0.030105256 0.56242728 4279112205
0.44118768 0.030603237 0.56247973 4278981389
0.44127101 0.031163611 0.562626 4279243538
0.44152659 0.031660333 0.56267846 4279505942
0.44186854 0.032125667 0.562684 4279374356
0.44221053 0.032590985 0.56268954 4279177747
0.44263953 0.033025742 0.56264818 4279178519
0.44306886 0.033460915 0.56260681 4278652436
0.44341111 0.033926658 0.56261241 4278652436
0.44366592 0.034422345 0.56266481 4278913805
0.44409567 0.034858145 0.5626235 4279045132
0.44435018 0.035353407 0.56267589 4278979590
0.44478023 0.035789624 0.56263459 4279045385
0.44503441 0.036284477 0.56268698 4279045385
0.44537655 0.036750011 0.56269252 4278848532
0.44571868 0.037215546 0.56269813 4278521351
0.44606081 0.037681073 0.56270361 4278980099
0.44640291 0.0381466 0.56270921 4278979596
0.44683397 0.038584083 0.56266785 4278979596
0.44717622 0.039049823 0.56267345 4278848782
0.44778609 0.039432619 0.56253839 4278979341
0.44821817 0.039871547 0.56249708 4278913803
0.44874001 0.040283673 0.56240892 4278913803
0.44935217 0.040669605 0.56227392 4278979596
0.44978562 0.041110411 0.56223267 4278979849
0.45039931 0.041498434 0.56209767 4278914054
0.45101389 0.041887712 0.56196272 4278913803
0.45153916 0.042304423 0.56187463 4279045389
0.45206502 0.042721968 0.56178653 4279242518
0.45259148 0.043140344 0.56169844 4279045139
0.45293716 0.043610677 0.56170404 4279045389
0.45328283 0.044081014 0.56170964 4278914826
0.45362848 0.044551354 0.56171525 4279243791
0.45388293 0.045046616 0.5617677 4279506961
0.45395446 0.045590922 0.56191379 4279836698
0.45411652 0.046109449 0.56201303 4279508767
0.4543696 0.046602838 0.56206542 4280561201
0.45453063 0.047119908 0.56216466 4281021752
0.45469099 0.04763614 0.56226385 4281547316
0.41552967 -0.038220525 0.55179143 4283650877
0.41590661 -0.037707597 0.55179757 4283387705
0.41635185 -0.037250996 0.55175668 4283124533
0.41672894 -0.036737859 0.55176282 4282729777
0.41717464 -0.036280647 0.55172193 4282335535
0.41755188 -0.035767302 0.55172807 4282072615
0.41806692 -0.035364956 0.55164027 4281612064
0.41858256 -0.03496176 0.55155241 4280888339
0.41909882 -0.03455773 0.55146462 4280559129
0.41975439 -0.034262583 0.55128294 4280361495
0.42034167 -0.033911124 0.55114818 4279440652
0.42099953 -0.033612847 0.55096656 4279177480
0.42158878 -0.033258677 0.55083185 4278782219
0.42224896 -0.032957286 0.55065018 4278585360
0.42277011 -0.032546565 0.5505625 4278782989
0.42329189 -0.03213501 0.55047476 4278782989
0.4238143 -0.03172265 0.55038708 4278848780
0.42426673 -0.031256229 0.55034631 4278651401
0.42464876 -0.030736417 0.55035251 4278717447
0.4249599 -0.030163839 0.55040562 4278652676
0.42519969 -0.029539093 0.5505057 4278718469
0.42543888 -0.028915197 0.55060577 4278718215
0.42560613 -0.02823998 0.5507527 4278848782
0.42577243 -0.027566031 0.55089962 4278914573
0.42586619 -0.026841581 0.55109352 4278848782
0.42603052 -0.026170328 0.55124038 4278848782
0.42612195 -0.025449008 0.55143422 4278783759
0.42621219 -0.024729386 0.55162799 4278914826
0.42637342 -0.024062306 0.55177486 4278914824
0.42646134 -0.023345791 0.55196863 4279046410
0.4266932 -0.022731908 0.55206853 4278981136
0.42677897 -0.022018321 0.55226231 4278783757
0.42693639 -0.021356463 0.55240905 4279111956
0.42716593 -0.020745724 0.55250895 4279242768
0.42732164 -0.020086169 0.55265576 4279045640
0.42762309 -0.01952672 0.55270869 4279046159
0.42785078 -0.018918477 0.55280858 4278914573
0.41996121 -0.0044359341 0.56080663 4284045637
0.42023402 -0.0039155334 0.56085914 4283782465
0.42065805 -0.0034877509 0.56081796 4283716420
0.4210065 -0.0030136555 0.56082356 4283716420
0.42135489 -0.0025395602 0.56082922 4283190076
0.42170331 -0.0020654723 0.56083488 4282926643
0.42212814 -0.0016366392 0.5607937 4282795055
0.42270637 -0.0012974888 0.56065881 4282466090
0.42343897 -0.0010467842 0.56043029 4282071332
0.42409617 -0.00074934214 0.56024861 4281413150
0.42513973 -0.0006723702 0.55983275 4280229657
0.42595452 -0.00045897812 0.5595575 4278782722
0.42684847 -0.00028710067 0.55923539 4278848515
0.42782205 -0.00015608966 0.5588665 4278980101
0.42887574 -6.5341592e-05 0.55845082 4278848261
0.42962104 0.0002027005 0.55822253 4278717445
0.43005612 0.0006455183 0.55818146 4278651652
0.43041342 0.0011317134 0.55818725 4278586631
0.43069249 0.0016606748 0.55823988 4278652171
0.4310497 0.0021466613 0.55824566 4278913803
0.4313283 0.0026749969 0.55829829 4278913807
0.43152791 0.0032450408 0.55839765 4278979600
0.43180573 0.0037723184 0.55845022 4278979598
0.4319253 0.0043826103 0.55859643 4278913807
0.43204388 0.0049916506 0.55874264 4279176979
0.4322409 0.0055581406 0.55884194 4279570444
0.43243727 0.0061238036 0.5589413 4279636237
0.43255341 0.006729506 0.55908746 4279506193
0.43274841 0.0072932839 0.55918676 4279374356
0.43286288 0.0078966767 0.55933285 4279440400
0.4330565 0.0084585771 0.55943215 4279440398
0.4332495 0.0090196505 0.55953145 4279440398
0.43344191 0.009579882 0.55963075 4279374602
0.43363369 0.010139272 0.55973005 4279374097
0.43390554 0.010658413 0.55978251 4279439120
0.43409628 0.011216342 0.55988181 4279308565
0.43428636 0.011773445 0.55998105 4279308306
0.43455702 0.012290925 0.5600335 4279308306
0.43474603 0.012846552 0.56013274 4279177745
0.43493444 0.013401359 0.56023192 4279111956
0.43512222 0.013955325 0.56033117 4279177749
0.43522763 0.014546409 0.56047714 4279111954
0.43549597 0.015060753 0.56052953 4279111954
0.43568194 0.015612215 0.56062871 4279046412
0.43578503 0.01620017 0.56077462 4279112205
0.43588722 0.016786873 0.56092054 4279308308
0.43607104 0.017335407 0.56101966 4279374097
0.43617153 0.017919809 0.56116557 4279242511
0.43635395 0.018466473 0.56126469 4278981389
0.43653575 0.019012302 0.56136382 4279112205
0.43671697 0.01955729 0.56146288 4279177998
0.43698084 0.020065576 0.56151527 4278981138
0.43724442 0.020573452 0.5615676 4278981138
0.43759131 0.021045454 0.56157321 4279046931
0.43793821 0.021517456 0.56157887 4278981651
0.43820116 0.022024497 0.5616312 4278915606
0.43854791 0.022496298 0.56163681 4279308308
0.43889463 0.022968084 0.56164241 4279308308
0.43915695 0.023474291 0.56169474 4279308308
0.43958807 0.023911685 0.56165367 4279176975
0.43985012 0.02441746 0.56170601 4279177480
0.44019669 0.024889052 0.56171161 4279046410
0.4403733 0.025427774 0.56181067 4278914824
0.44054925 0.025965676 0.56190968 4278915594
0.44080997 0.026469573 0.56196201 4278587661
0.44115576 0.026940115 0.56196761 4278653717
0.44133037 0.027476132 0.56206656 4278915606
0.44150436 0.028011315 0.56216556 4278981140
0.44176364 0.028513342 0.56221783 4279046933
0.44167835 0.029143378 0.56245691 4278981902
0.4415915 0.029771328 0.56269586 4279243021
0.44158953 0.030365512 0.56288821 4279244561
0.44175941 0.030895054 0.56298709 4279112724
0.44201529 0.031392485 0.56303936 4279046929
0.44218403 0.031920567 0.56313825 4279046929
0.44252616 0.032386094 0.56314379 4278782739
0.44295543 0.032820985 0.56310266 4278914327
0.44329774 0.033286721 0.56310821 4278651921
0.44363999 0.033752471 0.56311375 4278651921
0.4439823 0.034218207 0.56311929 4278913807
0.44432458 0.034683958 0.56312484 4278913807
0.44466686 0.035149693 0.56313038 4278848263
0.44500914 0.035615437 0.56313598 4278979590
0.44535142 0.03608118 0.56314147 4279045383
0.44560534 0.036575899 0.56319368 4279045642
0.44594747 0.037041426 0.56319922 4278652422
0.44620091 0.037535518 0.56325144 4278915078
0.44663173 0.037972495 0.56321031 4279045894
0.44706285 0.038409889 0.56316924 4278980101
0.4474051 0.038875632 0.56317478 4278914826
0.4478367 0.039313652 0.56313372 4278914056
0.44826859 0.039752085 0.56309259 4278848780
0.44879034 0.040163625 0.56300491 4278914056
0.44931275 0.040576018 0.56291723 4279045642
0.44992566 0.040962331 0.56278288 4279308812
0.45044941 0.041376591 0.56269521 4278980099
0.45097381 0.041791685 0.56260753 4278848780
0.45149881 0.042207617 0.56251991 4278848780
0.4520244 0.042624384 0.56243223 4279176979
0.45255065 0.043041985 0.56234461 4279176977
0.45289582 0.043511689 0.56235021 4279308557
0.45333201 0.043955971 0.56230921 4279374859
0.45376849 0.044400662 0.5622682 4279769617
0.45411402 0.044870786 0.5622738 4280559400
0.45427662 0.045390528 0.56237257 4281217850
0.45453024 0.045884822 0.56242478 4281481272
0.45478353 0.046378709 0.56247699 4281745206
0.45485276 0.046920523 0.56262231 4281613620
0.41578174 -0.038412347 0.55234361 4283716670
0.41615868 -0.037899435 0.55234969 4283650877
0.41653565 -0.037386507 0.55235583 4283453500
0.41691262 -0.036873594 0.55236197 4282598455
0.41728956 -0.036360666 0.55236804 4282467121
0.41780418 -0.035959303 0.55228066 4282138408
0.41818142 -0.035445958 0.5522868 4281743650
0.41862786 -0.034987971 0.55224615 4281084948
0.41914386 -0.034584746 0.55215883 4280887573
0.41972989 -0.034235597 0.55202472 4280624917
0.42038649 -0.033939928 0.55184394 4279966994
0.42104429 -0.033642605 0.55166316 4279638029
0.42170331 -0.033343598 0.55148238 4278979849
0.42229351 -0.032988816 0.55134839 4278781967
0.42288464 -0.032632798 0.5512144 4278913803
0.4234767 -0.032275513 0.55108041 4278913803
0.42399913 -0.031863496 0.55099314 4278652424
0.42452219 -0.031450644 0.55090588 4278520838
0.42490423 -0.030930832 0.55091208 4278652422
0.42521524 -0.03035818 0.55096501 4278652676
0.42545483 -0.02973327 0.55106461 4278784262
0.42569381 -0.02910921 0.55116421 4278652424
0.4259322 -0.028485999 0.55126375 4278717966
0.42609835 -0.027811587 0.55141008 4278717964
0.4262636 -0.027138442 0.55155629 4278783759
0.42635602 -0.026414946 0.55174923 4278915345
0.42644721 -0.025693104 0.55194217 4278915345
0.42653719 -0.024972945 0.55213505 4278849031
0.42669827 -0.024305433 0.55228126 4278980101
0.42685848 -0.023639157 0.55242741 4278914824
0.42694509 -0.022923589 0.55262029 4279046161
0.42710322 -0.022260047 0.55276638 4278914575
0.42726052 -0.021597736 0.55291253 4279046161
0.42749 -0.020986632 0.55301195 4279176975
0.42764556 -0.020326629 0.55315804 4278914824
0.4279471 -0.019766904 0.55321085 4279177228
0.42019421 -0.004613243 0.56131703 4283914049
0.4204669 -0.0040927678 0.5613693 4283782465
0.42089105 -0.0036650598 0.56132829 4283650879
0.4212395 -0.0031909645 0.56133395 4283650879
0.42158788 -0.0027168766 0.56133962 4283386422
0.42201269 -0.0022883341 0.56129861 4282991664
0.42243773 -0.0018593594 0.56125766 4282925871
0.42301643 -0.0015202388 0.56112343 4282334504
0.42367285 -0.0012248009 0.56094265 4281939746
0.42440748 -0.00097238272 0.56071526 4281149980
0.4251436 -0.00071788579 0.56048787 4280032280
0.42731732 -0.00059939921 0.55961382 4278848261
0.42829221 -0.00046839565 0.55924672 4278914308
0.42934722 -0.00037771463 0.55883312 4278848261
0.43001562 -6.5982342e-05 0.55865246 4278651654
0.43052918 0.00033392012 0.55856508 4278651654
0.43096516 0.0007777065 0.55852431 4278717964
0.43124473 0.0013075769 0.5585767 4278783240
0.43144554 0.0018796548 0.55867565 4278849033
0.43172434 0.0024084747 0.55872804 4278849033
0.43200284 0.0029368848 0.55878043 4279046159
0.4322021 0.003506884 0.55887938 4279046159
0.43232164 0.0041178167 0.55902487 4279439122
0.4325195 0.0046859235 0.55912381 4279374104
0.43263733 0.0052945763 0.55926931 4279243538
0.43283382 0.0058608055 0.55936819 4279177745
0.43302971 0.0064262003 0.55946708 4279112203
0.43322498 0.0069907606 0.55956596 4279111952
0.43333954 0.0075950325 0.5597114 4279243791
0.43353343 0.0081577003 0.55981028 4279308814
0.43372673 0.0087195486 0.55990911 4279243021
0.43391937 0.0092805624 0.56000793 4279243021
0.43411139 0.0098407492 0.56010681 4279243021
0.43430281 0.010400094 0.56020564 4279243021
0.4345746 0.010919303 0.56025785 4279243021
0.43484604 0.011438116 0.56031013 4279243021
0.43503594 0.01199536 0.56040895 4279308557
0.43522519 0.012551785 0.56050771 4279243021
0.43549544 0.013068922 0.56055999 4279111954
0.43560192 0.013662115 0.56070524 4279308565
0.43578935 0.014216036 0.56080401 4279111956
0.43597615 0.014769115 0.56090277 4279111956
0.43616235 0.015321359 0.56100154 4279176975
0.43634796 0.015872769 0.56110024 4279177228
0.43645048 0.016460538 0.5612455 4279374099
0.43655205 0.017047063 0.5613907 4279374356
0.43673548 0.017595544 0.5614894 4279242770
0.43691832 0.018143192 0.56158805 4279046929
0.43710053 0.018690005 0.56168675 4279111952
0.43728215 0.019235991 0.5617854 4279111954
0.43754655 0.019745186 0.56183755 4278915345
0.43772709 0.020289719 0.5619362 4279047180
0.43799073 0.020797871 0.56198835 4279047180
0.43833792 0.02127029 0.56199396 4279047182
0.43868512 0.021742716 0.56199956 4278981140
0.43903229 0.022215135 0.56200522 4279242520
0.43937948 0.022687554 0.56201082 4279308313
0.43972665 0.023159981 0.56201649 4279176725
0.44015849 0.023598135 0.5619756 4279242513
0.44050583 0.02407077 0.56198126 4279177226
0.44085318 0.024543397 0.56198686 4279046159
0.44120049 0.025016025 0.56199253 4278914573
0.44146264 0.025522098 0.56204462 4278915594
0.44180983 0.025994517 0.56205022 4278719249
0.44215703 0.026466936 0.56205589 4278719512
0.44258988 0.02690655 0.56201506 4278980886
0.44276553 0.027444392 0.56211358 4278980886
0.44302654 0.02794899 0.56216568 4278981651
0.44302976 0.029148825 0.56254864 4279047182
0.44268361 0.029873312 0.56292588 4279178768
0.44293857 0.030967399 0.5631693 4278915343
0.44284755 0.031590745 0.56340712 4278717964
0.44292915 0.03215012 0.56355202 4278847760
0.44327158 0.032616071 0.56355757 4278979350
0.44361401 0.033082023 0.56356311 4278913553
0.44404399 0.033517659 0.56352222 4278847760
0.4443866 0.033983827 0.56352782 4278913553
0.44472921 0.03444998 0.56353337 4278913807
0.44489574 0.034975506 0.56363177 4278782987
0.44523805 0.03544125 0.56363732 4279045383
0.4455803 0.035906985 0.56364286 4279045383
0.44592261 0.036372736 0.5636484 4279045642
0.44617623 0.036867321 0.56370038 4278979847
0.44642961 0.037361488 0.56375235 4279045894
0.44677159 0.037826814 0.5637579 4279111428
0.44711357 0.038292147 0.56376344 4279045635
0.44754475 0.038729459 0.56372255 4279046410
0.44788688 0.03919499 0.56372809 4278849031
0.44840813 0.039605334 0.56364083 4278914575
0.44884026 0.040043894 0.5636 4278979849
0.44936255 0.040455706 0.56351274 4279177228
0.44988543 0.040868349 0.56342548 4279243789
0.45040897 0.041281823 0.56333828 4278915078
0.4509331 0.041696128 0.56325102 4278849033
0.45136738 0.042137623 0.56321019 4278979600
0.45198321 0.042527262 0.56307662 4279176979
0.45250916 0.042944081 0.56298941 4279177747
0.45294482 0.04338745 0.56294858 4279374607
0.45338079 0.043831229 0.56290781 4279901203
0.45381707 0.044275433 0.56286705 4280427547
0.45416227 0.044745144 0.56287265 4281217332
0.45450747 0.045214854 0.56287825 4281808447
0.45476097 0.045709226 0.56293017 4282334784
0.45501417 0.046203192 0.56298214 4283190592
0.45517504 0.046720993 0.56308049 4284111694
0.41641074 -0.038091272 0.55290186 4283650877
0.41671926 -0.037521869 0.55295449 4283651649
0.41716468 -0.037065417 0.55291408 4282664507
0.41754162 -0.036552504 0.55292022 4282467378
0.41791856 -0.036039576 0.5529263 4282138406
0.41829553 -0.035526663 0.55293244 4281743648
0.41874173 -0.035069168 0.55289203 4281282327
0.41918826 -0.03461127 0.55285162 4280953362
0.41977414 -0.034263 0.55271822 4280755987
0.42036098 -0.033913463 0.55258477 4280230164
0.4210186 -0.033617273 0.55240494 4279835406
0.42167741 -0.033319429 0.55222505 4278849033
0.42233747 -0.0330199 0.55204523 4278847760
0.42299876 -0.032718703 0.5518654 4278913805
0.42359078 -0.032362074 0.55173206 4278913805
0.42418376 -0.032004178 0.55159879 4278586631
0.42470688 -0.031591713 0.55151194 4278520838
0.42515969 -0.031125247 0.55147165 4278586629
0.4255417 -0.030605435 0.55147785 4278652422
0.42578125 -0.029980183 0.55157703 4278718215
0.42602018 -0.029355749 0.55167615 4278652173
0.42625847 -0.028732166 0.55177528 4278848780
0.4264245 -0.028057322 0.55192089 4278784010
0.42658958 -0.027383715 0.5520665 4278718477
0.42668176 -0.026659697 0.55225855 4278850063
0.42677268 -0.025937334 0.55245054 4278850063
0.42686239 -0.025216654 0.55264258 4278849031
0.4270958 -0.024599761 0.55274159 4278980101
0.42718339 -0.023881987 0.55293357 4278914824
0.42734247 -0.023216538 0.55307907 4279046412
0.42750067 -0.022552341 0.55322456 4279046412
0.42758483 -0.021839164 0.55341643 4278914575
0.42774105 -0.021177687 0.55356187 4279046159
0.42796969 -0.020567246 0.55366087 4278849031
0.42819774 -0.019957647 0.55375981 4278914826
0.42035151 -0.004743889 0.56187379 4283914049
0.42069978 -0.0042700022 0.5618794 4283848254
0.42112404 -0.0038423687 0.56183863 4283650875
0.4215486 -0.0034143254 0.56179792 4283453496
0.42189717 -0.0029400215 0.56180358 4283124272
0.42224574 -0.0024657249 0.56180918 4282991916
0.42274755 -0.0020822436 0.56172204 4282729514
0.42332667 -0.0017431602 0.56158853 4282268711
0.42398369 -0.0014478043 0.56140864 4281808160
0.42464191 -0.0011507869 0.56122875 4280755481
0.42545578 -0.00094126165 0.56095612 4279439890
0.42681313 -0.0010398477 0.56035888 4278782468
0.42778683 -0.00091217458 0.55999357 4278848261
0.42884064 -0.000825122 0.55958188 4278848515
0.42989722 -0.00073431432 0.55917031 4278848261
0.43048865 -0.0003785193 0.55903697 4278848261
0.43092471 6.519258e-05 0.55899644 4278782989
0.43136108 0.00050932169 0.55895585 4278914575
0.43164086 0.0010396838 0.559008 4278914573
0.43192038 0.0015696287 0.55906022 4279045642
0.43219954 0.0020991564 0.55911237 4279045642
0.43239951 0.0026705489 0.5592109 4279046412
0.43259886 0.0032411143 0.55930936 4279111952
0.43279758 0.0038108528 0.55940789 4279504402
0.43299574 0.0043797344 0.55950636 4279242770
0.43311369 0.004989244 0.55965114 4279177745
0.43331045 0.0055562556 0.5597496 4279046159
0.43350658 0.0061224326 0.55984807 4279177226
0.43362212 0.0067286044 0.55999285 4279243021
0.43389699 0.0072522908 0.56004494 4279112205
0.43401098 0.007856369 0.56018972 4279046412
0.43428493 0.0083788037 0.56024182 4279046412
0.43447801 0.008940801 0.56034017 4278915596
0.43467045 0.0095019639 0.56043857 4278981138
0.43486232 0.0100623 0.56053698 4279111952
0.43513456 0.01058244 0.56058902 4279046159
0.43540651 0.011102162 0.56064105 4279046159
0.43559682 0.011660405 0.5607394 4279308557
0.43578652 0.012217805 0.56083775 4279177228
0.43597558 0.012774386 0.56093609 4279046412
0.43616405 0.013330124 0.56103444 4279242770
0.4363519 0.013885029 0.56113273 4279308563
0.43653911 0.014439106 0.56123108 4279242770
0.43680799 0.014954649 0.56128305 4279176977
0.43699419 0.015507251 0.56138134 4279176975
0.43701452 0.016133577 0.56157219 4279242768
0.43719918 0.0166841 0.56167048 4279243540
0.43738317 0.017233774 0.56176877 4279177747
0.43756658 0.017782643 0.561867 4279046929
0.43766612 0.018367097 0.56201148 4279242768
0.43784815 0.018914059 0.56210971 4279308565
0.43794602 0.019496225 0.56225425 4279242768
0.43821034 0.020005509 0.56230617 4279242768
0.4384743 0.020514369 0.56235808 4279112975
0.43882197 0.020987414 0.56236368 4278981136
0.43916965 0.021460459 0.56236935 4279046412
0.43951726 0.021933511 0.56237495 4279242768
0.44003379 0.022337019 0.56228805 4279242768
0.44038177 0.022810489 0.56229371 4279111956
0.44081444 0.023249596 0.56225312 4279242513
0.44124746 0.023689136 0.56221247 4279111176
0.44159573 0.024163015 0.56221813 4279243273
0.44194397 0.024636894 0.56222373 4279243273
0.44229224 0.025110781 0.56222939 4279242762
0.44272602 0.025551356 0.5621888 4278850067
0.44316009 0.025992349 0.56214821 4279046933
0.44359446 0.026433766 0.56210762 4278981138
0.44377127 0.026973635 0.56220573 4278981138
0.44403356 0.0274802 0.56225765 4278981136
0.44420928 0.028018616 0.56235576 4278850316
0.44427311 0.033343315 0.56402409 4278848012
0.44470352 0.033779301 0.56398338 4278847760
0.44495827 0.034275636 0.56403518 4278914323
0.44521278 0.034771562 0.56408691 4278914826
0.44546694 0.035267062 0.56413871 4279111430
0.44580922 0.035732798 0.56414425 4279243016
0.44606292 0.036227673 0.56419599 4279177228
0.44631633 0.036722139 0.56424773 4279242762
0.44656944 0.037216172 0.56429946 4279111176
0.44691125 0.037681282 0.56430501 4279111430
0.44725305 0.038146406 0.56431055 4279045637
0.44759488 0.038611516 0.56431609 4279045894
0.44802621 0.039048761 0.56427544 4278915078
0.44845784 0.039486408 0.56423479 4279046412
0.44888973 0.03992448 0.56419414 4279046159
0.44941193 0.040335711 0.56410736 4279111952
0.44984466 0.040774826 0.56406671 4279179279
0.4503679 0.041187521 0.56397992 4279244813
0.45089176 0.041601051 0.56389314 4279309083
0.45141625 0.042015411 0.56380641 4279374108
0.45175993 0.042483032 0.56381196 4279505694
0.45237622 0.042872652 0.56367904 4280230183
0.45281136 0.043315101 0.56363845 4280887846
0.453338 0.04373239 0.56355172 4281744693
0.45377392 0.044175893 0.56351113 4282205244
0.45421013 0.04461981 0.5634706 4283125578
0.45464665 0.04506414 0.56343001 4284506461
0.45517531 0.045484141 0.56334329 4286808441
0.45542872 0.045978598 0.56339508 4289505437
0.41690266 -0.037657067 0.55355275 4283716670
0.4172793 -0.037144557 0.55355883 4282927672
0.41765594 -0.036632046 0.55356497 4282598961
0.41796356 -0.036063626 0.55361736 4282138660
0.41840926 -0.03560704 0.55357718 4281809695
0.41885525 -0.035150066 0.55353695 4281479958
0.41930151 -0.034692645 0.55349678 4281282581
0.41981781 -0.034289926 0.55341035 4280888343
0.42033467 -0.033886358 0.55332386 4280427543
0.42106202 -0.033646002 0.55309862 4280164371
0.4217208 -0.033349082 0.55291963 4279177998
0.42245108 -0.033104777 0.55269444 4278848780
0.42311245 -0.03280431 0.55251551 4278913546
0.4237045 -0.032448322 0.55238283 4278979339
0.42429745 -0.032091081 0.55225021 4278717196
0.42489135 -0.031732604 0.55211759 4278520585
0.42534411 -0.031266436 0.55207753 4278586378
0.42572597 -0.030746847 0.55208367 4278652424
0.42610782 -0.030227244 0.55208987 4278652424
0.42634672 -0.029602438 0.55218858 4278717968
0.42658496 -0.028978482 0.55228728 4278979598
0.42675084 -0.028303206 0.55243218 4278848780
0.42698771 -0.027681127 0.55253088 4278718477
0.42707977 -0.026956365 0.55272204 4278850063
0.42717063 -0.026233286 0.55291313 4278718477
0.42733264 -0.025563225 0.55305803 4278915596
0.42742115 -0.024843276 0.55324912 4279045894
0.42758119 -0.024175912 0.55339396 4279045640
0.42774028 -0.0235098 0.55353874 4279045640
0.42789847 -0.022844955 0.55368352 4278914826
0.42790937 -0.022080749 0.55392081 4278914573
0.42813873 -0.021468908 0.55401933 4278914573
0.428294 -0.020808026 0.55416411 4278914826
0.42058441 -0.0049211234 0.56238389 4283848256
0.42093268 -0.0044472367 0.56238955 4283782461
0.42135704 -0.0040196851 0.56234902 4283650875
0.42170548 -0.0035455897 0.56235468 4283387703
0.42213029 -0.0031174123 0.56231415 4283058992
0.42263198 -0.0027345121 0.56222743 4282664234
0.42313427 -0.0023507848 0.56214076 4282598441
0.42371404 -0.0020115077 0.5620079 4282269224
0.42429471 -0.001670979 0.5618751 4281677087
0.42503068 -0.0014189333 0.56164992 4280361495
0.42600012 -0.0012987778 0.56128633 4279374097
0.4273594 -0.0013975352 0.56069201 4278782213
0.42833453 -0.0012696609 0.56032848 4278913799
0.42962325 -0.001314573 0.55978042 4278848261
0.430448 -0.001091525 0.55950934 4278717447
0.43088418 -0.00064789504 0.55946898 4278717447
0.4313989 -0.00024725497 0.5593825 4278848782
0.43175745 0.0002406165 0.55938828 4278914575
0.43211597 0.00072848797 0.55939412 4278914573
0.43239582 0.0012591332 0.55944604 4279045642
0.43267536 0.0017893687 0.55949801 4279177228
0.43287557 0.0023615435 0.55959606 4278914826
0.43315434 0.0028907359 0.55964804 4279111952
0.43327421 0.0035033971 0.55979216 4279439124
0.43347257 0.0040730834 0.55989027 4279242772
0.43359071 0.0046834424 0.56003439 4279177745
0.4337877 0.0052512363 0.56013238 4279046159
0.43398407 0.0058181956 0.56023043 4279177228
0.43417984 0.0063843206 0.56032842 4279177228
0.43437502 0.006949611 0.56042641 4279112205
0.43456954 0.0075140744 0.5605244 4279046412
0.43484402 0.0080374181 0.56057626 4279046412
0.43503749 0.0086004138 0.56067419 4278915343
0.4353112 0.0091227144 0.56072605 4278783759
0.4355036 0.0096842498 0.56082404 4279046159
0.43569535 0.010244936 0.56092197 4278915596
0.43596786 0.010765567 0.56097376 4278915596
0.43615854 0.011324808 0.56107169 4279308555
0.43634862 0.011883214 0.56116962 4279046159
0.4365381 0.012440778 0.5612675 4278783757
0.43672699 0.012997508 0.56136537 4279242768
0.43691522 0.013553403 0.56146324 4279242768
0.43718511 0.014070489 0.56151503 4279176975
0.43737227 0.014624923 0.5616129 4279176977
0.43755883 0.015178524 0.56171077 4279176975
0.4377448 0.01573129 0.56180859 4279308561
0.43793017 0.016283222 0.56190646 4279243538
0.43803185 0.016871244 0.56205034 4279177745
0.43821582 0.017421305 0.56214815 4279112205
0.43839917 0.01797051 0.56224597 4279242768
0.43849844 0.018555209 0.56238979 4279374354
0.43868041 0.019102544 0.56248754 4279243021
0.43877798 0.019684933 0.56263137 4279374607
0.43904248 0.020194709 0.56268311 4279243538
0.43930668 0.020704076 0.56273478 4278981136
0.4396548 0.021177746 0.56274045 4279046412
0.44008726 0.021616362 0.56270003 4279112205
0.44060463 0.022020549 0.56261361 4279112205
0.44103786 0.022460215 0.56257319 4279046163
0.44147143 0.022900298 0.56253278 4279242770
0.44182032 0.023375012 0.56253844 4279177226
0.44233948 0.023781702 0.56245208 4279308809
0.44277397 0.02422303 0.56241167 4279374602
0.44329423 0.024631187 0.56232524 4279373580
0.44372946 0.025073558 0.56228495 4278915347
0.44425079 0.025483184 0.56219852 4278915345
0.44451499 0.025992543 0.56225026 4278717966
0.44469279 0.026534237 0.56234795 4278717964
0.44512868 0.02697745 0.5623076 4278784010
0.44591033 0.027291715 0.56208318 4278784010
0.44467771 0.033108041 0.56443387 4278848010
0.4449327 0.033604875 0.56448543 4278979598
0.44518739 0.034101292 0.56453699 4278783761
0.44535354 0.034627125 0.5646345 4278914573
0.44569582 0.035092875 0.56464005 4279111430
0.44594955 0.035588026 0.56469154 4279308809
0.44620305 0.036082782 0.5647431 4279177226
0.44645619 0.036577098 0.5647946 4279308555
0.44670904 0.037071012 0.56484616 4279243016
0.44705069 0.037535921 0.56485164 4279111430
0.44730309 0.038029209 0.56490314 4279045894
0.44773406 0.038465738 0.56486273 4279045894
0.44807571 0.03893064 0.56486827 4279045894
0.44841737 0.039395548 0.56487381 4279243273
0.44893885 0.039805368 0.56478745 4279046412
0.44937086 0.040243369 0.56474704 4279112205
0.4498032 0.040681772 0.56470662 4279310867
0.45023584 0.0411206 0.56466621 4279704340
0.45075935 0.041533142 0.5645799 4280031257
0.45119274 0.04197301 0.56453949 4279834652
0.45171726 0.042387016 0.56445318 4280624168
0.45224243 0.042801842 0.56436688 4281216305
0.45276821 0.04321751 0.56428057 4281085220
0.45311201 0.043685339 0.56428611 4281940786
0.4536387 0.044102266 0.56419981 4283256646
0.45425761 0.044494782 0.5640676 4284637788
0.41715455 -0.037848741 0.55410445 4283781948
0.41739351 -0.037223384 0.55420268 4283321397
0.41783884 -0.036767513 0.55416274 4283123502
0.41814619 -0.036199197 0.55421489 4282532135
0.41852254 -0.035687119 0.55422097 4282334756
0.41896832 -0.035230637 0.55418104 4281612062
0.41941443 -0.034773707 0.55414104 4281151768
0.41993058 -0.034371555 0.55405509 4280953882
0.42044735 -0.033968568 0.55396903 4280690969
0.42110485 -0.03367427 0.55379093 4280559383
0.42176357 -0.033378288 0.55361289 4279769358
0.4224939 -0.033134982 0.55338877 4279439625
0.42315525 -0.032835454 0.55321074 4278914308
0.42381781 -0.032534257 0.5530327 4278848515
0.42441076 -0.032177687 0.55290073 4278717198
0.42500466 -0.03181985 0.55276877 4278651403
0.42552832 -0.031407475 0.55268288 4278652173
0.42598134 -0.030941173 0.55264306 4278783240
0.42636317 -0.03042157 0.55264926 4278717447
0.42667347 -0.029849291 0.55270147 4278848780
0.42691168 -0.029224977 0.5527997 4278848782
0.42714927 -0.028601497 0.55289793 4278717966
0.42731422 -0.027926803 0.55304217 4278783757
0.42740601 -0.027201533 0.55323243 4278981136
0.42756897 -0.026529551 0.55337662 4278914826
0.42773098 -0.025858834 0.5535208 4279045642
0.42789209 -0.025189355 0.55366504 4279111430
0.42797941 -0.024470136 0.55385518 4279045642
0.42813855 -0.023803376 0.55399936 4279045642
0.42829669 -0.02313786 0.55414349 4279045389
0.4283807 -0.022423245 0.55433357 4279176975
0.42846346 -0.021710284 0.55452371 4278848780
0.42861855 -0.021048956 0.55466777 4278652684
0.4209691 -0.0051920041 0.56280214 4283847743
0.42131767 -0.0047177076 0.56280774 4283846971
0.42174244 -0.0042898059 0.56276745 4283453496
0.42209116 -0.0038152933 0.56277311 4283190324
0.42251641 -0.0033867732 0.56273282 4282927922
0.42294192 -0.0029578432 0.56269252 4282401837
0.4235214 -0.002619639 0.56256032 4282204460
0.42410177 -0.0022801757 0.56242818 4281677862
0.42483732 -0.0020297691 0.56220412 4281151518
0.42565167 -0.0018222257 0.56193423 4279506445
0.42685497 -0.0018358678 0.56143463 4279177480
0.42790651 -0.0017558485 0.56102693 4278914308
0.4292717 -0.0018493608 0.56043559 4278782468
0.43025148 -0.0017168969 0.56007397 4278717447
0.43084353 -0.0013615638 0.55994201 4278717194
0.43135831 -0.00096128881 0.55985594 4278782987
0.43187371 -0.00056017935 0.55976993 4279177228
0.43231124 -0.00011496246 0.55972981 4279111178
0.43259174 0.00041681528 0.55978155 4279046412
0.43287191 0.00094816834 0.55983329 4279176977
0.43307284 0.0015217587 0.55993092 4279176977
0.43335229 0.0020520687 0.55998266 4279176975
0.43363142 0.0025819689 0.56003439 4279176975
0.4337514 0.0031954795 0.56017786 4279242261
0.43387043 0.0038077533 0.56032139 4279045909
0.43414801 0.0043355674 0.56037307 4279045909
0.43434542 0.0049043596 0.56047064 4279046159
0.43454224 0.0054723024 0.56056821 4279046159
0.4347384 0.0060394257 0.56066579 4279046159
0.43493396 0.0066057071 0.56076336 4279046412
0.43512893 0.007171154 0.56086087 4279046159
0.4353233 0.007735759 0.56095839 4278914573
0.43559778 0.0082594007 0.56101006 4278915343
0.43579105 0.0088225454 0.56110758 4278783759
0.4361459 0.0093054101 0.5611133 4278979847
0.43633825 0.0098673105 0.56121081 4279111430
0.43661141 0.01038906 0.56126243 4279045637
0.43680266 0.010949492 0.56135988 4279243273
0.4369933 0.011509091 0.5614574 4279046161
0.43718338 0.012067854 0.56155485 4278915343
0.4373728 0.012625791 0.5616523 4279242768
0.4375616 0.013182893 0.56174976 4279176975
0.43783212 0.013701096 0.56180131 4279046161
0.43801987 0.014256731 0.56189871 4279046159
0.438207 0.014811531 0.56199616 4279112205
0.43839353 0.015365496 0.56209356 4279243021
0.43857941 0.015918627 0.56219095 4279308814
0.43901402 0.016359873 0.56215078 4279177998
0.43911588 0.016948774 0.56229401 4279243273
0.43958342 0.018635571 0.56263191 4279374348
0.43976581 0.019183896 0.56272924 4279440141
0.43961146 0.019874439 0.56300992 4279374350
0.44021285 0.02024249 0.56287807 4279177996
0.44022489 0.020859219 0.56306702 4279047434
0.44074258 0.021263458 0.56298107 4279177747
0.44117624 0.021703459 0.5629409 4279177747
0.44169503 0.022109151 0.56285489 4279177747
0.44212943 0.022550195 0.56281477 4279309066
0.44256419 0.022991657 0.5627746 4279112457
0.44299924 0.023433544 0.56273448 4279373832
0.4434346 0.023875847 0.56269437 4279242246
0.44395578 0.024284884 0.56260842 4279241479
0.44439194 0.024728231 0.56256831 4278849033
0.44482836 0.025171988 0.56252819 4278586631
0.44526511 0.025616169 0.56248808 4278586631
0.44570214 0.02606076 0.56244797 4278586631
0.44613951 0.026505768 0.56240785 4278652424
0.44666362 0.026918776 0.56232196 4278586631
0.44718838 0.027332619 0.56223607 4278521351
0.44745338 0.027843311 0.56228757 4278455558
0.44481915 0.032964088 0.56498194 4278914056
0.4450739 0.033460796 0.56503326 4278783240
0.44541651 0.033926949 0.5650388 4278718479
0.44558245 0.034452938 0.5651359 4278783757
0.44583625 0.034948386 0.56518716 4279373578
0.44617838 0.035413921 0.5651927 4279439371
0.44634295 0.035938032 0.56528974 4279243273
0.44659585 0.036432229 0.56534106 4279373830
0.44684845 0.036926009 0.56539237 4279243016
0.44718993 0.037390709 0.56539786 4279111430
0.44744205 0.037883863 0.56544918 4279308809
0.44778341 0.038348347 0.56545472 4279243016
0.44812477 0.038812842 0.56546021 4279243016
0.44846612 0.03927733 0.56546575 4279308809
0.44889751 0.039714195 0.56542557 4279177478
0.4493292 0.040151484 0.56538534 4279374857
0.44976115 0.040589187 0.56534517 4279506961
0.45010298 0.041054301 0.56535071 4280427290
0.45071667 0.041439064 0.5652191 4280820761
0.45105892 0.041904815 0.56522465 4282269242
0.45140123 0.042370558 0.56523019 4282269242
0.45192569 0.042783979 0.5651443 4283254852
0.45245069 0.043198239 0.56505841 4283914569
0.452885 0.043639075 0.5650183 4287534479
0.4534111 0.044054806 0.56493247 4288849318
0.41733763 -0.037983701 0.55470198 4283716409
0.41757625 -0.037358403 0.5547998 4283649592
0.41795242 -0.036846519 0.55480587 4283320368
0.41832861 -0.036334649 0.55481201 4282662951
0.41870481 -0.035822764 0.55481809 4282531365
0.41908097 -0.035310894 0.55482417 4281874464
0.4194572 -0.03479901 0.55483031 4281283356
0.41997308 -0.034397647 0.55474472 4281085725
0.42055959 -0.03405048 0.55461335 4280690969
0.42114705 -0.033702061 0.55448198 4280625176
0.42180574 -0.033407032 0.55430472 4279966996
0.4225361 -0.03316474 0.55408174 4279637002
0.42319739 -0.03286615 0.55390459 4278914308
0.42385989 -0.032565892 0.55372751 4278848515
0.42459458 -0.032317758 0.55350453 4278717198
0.42518863 -0.031960353 0.55337328 4278651403
0.42571235 -0.031548336 0.5532878 4278782991
0.42623669 -0.031135514 0.55320239 4278783240
0.42661855 -0.030615911 0.55320859 4278717447
0.4269287 -0.030043542 0.55326056 4278849033
0.42723858 -0.029471606 0.55331254 4278717966
0.42740411 -0.028795436 0.55345613 4278717966
0.42764091 -0.028172627 0.55355394 4278783757
0.42780477 -0.027498752 0.55369747 4278981136
0.4279677 -0.026826113 0.55384099 4278914826
0.42812973 -0.026154742 0.55398452 4279045385
0.42829081 -0.025484622 0.55412805 4279111176
0.428451 -0.024815753 0.55427158 4279045391
0.42853719 -0.024097264 0.55446082 4279176977
0.42170304 -0.0049884766 0.56322688 4283781178
0.42212823 -0.0045602471 0.56318682 4283453498
0.42247728 -0.0040853173 0.56319249 4283190326
0.42290291 -0.0036564618 0.56315237 4282730804
0.42340559 -0.003273055 0.5630666 4282401839
0.42406276 -0.0029800907 0.5628894 4282138667
0.42464405 -0.0026400313 0.56275791 4281546276
0.42545795 -0.0024344176 0.56248927 4281151518
0.4265058 -0.0023613647 0.5620836 4279309064
0.42747888 -0.0022397488 0.56172359 4279111430
0.42892051 -0.0023824349 0.56108946 4278979844
0.42974377 -0.0021640882 0.560821 4278782722
0.43064684 -0.00198742 0.56050682 4278783240
0.43131763 -0.0016758889 0.56032985 4278782987
0.43183309 -0.001275152 0.56024426 4278782987
0.43227068 -0.00083000958 0.56020439 4279242764
0.43270856 -0.00038444996 0.56016451 4279111178
0.4329893 0.00014781952 0.56021601 4278914826
0.4333486 0.00063673407 0.56022185 4279176975
0.43362886 0.0011683702 0.56027335 4279176975
0.43382961 0.0017421246 0.56037056 4279045642
0.4340297 0.002315037 0.56046772 4279176975
0.4342292 0.0028871149 0.56056488 4279176725
0.43450776 0.0034164563 0.56061637 4279176725
0.43470621 0.0039870664 0.56071353 4279176725
0.43490401 0.0045568421 0.56081069 4278914575
0.43510121 0.0051257908 0.56090784 4279046161
0.43529779 0.0056938976 0.56100494 4279046159
0.43549377 0.0062611699 0.56110203 4279046412
0.43576974 0.0067869648 0.56115347 4279112205
0.43604538 0.0073123425 0.56120491 4278914575
0.43623981 0.0078775287 0.56130201 4279046161
0.43651468 0.0084018707 0.56135345 4278914573
0.43678927 0.0089257881 0.56140482 4279111430
0.43706352 0.0094492882 0.56145626 4279111430
0.43733752 0.0099723637 0.56150764 4279111430
0.43752947 0.010534212 0.56160474 4279177480
0.43772084 0.011095226 0.56170177 4279176975
0.4379116 0.011655405 0.56179875 4279046412
0.43818387 0.012176186 0.56185019 4279242768
0.43837357 0.012734905 0.56194717 4279176975
0.4384802 0.013330914 0.5620898 4279046163
0.4387511 0.013849825 0.56214118 4279046159
0.43885618 0.014443755 0.56228375 4279112205
0.43912613 0.014961414 0.56233513 4279046412
0.43931276 0.015515946 0.56243205 4279112205
0.43949878 0.016069651 0.56252903 4279177996
0.43985087 0.016548753 0.56253469 4279309066
0.44156808 0.020839341 0.56317312 4279243542
0.44208765 0.021245725 0.56308758 4279177749
0.44243807 0.021722525 0.5630933 4279308565
0.44278848 0.022199333 0.56309897 4279374602
0.44322407 0.022641763 0.56305909 4279177478
0.44366002 0.023084611 0.56301916 4279045892
0.44409627 0.023527876 0.56297928 4279176451
0.44453275 0.023971558 0.56293941 4279175686
0.44496959 0.024415657 0.56289947 4278782987
0.44549271 0.024826832 0.56281406 4278586378
0.4458442 0.0253051 0.56281972 4278586378
0.44628197 0.025750451 0.56277984 4278586631
0.44663361 0.026228927 0.56278557 4278652171
0.4471584 0.026642412 0.56270015 4278520838
0.44768381 0.027056724 0.56261468 4278521351
0.44803607 0.027536035 0.5626204 4278455558
0.44546902 0.033813015 0.56563169 4278784010
0.44581133 0.03427875 0.56563723 4278914826
0.44606501 0.034774274 0.56568831 4279439373
0.44631845 0.03526938 0.56573939 4279439373
0.44657153 0.035764083 0.56579047 4279308809
0.44682431 0.036258355 0.56584156 4279569924
0.44698763 0.036781162 0.56593812 4279373832
0.44723964 0.03727439 0.56598914 4279177480
0.44749135 0.037767217 0.56604022 4279308812
0.44783241 0.038231283 0.56604576 4279177226
0.44817346 0.03869535 0.56605124 4279308809
0.44851452 0.039159425 0.56605679 4279243271
0.44885558 0.039623495 0.56606233 4278915078
0.44919664 0.04008757 0.56606781 4279309582
0.44962808 0.04052436 0.56602788 4279506961
0.44996929 0.040988643 0.56603342 4280886556
0.45040125 0.041426059 0.56599343 4282399793
0.45083347 0.041863892 0.56595349 4285032554
0.45126602 0.042302139 0.5659135 4286348414
0.45169884 0.042740814 0.56587356 4287006338
0.45222336 0.043153878 0.56578815 4288321678
0.4175894 -0.038175315 0.55525351 4283913018
0.41782779 -0.037549838 0.55535084 4283978557
0.41813481 -0.036981583 0.55540258 4283583288
0.41858017 -0.036526084 0.55536306 4283122739
0.41888687 -0.035958245 0.55541474 4282925360
0.41926289 -0.035446569 0.55542088 4282465322
0.41963893 -0.034934908 0.55542696 4281809193
0.4201549 -0.034533903 0.55534184 4281218083
0.42067146 -0.034132063 0.55525672 4280757532
0.4212589 -0.033784285 0.55512601 4280560153
0.42191768 -0.033490002 0.5549497 4280099348
0.42257768 -0.033194005 0.55477345 4280032528
0.42330968 -0.032950655 0.55455154 4279177480
0.42397228 -0.032651126 0.55437529 4278914308
0.42470717 -0.032403797 0.5541535 4278586382
0.42530119 -0.032047078 0.55402291 4278586382
0.42589617 -0.031689078 0.55389231 4278651921
0.42642057 -0.031276584 0.55380732 4278586378
0.42680228 -0.030757189 0.55381352 4278586378
0.42718399 -0.030237794 0.55381972 4278652173
0.42749375 -0.029665783 0.55387145 4278717966
0.4277311 -0.029041782 0.55396879 4278652173
0.42789555 -0.028366417 0.55411172 4278717964
0.4280591 -0.027692303 0.55425459 4278783757
0.4282943 -0.027071223 0.55435187 4278784010
0.42845616 -0.026399404 0.55449474 4279045385
0.42868999 -0.025780201 0.55459201 4279176975
0.42885014 -0.025110677 0.55473483 4278914577
0.42900941 -0.024442405 0.55487764 4278848784
0.42139047 -0.0062098429 0.56363559 4283913284
0.42166358 -0.0056877285 0.56368673 4283650879
0.42208886 -0.0052595735 0.56364691 4283518778
0.42243806 -0.004784435 0.56365258 4283256119
0.42286378 -0.0043556616 0.5636127 4283190326
0.42336655 -0.0039726049 0.56352735 4282861361
0.42386991 -0.0035887137 0.56344205 4282663984
0.42460495 -0.0033411831 0.56322026 4282204203
0.42526433 -0.0030460432 0.56304395 4281809445
0.42615694 -0.0028851628 0.56273121 4281018905
0.4281038 -0.0026444197 0.56201488 4278980099
0.42946985 -0.0027424619 0.56142932 4278980099
0.4304502 -0.0026127025 0.56107128 4278913803
0.43104255 -0.0022582635 0.56094062 4278782989
0.43171412 -0.0019466355 0.56076455 4278914573
0.43223003 -0.0015456229 0.56067944 4278848780
0.43274659 -0.0011437833 0.56059432 4279242762
0.43310636 -0.00065424293 0.5606001 4279045642
0.43346614 -0.00016470253 0.56060594 4278914824
0.4337469 0.00036785007 0.56065726 4279045642
0.43402734 0.00089998543 0.56070852 4279045642
0.43430752 0.0014317036 0.56075978 4279045642
0.43458736 0.0019630045 0.5608111 4279045642
0.43486691 0.002493903 0.56086236 4279176725
0.43506634 0.0030663386 0.5609591 4279242772
