# .PCD v0.7 - Point Cloud Data file format
VERSION 0.7
FIELDS x y z rgb
SIZE 4 4 4 4
TYPE F F F U
COUNT 1 1 1 1
WIDTH 1060
HEIGHT 1
VIEWPOINT 0 0 0 1 0 0 0
POINTS 1060
DATA ascii
0.43104571 0.06964802 0.48999995 4279242770
0.43132505 0.070032708 0.49000046 4279440149
0.43170363 0.0703988 0.49004304 4279308565
0.43208247 0.070765316 0.4900856 4279308565
0.43246168 0.071132258 0.49012822 4279308565
0.43284115 0.071499616 0.49017078 4279308565
0.43332076 0.071849644 0.49025545 4279308565
0.43390092 0.072182968 0.49038219 4279308565
0.4343819 0.072534882 0.49046689 4279308565
0.43486348 0.072887644 0.49055156 4279308565
0.43544608 0.073224321 0.49067831 4279308565
0.41490802 -0.054765843 0.51827765 4278850835
0.41488993 -0.053860895 0.5180248 4278850835
0.41487002 -0.052958436 0.51777196 4278785042
0.41491494 -0.052121691 0.51756138 4278916628
0.41502517 -0.05134996 0.51739299 4278850063
0.4150672 -0.050517179 0.51718241 4278719249
0.41510773 -0.049686484 0.51697183 4278718477
0.41514671 -0.04885789 0.51676118 4278783759
0.41525161 -0.04809352 0.51659286 4278783759
0.41535532 -0.047330819 0.51642448 4278850067
0.41552553 -0.046631478 0.51629835 4278850067
0.41555905 -0.045810439 0.51608777 4278718479
0.41565907 -0.045052759 0.51591939 4278914573
0.41582608 -0.044357844 0.51579326 4278719251
0.4158555 -0.043542452 0.51558262 4278785044
0.41615739 -0.042971753 0.51554102 4278719251
0.41033638 -0.029910378 0.5098002 4282928181
0.41075608 -0.029487394 0.50984311 4282730804
0.41110578 -0.029005863 0.50984371 4282730550
0.41145545 -0.028524317 0.5098443 4282401585
0.41194642 -0.02815821 0.50992948 4282138413
0.41236719 -0.027733751 0.50997233 4281809450
0.41285923 -0.027366169 0.51005751 4281282852
0.41328079 -0.026940681 0.51010036 4279966737
0.41377386 -0.026571624 0.51018554 4278848263
0.41419619 -0.026145078 0.5102284 4278848263
0.41454723 -0.025661655 0.51022905 4278652424
0.41489828 -0.025178231 0.51022965 4278586378
0.41517752 -0.024638765 0.51018798 4278520585
0.41545641 -0.02409973 0.51014638 4278586891
0.4155907 -0.023449875 0.5100202 4278652684
0.4158687 -0.022912093 0.50997853 4278586380
0.41592899 -0.02220913 0.50981009 4278652173
0.41613328 -0.021617822 0.50972617 4278717968
0.41619146 -0.02091781 0.50955772 4278652688
0.41632134 -0.020274036 0.5094316 4278652688
0.41637725 -0.019577153 0.50926316 4278522385
0.4164319 -0.018881954 0.50909472 4278522385
0.41648537 -0.018188432 0.50892621 4278718481
0.41661114 -0.017550327 0.50880003 4278652688
0.41666228 -0.016859949 0.50863159 4278652688
0.41671222 -0.016171239 0.50846314 4278652688
0.41676098 -0.015484221 0.5082947 4278652175
0.41673434 -0.014745981 0.50808394 4278652175
0.4167805 -0.014062524 0.5079155 4278652175
0.41689986 -0.013433211 0.50778925 4278783757
0.41694373 -0.012752898 0.50762081 4278718730
0.41698635 -0.012074262 0.50745237 4278850316
0.4170278 -0.01139731 0.50728387 4278521618
0.41699296 -0.010670386 0.50707316 4278521618
0.41703179 -0.0099969953 0.50690466 4278652688
0.41706941 -0.0093252659 0.50673616 4278652686
0.41710579 -0.0086552277 0.50656772 4278718477
0.41721666 -0.0080376565 0.50644147 4278586891
0.41725075 -0.0073707551 0.50627303 4278586891
0.41735965 -0.0067559108 0.50614679 4278586891
0.41739148 -0.0060921609 0.50597829 4278586893
0.41757461 -0.0055299923 0.50589436 4278718217
0.41783357 -0.0050184131 0.5058527 4278652424
0.41801566 -0.0044577196 0.50576872 4278914824
0.41269642 0.0054202229 0.50108218 4283321914
0.41301447 0.0058581531 0.50108278 4283190328
0.41333249 0.0062960833 0.50108331 4282993719
0.41372907 0.0066872016 0.50112617 4282730802
0.41420466 0.0070321411 0.50121129 4282599216
0.41460201 0.0074243098 0.50125408 4282006050
0.41515768 0.007724531 0.50138152 4281675300
0.41563505 0.0080719963 0.50146663 4279636752
0.41619241 0.0083745196 0.50159401 4278651401
0.41667119 0.0087238625 0.50167912 4278454022
0.41715059 0.0090740323 0.50176424 4278520585
0.4175508 0.0094701946 0.50180709 4278586378
0.41795135 0.0098667666 0.50184995 4278520838
0.41819203 0.010353193 0.50180823 4278586631
0.41843241 0.010839187 0.5017665 4278717447
0.41859213 0.011369072 0.50168252 4278914056
0.41867071 0.0119422 0.50155628 4278914826
0.41874835 0.01251407 0.50142998 4278651654
0.41882509 0.013084672 0.50130373 4278717445
0.41890091 0.013654031 0.50117743 4278717445
0.41905695 0.01417888 0.50109345 4278717445
0.41913113 0.014745928 0.50096714 4278651401
0.41920435 0.015311718 0.5008409 4278520585
0.41927668 0.015876256 0.5007146 4278586378
0.41934812 0.01643952 0.5005883 4278586378
0.4194186 0.017001547 0.50046206 4278586378
0.41957024 0.017520316 0.50037801 4278652171
0.41963905 0.018080018 0.50025177 4278586378
0.41962463 0.018680044 0.50008321 4278784010
0.41977397 0.019195668 0.49999917 4278718728
0.41984004 0.019751601 0.49987289 4278521349
0.41990525 0.020306289 0.49974659 4278521351
0.4199695 0.020859711 0.49962029 4278586891
0.42003283 0.021411866 0.49949402 4278848780
0.42009526 0.021962777 0.49936771 4278717194
0.42015678 0.022512421 0.49924141 4278520585
0.42021739 0.023060814 0.49911511 4278520585
0.42027706 0.023607947 0.49898881 4278782987
0.42041969 0.024114348 0.49890476 4278914056
0.42047775 0.024659172 0.49877846 4278717196
0.42053485 0.025202744 0.49865216 4278782987
0.42067537 0.025706202 0.49856815 4278718217
0.42073077 0.026247464 0.49844182 4278718217
0.42086995 0.026749037 0.4983578 4278652424
0.42092368 0.027287997 0.49823147 4278455558
0.42106146 0.027787693 0.49814746 4278520838
0.42111355 0.028324343 0.49802113 4278652424
0.42116472 0.028859742 0.49789482 4278586631
0.42130035 0.029356487 0.49781078 4278520585
0.42143542 0.029852413 0.49772674 4278586378
0.42156985 0.030347489 0.49764273 4278651401
0.42161781 0.030878484 0.49751639 4278586891
0.42175087 0.031371675 0.49743235 4278455305
0.42188334 0.031864025 0.49734831 4278521098
0.42201519 0.03235554 0.49726427 4278455558
0.42214644 0.03284622 0.49718022 4278586631
0.42219043 0.033371761 0.49705392 4278652676
0.42232031 0.033860549 0.49696988 4278718469
0.42236263 0.034383781 0.49684355 4278718217
0.42249113 0.034870692 0.49675947 4278718217
0.42261901 0.035356753 0.49667543 4278652424
0.42265892 0.035876632 0.49654913 4278652171
0.4226979 0.036395252 0.49642277 4278586631
0.42273599 0.03691262 0.49629641 4278717445
0.42277312 0.037428729 0.4961701 4278585859
0.42289737 0.037909754 0.49608603 4278783238
0.42293286 0.038423561 0.4959597 4278848261
0.42296743 0.038936101 0.49583334 4278849031
0.42300108 0.03944739 0.49570698 4278849033
0.42312241 0.039924435 0.49562293 4278717194
0.42306566 0.040466182 0.49545428 4278717194
0.42318547 0.040941127 0.49537024 4278848782
0.42321563 0.041447595 0.49524388 4278849033
0.42333406 0.041920669 0.4951598 4278915596
0.42345193 0.042392891 0.49507576 4278652676
0.42347965 0.042895999 0.4949494 4278521090
0.42359611 0.043366339 0.49486533 4278586883
0.42362216 0.043867141 0.49473897 4278652175
0.42373726 0.0443356 0.49465489 4278979600
0.42385173 0.044803217 0.49457082 4279045134
0.42396563 0.045269992 0.49448675 4278979341
0.42398849 0.045766395 0.49436039 4278782989
0.424101 0.046231285 0.49427631 4278782989
0.42412215 0.046725381 0.49414992 4278717964
0.42423332 0.047188386 0.49406585 4278979590
0.42434385 0.047650557 0.49398178 4278914054
0.42445377 0.048111878 0.49389771 4278848010
0.42456308 0.048572373 0.49381363 4278848010
0.42467177 0.049032021 0.49372953 4278979596
0.42477989 0.049490832 0.49364546 4278848263
0.42479557 0.049977377 0.49351907 4278521098
0.42499426 0.050405946 0.49347728 4278390284
0.42500842 0.050890394 0.49335092 4278521100
0.42511392 0.051345639 0.49326682 4278586893
0.42521885 0.05180005 0.49318275 4278783757
0.42523056 0.052281145 0.49305636 4279044613
0.4253341 0.052733675 0.49297225 4278914049
0.42534417 0.05321246 0.49284586 4278914304
0.42544633 0.053663101 0.49276179 4278783240
0.42545471 0.054139592 0.49263537 4278783240
0.4255555 0.054588333 0.4925513 4278652175
0.4255622 0.05506251 0.49242491 4278782739
0.42566162 0.055509374 0.4923408 4278717198
0.42576045 0.055955399 0.4922567 4279045389
0.42576474 0.056426227 0.49213031 4278783240
0.42586213 0.056870356 0.49204621 4278849033
0.42595899 0.057313658 0.49196211 4278914575
0.42605519 0.057756118 0.491878 4278717198
0.4261508 0.05819774 0.49179387 4278848263
0.42634052 0.058613937 0.49175209 4278980101
0.42634022 0.05907847 0.4916257 4278914308
0.42652899 0.059493404 0.49158388 4279176453
0.42662233 0.059931882 0.49149978 4279044613
0.42671508 0.060369514 0.49141568 4279044615
0.42690262 0.060782775 0.49137387 4279241741
0.42699426 0.061218955 0.49128973 4279308306
0.42708534 0.061654281 0.49120563 4279242513
0.42717576 0.062088776 0.49112153 4279110925
0.42726558 0.062522434 0.49103743 4278979847
0.42735481 0.062955245 0.4909533 4279110406
0.42753977 0.063364945 0.49091148 4279045383
0.42753142 0.063818373 0.49078506 4278914056
0.42771548 0.064226806 0.49074325 4279045642
0.42780244 0.064656481 0.49065915 4279111954
0.42788875 0.065085307 0.49057502 4278980636
0.42807159 0.065492079 0.4905332 4278915347
0.42815685 0.065919437 0.49044907 4278783759
0.42833894 0.066325158 0.49040726 4278915345
0.42852071 0.06673044 0.49036545 4279176977
0.42870218 0.067135312 0.49032363 4278850063
0.42888337 0.067539766 0.49028182 4278981387
0.42906421 0.067943804 0.49024001 4278915846
0.42934296 0.06832765 0.49024051 4278915846
0.42952335 0.068731055 0.49019867 4279373830
0.42980194 0.069114685 0.49019918 4279439625
0.43008053 0.069498315 0.49019969 4279439623
0.43045795 0.069863036 0.49024248 4279177996
0.43083566 0.070228159 0.49028528 4279243789
0.43121365 0.0705937 0.49032807 4279046931
0.43159196 0.070959672 0.49037087 4279046931
0.43197057 0.071326062 0.4904137 4279046931
0.43244904 0.07167498 0.49049881 4279046931
0.43292814 0.072024733 0.49058393 4279046931
0.43340784 0.072375342 0.49066907 4279046931
0.43398815 0.072709523 0.49079648 4279046931
0.43436906 0.073079057 0.4908393 4279046931
0.41477823 -0.054703735 0.51892292 4278981902
0.41482735 -0.053862311 0.51871121 4278916626
0.41487491 -0.053022988 0.51849949 4278785040
0.41485441 -0.052122675 0.51824528 4278916626
0.41496551 -0.051350616 0.51807606 4278850063
0.41500854 -0.050517596 0.51786435 4278719249
0.41505003 -0.049686663 0.51765257 4278587661
0.4151572 -0.048920073 0.51748335 4278783759
0.41526312 -0.048155151 0.51731408 4278783759
0.41543534 -0.047453754 0.5171873 4278915860
0.41540372 -0.046568744 0.51693308 4278785044
0.41557366 -0.045870475 0.5168063 4278587663
0.41567472 -0.045112275 0.51663703 4278915343
0.41584265 -0.044416733 0.51651025 4278719251
0.41600966 -0.043722458 0.51638347 4278719251
0.40981567 -0.030276097 0.51035726 4282993969
0.41016537 -0.029794566 0.51035792 4282928433
0.4106552 -0.029429547 0.51044351 4282862388
0.41093498 -0.028889544 0.51040161 4282533941
0.4113552 -0.028465636 0.51044476 4282269999
0.41184622 -0.028098963 0.51053035 4282138413
0.41226721 -0.027674012 0.51057345 4281743655
0.41275936 -0.027305864 0.51065904 4281151263
0.41325206 -0.026936881 0.51074463 4279703565
0.4137454 -0.026567034 0.51083022 4278979842
0.41409677 -0.026083194 0.51083082 4278717447
0.41444814 -0.025599353 0.51083148 4278652424
0.41479951 -0.025115512 0.51083207 4278652171
0.41515088 -0.024631657 0.51083267 4278520585
0.41543037 -0.024092071 0.51079082 4278652171
0.4155654 -0.023441814 0.51066399 4278717964
0.41569954 -0.022792824 0.51053715 4278652171
0.41590512 -0.02220019 0.51045275 4278717966
0.41596511 -0.021498598 0.51028347 4278848784
0.41602385 -0.020798661 0.51011407 4278717968
0.41622698 -0.020209409 0.51002973 4278652175
0.41621065 -0.01945813 0.5098179 4278521872
0.4162659 -0.018763028 0.50964856 4278653971
0.41631991 -0.018069595 0.50947922 4278718997
0.41644615 -0.017431498 0.50935233 4278521872
0.4164243 -0.016687773 0.50914049 4278718481
0.41647464 -0.015999369 0.50897115 4278718481
0.41652381 -0.015312657 0.50880182 4278586895
0.41657174 -0.014627606 0.50863242 4278586895
0.41661847 -0.013944253 0.50846308 4278652173
0.41666397 -0.013262562 0.50829375 4278718217
0.41670823 -0.012582548 0.50812435 4278652937
0.41675133 -0.011904217 0.50795496 4278718730
0.41679317 -0.011227563 0.50778562 4278586895
0.41675884 -0.01050102 0.50757372 4278718481
0.41679811 -0.0098279342 0.50740439 4278718481
0.41683614 -0.0091565102 0.50723499 4278718477
0.41687298 -0.0084867775 0.50706565 4278718730
0.41698411 -0.0078694373 0.50693876 4278587144
0.41709435 -0.0072533488 0.50681186 4278652424
0.41712785 -0.0065882206 0.50664246 4278652171
0.41723609 -0.005974859 0.50651556 4278652173
0.41741961 -0.0054126382 0.50643116 4278783240
0.41760251 -0.0048512518 0.50634676 4278783240
0.41778481 -0.0042907149 0.50626236 4278980101
0.41255522 0.0055314302 0.50159347 4283387453
0.41279525 0.0060167387 0.50155151 4283190328
0.41326988 0.0063607767 0.5016371 4283124535
0.41358823 0.0067991242 0.50163764 4282730545
0.41406375 0.0071444213 0.50172317 4282664752
0.41453987 0.0074905679 0.50180876 4281940259
0.41509551 0.0077914372 0.50193679 4281675554
0.41557303 0.0081394613 0.50202239 4279440143
0.41605115 0.0084883198 0.50210798 4278651401
0.41652989 0.0088380277 0.50219351 4278388229
0.4170092 0.0091885701 0.5022791 4278651401
0.41740948 0.0095850155 0.5023222 4278586631
0.41773024 0.010026716 0.50232273 4278520838
0.41797104 0.01051306 0.50228083 4278520838
0.41821155 0.010998979 0.50223887 4278520838
0.41829118 0.011572935 0.50211191 4278783240
0.41845036 0.012101613 0.50202751 4278914826
0.41852832 0.012673259 0.50190055 4278651403
0.41860539 0.013243638 0.5017736 4278586631
0.4186815 0.013812765 0.50164664 4278652424
0.41883776 0.014337465 0.50156218 4278783240
0.41891223 0.014904283 0.50143528 4278717194
0.41890445 0.015512593 0.50126576 4278520585
0.41897693 0.016076691 0.50113881 4278520585
0.41913015 0.016597196 0.50105441 4278586378
0.41920096 0.017158985 0.50092745 4278520585
0.41927087 0.017719515 0.50080049 4278652171
0.41933984 0.018278785 0.50067353 4278586378
0.41940793 0.018836804 0.50054657 4278784008
0.41947508 0.019393563 0.50041962 4278718982
0.41954136 0.019949056 0.50029266 4278521603
0.41960669 0.020503305 0.50016564 4278521349
0.41967109 0.021056287 0.50003868 4278587142
0.4197346 0.02160801 0.49991173 4278849031
0.41979718 0.022158481 0.49978474 4278849031
0.41985887 0.022707693 0.49965775 4278520838
0.41991964 0.023255639 0.49953079 4278455045
0.41997948 0.02380234 0.49940383 4278717447
0.4200384 0.024347775 0.49927685 4278914056
0.42018038 0.02485276 0.49919236 4278651401
0.42023766 0.0253959 0.4990654 4278782987
0.42037821 0.025899 0.49898091 4278652424
0.42043382 0.026439823 0.49885392 4278718217
0.42057303 0.026941039 0.49876946 4278783238
0.42062694 0.027479559 0.49864247 4278586629
0.42067993 0.028016813 0.49851549 4278586631
0.42081702 0.0285151 0.49843103 4278586378
0.42086834 0.02905006 0.49830401 4278652171
0.42100406 0.029546462 0.49821952 4278586378
0.42113918 0.030042008 0.49813506 4278520585
0.42127365 0.030536734 0.49805057 4278651401
0.42132178 0.031067282 0.49792355 4278521098
0.42145491 0.031560116 0.49783909 4278455307
0.42158741 0.032052107 0.4977546 4278521100
0.42163312 0.03257931 0.49762759 4278521351
0.42185062 0.03303358 0.49758562 4278586631
0.42189479 0.033558682 0.49745861 4278652422
0.42193806 0.034082524 0.49733162 4278652676
0.42206722 0.034569904 0.4972471 4278718217
0.4221088 0.035091445 0.49712008 4278718217
0.42223659 0.035576932 0.49703562 4278652424
0.4222765 0.036096163 0.49690861 4278717194
0.42231548 0.036614142 0.49678159 4278782987
0.42244115 0.037096702 0.49669707 4278848263
0.4224785 0.037612371 0.49657008 4278717445
0.42251489 0.038126782 0.49644303 4278783238
0.42255038 0.03863994 0.49631602 4278848261
0.42258495 0.039151825 0.496189 4278980099
0.42261863 0.039662465 0.49606198 4278783238
0.42265135 0.040171847 0.49593496 4278848263
0.42277187 0.040647276 0.49585044 4278848263
0.42280295 0.041154347 0.49572343 4278979596
0.42292207 0.041627899 0.49563891 4278914826
0.42295146 0.042132664 0.49551189 4279111952
0.42306924 0.042604316 0.49542737 4278652676
0.42309695 0.043106779 0.49530035 4278520836
0.4232133 0.043576557 0.49521583 4278586629
0.42323938 0.044076707 0.49508879 4278586378
0.42344424 0.044513576 0.49504679 4278913805
0.42346877 0.045011632 0.49491975 4278979341
0.42358255 0.045477845 0.49483523 4278979341
0.42360544 0.045973599 0.49470818 4278782989
0.42371786 0.046437919 0.49462366 4278782989
0.42382964 0.046901405 0.49453914 4278717964
0.42385009 0.047393799 0.49441209 4279045385
0.42396051 0.047855396 0.49432757 4278914054
0.42397925 0.048345488 0.49420053 4278848263
0.42417955 0.048776075 0.49415851 4278913799
0.42419678 0.04926407 0.49403146 4279045385
0.42430463 0.049722098 0.49394694 4278848263
0.42450356 0.050150797 0.49390492 4278586891
0.42451853 0.050635651 0.49377787 4278455305
0.42462453 0.051091164 0.49369332 4278586378
0.42472994 0.051545836 0.4936088 4278652171
0.42474246 0.052027341 0.49348173 4278848780
0.4248465 0.052480135 0.49339721 4279044613
0.42494994 0.052932076 0.49331266 4278914049
0.42496002 0.053410225 0.49318558 4278848513
0.42496917 0.053887114 0.49305853 4278783240
0.42507046 0.054336131 0.49297398 4278783240
0.42517117 0.054784305 0.49288943 4278586893
0.42527127 0.055231649 0.49280491 4278586128
0.4252772 0.055704132 0.49267781 4278717198
0.42537594 0.05614958 0.49259329 4278914573
0.42547405 0.056594193 0.49250874 4278717447
0.42547756 0.057063326 0.49238166 4278849033
0.4255743 0.057506055 0.49229711 4278981136
0.42567042 0.057947941 0.49221253 4278586380
0.42576593 0.058388993 0.49212801 4278848010
0.42586085 0.058829207 0.49204344 4278979590
0.42604989 0.059244268 0.49200141 4278979590
0.42614374 0.059683017 0.49191687 4279110408
0.42623699 0.060120922 0.49183232 4278979339
0.42632961 0.060557995 0.49174774 4279045136
0.42651695 0.060970761 0.49170572 4279110155
0.42660853 0.061406355 0.49162117 4279241994
0.42669946 0.061841123 0.49153662 4279241994
0.42678982 0.062275041 0.49145204 4279111178
0.42687955 0.062708125 0.49136749 4279242246
0.42696869 0.063140377 0.49128291 4278979844
0.42705721 0.063571781 0.49119836 4279045383
0.42714509 0.06400235 0.49111378 4278979847
0.42732897 0.064410299 0.49107176 4279177226
0.42731911 0.06486097 0.49094465 4278915596
0.42750204 0.065267652 0.4909026 4278914575
0.42768466 0.065673918 0.49086058 4279177745
0.42776984 0.066100717 0.490776 4278915343
0.42795172 0.066505939 0.49073395 4278915343
0.42803583 0.066931263 0.4906494 4279045642
0.42821693 0.067335427 0.49060735 4278718730
0.42849553 0.067719057 0.49060786 4278718728
0.42867619 0.068122603 0.49056581 4279046662
0.42885655 0.068525717 0.49052376 4279046662
0.42913485 0.068908945 0.49052423 4279439625
0.42941314 0.069292158 0.49052474 4279439112
0.42959291 0.06969443 0.49048269 4279439623
0.42996973 0.070058599 0.49052572 4279112457
0.43034688 0.070423171 0.49056876 4279112457
0.43062532 0.070806593 0.49056923 4279113237
0.43100291 0.07117179 0.49061227 4279113237
0.43148014 0.071519405 0.49069786 4279113237
0.43195793 0.071867853 0.49078339 4279113237
0.43243635 0.072217122 0.49086899 4279113237
0.43301514 0.072549865 0.49099708 4279113237
0.4332951 0.072935387 0.49099758 4279113237
0.4148303 -0.053926714 0.51944166 4278850835
0.41487902 -0.053086929 0.51922882 4278785042
0.41485974 -0.052186213 0.51897329 4278850835
0.41490525 -0.051350854 0.51876044 4278785040
0.41501603 -0.050580151 0.51859027 4278718997
0.41505867 -0.049748771 0.51837742 4278587663
0.41516685 -0.048981629 0.51820731 4278783761
0.41520658 -0.048154227 0.5179944 4278783761
0.41531217 -0.047390662 0.51782429 4278718481
0.41548407 -0.046690322 0.5176968 4278719251
0.41565508 -0.045991234 0.51756936 4278587663
0.4156895 -0.045171164 0.51735651 4278719247
0.41585839 -0.044475026 0.51722902 4278719251
0.40936396 -0.0307009 0.51095748 4282928431
0.40964431 -0.030160345 0.5109154 4282928431
0.41006395 -0.029736988 0.51095873 4282928431
0.41048393 -0.029313229 0.51100206 4282730800
0.41083407 -0.028831057 0.51100266 4282468150
0.41132477 -0.028464429 0.51108873 4282204206
0.41167521 -0.02798184 0.51108932 4282072620
0.41223741 -0.027671315 0.51121807 4281415460
0.41280049 -0.027359523 0.51134688 4280888091
0.41322273 -0.026932605 0.51139021 4279440393
0.41371635 -0.026561998 0.51147622 4278979842
0.41413933 -0.026134051 0.51151955 4278717445
0.41456264 -0.025705658 0.51156288 4278586631
0.41484332 -0.025164686 0.5115208 4278586380
0.415052 -0.024568222 0.51143599 4278520585
0.41533184 -0.024028294 0.5113939 4278586378
0.41561142 -0.023488767 0.51135182 4278717964
0.41567439 -0.022783913 0.51118159 4278586895
0.41580838 -0.022135772 0.5110541 4278652688
0.41586909 -0.021434046 0.51088387 4278915345
0.41600111 -0.020788632 0.51075631 4278718479
0.41605949 -0.020090051 0.51058608 4278586893
0.41611671 -0.019393161 0.51041585 4278521618
0.41617265 -0.018697932 0.51024556 4278653719
0.41615427 -0.017950609 0.51003265 4278718997
0.41620761 -0.017258942 0.50986236 4278455825
0.4162598 -0.016568974 0.50969213 4278587411
0.41631073 -0.015880667 0.5095219 4278718997
0.41636044 -0.015194044 0.50935161 4278521618
0.41640896 -0.014509097 0.50918138 4278652688
0.41645625 -0.013825826 0.50901115 4278718479
0.41642809 -0.013091907 0.50879812 4278652937
0.41647279 -0.012412205 0.50862789 4278652935
0.41651624 -0.011734173 0.5084576 4278652935
0.41655853 -0.011057824 0.50828737 4278586895
0.41659957 -0.010383137 0.50811708 4278652686
0.41656443 -0.0096588805 0.50790411 4278586893
0.41660288 -0.0089877546 0.50773382 4278586891
0.41671538 -0.0083691701 0.50760627 4278652935
0.41682702 -0.0077518523 0.50747871 4278718728
0.41686213 -0.0070853531 0.50730842 4278849031
0.4169718 -0.0064707547 0.50718087 4278783492
0.41708052 -0.0058574155 0.50705332 4278848780
0.4172644 -0.0052951276 0.50696844 4279045642
0.41744769 -0.0047336891 0.50688362 4278914056
0.41770667 -0.0042224675 0.50684148 4278914308
0.41241381 0.0056428015 0.50210512 4283452733
0.41281018 0.0060340762 0.50214845 4283255608
0.41320688 0.0064257607 0.50219172 4283124020
0.41352549 0.0068645328 0.50219226 4282927152
0.41400111 0.0072104111 0.50227833 4282729773
0.41447735 0.0075571239 0.50236428 4281677857
0.41495419 0.0079046711 0.50245035 4281413404
0.41543162 0.0082530603 0.50253636 4279243016
0.41590971 0.0086022839 0.50262237 4278585861
0.41646761 0.0089069456 0.50275111 4278454275
0.41686761 0.0093032494 0.50279438 4278585608
0.41726795 0.0096999705 0.50283766 4278717445
0.41758886 0.010141887 0.50283825 4278520836
0.41782993 0.010628372 0.50279611 4278520836
0.41799068 0.011158779 0.50271118 4278455043
0.41807061 0.011732496 0.50258362 4278651652
0.41823 0.012261033 0.50249869 4278651401
0.41830826 0.012832448 0.50237107 4278586380
0.41838565 0.013402596 0.50224346 4278586380
0.4184621 0.0139715 0.50211585 4278586380
0.41853762 0.014539145 0.50198823 4278782987
0.41861227 0.015105523 0.50186062 4278849033
0.41868597 0.01567065 0.50173295 4278455558
0.41875878 0.016234517 0.50160533 4278521100
0.41891223 0.016754866 0.50152045 4278521100
0.41898334 0.017316431 0.50139284 4278586378
0.41897172 0.017918572 0.50122243 4278652424
0.41912287 0.018435776 0.50113755 4278520585
0.41919124 0.018993564 0.50100994 4278718215
0.41925871 0.019550093 0.50088227 4278587396
0.41932529 0.020105362 0.50075465 4278521603
0.41939092 0.02065938 0.50062698 4278521349
0.41945565 0.021212138 0.50049937 4278521601
0.41951948 0.02176363 0.50037169 4279045892
0.41958237 0.02231387 0.50024408 4278849285
0.41964436 0.022862859 0.50011641 4278521090
0.41970545 0.023410581 0.49998879 4278521090
0.41968212 0.023996584 0.49981838 4278586629
0.4198249 0.024502255 0.49973348 4278783238
0.41988325 0.025046207 0.49960583 4278717447
0.41994065 0.0255889 0.49947816 4278717445
0.42008129 0.026091643 0.49939325 4278586629
0.42013705 0.026632033 0.49926561 4278586629
0.42019188 0.027171165 0.49913794 4278586883
0.42033041 0.027670972 0.499053 4278586883
0.42038357 0.028207794 0.49892533 4278652173
0.42043582 0.028743364 0.49879768 4278586382
0.42057219 0.029240228 0.49871275 4278717964
0.42070794 0.029736266 0.49862781 4278652171
0.42075777 0.030268475 0.49850017 4278520585
0.42089218 0.030762628 0.49841523 4278717194
0.42102593 0.031255938 0.4983303 4278586378
0.42107335 0.031784795 0.49820262 4278455305
0.42120576 0.032276206 0.49811769 4278652684
0.42133754 0.032766797 0.49803275 4278652684
0.42146876 0.033256546 0.49794781 4278455305
0.42159936 0.033745445 0.49786285 4278520836
0.42164278 0.034268849 0.49773517 4278586629
0.421772 0.034755871 0.49765024 4278652424
0.42181373 0.035276972 0.49752256 4278652424
0.42185459 0.035796814 0.49739486 4278652424
0.42189449 0.036315404 0.49726719 4278717447
0.42202082 0.03679844 0.49718225 4278849033
0.42205909 0.03731472 0.49705455 4278849033
0.4220964 0.037829742 0.49692684 4278652173
0.42213282 0.038343497 0.49679917 4278586380
0.42216834 0.038856007 0.49667147 4278651652
0.42220291 0.039367251 0.49654377 4278782720
0.42223659 0.039877251 0.49641609 4278914056
0.42226934 0.040385976 0.49628839 4278913805
0.42238975 0.040860839 0.49620342 4278913803
0.42242083 0.04136727 0.49607572 4278848010
0.42253986 0.04184024 0.49599075 4278979847
0.42256927 0.042344354 0.49586308 4278914824
0.42268693 0.042815447 0.49577808 4278652676
0.42271465 0.043317262 0.49565041 4278520836
0.42283094 0.043786462 0.49556541 4278520836
0.42294663 0.044254821 0.49548048 4278651652
0.42306167 0.044722348 0.49539548 4278979598
0.42308623 0.045219757 0.49526778 4278979596
0.42310986 0.045715906 0.49514008 4278913803
0.42322278 0.046180502 0.49505511 4278717196
0.42333513 0.046644256 0.49497014 4278782989
0.42344683 0.047107164 0.49488515 4278652171
0.42346725 0.047598906 0.49475744 4278717194
0.42357761 0.04805994 0.49467245 4278717445
0.42368734 0.048520129 0.49458748 4278717447
0.42379647 0.048979469 0.49450248 4278717447
0.4238137 0.049466811 0.49437478 4278783240
0.4240129 0.049895648 0.49433255 4278849033
0.42402861 0.050380904 0.49420482 4278718217
0.42422688 0.050808474 0.49416259 4278521351
0.42424107 0.051291626 0.49403486 4278586631
0.42434639 0.051745735 0.49394986 4278586631
0.42445111 0.052198999 0.49386489 4278914826
0.42446285 0.052678801 0.49373716 4278914056
0.42456621 0.053130187 0.49365216 4278979847
0.42457628 0.053607676 0.49352443 4278782722
0.42467824 0.054057173 0.49343944 4278717699
0.42468667 0.054532371 0.4933117 4278717699
0.42478728 0.05497998 0.49322671 4278586631
0.42479399 0.055452865 0.49309894 4278586128
0.42489323 0.055898577 0.49301395 4278651921
0.42499185 0.056343455 0.49292898 4278783759
0.42499614 0.056812998 0.49280122 4278783240
0.42509338 0.057255995 0.49271619 4278914826
0.42519003 0.057698142 0.4926312 4278915345
0.42528605 0.058139462 0.4925462 4278652175
0.42538148 0.058579944 0.4924612 4278848010
0.42557079 0.058995143 0.49241894 4279110408
0.42566514 0.059434161 0.49233395 4279045132
0.4257589 0.059872322 0.49224895 4278979339
0.42585206 0.060309663 0.49216396 4279045132
0.42594457 0.060746163 0.49207893 4279044882
0.42603648 0.061181825 0.49199393 4279044364
0.42622322 0.061593466 0.49195167 4279176201
0.42621851 0.062050618 0.49182391 4279176201
0.4263086 0.062483765 0.49173889 4279045383
0.42649394 0.062893525 0.49169666 4279242246
0.42658299 0.063325197 0.49161163 4278979590
0.42667139 0.063756034 0.4915266 4279111176
0.42675921 0.064186029 0.49144161 4278914824
0.42684641 0.06461519 0.49135658 4279046410
0.42702961 0.065022007 0.49131432 4278915594
0.42711574 0.0654497 0.4912293 4278915596
0.42720127 0.065876544 0.49114427 4279046929
0.42738327 0.066281684 0.49110204 4278915343
0.42756495 0.066686407 0.49105975 4278783757
0.42774633 0.067090712 0.49101749 4278979847
0.4279274 0.067494601 0.49097523 4278784008
0.42810816 0.06789805 0.49093294 4278718982
0.4281908 0.06832093 0.49084795 4279112453
0.42846879 0.068703726 0.49084842 4279111430
0.42874676 0.069086529 0.4908489 4279243016
0.42892647 0.069488518 0.49080664 4279569676
0.42920431 0.069871105 0.49080715 4279439625
0.42948216 0.0702537 0.49080762 4279177996
0.42975998 0.070636287 0.49080813 4279047695
0.43023562 0.070982158 0.49089414 4279047695
0.4306128 0.071347013 0.49093738 4279047695
0.43099028 0.071712293 0.49098065 4279047695
0.43136808 0.07207799 0.4910239 4279047695
0.43184569 0.072426587 0.49110991 4279047695
0.4323239 0.072776027 0.49119592 4279047695
0.41488224 -0.053150244 0.51995993 4278785042
0.41499692 -0.052375041 0.51978886 4278850835
0.4149774 -0.051476054 0.51953197 4278719249
0.41502267 -0.05064211 0.51931804 4278718997
0.41513324 -0.04987257 0.51914698 4278587665
0.41517568 -0.049042605 0.518933 4278915347
0.41535079 -0.048338495 0.51880491 4278783761
0.41532314 -0.047450624 0.51854801 4278718481
0.41549599 -0.046749674 0.51841986 4278850067
0.41566789 -0.046049975 0.51829171 4278718479
0.41590667 -0.045412593 0.51820654 4278850063
0.41614479 -0.044776045 0.51812136 4278915856
0.40919214 -0.030585133 0.51151633 4282797617
0.4094727 -0.030044414 0.51147401 4282863410
0.40996215 -0.029679112 0.5115605 4282928431
0.41024256 -0.029138617 0.51151818 4282665007
0.41066274 -0.028714351 0.51156175 4282468150
0.41122353 -0.028405063 0.51169115 4282138415
0.41171494 -0.028037034 0.51177764 4282006829
0.41220695 -0.027668156 0.51186413 4281348897
0.41269958 -0.027298443 0.51195061 4280822298
0.41326356 -0.026984759 0.51208007 4279308807
0.41368663 -0.026556514 0.51212358 4278914049
0.41411 -0.026127852 0.51216716 4278717447
0.41446245 -0.025642537 0.51216781 4278586378
0.41481486 -0.025157221 0.51216841 4278652173
0.41509575 -0.0246161 0.51212609 4278586895
0.41530466 -0.0240198 0.51204085 4278586895
0.41551292 -0.023424335 0.51195562 4278456077
0.41572058 -0.022829719 0.51187032 4278456077
0.4156391 -0.022016056 0.51161337 4278652173
0.41577265 -0.021369196 0.51148516 4278783757
0.41583285 -0.020669036 0.51131403 4278718477
0.41589183 -0.019970551 0.51114285 4278718477
0.41602233 -0.019327886 0.5110147 4278521618
0.41600612 -0.018578626 0.5108006 4278719514
0.41606146 -0.017885178 0.51062948 4278719512
0.41604233 -0.017139904 0.51041538 4278456079
0.41609508 -0.016450018 0.51024425 4278587665
0.4162201 -0.015814885 0.51011604 4278587665
0.41619688 -0.015075281 0.50990194 4278718481
0.41624594 -0.014390424 0.50973076 4278586893
0.41621983 -0.013654791 0.50951666 4278521870
0.41626632 -0.012973502 0.50934553 4278390795
0.41623732 -0.012241855 0.50913143 4278587661
0.41628122 -0.011564128 0.50896025 4278587661
0.41639847 -0.010939687 0.50883204 4278587665
0.41644013 -0.010265112 0.50866085 4278718479
0.41648051 -0.0095921978 0.50848973 4278586893
0.4165197 -0.0089209825 0.50831854 4278586891
0.41655764 -0.0082514212 0.50814736 4278652684
0.41659439 -0.0075835511 0.50797617 4278652684
0.41670543 -0.0069677159 0.50784796 4278783238
0.41681552 -0.0063531324 0.5077197 4278848261
0.41684896 -0.0056898743 0.50754851 4278979596
0.41710898 -0.0051774681 0.50750619 4278979596
0.41729259 -0.0046159774 0.5074209 4278913803
0.41747564 -0.0040553138 0.5073356 4278782987
0.41227216 0.0057543218 0.5026173 4283387194
0.41266859 0.0061458796 0.50266081 4283255608
0.41298723 0.0065846518 0.50266135 4283189815
0.41346234 0.0069302544 0.50274783 4282861361
0.41385967 0.0073230639 0.50279135 4282663982
0.41433585 0.0076701492 0.50287783 4281612062
0.4148913 0.0079720989 0.50300723 4280954136
0.41536885 0.0083210543 0.50309366 4278914824
0.415847 0.0086708516 0.50318015 4278651652
0.41624659 0.0090668201 0.50322366 4278520585
0.41672581 0.0094180778 0.50331014 4278454792
0.41712621 0.0098150894 0.50335366 4278586629
0.41736767 0.01030191 0.50331128 4278586629
0.41760883 0.010788321 0.5032689 4278586629
0.41776979 0.011318572 0.50318354 4278520836
0.41785008 0.011892073 0.50305527 4278651652
0.41800964 0.012420446 0.50296992 4278717194
0.41808823 0.012991637 0.50284165 4278520587
0.41816592 0.013561562 0.50271332 4278586382
0.41824269 0.014130227 0.50258505 4278586382
0.41831851 0.014697649 0.50245672 4278717447
0.41839349 0.015263796 0.50232846 4278783240
0.41846752 0.015828699 0.50220013 4278652422
0.41854063 0.016392343 0.50207186 4278586631
0.41869429 0.016912535 0.5019865 4278520838
0.41868412 0.017515846 0.50181526 4278979847
0.41875452 0.018075712 0.50168693 4278652422
0.41890585 0.01859276 0.50160158 4278520838
0.41897458 0.019150324 0.50147331 4278652422
0.41896015 0.019747756 0.501302 4278653189
0.41902688 0.020302586 0.50117373 4278653189
0.41909268 0.020856172 0.50104541 4278587396
0.41915759 0.021408483 0.50091708 4278521603
0.41930437 0.021919258 0.50083172 4278980101
0.41936761 0.022469267 0.50070339 4278783492
0.4194299 0.023018025 0.50057507 4278586883
0.41940802 0.02360519 0.50040382 4278652676
0.41946837 0.024151221 0.50027549 4278455556
0.4195278 0.024695992 0.50014716 4278653189
0.4195863 0.025239505 0.50001884 4278652422
0.41972774 0.025742926 0.49993345 4278718215
0.41978458 0.026284136 0.49980512 4278717445
0.41984048 0.026824087 0.49967679 4278717445
0.41997981 0.02732458 0.49959141 4278652676
0.41994959 0.027900212 0.49942014 4278718467
0.4200874 0.028398611 0.49933475 4278717964
0.42022458 0.028896175 0.4992494 4278586382
0.42027622 0.029430263 0.49912104 4278652171
0.42041206 0.02992592 0.49903566 4278586378
0.42046204 0.030457698 0.49890733 4278455309
0.42059648 0.030951485 0.49882194 4278586378
0.42064479 0.031480953 0.49869359 4278782987
0.42077789 0.031972848 0.4986082 4278586631
0.42091036 0.032463916 0.49852282 4278718217
0.4210422 0.032954134 0.49843743 4278587144
0.42108732 0.033479206 0.49830908 4278521351
0.42121783 0.033967532 0.49822369 4278520838
0.42134774 0.034455031 0.49813831 4278652422
0.42139038 0.034976743 0.49800995 4278717964
0.42143214 0.035497196 0.49788159 4278717964
0.4215599 0.035981752 0.49779621 4278652424
0.42159998 0.03649991 0.49766785 4278520838
0.42163914 0.037016787 0.49753949 4278848261
0.42167741 0.037532426 0.49741113 4278652171
0.42171475 0.038046807 0.49728274 4278586382
0.4217512 0.038559921 0.49715441 4278520589
0.42178667 0.039071783 0.49702603 4278586631
0.4218213 0.039582379 0.49689764 4278782468
0.42185497 0.040091731 0.49676931 4278914054
0.42188776 0.040599808 0.49664092 4278848780
0.42200804 0.04107409 0.49655551 4278783240
0.42203915 0.04157988 0.49642712 4278783240
0.42215809 0.04205228 0.49634174 4278783238
0.42227641 0.042523846 0.49625632 4278717699
0.42230505 0.043026268 0.49612793 4278717699
0.42242199 0.043495938 0.49604252 4278521090
0.42244899 0.043996066 0.49591413 4278586883
0.42256457 0.044463858 0.49582872 4278521090
0.42267954 0.044930812 0.4957433 4278914573
0.42279392 0.04539692 0.49565789 4278848780
0.42281771 0.045892641 0.4955295 4278782989
0.4228406 0.046387102 0.49540111 4278717198
0.4229528 0.046850275 0.49531567 4278717198
0.42297399 0.047342427 0.49518728 4278651401
0.42308486 0.047803719 0.49510187 4278782987
0.42319512 0.048264179 0.49501646 4278914826
0.42330474 0.048723787 0.49493101 4278586378
0.42341378 0.04918256 0.4948456 4278520838
0.4235222 0.049640503 0.49476016 4278520838
0.42363003 0.050097596 0.49467474 4278586631
0.42373723 0.050553862 0.4945893 4278652424
0.42384383 0.051009282 0.49450389 4278848261
0.42385805 0.051491793 0.49437547 4278979847
0.42396325 0.051945325 0.49429005 4278914054
0.42406785 0.052398026 0.49420461 4278914826
0.42407966 0.05287718 0.49407619 4278979847
0.42418289 0.053327989 0.49399078 4278849031
0.42419297 0.053804837 0.49386233 4278651652
0.42429486 0.054253761 0.49377692 4278586629
0.42439613 0.054701842 0.49369147 4278586629
0.42440379 0.055175338 0.49356306 4278586629
0.42450368 0.055621542 0.49347761 4278586641
0.42450964 0.056092724 0.49334919 4278717714
0.42460817 0.05653704 0.49326375 4278717968
0.4247061 0.056980509 0.49317831 4278782989
0.42470962 0.057448342 0.49304986 4278914575
0.42480618 0.057889923 0.49296445 4278652175
0.42490214 0.058330681 0.49287897 4278586128
0.42509168 0.058746018 0.49283651 4278848010
0.42518654 0.0591853 0.49275103 4279110155
0.42528081 0.059623729 0.49266559 4279045136
0.42537448 0.060061339 0.49258015 4279045136
0.42546752 0.060498107 0.4924947 4278979600
0.42555997 0.060934037 0.49240923 4279176725
0.42565179 0.061369114 0.49232376 4278913555
0.42574301 0.061803363 0.49223831 4279045132
0.42583361 0.062236775 0.49215284 4278979339
0.42592362 0.062669337 0.4920674 4278979849
0.42601299 0.063101083 0.49198192 4279176199
0.4261018 0.06353198 0.49189648 4279045385
0.42618996 0.063962027 0.49181101 4279177226
0.42637372 0.064369403 0.49176854 4279046410
0.42646086 0.064797983 0.49168307 4278849031
0.42664385 0.065204307 0.49164057 4278915594
0.42672989 0.065631427 0.49155509 4279046412
0.42691213 0.066036701 0.4915126 4279112205
0.42699713 0.066462353 0.49142712 4278783757
0.42717859 0.066866592 0.49138466 4278652171
0.42735976 0.067270391 0.49134216 4278914306
0.42754066 0.067673773 0.49129969 4279046664
0.4277212 0.068076745 0.49125719 4278915078
0.42780375 0.068499044 0.49117172 4279309064
0.42808142 0.068881422 0.49117219 4279111176
0.4282611 0.069283135 0.4911297 4279111176
0.42853862 0.069665305 0.4911302 4279241994
0.42871785 0.070066385 0.4910877 4279439625
0.42899519 0.070448346 0.49108821 4279243021
0.42937124 0.070811816 0.49113166 4278981641
0.42964876 0.071193986 0.49113217 4279113227
0.43002522 0.071558073 0.49117565 4279113227
0.43040198 0.0719226 0.4912191 4279113227
0.43077907 0.07228753 0.49126258 4279113227
0.43125585 0.072635442 0.49134904 4279113227
0.41506663 -0.052500106 0.52056408 4278981653
0.41511488 -0.051663168 0.52034897 4278850067
0.41516161 -0.05082833 0.52013385 4278849813
0.41520679 -0.049995609 0.5199188 4278718479
0.41531736 -0.049226992 0.51974684 4278718479
0.41542667 -0.048460059 0.51957488 4278718479
0.41546762 -0.047633179 0.51935983 4278850067
0.41564167 -0.0469312 0.51923102 4278850067
0.41574734 -0.046169303 0.51905906 4278850067
0.41598707 -0.045531012 0.51897341 4278850067
0.4090201 -0.030469187 0.51207554 4283125558
0.40937039 -0.029986821 0.5120762 4283059765
0.40979031 -0.029562689 0.51211995 4282927924
0.41014075 -0.0290801 0.5121206 4282730804
0.41056111 -0.028655343 0.51216435 4282467380
0.4111219 -0.028345414 0.51229447 4282138413
0.4116134 -0.027976789 0.51238143 4281941034
0.41217589 -0.02766455 0.51251149 4281151772
0.41273928 -0.027351044 0.51264161 4280624917
0.41323286 -0.026979513 0.51272857 4279045890
0.4137271 -0.026607133 0.51281548 4278782720
0.41415095 -0.026177548 0.51285928 4278717194
0.41450399 -0.025691397 0.51285988 4278520587
0.41485706 -0.025205247 0.51286054 4278586895
0.41513866 -0.024663366 0.51281798 4278521872
0.41527683 -0.024010859 0.51268911 4278456079
0.41548574 -0.023414917 0.5126034 4278390286
0.41555029 -0.022709616 0.51243138 4278521870
0.41561368 -0.022005998 0.51225936 4278652173
0.41567582 -0.021304034 0.51208735 4278783757
0.41573673 -0.020603769 0.51191533 4278652684
0.41579643 -0.019905165 0.51174331 4278718477
0.4158549 -0.019208252 0.51157123 4278521618
0.41583937 -0.018459164 0.51135606 4278522133
0.41589525 -0.017765813 0.51118398 4278718999
0.41594994 -0.017074123 0.51101196 4278652686
0.41600341 -0.016384132 0.51083994 4278652686
0.41605562 -0.015695803 0.51066786 4278718479
0.41603309 -0.014956363 0.51045269 4278718479
0.41608274 -0.014271595 0.51028061 4278652686
0.41605729 -0.01353614 0.51006538 4278521870
0.41610438 -0.012854941 0.50989336 4278390797
0.41615021 -0.012175418 0.50972128 4278521870
0.4161205 -0.011445828 0.50950605 4278587663
0.41623825 -0.01082141 0.50937718 4278521872
0.41620579 -0.010095604 0.50916195 4278718479
0.41624662 -0.0094229952 0.50898987 4278652686
0.41628623 -0.0087520704 0.50881779 4278586891
0.41632462 -0.008082822 0.50864571 4278652684
0.41651225 -0.0075162426 0.50856 4278718477
0.41654849 -0.0068499222 0.50838792 4278783238
0.41658354 -0.0061852857 0.50821584 4278848261
0.41669306 -0.0055721924 0.50808692 4278913803
0.41695336 -0.0050596669 0.50804436 4278979596
0.41706133 -0.0044486597 0.50791544 4278848010
0.41732073 -0.003937386 0.50787288 4278717194
0.41165665 0.0055219159 0.503043 4283321914
0.41220802 0.0058188587 0.50317305 4283256121
0.41252682 0.0062578395 0.50317365 4283190328
0.41300154 0.0066033825 0.50326055 4283124535
0.41339877 0.0069962814 0.5033043 4282795570
0.41379631 0.0073895976 0.50334799 4282598191
0.41435099 0.0076911449 0.50347811 4281742878
0.41482803 0.0080398321 0.50356501 4280888343
0.41522694 0.0084350333 0.50360876 4278782987
0.41570503 0.0087851956 0.50369567 4278651401
0.41610467 0.0091814473 0.50373942 4278520585
0.41658384 0.0095330626 0.50382632 4278454792
0.41690493 0.0099751949 0.50382692 4278651652
0.41722596 0.01041732 0.50382745 4278520836
0.41738772 0.010948271 0.50374168 4278586629
0.41754889 0.011478372 0.50365591 4278520836
0.41770947 0.012007646 0.50357008 4278651652
0.41778928 0.012579866 0.50344115 4278717194
0.4178682 0.013150826 0.50331217 4278586380
0.41794619 0.01372052 0.50318325 4278520589
0.41802326 0.014288969 0.50305426 4278586382
0.41818017 0.014813207 0.50296843 4278717447
0.41817468 0.015422076 0.50279629 4278586629
0.41816801 0.016029276 0.50262415 4278652422
0.41832247 0.016550161 0.50253838 4278520838
0.41839501 0.017112307 0.5024094 4278914054
0.41846663 0.017673209 0.50228041 4278914054
0.41853732 0.018232845 0.50215143 4278783240
0.41868886 0.018749751 0.50206566 4278520838
0.41875786 0.019307084 0.50193667 4278652935
0.41874391 0.019904211 0.50176448 4278653189
0.41881093 0.020458817 0.50163549 4278653189
0.41887707 0.021012172 0.50150651 4278653189
0.41894227 0.021564253 0.50137752 4278455810
0.41908926 0.022074878 0.50129175 4278914308
0.41906995 0.022664674 0.50111955 4278717699
0.41913241 0.023212977 0.50099057 4278652676
0.41911083 0.023799635 0.50081837 4278718469
0.41925463 0.024305858 0.50073254 4278455810
0.41931438 0.024850398 0.50060356 4278587396
0.41937318 0.025393687 0.50047457 4278521603
0.41943109 0.025935717 0.50034559 4278652422
0.41948807 0.02647648 0.50021654 4278717447
0.4196282 0.026977658 0.50013077 4278783240
0.41959929 0.027554251 0.49995854 4278849285
0.41973794 0.028053328 0.49987274 4278784262
0.41979143 0.028589278 0.49974373 4278718217
0.419844 0.029123969 0.49961472 4278520587
0.4199805 0.029620118 0.49952888 4278586380
0.42011639 0.030115433 0.49944305 4278520587
0.42016649 0.030646771 0.49931404 4278389262
0.42030102 0.031140201 0.49922821 4278651401
0.42034948 0.031669222 0.4990992 4278717194
0.42039704 0.032196999 0.49897015 4278520838
0.42061517 0.032651462 0.49892753 4278652424
0.42066121 0.033177137 0.49879849 4278586631
0.42079237 0.033665948 0.49871266 4278520838
0.42083675 0.034189321 0.49858364 4278520838
0.42096651 0.034676246 0.49849778 4278652424
0.42100918 0.03519731 0.49836877 4278717964
0.42113763 0.035682343 0.49828294 4278717964
0.42117861 0.036201105 0.4981539 4278783240
0.42121869 0.036718607 0.49802485 4278454792
0.42125791 0.03723485 0.49789584 4278848261
0.42129618 0.037749834 0.49776679 4278652171
0.42133349 0.038263567 0.49763775 4278520589
0.42136997 0.038776033 0.4975087 4278520589
0.42140546 0.039287247 0.49737969 4278586631
0.42144006 0.039797194 0.49725062 4278782468
0.42156181 0.040273018 0.49716479 4278848261
0.42150658 0.040813334 0.49699253 4278849033
0.42162675 0.041287057 0.4969067 4278783240
0.42174637 0.041759931 0.49682084 4278717447
0.42177671 0.042264014 0.49669179 4278717447
0.42189494 0.042735007 0.49660593 4278717699
0.42192361 0.043236781 0.49647689 4278783492
0.42204046 0.043705892 0.496391 4278717699
0.42206746 0.044205368 0.49626195 4278651906
0.42218295 0.044672586 0.49617609 4278651906
0.42229784 0.045138966 0.49609023 4278848780
0.4224121 0.045604505 0.49600434 4278717196
0.42243588 0.046099573 0.4958753 4278782991
0.42254877 0.046563234 0.49578941 4278717198
0.42266107 0.047026049 0.49570355 4278782991
0.42268243 0.047517769 0.49557447 4278848012
0.42279333 0.047978692 0.49548861 4278848780
0.42281306 0.048468105 0.49535954 4278914826
0.42301336 0.048898045 0.49531686 4278652171
0.42303154 0.049385354 0.49518779 4278520838
0.42323095 0.049814027 0.49514511 4278520838
0.4233388 0.050270766 0.49505922 4278586631
0.42335469 0.050754942 0.49493015 4278586378
0.4234612 0.051209785 0.49484426 4278848263
0.42356709 0.051663801 0.4947584 4278979590
0.42358053 0.052144617 0.49462932 4278848263
0.42368507 0.05259674 0.49454343 4278979849
0.42378896 0.053048033 0.49445754 4279045640
0.42379999 0.053525493 0.49432847 4278717445
0.42390251 0.053974889 0.49424258 4278651652
0.42400447 0.054423448 0.49415669 4278586629
0.42401305 0.054897558 0.49402761 4278652422
0.4241136 0.055344235 0.49394169 4278587142
0.42412052 0.055816028 0.49381262 4278587665
0.4242197 0.056260813 0.49372673 4278915347
0.42422491 0.056730308 0.49359763 4278783761
0.42432275 0.057173219 0.49351174 4278848782
0.42441997 0.05761528 0.49342585 4278914575
0.42442277 0.058081418 0.49329674 4278652173
0.42461258 0.058496885 0.49325404 4278520848
0.42470795 0.058936436 0.49316812 4278848010
0.42480275 0.059375137 0.49308223 4278979592
0.4248969 0.059813008 0.49299634 4278979339
0.42499048 0.060250044 0.49291044 4279045132
0.42508343 0.060686234 0.49282452 4278848780
0.42517576 0.06112159 0.4927386 4279176725
0.42526752 0.061556108 0.49265271 4278914073
0.42535862 0.061989784 0.49256679 4279045393
0.42544913 0.062422622 0.4924809 4278913803
0.42553905 0.062854625 0.49239498 4278913803
0.42562836 0.06328579 0.49230909 4278979339
0.42571706 0.063716106 0.49222317 4279045132
0.42580512 0.064145595 0.49213725 4279177228
0.42598867 0.064552464 0.49209455 4278914824
0.4260757 0.064980492 0.49200863 4278849031
0.4262585 0.06538631 0.49196589 4279046159
0.42634445 0.065812856 0.49188 4279046159
0.42652649 0.066217631 0.49183729 4279046412
0.42670822 0.066622004 0.49179459 4278783757
0.42688966 0.067025945 0.49175185 4278980099
0.42697364 0.067449763 0.49166593 4278980099
0.4271543 0.067852661 0.49162322 4279046664
0.42733467 0.068255126 0.49158052 4279177478
0.42751476 0.06865719 0.49153781 4279309064
0.4276945 0.069058821 0.49149507 4279111176
0.42787397 0.069460034 0.49145234 4279111176
0.42815119 0.069841787 0.49145284 4279045385
0.42833018 0.070242375 0.49141014 4279308809
0.42860729 0.070623919 0.49141061 4279374097
0.42888433 0.071005449 0.49141112 4279178250
0.4292601 0.071368784 0.49145481 4279309836
0.42953733 0.071750529 0.49145529 4279309836
0.42991352 0.072114497 0.49149901 4279309836
0.41525111 -0.051849373 0.52116865 4278915345
0.41516638 -0.050888933 0.52086568 4278915860
0.41527933 -0.050117888 0.52069283 4278850065
0.41539103 -0.049348526 0.52051997 4278915858
0.41543463 -0.048519097 0.52030379 4278718479
0.41554376 -0.047753312 0.52013093 4278915860
0.41565168 -0.04698921 0.51995808 4278718481
0.41589314 -0.046348967 0.51987201 4278718481
0.40849739 -0.030835696 0.51263463 4283257144
0.40884784 -0.030353107 0.51263529 4283191094
0.40926766 -0.0299289 0.51267928 4283191094
0.40961826 -0.029446118 0.51267987 4282862386
0.41003853 -0.029021271 0.51272392 4282665009
0.41038927 -0.028538264 0.51272452 4282467378
0.41101986 -0.028285421 0.51289868 4282072874
0.41151145 -0.02791626 0.51298606 4281809702
0.41207391 -0.027603365 0.51311684 4280955159
0.41263729 -0.027289219 0.51324761 4280428049
0.41320157 -0.026973806 0.51337838 4278849285
0.41369605 -0.026600651 0.51346576 4278651906
0.41412026 -0.026170366 0.51350981 4278717194
0.41454476 -0.025739662 0.5135538 4278586382
0.41482723 -0.025196813 0.51351106 4278520848
0.4151094 -0.024654366 0.51346827 4278586641
0.41524833 -0.024001457 0.51333874 4278586641
0.41538632 -0.023349814 0.51320922 4278521100
0.41545162 -0.022644393 0.51303625 4278717966
0.4155876 -0.021995462 0.51290673 4278652173
0.41557854 -0.021238588 0.51269042 4278915343
0.41564018 -0.020538189 0.51251751 4278718477
0.41570061 -0.019839481 0.5123446 4278718477
0.41568726 -0.019088462 0.51212823 4278521870
0.41574508 -0.018393315 0.51195532 4278521872
0.41572887 -0.017646283 0.51173902 4278587665
0.41585711 -0.017008051 0.51160944 4278718479
0.41583812 -0.016264789 0.51139313 4278718479
