# .PCD v0.7 - Point Cloud Data file format
VERSION 0.7
FIELDS x y z rgb
SIZE 4 4 4 4
TYPE F F F U
COUNT 1 1 1 1
WIDTH 1069
HEIGHT 1
VIEWPOINT 0 0 0 1 0 0 0
POINTS 1069
DATA ascii
0.43588036 0.064188808 0.52221036 4279966493
0.43637979 0.064246118 0.52220511 4279966495
0.43687972 0.064303592 0.52219981 4279769632
0.43743268 0.064273149 0.52218342 4279704091
0.43793383 0.06433101 0.52217817 4279638298
0.43848851 0.064301133 0.52216178 4279703062
0.43899089 0.064359426 0.52215654 4279900174
0.4395473 0.064330086 0.52214015 4279506963
0.4400509 0.064388782 0.52213496 4279442453
0.44060904 0.064360008 0.52211863 4279508246
0.44111389 0.064419076 0.52211338 4279442453
0.44167373 0.064390883 0.52209705 4279507995
0.4421798 0.064450368 0.52209187 4279639581
0.44274139 0.064422727 0.52207559 4279639581
0.44324869 0.064482614 0.52207041 4279507731
0.44381198 0.064455524 0.52205414 4279835153
0.44437629 0.064428777 0.52203786 4279835151
0.44488555 0.06448929 0.52203274 4279966735
0.44545156 0.064463094 0.52201653 4279966735
0.44601855 0.064437225 0.52200025 4279965969
0.44658652 0.06441167 0.5219841 4279834648
0.44715551 0.064386442 0.52196789 4279573526
0.44766822 0.064448074 0.52196276 4279573526
0.44823891 0.064423412 0.52194661 4279507985
0.44881058 0.064399064 0.52193046 4279573778
0.44932526 0.064461336 0.52192539 4279573778
0.44989869 0.064437538 0.52190924 4279442192
0.4504146 0.064500228 0.52190417 4279573778
0.45098972 0.064477012 0.52188802 4279573778
0.45150691 0.064540088 0.52188301 4279507731
0.45208377 0.064517424 0.52186692 4279573524
0.45260215 0.064580902 0.52186185 4279441938
0.45318073 0.064558789 0.52184582 4279573778
0.45370036 0.06462267 0.52184081 4279639317
0.45428061 0.064601138 0.52182472 4279572754
0.4548015 0.064665422 0.52181977 4279704340
0.45538354 0.064644441 0.52180374 4279769106
0.45596653 0.064623773 0.5217877 4279703315
0.45655054 0.064603418 0.52177173 4279637526
0.4571355 0.064583406 0.5217557 4279572756
0.45772147 0.064563692 0.52173972 4279572756
0.4582465 0.064629361 0.52173483 4279572754
0.4588342 0.064610213 0.52171886 4279506191
0.45936048 0.064676255 0.52171391 4279899922
0.45994988 0.064657688 0.521698 4279965715
0.46054029 0.064639419 0.52168208 4279507215
0.46113166 0.064621478 0.52166617 4279375629
0.46166065 0.064688414 0.52166128 4279375126
0.46225375 0.064671025 0.52164543 4279376159
0.46284786 0.064653993 0.52162957 4279310366
0.46337882 0.064721555 0.52162468 4279899171
0.46397462 0.064705044 0.52160883 4279767322
0.4645068 0.064773023 0.521604 4279637779
0.46510437 0.064757079 0.52158815 4279637779
0.4656378 0.064825445 0.52158332 4279375124
0.46617168 0.064893991 0.52157849 4279506710
0.46677172 0.064878866 0.5215627 4279572756
0.46730685 0.064947799 0.52155793 4279375375
0.46784249 0.065016881 0.5215531 4279572754
0.46844494 0.065002561 0.52153736 4279637777
0.46891525 0.065155566 0.5215435 4279637777
0.4695192 0.065141693 0.52152777 4279308809
0.47005704 0.06521152 0.521523 4279045637
0.47059542 0.06528151 0.52151823 4278979847
0.47120181 0.065268457 0.52150249 4279045389
0.47174138 0.06533882 0.52149779 4279177228
0.47221339 0.065492392 0.52150393 4279438860
0.47261712 0.065728903 0.52152109 4279767825
0.47302032 0.065965265 0.5215382 4279769114
0.47335425 0.066284239 0.52156621 4280361253
0.4736872 0.066602886 0.52159423 4280296496
0.47408843 0.066838592 0.52161133 4279901740
0.47435009 0.06723924 0.52165025 4280033324
0.4746103 0.06763941 0.52168912 4280099117
0.47486904 0.068039089 0.52172798 4280033576
0.47512627 0.068438277 0.52176684 4280163874
0.47538203 0.068836987 0.5218057 4280360742
0.47563633 0.069235235 0.52184451 4280295208
0.47588912 0.069632992 0.52188331 4280361253
0.47614047 0.070030257 0.52192205 4280295460
0.4763903 0.07042706 0.52196085 4280361253
0.47663867 0.070823371 0.5219996 4280294433
0.47695756 0.071137473 0.52202737 4280229410
0.47727549 0.071451232 0.52205521 4279967265
0.47759241 0.071764678 0.52208304 4279967265
0.47798109 0.071996301 0.52209997 4279967265
0.4783693 0.072227761 0.5221169 4279967265
0.47868374 0.072540417 0.52214468 4279967265
0.47914419 0.072690219 0.5221507 4279967265
0.47953087 0.072921202 0.52216756 4279967265
0.47999108 0.073070914 0.52217364 4279967265
0.43145162 0.063589737 0.52271539 4278717445
0.43194687 0.063645691 0.52271032 4279243019
0.43239254 0.063790679 0.52271616 4279375627
0.43288851 0.063846871 0.5227111 4279375627
0.43338495 0.063903213 0.52270603 4279507213
0.43388191 0.063959718 0.52270097 4279769613
0.43437937 0.064016402 0.5226959 4279966996
0.43487734 0.06407322 0.52269089 4279703570
0.43537575 0.064130217 0.52268583 4279769114
0.43587467 0.064187378 0.52268082 4279834907
0.4363741 0.064244688 0.52267581 4279834909
0.43687403 0.064302161 0.52267081 4279638048
0.4374795 0.064183623 0.52264404 4279638046
0.43798089 0.064241588 0.52263904 4279572253
0.43853581 0.064211786 0.52262318 4279768857
0.43903846 0.064270139 0.52261817 4279834901
0.43954155 0.064328656 0.52261323 4279638298
0.44009894 0.064299658 0.52259737 4279507733
0.44060329 0.064358562 0.52259243 4279573526
0.44110814 0.06441763 0.52258748 4279639317
0.44166797 0.064389437 0.52257168 4279639832
0.44222879 0.064361572 0.52255589 4279573786
0.44273561 0.064421281 0.522551 4279639579
0.44329816 0.064393967 0.5225352 4279639066
0.44380623 0.064454079 0.52253032 4279704089
0.44437051 0.064427331 0.52251458 4279704342
0.44493574 0.064400896 0.52249885 4279704594
0.44544578 0.064461648 0.52249396 4279836180
0.44601274 0.06443578 0.52247828 4279835410
0.44658071 0.06441021 0.52246255 4279834905
0.44714969 0.064384982 0.52244687 4279834905
0.44766241 0.064446628 0.52244204 4279834905
0.44817561 0.064508438 0.52243721 4279572756
0.44874704 0.064483985 0.52242154 4279704340
0.44931945 0.064459875 0.52240592 4279638801
0.44983464 0.064522311 0.52240109 4279507215
0.45040879 0.064498767 0.52238548 4279638797
0.4509252 0.064561605 0.52238071 4279442192
0.45150104 0.064538628 0.52236509 4279376912
0.45201871 0.064601868 0.52236032 4279442453
0.45253685 0.064665273 0.52235556 4279376660
0.45311517 0.06464307 0.52234 4279573524
0.45369446 0.064621195 0.52232444 4279574039
0.45421457 0.06468527 0.52231973 4279441687
0.45479563 0.064663947 0.52230418 4279507480
0.45537764 0.064642966 0.52228868 4279441940
0.45596063 0.064622298 0.52227318 4279376147
0.45654464 0.064601943 0.52225769 4279703319
0.4571296 0.064581931 0.52224225 4279703572
0.45765388 0.064647332 0.52223754 4279703572
0.4582406 0.064627871 0.5222221 4279506710
0.45882827 0.064608723 0.52220666 4279571727
0.45935455 0.064674765 0.52220201 4279900944
0.45994395 0.064656198 0.52218658 4279835151
0.46053433 0.064637929 0.5221712 4279506445
0.46106261 0.064704612 0.52216655 4279506961
0.46165472 0.064686924 0.52215117 4279310364
0.46218419 0.064754009 0.52214652 4279179552
0.4628419 0.064652488 0.52212048 4279311138
0.46337286 0.064720064 0.52211589 4279899425
0.46390432 0.06478779 0.52211124 4279571480
0.46450084 0.064771533 0.52209592 4279506710
0.46503353 0.064839661 0.52209139 4279506710
0.46563181 0.064823955 0.52207607 4279375375
0.46616572 0.064892501 0.52207148 4279637779
0.4667657 0.064877361 0.52205622 4279704340
0.46723503 0.065030053 0.52206236 4279769615
0.4678365 0.065015391 0.5220471 4279769615
0.46843898 0.065001056 0.5220319 4279638031
0.46890926 0.065154061 0.52203804 4279375377
0.46951318 0.065140188 0.52202284 4279243021
0.47005105 0.065210015 0.52201831 4279177228
0.47065669 0.065196738 0.52200311 4278979849
0.47119582 0.065266937 0.52199864 4278848780
0.47173539 0.065337315 0.52199411 4279046159
0.4722074 0.065490872 0.52200031 4279569423
0.47261113 0.065727398 0.52201718 4279832595
0.47301432 0.065963745 0.52203405 4279703319
0.47334826 0.066282719 0.52206153 4279835425
0.47375023 0.066518664 0.52207839 4279967290
0.47408244 0.066837102 0.52210587 4279901999
0.47434413 0.067237735 0.52214402 4279836195
0.47467411 0.067555442 0.5221715 4279836195
0.47493309 0.067955196 0.52220958 4280295199
0.47519058 0.068354473 0.52224767 4280163096
0.47544661 0.068753287 0.5222857 4280295201
0.47570115 0.069151595 0.52232373 4280230437
0.47595423 0.069549441 0.52236176 4279968033
0.4762058 0.069946811 0.52239978 4280033826
0.47652739 0.070261762 0.52242714 4280098847
0.4767763 0.070658252 0.52246511 4280229659
0.47709566 0.070972502 0.52249241 4280295704
0.47734183 0.071368083 0.52253032 4280032278
0.47773153 0.071600035 0.52254701 4280163864
0.47812068 0.071831822 0.5225637 4280163864
0.47850937 0.072063446 0.52258033 4280163864
0.47882432 0.072376251 0.52260762 4280163864
0.47928527 0.072526202 0.52261364 4280163864
0.47967246 0.072757348 0.52263033 4280163864
0.48013315 0.072907224 0.52263635 4280163864
0.4313468 0.06376639 0.5232051 4278717447
0.43184152 0.06382218 0.52320027 4279111952
0.43233675 0.063878134 0.52319545 4279375627
0.43283248 0.063934252 0.52319062 4279507213
0.43332869 0.063990504 0.52318585 4279507213
0.43382543 0.064046934 0.52318102 4279769358
0.43432263 0.064103514 0.52317625 4279966739
0.43487161 0.064071804 0.52316082 4279769617
0.43537006 0.064128786 0.52315605 4279835158
0.43586898 0.064185947 0.52315128 4279835158
0.43642044 0.064155027 0.5231359 4279834905
0.43692058 0.064212576 0.52313113 4279703839
0.43747377 0.064182192 0.52311575 4279638046
0.43797517 0.064240158 0.52311105 4279572253
0.43853009 0.064210355 0.52309573 4279703321
0.4390327 0.064268708 0.52309096 4279834905
0.43953583 0.06432721 0.52308625 4279638298
0.44009319 0.064298213 0.52307093 4279507480
0.44059753 0.064357132 0.52306628 4279573273
0.44115663 0.064328685 0.52305096 4279639317
0.44166222 0.064388007 0.52304631 4279639830
0.44222304 0.064360127 0.523031 4279574039
0.44272983 0.064419836 0.52302635 4279639832
0.44329238 0.064392522 0.52301109 4279639066
0.44385594 0.064365506 0.52299589 4279769884
0.44436473 0.064425886 0.52299124 4279704089
0.44492996 0.064399451 0.52297604 4279704340
0.44543999 0.064460203 0.52297139 4279770133
0.44600695 0.06443432 0.52295625 4279835410
0.44657493 0.064408764 0.52294105 4279834905
0.44708693 0.064470157 0.52293646 4279769112
0.4476566 0.064445168 0.52292132 4279900698
0.44816983 0.064506978 0.52291673 4279572756
0.4486835 0.064568922 0.52291214 4279704342
0.44925568 0.064544737 0.52289701 4279638547
0.44977063 0.064607099 0.52289248 4279506961
0.4503445 0.064583451 0.5228774 4279638797
0.45086068 0.064646229 0.52287287 4279441938
0.45143628 0.064623162 0.52285779 4279376658
0.45195368 0.064686313 0.52285326 4279442453
0.45253101 0.064663813 0.52283818 4279442453
0.45304966 0.064727366 0.5228337 4279573524
0.45362869 0.064705402 0.52281868 4279704859
0.45420873 0.064683795 0.52280366 4279507480
0.45478976 0.064662486 0.52278864 4279441687
0.45537177 0.064641491 0.52277362 4279507733
0.45595476 0.064620823 0.52275866 4279376147
0.45653874 0.064600468 0.5227437 4279703319
0.4570623 0.064665645 0.52273929 4279703572
0.45764798 0.064645857 0.52272433 4279769365
0.4582347 0.064626396 0.52270943 4279506712
0.4587602 0.064692199 0.52270496 4279703315
0.45934865 0.06467329 0.52269006 4280164116
0.45993805 0.064654723 0.52267522 4279966737
0.46046555 0.064721167 0.52267081 4279506191
0.46105665 0.064703137 0.5226559 4279506710
0.46164876 0.064685434 0.52264106 4279376157
0.46217826 0.064752519 0.52263671 4279310366
0.46277207 0.064735368 0.52262187 4279441952
0.4633669 0.064718574 0.52260703 4279964703
0.46389836 0.064786285 0.52260268 4279702812
0.46449488 0.064770043 0.5225879 4279375124
0.46502757 0.064838171 0.5225836 4279506710
0.46556073 0.064906448 0.52257925 4279506188
0.46615976 0.064890996 0.52256453 4279506710
0.46669415 0.064959705 0.52256018 4279638547
0.46722904 0.065028548 0.52255589 4279704592
0.46783054 0.065013885 0.52254117 4279638799
0.46836662 0.065083146 0.52253687 4279638031
0.46896982 0.06506905 0.52252215 4279375124
0.46950722 0.065138698 0.52251792 4279374097
0.47011212 0.065125167 0.5225032 4279242511
0.4706507 0.065195233 0.52249897 4278914056
0.47125733 0.065182239 0.5224843 4278652173
0.47179717 0.065252692 0.52248007 4279046159
0.47220138 0.065489367 0.5224967 4279569423
0.47260511 0.065725893 0.52251327 4279766802
0.47300833 0.065962255 0.5225299 4279637526
0.47334224 0.066281229 0.5225569 4279768864
0.47374424 0.066517174 0.52257347 4279835191
0.47407645 0.066835597 0.52260041 4279770413
0.47440767 0.067153692 0.52262741 4279573034
0.47466815 0.067553952 0.52266473 4279835679
0.47499716 0.067871302 0.52269167 4280229916
0.47525489 0.068270683 0.52272898 4280163866
0.47551119 0.068669572 0.52276623 4280229406
0.47576597 0.069067955 0.52280354 4280229663
0.47601929 0.069465891 0.52284074 4280229663
0.47634238 0.069781333 0.52286762 4280099098
0.47659302 0.070178375 0.52290481 4280099098
0.47691387 0.070493117 0.52293164 4280229914
0.47716177 0.070889264 0.52296883 4280164375
0.47755265 0.071121618 0.52298528 4279901203
0.47794309 0.071353808 0.52300167 4280098582
0.47826028 0.071667314 0.52302849 4280098582
0.47857648 0.071980536 0.52305526 4280098582
0.47896492 0.072212085 0.52307165 4280098582
0.47942632 0.072362214 0.52307767 4280098582
0.47988775 0.072512329 0.52308375 4280098582
0.48027521 0.072743565 0.52310014 4280098582
0.43129155 0.063854009 0.52368337 4278848263
0.43178606 0.063909709 0.52367878 4279177998
0.43228102 0.063965589 0.52367425 4279244813
0.43282682 0.063932821 0.52365929 4279376397
0.43332303 0.063989088 0.52365476 4279507983
0.43381971 0.064045504 0.52365023 4279769615
0.43431693 0.064102098 0.5236457 4279835408
0.43481463 0.064158857 0.52364117 4279769613
0.43536437 0.064127356 0.52362627 4279835408
0.43586326 0.064184517 0.52362174 4279769615
0.43641472 0.064153597 0.5236069 4279704340
0.43691489 0.064211145 0.52360237 4279573275
0.43746805 0.064180762 0.52358752 4279638300
0.43802223 0.064150721 0.52357268 4279572507
0.43852437 0.064208925 0.52356821 4279769114
0.43902698 0.064267278 0.52356374 4280098328
0.4395836 0.064238027 0.52354896 4279638296
0.44008744 0.064296782 0.52354455 4279704859
0.44064581 0.064268082 0.52352977 4279573273
0.4411509 0.064327255 0.5235253 4279573526
0.44171095 0.064299136 0.52351058 4279705110
0.44227204 0.064271316 0.52349579 4279573524
0.44277906 0.064331129 0.52349138 4279639317
0.44328663 0.064391077 0.52348703 4279967512
0.44385016 0.064364061 0.52347231 4279966744
0.44441468 0.064337388 0.52345759 4279835158
0.44492418 0.064397991 0.52345324 4279835156
0.44543421 0.064458743 0.52344888 4279900949
0.44600117 0.064432874 0.52343422 4279901203
0.4465124 0.064494029 0.52342987 4279769114
0.44708112 0.064468697 0.52341521 4279834907
0.44759357 0.064530268 0.52341086 4279834907
0.44810656 0.064591974 0.52340657 4279703319
0.44867772 0.064567477 0.52339196 4279703572
0.4491919 0.064629585 0.52338761 4279704342
0.44976479 0.064605638 0.52337307 4279638549
0.45028022 0.064668149 0.52336878 4279704594
0.45079616 0.064730823 0.52336448 4279770385
0.45137149 0.064707682 0.52334988 4279704342
0.45194784 0.064684853 0.52333534 4279638298
0.45246571 0.064748168 0.52333111 4279638298
0.45304379 0.064725906 0.52331656 4279769882
0.45362282 0.064703941 0.52330208 4279835675
0.45420286 0.06468232 0.52328759 4279704089
0.45478389 0.064661011 0.52327311 4279638296
0.4553659 0.064640015 0.52325863 4279506963
0.45588797 0.064704701 0.52325439 4279703570
0.45647168 0.064684257 0.52323997 4279834899
0.4570564 0.06466417 0.52322555 4279703315
0.45764208 0.064644381 0.52321112 4279834901
0.4581669 0.064709932 0.52320695 4279703323
0.4587543 0.064690709 0.52319252 4279703315
0.45934272 0.0646718 0.52317816 4280032532
0.45993212 0.064653233 0.5231638 4279966739
0.46045962 0.064719677 0.52315962 4279703313
0.46105075 0.064701647 0.52314532 4279834909
0.46164283 0.064683944 0.52313095 4279834655
0.46223593 0.064666554 0.52311665 4279703069
0.46283001 0.064649507 0.52310234 4279834655
0.46336097 0.064717069 0.52309823 4279965214
0.4638924 0.064784795 0.52309418 4279768605
0.46448892 0.064768538 0.52307987 4279702042
0.46502161 0.064836666 0.52307582 4279833628
0.46555477 0.064904958 0.52307177 4279899924
0.46608844 0.064973399 0.52306771 4279638549
0.46668816 0.0649582 0.52305347 4279704340
0.46722305 0.065027043 0.52304941 4279770387
0.46782452 0.06501238 0.52303523 4279704594
0.46836066 0.065081641 0.52303118 4279769363
0.46889728 0.065151051 0.52302718 4279506712
0.4695012 0.065137178 0.523013 4279374350
0.47010612 0.065123662 0.52299881 4279242764
0.47064471 0.065193713 0.52299482 4278848263
0.47118378 0.065263927 0.52299082 4278915343
0.47172335 0.065334305 0.52298689 4278914577
0.47219536 0.065487862 0.52299303 4279307023
0.47259909 0.065724388 0.52300942 4279570195
0.47293377 0.066043615 0.52303588 4279768859
0.47333625 0.066279709 0.52305222 4279768609
0.47373825 0.066515654 0.52306855 4279767855
0.47407046 0.066834092 0.52309501 4279834400
0.47440168 0.067152187 0.52312142 4279834400
0.47466215 0.067552447 0.52315801 4279900700
0.47499117 0.067869812 0.52318442 4279966491
0.47524893 0.068269193 0.5232209 4279900951
0.47550523 0.068668082 0.52325743 4279966485
0.47583079 0.068984315 0.52328378 4279966994
0.47615537 0.069300264 0.52331018 4279901201
0.47640771 0.069697857 0.5233466 4279901453
0.47665858 0.070095003 0.52338308 4280295700
0.47705147 0.070327967 0.52339923 4280098578
0.47737184 0.070642546 0.52342558 4279967764
0.47769126 0.070956811 0.52345186 4279900949
0.47800967 0.071270734 0.52347809 4280098328
0.4783271 0.071584359 0.52350438 4280098328
0.47871655 0.071816206 0.52352053 4280098328
0.47917873 0.071966559 0.52352661 4280098328
0.47956741 0.072198197 0.52354276 4280098328
0.48002931 0.072348475 0.52354878 4280098328
0.48049122 0.072498754 0.52355486 4280098328
0.43123633 0.063941628 0.5241611 4278848010
0.43178037 0.063908294 0.52414668 4279112975
0.43227535 0.063964158 0.52414238 4279376147
0.43272051 0.064108998 0.52414823 4279507213
0.43326679 0.064076394 0.5241338 4279638799
0.43376324 0.064132735 0.52412951 4279704340
0.43431124 0.064100668 0.52411509 4279638801
0.43486023 0.064068943 0.52410072 4279769613
0.43535864 0.064125925 0.52409643 4279835408
0.43585756 0.064183086 0.5240922 4279901201
0.43640903 0.064152166 0.52407783 4279704089
0.43690917 0.0642097 0.5240736 4279573023
0.43746233 0.064179331 0.5240593 4279507484
0.4380165 0.06414929 0.52404499 4279441691
0.43851861 0.064207479 0.52404076 4279638296
0.43907452 0.06417799 0.52402645 4279836180
0.43957788 0.064236596 0.52402228 4279704340
0.44013548 0.064207658 0.52400798 4279705112
0.44064006 0.064266652 0.5240038 4279639319
0.44119939 0.06423828 0.52398956 4279573526
0.44170523 0.064297691 0.52398545 4279639317
0.44226629 0.064269871 0.5239712 4279573524
0.44277331 0.064329684 0.52396703 4279639317
0.4433361 0.06430243 0.52395284 4279901203
0.44384438 0.064362615 0.52394873 4279900949
0.44440889 0.064335942 0.52393454 4279900949
0.44491839 0.064396545 0.52393043 4279835410
0.44548464 0.064370409 0.52391624 4279835410
0.44599539 0.064431414 0.52391219 4279835408
0.44650662 0.064492568 0.52390808 4279835156
0.44701836 0.064553887 0.52390403 4279900441
0.44758779 0.064528808 0.5238899 4280032027
0.44810075 0.064590529 0.52388585 4279834901
0.44861418 0.064652413 0.52388173 4279769365
0.44918609 0.064628124 0.52386767 4279638298
0.44970077 0.064690411 0.52386361 4279770133
0.45021597 0.064752847 0.52385962 4279704340
0.45073164 0.064815447 0.52385557 4279770387
0.45130673 0.064792216 0.5238415 4279966742
0.45182365 0.064855218 0.52383751 4279769114
0.45245987 0.064746693 0.52381349 4279769114
0.45297825 0.064810187 0.52380949 4279900698
0.45355707 0.064788148 0.52379549 4279900698
0.45413685 0.064766422 0.52378154 4279835158
0.45477802 0.064659536 0.52375752 4279769365
0.45529935 0.064723969 0.52375358 4279572754
0.45588207 0.064703226 0.52373964 4279703824
0.45646581 0.064682782 0.52372569 4279900176
0.4570505 0.064662695 0.5237118 4279834648
0.45763621 0.064642891 0.52369791 4279768855
0.45822287 0.06462343 0.52368402 4279703066
0.4587484 0.064689234 0.52368009 4279571476
0.45933682 0.064670324 0.5236662 4279966739
0.45992619 0.064651757 0.52365237 4279900946
0.46051657 0.064633474 0.52363855 4279900176
0.46104479 0.064700156 0.52363467 4279834650
0.4616369 0.064682454 0.52362084 4279834655
0.46222997 0.064665064 0.52360702 4279834909
0.46282405 0.064648017 0.52359325 4279900702
0.463355 0.064715579 0.52358943 4280031261
0.46388644 0.064783305 0.52358562 4279965468
0.46441835 0.064851195 0.5235818 4279833882
0.4649508 0.064919248 0.52357799 4279965468
0.46554881 0.064903453 0.52356422 4280097054
0.46608245 0.064971909 0.5235604 4279769112
0.4666822 0.064956695 0.5235467 4279704340
0.46721709 0.065025553 0.52354294 4279704594
0.46775246 0.06509456 0.52353919 4279704594
0.46828833 0.065163732 0.52353537 4279769365
0.46889126 0.065149546 0.52352172 4279703319
0.46942836 0.065219119 0.52351797 4279374605
0.47003302 0.0652055 0.52350432 4279177226
0.47063869 0.065192208 0.52349067 4278848261
0.47117776 0.065262422 0.52348697 4278784010
0.47171736 0.065332785 0.52348322 4278717966
0.4721213 0.065569386 0.52349931 4279110927
0.47252476 0.065805823 0.5235154 4279374099
0.47292775 0.06604211 0.5235315 4279768857
0.47333023 0.066278204 0.52354753 4279703073
0.47366321 0.066596866 0.52357346 4279768107
0.47406447 0.066832587 0.52358955 4280029724
0.47439569 0.067150682 0.52361548 4280095517
0.47465616 0.067550957 0.52365124 4280097052
0.47498521 0.067868307 0.52367711 4279834905
0.47524297 0.068267703 0.52371287 4279835158
0.47556978 0.068584353 0.52373874 4279900949
0.47589558 0.068900704 0.52376461 4279966994
0.47614944 0.069298774 0.52380031 4279901201
0.47647303 0.069614395 0.52382612 4279901199
0.47679564 0.069929689 0.52385193 4280164368
0.4771173 0.07024467 0.52387774 4280098578
0.47743791 0.070559308 0.52390355 4279836180
0.47775757 0.070873663 0.5239293 4279900951
0.47814876 0.071106091 0.52394521 4280098330
0.47853941 0.071338341 0.52396113 4280098330
0.47885662 0.071651891 0.52398688 4280098330
0.47931927 0.071802408 0.52399296 4280098330
0.47970843 0.072034195 0.52400881 4280098330
0.48017085 0.072184637 0.52401489 4280098330
0.48063326 0.072335079 0.52402097 4280098330
0.41934955 0.069119304 0.52537841 4279179030
0.41972741 0.069347396 0.5253939 4279375896
0.43078622 0.063795626 0.52462262 4278848263
0.43128023 0.063851163 0.52461857 4278914056
0.43177471 0.063906863 0.52461451 4279243791
0.43221962 0.064051613 0.52462035 4279572756
0.43276513 0.064018771 0.52460647 4279637777
0.4332611 0.064074963 0.52460241 4279637777
0.43375754 0.064131305 0.52459842 4279769365
0.43430555 0.064099237 0.52458453 4279769365
0.43485454 0.064067513 0.52457064 4279769617
0.43535295 0.064124495 0.52456665 4279769617
0.43590367 0.064093336 0.52455282 4279835410
0.4364033 0.064150736 0.52454883 4279638298
0.43690348 0.064208269 0.52454484 4279507230
0.43745661 0.064177901 0.52453107 4279441687
0.43801078 0.064147845 0.52451724 4279375894
0.43856591 0.064118132 0.52450347 4279507733
0.43906879 0.064176545 0.52449954 4279507731
0.43962565 0.064147383 0.52448577 4279573524
0.44012973 0.064206213 0.52448183 4279639317
0.44068831 0.064177617 0.52446806 4279705110
0.44119364 0.064236835 0.52446419 4279705110
0.44175395 0.064208806 0.52445048 4279705112
0.44231522 0.064181075 0.52443677 4279835156
0.44282255 0.064240947 0.5244329 4279900949
0.44333035 0.064300984 0.52442902 4279966737
0.44389409 0.064274058 0.52441531 4279770385
0.44440311 0.064334497 0.5244115 4279639571
0.44496858 0.064308137 0.52439785 4279573778
0.44547883 0.064368963 0.52439398 4279573524
0.44598958 0.064429969 0.52439016 4279703822
0.44650084 0.064491123 0.52438635 4279900944
0.44701254 0.064552426 0.52438247 4279900692
0.44752479 0.064613909 0.52437866 4279966485
0.44809493 0.064589068 0.52436507 4279834899
0.4486084 0.064650953 0.52436131 4279769108
0.44912231 0.064712986 0.5243575 4279834648
0.44963676 0.064775184 0.52435368 4279966485
0.45021015 0.064751387 0.52434015 4279900692
0.45072579 0.064813986 0.5243364 4279966739
0.45124197 0.064876735 0.52433264 4280294934
0.45181781 0.064853743 0.52431911 4280097555
0.4523946 0.064831078 0.52430558 4280031762
0.45297241 0.064808726 0.52429211 4279900692
0.45349127 0.064872354 0.52428842 4279834901
0.45413098 0.064764962 0.52426517 4279835151
0.45471174 0.064743578 0.5242517 4279835151
0.45529348 0.064722493 0.52423829 4279901201
0.4558762 0.064701751 0.52422488 4279638801
0.45645994 0.064681306 0.52421147 4279965969
0.4570446 0.06466122 0.52419806 4279834901
0.45763031 0.064641416 0.5241847 4279769108
0.45821697 0.064621955 0.52417129 4279768859
0.45880464 0.064602792 0.52415794 4279703062
0.45933089 0.064668834 0.52415431 4279900946
0.45992029 0.064650267 0.52414095 4279900946
0.46044776 0.064716712 0.52413738 4280031247
0.46103889 0.064698666 0.52412403 4280097555
0.46163097 0.064680964 0.52411073 4280097301
0.46216044 0.064748049 0.52410716 4279900694
0.46275425 0.064730898 0.52409387 4279966487
0.46334904 0.064714089 0.52408063 4279900951
0.46388048 0.064781815 0.52407706 4279834901
0.46441239 0.06484969 0.52407348 4280031261
0.46494484 0.064917758 0.52406991 4280097054
0.46547776 0.064985961 0.52406639 4280031007
0.46607649 0.064970404 0.52405316 4279834907
0.46661061 0.065039024 0.52404964 4279441938
0.4672111 0.065024048 0.52403647 4279639066
0.4677465 0.065093055 0.52403295 4279836445
0.46828234 0.065162227 0.52402943 4279704093
0.46881872 0.065231562 0.52402592 4279769112
0.46942237 0.065217614 0.5240128 4279309066
0.47002703 0.065203995 0.52399963 4279045894
0.47056538 0.065273985 0.52399617 4278914054
0.4711042 0.06534411 0.52399272 4278914826
0.47164351 0.065414399 0.52398926 4279112205
0.47211528 0.065567881 0.5239954 4279241743
0.47251874 0.065804318 0.52401125 4279570708
0.47285321 0.066123456 0.52403671 4279703064
0.47332424 0.066276699 0.52404284 4279571480
0.47365719 0.066595376 0.5240683 4279768607
0.47391993 0.066996336 0.52410334 4280029976
0.47432017 0.067231745 0.52411914 4280095769
0.4746502 0.067549452 0.52414453 4279965466
0.47497922 0.067866817 0.52416986 4279834907
0.47530729 0.068183884 0.52419525 4279638300
0.47556382 0.068582863 0.52423018 4279638296
0.4759604 0.068817049 0.52424592 4279770133
0.4762145 0.069215208 0.52428085 4279835926
0.47653836 0.069530919 0.52430618 4279836180
0.47686121 0.069846287 0.52433145 4279901203
0.4771831 0.070161358 0.52435672 4279966739
0.47750401 0.070476085 0.524382 4279704340
0.47789615 0.070708826 0.52439767 4279639068
0.47821531 0.071023017 0.52442294 4279639068
0.47860622 0.071255371 0.52443862 4279639068
0.47899663 0.071487546 0.52445424 4279639068
0.47945979 0.071638227 0.52446032 4279639068
0.47984946 0.071870178 0.52447593 4279639068
0.48023868 0.072101966 0.52449161 4279639068
0.41981277 0.06916526 0.52581936 4279375894
0.43127453 0.063849747 0.52508616 4278717447
0.43176901 0.063905448 0.52508241 4279177998
0.432264 0.063961327 0.52507859 4279506963
0.43275946 0.064017341 0.52507484 4279769106
0.43325543 0.064073533 0.52507108 4279703313
0.43380266 0.064041227 0.52505767 4279769363
0.43429989 0.064097822 0.52505392 4279638549
0.43484885 0.064066082 0.52504057 4279638549
0.43539879 0.064034671 0.52502728 4279638547
0.43589795 0.064091906 0.52502352 4279835926
0.43639761 0.064149305 0.52501982 4279638298
0.43695003 0.064118683 0.52500653 4279573023
0.43750346 0.064088389 0.52499324 4279441940
0.43800506 0.064146414 0.52498955 4279441940
0.43856019 0.064116687 0.52497625 4279376660
0.43906304 0.064175114 0.52497256 4279311637
0.4396199 0.064145952 0.52495933 4279311637
0.44012398 0.064204782 0.52495563 4279508763
0.44068256 0.064176172 0.52494246 4279442970
0.44124213 0.06414789 0.52492923 4279639579
0.4417482 0.06420736 0.52492559 4279967514
0.44230947 0.064179629 0.52491242 4279900692
0.44281676 0.064239502 0.52490878 4279966485
0.44337979 0.064212322 0.52489561 4279900944
0.44388831 0.064272612 0.52489203 4279901201
0.44439733 0.064333037 0.5248884 4279704594
0.4449628 0.064306676 0.52487528 4279704594
0.44547305 0.064367503 0.52487171 4279704342
0.44598377 0.064428508 0.52486813 4279573008
0.44649503 0.064489663 0.52486455 4279835151
0.44694978 0.064637616 0.52487051 4279966739
0.44746175 0.064699009 0.52486694 4279966739
0.44803166 0.064674094 0.52485389 4279835153
0.44854486 0.064735889 0.52485031 4279834901
0.44905856 0.064797848 0.52484679 4279900694
0.44957274 0.064859971 0.52484328 4279901201
0.45014587 0.064836085 0.52483022 4279835408
0.4506613 0.06489861 0.52482671 4279770133
0.45123613 0.064875275 0.52481371 4280163864
0.45181197 0.064852282 0.52480072 4279966485
0.45238876 0.064829618 0.52478772 4280032278
0.45290691 0.064893007 0.52478427 4279900692
0.45348543 0.064870894 0.52477127 4279834901
0.45412511 0.064763486 0.52474886 4279769615
0.45470586 0.064742118 0.52473593 4279901201
0.45528761 0.064721018 0.52472299 4279638799
0.45587033 0.064700276 0.52471012 4279638549
0.45645404 0.064679831 0.52469718 4279770135
0.4570387 0.064659745 0.52468431 4279704342
0.45762441 0.064639941 0.52467144 4279638549
0.45821106 0.064620465 0.52465862 4279638549
0.45879871 0.064601302 0.52464575 4279769365
0.45932499 0.064667344 0.52464241 4279835153
0.45991436 0.064648777 0.52462959 4279900946
0.46044183 0.064715222 0.5246262 4280031758
0.46103293 0.064697176 0.52461344 4280097553
0.46162504 0.064679474 0.52460063 4280162831
0.46215451 0.064746559 0.52459729 4279769356
0.46274829 0.064729407 0.52458453 4279835149
0.46327901 0.06479691 0.52458119 4279508498
0.46387452 0.064780325 0.5245685 4280030995
0.46440643 0.064848199 0.52456516 4280097052
0.46493888 0.064916253 0.52456188 4280097052
0.4654718 0.064984471 0.5245586 4280031261
0.46607053 0.064968914 0.52454591 4279966234
0.46660465 0.065037519 0.52454263 4279572756
0.46720511 0.065022558 0.52452999 4279639068
0.46774048 0.06509155 0.52452672 4279704861
0.46827638 0.065160722 0.52452344 4279573275
0.4688127 0.065230057 0.52452022 4279507997
0.46934956 0.065299541 0.524517 4279374358
0.46995398 0.065285832 0.52450436 4279242772
0.47049206 0.065355733 0.52450114 4278782989
0.47103065 0.065425798 0.52449793 4278914575
0.47156972 0.065496013 0.52449471 4279045642
0.47204122 0.065649405 0.52450091 4279438607
0.47244447 0.065885767 0.52451646 4279570193
0.47284719 0.066121951 0.52453202 4279702294
0.47324947 0.066357985 0.52454758 4279571478
0.47358218 0.066676572 0.52457249 4279571480
0.47391391 0.066994846 0.52459735 4279572257
0.47431421 0.06723024 0.5246129 4279309085
0.47464421 0.067547947 0.52463776 4279178519
0.47497326 0.067865312 0.52466261 4279507985
0.47530133 0.068182394 0.52468747 4279637779
0.47562838 0.068499133 0.52471232 4279769365
0.47595444 0.068815559 0.52473712 4279966742
0.47635055 0.069049597 0.52475256 4279966742
0.47667491 0.069365442 0.52477735 4279835926
0.47692677 0.0697629 0.52481151 4279769114
0.47732064 0.069996208 0.52482694 4279900951
0.47764206 0.070311114 0.52485168 4279639066
0.47796246 0.070625678 0.52487642 4279769632
0.47835436 0.070858344 0.52489185 4279703839
0.47867304 0.071172372 0.52491659 4279703839
0.47913671 0.071323216 0.52492267 4279703839
0.47952712 0.071555406 0.52493805 4279703839
0.47999048 0.071706161 0.52494413 4279703839
0.41506922 0.0063094944 0.52036482 4280822296
0.4156363 0.0064939857 0.52037221 4280756503
0.41620344 0.0066784918 0.52037966 4280032528
0.41677052 0.006862998 0.52038711 4279177226
0.41733766 0.0070475042 0.52039456 4278782989
0.41909504 0.068616658 0.52622533 4279310614
0.41947415 0.068845153 0.52624029 4279442200
0.41989812 0.068983078 0.52624589 4279441689
0.42027649 0.069211349 0.52626085 4279639066
0.42070022 0.0693492 0.5262664 4279442200
0.43131843 0.063759267 0.52554446 4278717447
0.43176335 0.063904017 0.52555025 4279112205
0.43225831 0.063959897 0.52554673 4279506712
0.4327538 0.064015925 0.52554321 4279572507
0.43324974 0.064072117 0.5255397 4279506714
0.433797 0.064039811 0.52552688 4279507480
0.43429416 0.064096391 0.52552336 4279441437
0.43484312 0.064064652 0.52551055 4279638298
0.4353931 0.06403324 0.52549773 4279572754
0.43589222 0.064090475 0.52549428 4279704340
0.43644392 0.064059615 0.52548146 4279638296
0.43699658 0.064029083 0.52546865 4279573023
0.43749774 0.064086959 0.52546525 4279507993
0.43805209 0.064056993 0.52545249 4279376407
0.43860745 0.064027324 0.52543974 4279377430
0.43911058 0.064085841 0.52543628 4279311637
0.43966767 0.064056739 0.52542359 4279311637
0.44017202 0.064115644 0.52542019 4279377430
0.44067681 0.064174727 0.52541679 4279442970
0.44123638 0.064146444 0.5254041 4279640349
0.44179693 0.064118475 0.5253914 4279966744
0.44230372 0.064178184 0.52538806 4279966485
0.44286597 0.064150766 0.52537537 4280032278
0.44337401 0.064210877 0.52537203 4279835410
0.44388252 0.064271167 0.52536869 4279835410
0.44444728 0.064244568 0.52535605 4279704340
0.44495702 0.064305231 0.52535272 4279638547
0.44546726 0.064366058 0.52534944 4279770135
0.44597799 0.064427063 0.5253461 4279638801
0.44643253 0.064574942 0.52535206 4279835153
0.446944 0.064636171 0.52534872 4279966739
0.44745594 0.064697564 0.52534544 4279900946
0.44796842 0.064759105 0.52534217 4279834899
0.44853908 0.064734429 0.52532959 4279900692
0.44899482 0.064882711 0.52533555 4279966485
0.44956696 0.064858511 0.52532303 4279901203
0.45008162 0.064920783 0.52531976 4279901203
0.45059681 0.064983219 0.52531654 4279704340
0.4511714 0.064959824 0.52530402 4280163866
0.45174694 0.064936742 0.52529156 4279966487
0.4523235 0.064913988 0.5252791 4280032280
0.45290107 0.064891532 0.52526665 4279900692
0.45353949 0.064783752 0.52524495 4279835156
0.45411927 0.064762011 0.52523255 4279638799
0.45469999 0.064740643 0.5252201 4279836178
0.45528173 0.064719558 0.5252077 4279638799
0.45592535 0.064613432 0.52518612 4279769363
0.45650929 0.064593077 0.52517372 4279900949
0.45709422 0.064573064 0.52516139 4279705112
0.45768014 0.064553335 0.52514905 4279441940
0.45826703 0.064533949 0.52513671 4279507733
0.45879281 0.064599827 0.52513355 4279703570
0.45931906 0.064665869 0.52513045 4279835153
0.45990843 0.064647302 0.52511817 4279900946
0.46043593 0.064713731 0.52511507 4279965967
0.46102703 0.064695686 0.52510279 4279966739
0.46161908 0.064677984 0.52509052 4280097551
0.46214855 0.064745069 0.52508748 4279835149
0.46274236 0.064727917 0.5250752 4279769356
0.46327305 0.06479542 0.52507216 4279246096
0.46380422 0.064863071 0.52506912 4280096018
0.46440047 0.064846709 0.5250569 4280162330
0.46493292 0.064914763 0.52505386 4280162330
0.46546581 0.064982966 0.52505082 4280097050
0.46606454 0.064967409 0.52503866 4280098330
0.46659869 0.065036029 0.52503562 4279638296
0.46713331 0.065104812 0.52503264 4279836449
0.46773452 0.06509006 0.52502048 4279704863
0.46827036 0.065159217 0.5250175 4279573277
0.46880674 0.065228552 0.52501452 4279441952
0.4693436 0.065298051 0.52501154 4279178269
0.46988094 0.065367684 0.52500856 4278980890
0.47041875 0.065437496 0.52500558 4278717714
0.4709571 0.065507472 0.52500266 4278783759
0.47149593 0.065577626 0.52499968 4279045389
0.47196719 0.065730944 0.52500588 4279373580
0.47237018 0.065967202 0.5250212 4279570959
0.4728412 0.066120446 0.52502733 4279702545
0.47317469 0.066439271 0.52505177 4279571478
0.47357619 0.066675082 0.52506703 4279702294
0.47390795 0.066993341 0.52509141 4279506464
0.47430822 0.067228734 0.52510667 4279177499
0.47456849 0.06762892 0.52514011 4279047446
0.4749673 0.067863822 0.52515537 4279703822
0.47529536 0.068180889 0.52517968 4280096270
0.47569293 0.068415418 0.52519488 4280031249
0.47601923 0.068731904 0.5252192 4280032532
0.47641557 0.068966031 0.5252344 4280032532
0.47666895 0.069363952 0.52526778 4279900951
0.47699231 0.069679499 0.52529204 4279571476
0.47738644 0.069912896 0.52530724 4279900694
0.4777081 0.070227876 0.5253315 4279769882
0.47802877 0.070542544 0.5253557 4279900700
0.47842091 0.07077527 0.52537084 4279834907
0.47881258 0.071007863 0.52538604 4279834907
0.47920376 0.071240306 0.52540118 4279834907
0.47959441 0.07147257 0.52541625 4279834907
0.48005807 0.071623415 0.52542233 4279834907
0.48044798 0.071855441 0.52543747 4279834907
0.41446331 0.0062180758 0.52096307 4280888094
0.41506198 0.0063076764 0.52096117 4280690715
0.41559702 0.0065869242 0.52097791 4280624922
0.41616389 0.006771341 0.52098536 4279703824
0.41676331 0.0068611801 0.52098346 4278914056
0.41733041 0.0070456862 0.52099091 4278782217
0.41786447 0.0073246062 0.52100766 4278783238
0.41913453 0.068524733 0.52666229 4279376407
0.41960412 0.068572327 0.52665865 4279442202
0.42002884 0.068710506 0.52666426 4279376407
0.42045355 0.068848684 0.5266698 4279442200
0.42116466 0.069395542 0.52670836 4279836958
0.43131277 0.063757852 0.5260123 4278652171
0.43180749 0.063813642 0.52600902 4279047182
0.43230271 0.063869581 0.5260058 4279244310
0.43279842 0.063925698 0.52600253 4279441691
0.43329459 0.063981965 0.52599925 4279375898
0.43379128 0.064038381 0.52599603 4279441689
0.43433952 0.064006403 0.52598369 4279441437
0.43488872 0.063974738 0.52597141 4279572507
0.43538737 0.064031824 0.52596819 4279769112
0.4359383 0.064000726 0.52595592 4279769112
0.4364382 0.064058185 0.5259527 4279572503
0.43699086 0.064027637 0.52594042 4279441950
0.43749201 0.064085528 0.52593726 4279507993
0.43804637 0.064055547 0.52592498 4279442200
0.43860173 0.064025894 0.52591276 4279508246
0.43915808 0.063996553 0.52590054 4279311637
0.43966192 0.064055309 0.52589738 4279377430
0.44016623 0.064114213 0.52589428 4279311637
0.44072506 0.064085677 0.52588207 4279442970
0.44123062 0.064144999 0.52587897 4279640349
0.44179118 0.064117029 0.52586681 4280098330
0.44235268 0.064089373 0.52585465 4279966742
0.44286022 0.06414932 0.52585155 4279966742
0.44342345 0.064122245 0.52583945 4279505940
0.44393224 0.064182594 0.52583635 4279704093
0.4444415 0.064243108 0.52583325 4279573273
0.44495124 0.064303786 0.52583021 4279573273
0.44546145 0.064364612 0.52582711 4279835926
0.4459722 0.064425617 0.52582407 4279573008
0.44648343 0.064486757 0.52582103 4279835410
0.44693822 0.064634711 0.52582699 4279900949
0.44745016 0.064696103 0.52582395 4279835156
0.44796261 0.064757645 0.52582091 4279900694
0.44847557 0.064819381 0.52581787 4280032280
0.44898903 0.06488125 0.52581483 4279835156
0.44950294 0.064943299 0.52581185 4279704340
0.45001739 0.065005481 0.52580881 4279704340
0.45059097 0.064981759 0.52579683 4279639066
0.45116556 0.064958349 0.52578485 4280032027
0.45168197 0.065021187 0.52578187 4279835158
0.45231766 0.064912528 0.52576095 4279966744
0.45289522 0.064890072 0.52574903 4279900949
0.45347375 0.064867958 0.52573705 4280098582
0.45411339 0.064760551 0.52571619 4279769617
0.45475453 0.06465365 0.52569532 4279835410
0.45533651 0.064632654 0.52568346 4279966737
0.45591944 0.064611971 0.5256716 4280162315
0.45656452 0.064506352 0.5256508 4280097038
0.45708832 0.064571589 0.52564788 4280098328
0.45767424 0.06455186 0.52563608 4279769363
0.45826113 0.064532459 0.52562428 4279442453
0.4587869 0.064598352 0.52562141 4279835410
0.4593755 0.064579502 0.52560961 4279835151
0.45990252 0.064645812 0.52560675 4279835151
0.46043 0.064712256 0.52560389 4279966737
0.46102107 0.064694211 0.52559215 4279966994
0.46161315 0.064676493 0.52558041 4280097551
0.46214262 0.064743578 0.5255776 4280031760
0.46273643 0.064726427 0.52556586 4279965967
0.46326709 0.064793929 0.52556306 4279769363
0.46379828 0.064861566 0.52556026 4279964951
0.46432996 0.064929366 0.52555752 4280030746
0.46492696 0.064913273 0.52554584 4280096539
0.46545985 0.064981475 0.52554303 4280162583
0.46605858 0.064965919 0.52553141 4280097301
0.4665927 0.065034524 0.52552861 4279769363
0.46719316 0.065019548 0.52551699 4280098330
0.46766245 0.065172225 0.52552313 4279966744
0.46819806 0.065241322 0.52552044 4279704093
0.46873417 0.065310568 0.5255177 4279506982
0.46933758 0.065296546 0.52550608 4279308579
0.46980786 0.065449536 0.52551228 4279045407
0.47041276 0.065435991 0.52550066 4278848280
0.47095108 0.065505967 0.52549797 4278782989
0.47148991 0.065576106 0.52549529 4278848782
0.47189313 0.065812454 0.52551031 4279439120
0.47236416 0.065965712 0.52551651 4279570706
0.4727667 0.066201806 0.52553153 4279636237
0.47316867 0.066437766 0.52554655 4279834383
0.4735702 0.066673577 0.52556157 4279571476
0.47390193 0.066991836 0.52558541 4279505942
0.47430223 0.067227244 0.52560043 4279440149
0.4745625 0.067627415 0.5256331 4279308561
0.47496131 0.067862317 0.52564812 4279703313
0.47535962 0.068097085 0.52566308 4280292622
0.47568697 0.068413913 0.52568686 4280292874
0.47608402 0.068648264 0.52570182 4280359440
0.47640961 0.068964541 0.5257256 4280293647
0.47673425 0.06928046 0.52574939 4279768866
0.47705787 0.069596097 0.52577311 4279702294
0.47745225 0.069829583 0.52578807 4280096020
0.47777414 0.070144638 0.52581179 4279965715
0.47809505 0.070459381 0.52583551 4279769116
0.47848746 0.070692211 0.52585042 4279966495
0.47887939 0.070924863 0.52586526 4279966495
0.47927082 0.071157381 0.52588016 4279966495
0.47973493 0.071308374 0.52588624 4279966495
0.48012561 0.071540654 0.52590114 4279966495
0.48058948 0.071691573 0.52590722 4279966495
0.41388923 0.006031841 0.52155173 4281020704
0.41445607 0.0062162578 0.52155918 4280822301
0.41502294 0.0064006895 0.52156663 4280494108
0.41558981 0.0065851063 0.52157402 4280428315
0.41615665 0.006769523 0.52158147 4279637777
0.41672352 0.0069539547 0.52158892 4278914056
0.41729039 0.0071383715 0.52159631 4278651401
0.41789028 0.0072283745 0.5215947 4278783238
0.41921887 0.068342224 0.52709079 4279376660
0.4195987 0.068570971 0.52710527 4279442200
0.42002344 0.06870915 0.52711087 4279376660
0.42044812 0.068847328 0.52711642 4279442453
0.420827 0.069075763 0.5271309 4279639832
0.42120534 0.069304019 0.52714533 4279837211
0.42162958 0.069442034 0.52715093 4280363302
0.43135667 0.063667402 0.52647132 4278717964
0.4318018 0.063812226 0.52647716 4278981136
0.43234706 0.063779294 0.5264653 4279244308
0.43279272 0.063924283 0.52647114 4279375898
0.43328893 0.063980535 0.52646816 4279375898
0.4338364 0.063948303 0.52645636 4279376409
0.43438488 0.063916415 0.52644455 4279376411
0.43488303 0.063973308 0.52644157 4279572507
0.43543321 0.063941985 0.52642983 4279834905
0.43593261 0.063999295 0.52642685 4279834905
0.43643251 0.064056754 0.52642393 4279572503
0.43698514 0.064026207 0.52641219 4279507230
0.43753877 0.063996002 0.52640045 4279507993
0.43809339 0.06396611 0.5263887 4279442200
0.43859601 0.064024448 0.52638584 4279508246
0.43915236 0.063995123 0.5263741 4279442453
0.43965617 0.064053863 0.52637124 4279508246
0.44016051 0.064112768 0.52636838 4279442453
0.44071931 0.064084247 0.5263567 4279443223
0.44127911 0.064056039 0.52634501 4279509016
0.4417854 0.064115584 0.52634215 4279966744
0.44234693 0.064087927 0.52633053 4279966742
0.44285443 0.064147875 0.52632773 4279966742
0.44336247 0.064207986 0.52632487 4279769365
0.44392645 0.064181134 0.5263133 4279639070
0.44443569 0.064241663 0.52631044 4279507995
0.44494545 0.064302325 0.52630764 4279573788
0.44545567 0.064363152 0.52630484 4279835928
0.44596642 0.064424157 0.52630204 4279573008
0.44647765 0.064485312 0.52629924 4279769617
0.44693241 0.064633265 0.5263052 4279900949
0.44744438 0.064694643 0.5263024 4279835156
0.4479568 0.0647562 0.52629966 4279900692
0.44846976 0.06481792 0.52629685 4279966742
0.44898319 0.06487979 0.52629411 4279638549
0.44949713 0.064941838 0.52629137 4279573526
0.45001155 0.065004021 0.52628863 4279573526
0.45058516 0.064980313 0.52627712 4279639319
0.4511008 0.065042898 0.52627438 4279966744
0.45167613 0.065019727 0.52626294 4279704342
0.45231181 0.064911053 0.52624279 4279835928
0.45288935 0.064888611 0.52623135 4279835926
0.45346788 0.064866483 0.52621996 4279967514
0.45410752 0.064759076 0.52619988 4279638549
0.45480904 0.064566642 0.52617109 4279704342
0.45539126 0.064545736 0.5261597 4280097553
0.45591357 0.064610481 0.52615708 4280162315
0.45649749 0.064590126 0.52614576 4280097040
0.45720518 0.064399704 0.52611703 4280032280
0.45772997 0.064465269 0.5261144 4279834901
0.45825523 0.064530984 0.52611184 4279442200
0.45878097 0.064596862 0.52610922 4279704594
0.4593696 0.064578027 0.52609795 4279835151
0.45989659 0.064644322 0.52609533 4279835151
0.46048692 0.064626038 0.52608413 4279900946
0.46101516 0.064692721 0.5260815 4280032530
0.46160722 0.064675003 0.5260703 4280031758
0.46213669 0.064742088 0.52606773 4280031760
0.46273047 0.064724922 0.52605653 4279965967
0.46326113 0.064792439 0.52605402 4279769365
0.46379232 0.064860076 0.52605146 4279965466
0.464324 0.064927876 0.52604896 4280030748
0.464921 0.064911783 0.52603775 4280096541
0.46545386 0.06497997 0.52603525 4280228123
0.46605259 0.064964414 0.5260241 4280097303
0.46658671 0.065033033 0.52602166 4279769358
0.46712136 0.065101802 0.52601916 4280163864
0.46765649 0.065170735 0.52601665 4280032278
0.4681921 0.065239817 0.52601421 4279900698
0.46872818 0.065309063 0.52601171 4279703841
0.46926481 0.065378472 0.52600926 4279373856
0.46980187 0.065448046 0.52600682 4279176477
0.47033948 0.065517768 0.52600437 4278848534
0.47094506 0.065504462 0.52599329 4278848782
0.47141612 0.065657705 0.52599949 4278782989
0.47188711 0.065810949 0.52600569 4279242515
0.47235817 0.065964192 0.52601182 4279439894
0.47276068 0.066200316 0.52602661 4279702284
0.47316268 0.066436261 0.52604139 4279702797
0.47356421 0.066672072 0.52605611 4279440147
0.47389597 0.066990331 0.52607948 4279571476
0.47429627 0.067225739 0.5260942 4279505683
0.4746263 0.067543462 0.52611756 4279374097
0.47495535 0.067860827 0.52614081 4279637526
0.47535366 0.06809558 0.52615553 4280095505
0.47575149 0.068330184 0.52617025 4280227341
0.47607806 0.068646774 0.52619356 4280162833
0.47640368 0.068963051 0.5262168 4280162833
0.47679955 0.069196999 0.52623147 4279638048
0.47712344 0.069512695 0.52625471 4279637276
0.47744632 0.069828093 0.52627796 4279899671
0.47784019 0.070061401 0.52629262 4279899409
0.47816133 0.070376217 0.52631581 4280162581
0.47855401 0.070609137 0.52633041 4279966243
0.47894615 0.070841894 0.52634507 4279966243
0.47926489 0.071155906 0.52636826 4279966243
0.479729 0.071306899 0.52637434 4279966243
0.48011971 0.071539178 0.52638894 4279966243
0.48058358 0.071690097 0.52639502 4279966243
0.41328406 0.0059406757 0.52214926 4281613093
0.41385067 0.006125018 0.52215666 4281151772
0.41441727 0.0063093603 0.52216411 4280822555
0.4150157 0.0063988715 0.52216274 4280427545
0.41558257 0.0065832883 0.52217013 4280230166
0.41614944 0.00676772 0.52217758 4279440400
0.41668373 0.0070467144 0.52219379 4278913803
0.41728315 0.0071365535 0.52219242 4278651401
0.41785002 0.0073209852 0.52219987 4278717447
0.41841689 0.007505402 0.52220732 4278717447
0.41916859 0.068431437 0.52754635 4279573526
0.4196384 0.068479121 0.52754325 4279441938
0.42001802 0.068707794 0.52755749 4279638801
0.4203971 0.068936303 0.52757168 4279573273
0.42077571 0.069164649 0.52758586 4279574039
0.42110774 0.069482997 0.52760869 4279903004
0.42153147 0.069620848 0.5276143 4280692269
0.43189573 0.063632876 0.52692813 4278981136
0.43239143 0.063688979 0.52692538 4279178517
0.43283734 0.063834041 0.52693123 4279441689
0.43333378 0.063890383 0.52692848 4279375896
0.43383071 0.063946873 0.5269258 4279310616
0.43437916 0.063914984 0.52691448 4279310366
0.4349286 0.063883409 0.52690321 4279703319
0.43542749 0.063940555 0.52690053 4279572503
0.43592691 0.063997865 0.52689785 4279638296
0.43647879 0.063967079 0.52688664 4279638549
0.43703169 0.063936621 0.52687538 4279638549
0.43753305 0.063994557 0.52687275 4279704340
0.43803489 0.064052671 0.52687007 4279638547
0.43859026 0.064023018 0.52685887 4279704594
0.43914661 0.063993677 0.52684772 4279442705
0.43965042 0.064052418 0.52684504 4279508244
0.44015476 0.064111322 0.52684242 4279508244
0.44071355 0.064082801 0.52683127 4279508246
0.44121909 0.064142108 0.52682871 4279574039
0.44177964 0.064114138 0.52681756 4279835926
0.44234115 0.064086482 0.52680647 4279835926
0.44290364 0.064059138 0.52679533 4279967512
0.44341192 0.064119339 0.52679276 4279704340
0.44392067 0.064179689 0.5267902 4279639319
0.4444299 0.064240217 0.52678764 4279442453
0.44493967 0.06430088 0.52678508 4279508246
