# .PCD v0.7 - Point Cloud Data file format
VERSION 0.7
FIELDS x y z rgb
SIZE 4 4 4 4
TYPE F F F U
COUNT 1 1 1 1
WIDTH 1062
HEIGHT 1
VIEWPOINT 0 0 0 1 0 0 0
POINTS 1062
DATA ascii
0.42187655 0.030034862 0.49925625 4278717699
0.42192546 0.030563451 0.49913067 4278717447
0.42205957 0.031054504 0.49904767 4278782991
0.42219311 0.031544715 0.49896467 4278651401
0.42241246 0.031998239 0.49892423 4278783240
0.4225449 0.032486998 0.4988412 4278783240
0.42258996 0.033010364 0.49871558 4278652173
0.42272103 0.033497229 0.49863255 4278454796
0.4228515 0.033983268 0.49854952 4278520335
0.42289412 0.034503289 0.49842387 4278520337
0.42293584 0.035022043 0.49829826 4278585861
0.42306417 0.035505153 0.4982152 4278651654
0.42310417 0.03602162 0.49808955 4278520838
0.42323112 0.036502846 0.49800649 4278520585
0.42326948 0.03701701 0.49788082 4278521351
0.42330688 0.037529908 0.49775517 4278520838
0.42343169 0.03800822 0.49767208 4278782217
0.42346746 0.038518816 0.4975464 4278782217
0.42359084 0.038995244 0.49746332 4278586382
0.4236249 0.039503552 0.49733764 4278586378
0.42365807 0.040010609 0.49721193 4278586631
0.42377931 0.040484101 0.49712881 4278652422
0.42390001 0.040956765 0.49704573 4278586629
0.42393067 0.041460469 0.49691999 4278323712
0.42404997 0.041931257 0.4968369 4278520836
0.42416865 0.042401191 0.49675378 4278520585
0.42428666 0.042870294 0.49667066 4278585861
0.42440414 0.043338563 0.49658751 4278914308
0.42452097 0.043806005 0.4965044 4278782722
0.4246372 0.044272594 0.49642128 4278782468
0.4247528 0.044738356 0.49633813 4278979847
0.42486781 0.04520328 0.49625498 4278717445
0.42498219 0.045667373 0.49617183 4278782213
0.42509598 0.046130624 0.49608868 4278716675
0.42511809 0.046622623 0.49596292 4278848261
0.42523047 0.047084 0.49587974 4278782468
0.42534226 0.047544532 0.49579656 4278520836
0.42545342 0.048004229 0.49571341 4278585861
0.42547232 0.048491847 0.49558759 4278717445
0.42549032 0.048978206 0.49546179 4278651652
0.42559934 0.049434975 0.49537861 4278717699
0.42570782 0.049890909 0.49529541 4278717447
0.42581558 0.050346009 0.4952122 4278848010
0.42592278 0.050800268 0.49512902 4278585091
0.42602932 0.051253706 0.49504581 4278782470
0.4261353 0.051706288 0.49496263 4278782470
0.42633355 0.052130967 0.49492204 4278651654
0.42643845 0.0525821 0.49483883 4278717447
0.42654273 0.053032387 0.4947556 4278913803
0.42664641 0.05348184 0.49467236 4278716426
0.42684296 0.053904213 0.4946318 4278454794
0.42694557 0.054352213 0.49454856 4278520587
0.42704755 0.054799367 0.49446532 4278783240
0.42714894 0.055245683 0.49438208 4278914826
0.42724967 0.055691171 0.49429885 4279112205
0.42734987 0.056135818 0.49421561 4278651403
0.42744938 0.056579631 0.49413234 4278717196
0.42745376 0.057047382 0.49400643 4278783238
0.42745721 0.057513874 0.49388051 4278717445
0.42755461 0.05795477 0.49379724 4278783240
0.42755637 0.058418967 0.49367133 4278717194
0.42765236 0.058857981 0.49358803 4278849033
0.42774779 0.059296139 0.49350476 4278849033
0.42784259 0.059733465 0.49342149 4278585608
0.42793673 0.060169965 0.4933382 4278849031
0.4281261 0.060582515 0.49329755 4278849285
0.4282192 0.061017547 0.49321425 4278914054
0.42840782 0.061429057 0.4931736 4278848261
0.42859608 0.061840139 0.49313298 4278848261
0.42878407 0.062250819 0.49309233 4279177226
0.4290683 0.062639005 0.49309433 4279308555
0.42925581 0.063049048 0.49305367 4279373832
0.429443 0.063458666 0.49301302 4279045633
0.42962992 0.063867882 0.49297237 4279308805
0.42981654 0.064276665 0.49293172 4279177476
0.43010014 0.064664021 0.49293372 4279045892
0.43038374 0.065051377 0.49293575 4279177226
0.43056971 0.065459326 0.49289507 4279243273
0.43085319 0.065846473 0.49289709 4279177480
0.43103868 0.066253796 0.49285641 4279046664
0.43132198 0.066640735 0.49285841 4278915846
0.43170351 0.067007914 0.49290311 4278915844
0.43188858 0.067414612 0.49286243 4278718467
0.43227041 0.067782208 0.49290711 4278784260
0.43255389 0.068169355 0.49290913 4279308805
0.43293619 0.068537563 0.49295381 4279374852
0.43331879 0.068906203 0.49299848 4279309059
0.43370169 0.06927526 0.49304318 4279309059
0.43408489 0.069644734 0.49308789 4279309059
0.43456787 0.069996536 0.49317527 4279309059
0.43505147 0.070349172 0.49326265 4279309059
0.43553567 0.07070265 0.49335003 4279309059
0.43602049 0.071056969 0.49343741 4279309059
0.43650591 0.071412101 0.49352482 4279309059
0.41314673 -0.057381533 0.52049452 4278718481
0.41313601 -0.056473859 0.52024126 4278850063
0.41312352 -0.055568703 0.51998794 4278915596
0.41310918 -0.054666065 0.51973462 4278914826
0.41309297 -0.0537659 0.51948124 4278981136
0.41314107 -0.052931644 0.5192706 4278915343
0.41312137 -0.052036323 0.51901722 4278783761
0.41309983 -0.051143475 0.51876384 4278783761
0.41320962 -0.050378673 0.51859581 4278783761
0.41325146 -0.049552985 0.51838505 4278717964
0.41329178 -0.048729382 0.51817435 4278784010
0.41339761 -0.047969989 0.51800627 4278784010
0.41356942 -0.047274195 0.51788092 4278914826
0.4136056 -0.04645624 0.51767015 4279111952
0.41370773 -0.045701869 0.51750201 4279046159
0.41394401 -0.045071743 0.51741928 4279046159
0.40866113 -0.032304995 0.51189536 4283320377
0.4088738 -0.031707056 0.51181245 4283320377
0.40929443 -0.031286307 0.51185763 4282860596
0.40971532 -0.03086511 0.51190287 4282663217
0.41006672 -0.030385159 0.51190531 4282400299
0.41041815 -0.029905193 0.51190782 4282268713
0.4109799 -0.029599048 0.51203841 4281873955
0.41147232 -0.02923394 0.51212633 4281149980
0.41189492 -0.028810449 0.51217151 4280164368
0.41238838 -0.028443865 0.51225942 4278979847
0.41281176 -0.028019346 0.5123046 4278651405
0.41323543 -0.027594395 0.51234984 4278651405
0.41358835 -0.027112342 0.51235235 4278782991
0.4138701 -0.026573814 0.51231211 4278651403
0.4140802 -0.025979437 0.5122292 4278717447
0.41428968 -0.025385894 0.51214623 4278652424
0.41449857 -0.024793185 0.51206332 4278652424
0.41456324 -0.024090044 0.51189494 4278586643
0.41477057 -0.023499407 0.51181203 4278652175
0.4148331 -0.022799201 0.51164365 4278850065
0.4148944 -0.022100635 0.51147527 4278652171
0.41495442 -0.021403752 0.51130688 4278652171
0.41501331 -0.020708546 0.5111385 4278652171
0.41507089 -0.020015001 0.51097006 4278717964
0.41512734 -0.01932314 0.51080167 4278652171
0.41525549 -0.018686913 0.51067597 4278848780
0.41530961 -0.017998189 0.51050752 4278782987
0.41536248 -0.017311126 0.51033908 4278782987
0.41541415 -0.016625747 0.51017064 4278849033
0.41546458 -0.015942037 0.5100022 4278914056
0.41558754 -0.015312918 0.50987643 4278914826
0.4156357 -0.014632337 0.50970799 4278782989
0.4157567 -0.014005944 0.50958222 4278717964
0.41580254 -0.0133285 0.50941372 4278586378
0.41584712 -0.012652732 0.50924522 4278652171
0.41589051 -0.011978634 0.50907671 4278586378
0.41593269 -0.011306211 0.50890821 4278586380
0.4159736 -0.010635458 0.50873965 4278717196
0.41608834 -0.010017633 0.50861388 4278652171
0.41627735 -0.0094520971 0.5085308 4278586378
0.41639036 -0.0088365674 0.50840497 4278520585
0.41657799 -0.0082729235 0.50832188 4278586378
0.41668934 -0.0076596886 0.50819612 4278717964
0.41695136 -0.0071481243 0.5081557 4278586378
0.41167945 0.0034817085 0.50322276 4283058740
0.41207692 0.0038709044 0.50326777 4282926639
0.41247472 0.0042605177 0.50331283 4282860848
0.41295075 0.0046032742 0.50340056 4282991666
0.41342741 0.0049468651 0.50348836 4282400299
0.41398287 0.0052444339 0.5036189 4281873955
0.41453928 0.0055432469 0.50374943 4280031499
0.41509661 0.0058433264 0.50388002 4279241992
0.41565484 0.0061446577 0.50401056 4278585608
0.41613519 0.0064932704 0.50409842 4278651401
0.41653711 0.0068885237 0.50414342 4278585861
0.41693935 0.0072842017 0.50418848 4278455045
0.41726261 0.0077256933 0.5041908 4278389765
0.4175064 0.0082123876 0.50415027 4278520838
0.41782948 0.008653678 0.5041526 4278586631
0.41799304 0.0091845021 0.50406933 4278782470
0.4180761 0.009759061 0.50394332 4278848263
0.41815823 0.010332368 0.50381732 4278782470
0.41831964 0.010860272 0.50373399 4278717445
0.41840011 0.011431269 0.50360799 4278651652
0.41847962 0.012001023 0.50348192 4278585859
0.41855824 0.012569509 0.50335586 4278717445
0.4186359 0.013136752 0.5032298 4278717445
0.41871268 0.013702735 0.50310373 4278585859
0.41878855 0.014267467 0.50297767 4278717447
0.41886348 0.014830954 0.50285161 4278717447
0.4189375 0.01539316 0.50272548 4278782987
0.41909221 0.015911877 0.50264221 4278651401
0.41916454 0.016471803 0.50251609 4278717447
0.41931784 0.016988628 0.50243276 4278783240
0.41938847 0.017546244 0.50230664 4278586631
0.41945821 0.018102616 0.50218052 4278586631
0.41952705 0.018657729 0.50205439 4278586629
0.41967744 0.019170582 0.50197107 4278520836
0.41974458 0.0197234 0.50184494 4278717447
0.41989362 0.020234376 0.50176156 4278782989
0.41995907 0.020784885 0.50163543 4278520587
0.42002359 0.021334149 0.50150931 4278520587
0.42017049 0.021842197 0.50142592 4278586380
0.42014989 0.022428915 0.50125694 4278782991
0.42021167 0.022974409 0.50113076 4278783238
0.42027253 0.023518659 0.50100458 4278848515
0.42033246 0.02406165 0.50087839 4278848515
0.42047551 0.024564467 0.50079501 4278521090
0.42053375 0.025105163 0.50066882 4278455043
0.42067546 0.025606088 0.50058544 4278520585
0.42073202 0.02614449 0.50045919 4278783238
0.42087233 0.026643537 0.50037581 4278782468
0.42092723 0.027179644 0.50024956 4278782468
0.42098117 0.027714476 0.50012332 4278716677
0.42111933 0.02821061 0.50003994 4278782219
0.42117161 0.028743148 0.49991366 4278717196
0.4213084 0.02923739 0.49983025 4278585861
0.42144459 0.029730804 0.49974677 4278651652
0.42149442 0.030259997 0.49962053 4278717445
0.42162919 0.030751534 0.49953705 4278783240
0.42176342 0.031242214 0.4994536 4278782991
0.42189699 0.031732082 0.49937016 4278717447
0.42202997 0.032221101 0.49928668 4278783240
0.42216229 0.032709293 0.49920321 4278783240
0.42220739 0.033232003 0.49907693 4278586631
0.42233837 0.03371831 0.49899346 4278323459
0.42246872 0.034203775 0.49890995 4278520335
0.42251134 0.03472314 0.49878365 4278586130
0.42264032 0.035206728 0.49870014 4278651654
0.42268127 0.035723798 0.49857384 4278717447
0.42272133 0.036239617 0.49844748 4278586629
0.42284817 0.036720276 0.498364 4278585859
0.42288655 0.037233792 0.49823767 4278586631
0.42301202 0.037712574 0.49815413 4278651654
0.42304868 0.038223796 0.49802777 4278717447
0.42308444 0.038733751 0.49790144 4278717447
0.42320776 0.039209604 0.49781787 4278651405
0.42324179 0.039717272 0.49769151 4278520585
0.42327496 0.040223666 0.49756515 4278520838
0.42339614 0.040696599 0.49748158 4278651654
0.42342758 0.041200705 0.49735519 4278520585
0.42354739 0.041671764 0.49727166 4278323206
0.4236666 0.042141963 0.49718809 4278455045
0.42378515 0.042611331 0.49710453 4278455045
0.42390314 0.043079872 0.49702093 4278717445
0.42402047 0.043547574 0.49693736 4279045635
0.42413723 0.044014432 0.49685377 4278914049
0.42425334 0.044480462 0.4967702 4278716675
0.42436886 0.04494565 0.49668661 4278651652
0.42448378 0.045410004 0.49660301 4278651652
0.42459804 0.04587353 0.49651942 4278782213
0.42462096 0.046365924 0.49639297 4278716675
0.42473388 0.04682757 0.49630934 4278782468
0.4247551 0.047317665 0.49618289 4278651652
0.42486662 0.047777429 0.49609929 4278520836
0.42497754 0.048236348 0.49601567 4278520838
0.42499632 0.048723113 0.49588919 4278783492
0.42510581 0.049180146 0.49580556 4278717445
0.42512292 0.049664602 0.49567905 4278717445
0.4253231 0.050091714 0.49563825 4278586382
0.4254308 0.05054624 0.49555463 4278782739
0.42553788 0.050999939 0.49547097 4278651405
0.4256444 0.051452789 0.49538732 4278782217
0.42575026 0.051904812 0.49530366 4278848010
0.42585552 0.052355997 0.49522001 4278651652
0.42596015 0.052806344 0.49513632 4278717699
0.42606419 0.053255863 0.49505267 4278848261
0.42616761 0.053704537 0.49496898 4278782213
0.42636383 0.054126211 0.49492818 4278585608
0.42646617 0.054573432 0.4948445 4278585608
0.42656791 0.055019803 0.49476081 4278783240
0.42666903 0.055465341 0.49467713 4279046410
0.42676955 0.05591004 0.49459341 4279046410
0.42677531 0.056379043 0.49446684 4278651403
0.42687443 0.056821864 0.49438313 4278651403
0.42697299 0.057263844 0.49429941 4278848263
0.42707086 0.057705004 0.49421573 4278849033
0.42707342 0.058169592 0.49408913 4278849033
0.42707503 0.058632951 0.49396253 4278783240
0.42717081 0.059071165 0.49387878 4278783240
0.42726597 0.059508562 0.49379504 4278783240
0.4273605 0.059945114 0.49371129 4278651403
0.42745447 0.060380828 0.49362758 4278849031
0.42754775 0.060815711 0.49354383 4278849283
0.42773631 0.06122693 0.49350297 4278717445
0.42792457 0.061637729 0.49346209 4278717194
0.42811245 0.062048115 0.4934212 4278717194
0.42830008 0.06245809 0.49338034 4278914826
0.42848742 0.062867641 0.49333948 4279242764
0.42877102 0.06325499 0.49334148 4279373830
0.42895788 0.063663915 0.49330059 4279111426
0.42914441 0.064072415 0.4932597 4279308805
0.42942768 0.064459354 0.49326169 4279177478
0.42961383 0.064867228 0.49322084 4279243012
0.42979962 0.065274693 0.49317995 4279177226
0.43008262 0.065661207 0.49318194 4279177480
0.43026793 0.066068038 0.49314106 4279045894
0.43055075 0.066454351 0.49314305 4279045640
0.43083361 0.066840656 0.49314505 4279046662
0.43121457 0.067207277 0.49318996 4278784260
0.43139929 0.067613266 0.49314904 4278784260
0.43178058 0.067980319 0.49319398 4278784260
0.43206355 0.06836684 0.49319598 4279308805
0.43244529 0.068734504 0.49324089 4279374852
0.43282729 0.069102585 0.49328578 4279243266
0.43330872 0.069452658 0.4933736 4279243266
0.4336915 0.069821805 0.49341851 4279243266
0.4342733 0.070155315 0.49354926 4279243266
0.43465704 0.070525706 0.49359417 4279243266
0.43514073 0.070878908 0.493682 4279243266
0.43562502 0.07123296 0.49376982 4279243266
0.41307038 -0.056477405 0.52092928 4278850063
0.41305894 -0.05557207 0.52067465 4279046159
0.41304567 -0.054669239 0.52041996 4278849033
0.41309646 -0.053832434 0.52020818 4278915345
0.41307968 -0.052934431 0.51995349 4278915345
0.41312724 -0.052102007 0.51974165 4278783759
0.41310692 -0.051208802 0.51948696 4278783759
0.41315126 -0.050380774 0.51927513 4278783759
0.41319412 -0.049554832 0.51906329 4278783757
0.41330218 -0.048793234 0.51889431 4278784010
0.41340905 -0.048033319 0.5187254 4278784010
0.41351467 -0.047275074 0.51855642 4278848780
0.4136191 -0.046518497 0.51838744 4279046159
0.41372228 -0.045763589 0.51821846 4279046159
0.41389185 -0.04507158 0.51809239 4279046159
0.40813741 -0.032670341 0.51245099 4283320377
0.40841988 -0.032131054 0.51241052 4283320377
0.40884054 -0.031710006 0.51245594 4283320377
0.40912271 -0.031171121 0.51241553 4282926389
0.40954363 -0.030749656 0.51246095 4282531631
0.40996492 -0.030327775 0.51250637 4282400299
0.4103865 -0.029905461 0.51255178 4282202920
0.41087836 -0.029540606 0.51264012 4281873955
0.41137087 -0.029174916 0.51272845 4281084700
0.41186398 -0.028808393 0.51281679 4280032528
0.41235775 -0.028441034 0.51290518 4278914054
0.41278142 -0.028015785 0.5129506 4278848261
0.41313469 -0.02753333 0.5129531 4278651403
0.41348791 -0.02705086 0.51295561 4278782991
0.41377011 -0.02651199 0.51291513 4278717198
0.41398072 -0.025917344 0.51283181 4278782987
0.41411933 -0.025267549 0.5127055 4278652424
0.41432858 -0.024674781 0.51262212 4278652424
0.41439378 -0.023971729 0.51245284 4278586643
0.4146015 -0.023381047 0.51236945 4278652175
0.4146646 -0.022680916 0.51220018 4278717966
0.41472647 -0.021982454 0.5120309 4278652171
0.41478711 -0.021285668 0.51186162 4278652171
0.41484654 -0.020590551 0.51169235 4278652171
0.41483212 -0.019842796 0.51148009 4278717964
0.4149617 -0.019205347 0.51135373 4278848782
0.41501743 -0.018515237 0.51118439 4278848780
0.41514504 -0.017880499 0.51105803 4278782987
0.41512525 -0.017140053 0.51084572 4278914573
0.41517735 -0.01645498 0.51067638 4278652173
0.41522816 -0.015771568 0.51050705 4278782987
0.41535145 -0.015142679 0.51038063 4278652171
0.41540003 -0.014462404 0.51021123 4278782989
0.41552135 -0.013836235 0.51008481 4278914573
0.41556758 -0.013159096 0.50991541 4278717194
0.41561264 -0.012483634 0.50974602 4278717964
0.415582 -0.011758037 0.50953364 4278652173
0.41562441 -0.011086114 0.50936425 4278782989
0.41574037 -0.010467269 0.50923777 4278652173
0.41585541 -0.0098496675 0.50911129 4278717966
0.41611966 -0.0093352497 0.50907075 4278717966
0.41623318 -0.0087197348 0.50894427 4278586378
0.41634578 -0.0081054941 0.50881779 4278586631
0.41638196 -0.0074421391 0.50864834 4278586631
0.41145983 0.0036400482 0.50369167 4282926902
0.41185722 0.0040293187 0.50373697 4282926643
0.41225493 0.0044190064 0.50378221 4282926643
0.41273075 0.0047619119 0.50387043 4283123252
0.41320717 0.0051056594 0.50395864 4282465322
0.41376233 0.0054034591 0.50408989 4281938978
0.41431844 0.005702503 0.50422108 4280227593
0.41487545 0.0060028061 0.50435233 4279373832
0.41543335 0.0063043684 0.50448358 4278585861
0.41591346 0.0066531301 0.5045718 4278651654
0.41631532 0.0070484579 0.50461709 4278520585
0.41671744 0.0074442104 0.50466239 4278389512
0.41696149 0.0079310313 0.50462168 4278389512
0.41728461 0.0083723217 0.50462395 4278521351
0.41752818 0.0088585168 0.50458324 4278521351
0.4176918 0.0093889907 0.50449955 4278848263
0.41785485 0.0099186227 0.50441587 4278782470
0.41793728 0.010491692 0.50428915 4278651654
0.41801879 0.011063516 0.50416243 4278717447
0.4180994 0.011634074 0.50403571 4278520836
0.41817909 0.012203388 0.50390899 4278455043
0.41825786 0.01277145 0.50378227 4278520838
0.41833571 0.01333826 0.50365555 4278586631
0.41833177 0.013946824 0.5034858 4278651401
0.41840762 0.014510907 0.50335902 4278717447
0.41856375 0.015031137 0.50327528 4278717447
0.41863793 0.015592925 0.50314856 4278652171
0.41879267 0.01611127 0.50306475 4278520585
0.4188652 0.016670756 0.50293797 4278521090
0.41901857 0.017187215 0.50285423 4278652424
0.41908938 0.017744407 0.50272745 4278520838
0.41915926 0.018300347 0.50260067 4278652424
0.41931051 0.018813878 0.50251687 4278652676
0.4193787 0.019367516 0.50239003 4278521090
0.41944599 0.019919895 0.50226325 4278717447
0.41959506 0.020430513 0.50217944 4278717194
0.41966069 0.020980582 0.50205261 4278782987
0.41972536 0.021529414 0.50192577 4278717194
0.41978914 0.022076979 0.50179893 4278651405
0.41985202 0.022623293 0.50167209 4278717196
0.41991395 0.023168363 0.50154525 4278717194
0.41997495 0.023712181 0.50141841 4278717699
0.42003506 0.024254732 0.50129157 4278651652
0.42009425 0.024796024 0.50116467 4278717445
0.42023659 0.025297441 0.50108081 4278651652
0.42029411 0.02583643 0.50095397 4278520585
0.42035067 0.026374184 0.50082707 4278652424
0.42049086 0.026872672 0.50074321 4278717699
0.42054576 0.027408116 0.50061631 4278651906
0.42068464 0.027904719 0.50053245 4278585610
0.42082283 0.028400496 0.50044852 4278585608
0.42087528 0.028932594 0.50032163 4278717194
0.42092681 0.02946344 0.50019473 4278585861
0.42106289 0.029956289 0.50011081 4278651652
0.42119837 0.030448295 0.50002694 4278717445
0.42124742 0.030975796 0.49989998 4278717445
0.42138153 0.031465925 0.49981606 4278782989
0.42151499 0.031955212 0.49973214 4278783238
0.42164785 0.032443665 0.49964824 4278783492
0.42178011 0.032931276 0.49956432 4278717699
0.42191178 0.033418052 0.4994804 4278652676
0.42195606 0.033939078 0.49935341 4278652422
0.42208636 0.034423977 0.49926949 4278586128
0.422216 0.034908041 0.49918553 4278520589
0.4222579 0.035425715 0.49905854 4278520836
0.42229885 0.035942145 0.49893156 4278586629
0.42242634 0.036423281 0.4988476 4278651906
0.42246565 0.036937408 0.49872059 4278782468
0.42259181 0.037416659 0.49863663 4278651652
0.42262936 0.037928484 0.49850959 4278585859
0.42275417 0.038405858 0.49842563 4278783240
0.42270184 0.038948379 0.49825555 4278717447
0.42282504 0.039423659 0.49817157 4278782470
0.42285913 0.039930679 0.49804452 4278651654
0.42298096 0.040404074 0.49796051 4278651401
0.42301339 0.040908799 0.49783346 4278520585
0.42313385 0.041380312 0.49774945 4278520838
0.42325372 0.041850999 0.49766546 4278520838
0.42328364 0.042352371 0.49753836 4278455045
0.42340213 0.042821169 0.49745435 4278651652
0.42351997 0.043289147 0.49737033 4278782722
0.42354751 0.043787163 0.49724323 4278914051
0.42375389 0.044222564 0.49720228 4278848258
0.42386991 0.04468802 0.49711823 4278782468
0.42389512 0.045182921 0.49699113 4278651652
0.42400977 0.045646485 0.49690709 4278651904
0.42412382 0.046109233 0.49682304 4278913797
0.42423725 0.046571143 0.49673897 4278782722
0.42425925 0.047061637 0.49661183 4278782722
0.4243713 0.047521666 0.49652779 4278586113
0.4244827 0.047980845 0.49644372 4278455297
0.42450225 0.048468012 0.49631655 4278651654
0.42461231 0.048925318 0.49623248 4278717445
0.42463017 0.049410172 0.49610531 4278717979
0.42473888 0.049865596 0.49602124 4278586393
0.42484692 0.050320186 0.49593714 4278586393
0.42504644 0.050746173 0.4958961 4278652438
0.42515343 0.051199295 0.49581203 4278782989
0.42516747 0.051678929 0.49568483 4278651654
0.42536563 0.052103028 0.49564379 4278717447
0.42547077 0.05255365 0.49555969 4278914308
0.42557532 0.053003434 0.49547559 4278848515
0.42567927 0.053452373 0.49539146 4278914056
0.42578256 0.053900477 0.49530733 4278651934
0.42579204 0.054373842 0.4951801 4278521100
0.42598742 0.054794189 0.49513906 4278389514
0.4260889 0.055239785 0.49505493 4278586629
0.42618978 0.055684548 0.4949708 4279045894
0.42629004 0.056128468 0.49488664 4278849031
0.42638969 0.056571566 0.49480247 4278454796
0.42639455 0.057038654 0.49467522 4278520587
0.42649281 0.057479858 0.49459106 4278520587
0.42649597 0.057944652 0.4944638 4278717966
0.42659289 0.058383983 0.49437964 4278784010
0.42659438 0.05884647 0.49425235 4278784008
0.42668986 0.059283916 0.49416816 4278652424
0.42678478 0.059720527 0.494084 4278652424
0.4267838 0.060179669 0.49395669 4278717196
0.42687738 0.0606144 0.49387249 4278914056
0.42706585 0.06102534 0.4938314 4278783492
0.4271583 0.061458603 0.4937472 4278717194
0.42734605 0.061868496 0.49370611 4278717194
0.42753345 0.062277965 0.49366498 4278782987
0.42781675 0.062664911 0.49366701 4278979847
0.42800373 0.063073754 0.49362591 4279308557
0.42819035 0.06348218 0.49358481 4279243016
0.42847335 0.063868701 0.49358681 4279045890
0.42865956 0.064276502 0.49354568 4279045890
0.42884547 0.064683892 0.49350458 4279045894
0.42912811 0.065069988 0.49350658 4279046664
0.42941082 0.065456085 0.49350858 4279046664
0.4295961 0.065862626 0.49346745 4278914824
0.42978108 0.066268757 0.49342632 4279046410
0.43006346 0.066654444 0.49342835 4279046410
0.43034583 0.067040123 0.49343035 4279112205
0.43062821 0.067425802 0.49343234 4279046161
0.43091059 0.067811489 0.49343434 4278915078
0.43129128 0.068177983 0.49347946 4279046664
0.43157384 0.068563864 0.49348146 4279177480
0.43195498 0.068930984 0.49352658 4279112453
0.43243527 0.069279954 0.49361485 4279112453
0.43281722 0.069648117 0.49365997 4279112453
0.43329853 0.069998555 0.49374825 4279112453
0.43378049 0.07034982 0.49383652 4279112453
0.43436241 0.070684202 0.49396795 4279112453
0.43484575 0.071037345 0.49405622 4279112453
0.4130041 -0.056480475 0.52161872 4278915858
0.41299373 -0.055574961 0.52136266 4278915858
0.41298157 -0.05467198 0.52110666 4278915858
0.41303331 -0.053834938 0.52089375 4278981140
0.41308355 -0.052999966 0.52068084 4278981140
0.41306618 -0.052104063 0.52042484 4278783759
0.41311318 -0.051273488 0.52021188 4278717964
0.41302592 -0.050319813 0.51991266 4278783757
0.41320264 -0.049618609 0.51978594 4278784010
0.41331178 -0.048856489 0.51961613 4278914826
0.41341966 -0.048096038 0.51944625 4279046412
0.41359335 -0.047399022 0.51931953 4279045132
0.4136318 -0.046580143 0.51910651 4279045389
0.41380331 -0.045886062 0.51897979 4279046159
0.40796489 -0.032555558 0.51300955 4283190076
0.40824765 -0.032016151 0.5129689 4283124283
0.40866834 -0.031594805 0.5130145 4283124283
0.40902004 -0.031114437 0.513017 4282926389
0.4094412 -0.030692466 0.5130626 4282531631
0.40972346 -0.030153669 0.51302195 4282334506
0.41028446 -0.029847287 0.51315391 4281940261
0.41077644 -0.029481865 0.51324272 4281742882
0.41126904 -0.02911561 0.51333147 4280953884
0.41176227 -0.028748505 0.51342028 4279835149
0.4121857 -0.028323404 0.51346594 4278717445
0.41260946 -0.027897887 0.5135116 4278651652
0.41296285 -0.027415209 0.5135141 4278520587
0.41331628 -0.02693253 0.5135166 4278586380
0.41359866 -0.026393525 0.51347595 4278586382
0.41388083 -0.025854953 0.5134353 4278848782
0.41402003 -0.025204964 0.51330835 4278848782
0.41415834 -0.024556227 0.51318133 4278652171
0.41422415 -0.02385328 0.51301122 4278586641
0.41443223 -0.023262538 0.51292735 4278652175
0.414424 -0.022507422 0.51271403 4278717966
0.41455835 -0.021864139 0.51258701 4278717964
0.41454735 -0.021112777 0.51237369 4278652171
0.41467956 -0.020472415 0.51224667 4278652171
0.41466579 -0.019724824 0.51203328 4278717964
0.41472319 -0.019033365 0.51186305 4278848780
0.41485217 -0.018397383 0.51173604 4278848780
0.41490728 -0.017709054 0.5115658 4278848780
0.41496113 -0.017022386 0.51139557 4278914573
0.41501379 -0.016337402 0.51122528 4278717968
0.41506517 -0.015654087 0.51105505 4278652173
0.41511536 -0.014972441 0.51088476 4278652173
0.41516435 -0.014292471 0.51071453 4278782987
0.415286 -0.013666525 0.51058745 4278848780
0.41533267 -0.012989692 0.51041716 4278717194
0.41537809 -0.012314528 0.51024687 4278782987
0.41534799 -0.011589319 0.51003337 4278652171
0.41546535 -0.010969222 0.50990623 4278782989
0.41558176 -0.010350376 0.5097791 4278652173
0.41569731 -0.0097327977 0.50965196 4278717966
0.4158119 -0.0091164783 0.50952482 4278717966
0.41600066 -0.0085520744 0.50944084 4278586891
0.41618884 -0.00798852 0.50935686 4278587142
0.41637641 -0.0074258074 0.50927287 4278783238
0.41099745 0.0033135265 0.50420159 4283124535
0.4113175 0.0037506297 0.50420386 4282927156
0.41171494 0.0041401908 0.50424933 4282992436
0.41211268 0.0045301691 0.50429481 4283124022
0.41258848 0.0048734322 0.5043835 4283123250
0.41306481 0.0052175373 0.50447214 4282465320
0.41354179 0.0055624768 0.50456083 4281873183
0.41409761 0.0058617517 0.50469273 4280227847
0.41465428 0.0061622858 0.50482464 4279439112
0.41521189 0.0064640716 0.50495654 4278716677
0.41569179 0.0068129823 0.50504529 4278782470
0.41609353 0.007208392 0.50509077 4278520838
0.41649556 0.007604219 0.50513625 4278454792
0.4168188 0.0080457106 0.50513852 4278389512
0.41706282 0.0085322559 0.50509763 4278455305
0.41730648 0.0090183765 0.50505668 4278455305
0.41747034 0.0095486939 0.50497258 4278717447
0.41755384 0.010122582 0.5048452 4278651654
0.41763645 0.010695219 0.50471783 4278651401
0.41771814 0.011266604 0.50459039 4278717447
0.41779894 0.01183673 0.50446302 4278586631
0.41787875 0.012405612 0.50433564 4278520838
0.41803819 0.012929864 0.50425148 4278520838
0.41803575 0.01353959 0.50408083 4278586631
0.41811281 0.014104716 0.5039534 4278586378
0.41818899 0.014668576 0.50382596 4278717194
0.41826427 0.015231177 0.50369853 4278717194
0.4183386 0.015792526 0.50357109 4278717194
0.41849339 0.016310513 0.50348687 4278520587
0.41856605 0.016869567 0.50335944 4278520838
0.41863778 0.017427355 0.503232 4278586631
0.41879046 0.017942421 0.50314778 4278651654
0.4188605 0.018497922 0.50302029 4278717447
0.41892964 0.019052155 0.50289285 4278652422
0.41899788 0.019605145 0.50276536 4278521090
0.41914761 0.020116232 0.50268114 4278520838
0.41929677 0.020626485 0.50259686 4278848010
0.41936255 0.021176122 0.50246936 4278782987
0.41942739 0.021724515 0.50234187 4278782987
0.41949135 0.022271648 0.50221431 4278651405
0.41947111 0.022857137 0.5020436 4278717196
0.41961646 0.023362167 0.50195932 4278651401
0.41967762 0.023905531 0.50183177 4278717445
0.41973788 0.02444765 0.50170422 4278651652
0.41979721 0.024988517 0.50157672 4278717445
0.41985565 0.025528125 0.50144917 4278585859
0.41999727 0.026028126 0.50136483 4278520587
0.42005402 0.02656544 0.50123727 4278782987
0.42010987 0.027101494 0.50110972 4278717445
0.42024934 0.027598582 0.50102538 4278651652
0.42030349 0.028132342 0.50089782 4278585610
0.42044163 0.028627537 0.50081348 4278585608
0.42049408 0.029158987 0.50068593 4278717447
0.42063081 0.029652305 0.50060153 4278585861
0.4206816 0.030181475 0.50047398 4278651654
0.42081696 0.030672908 0.50038958 4278651654
0.42095172 0.031163506 0.50030524 4278651652
0.42100006 0.031689323 0.50017762 4278586378
0.42113343 0.032178037 0.50009328 4278783238
0.4212662 0.032665916 0.50000888 4278783492
0.42139834 0.03315296 0.49992454 4278586883
0.42152992 0.03363917 0.49984014 4278718469
0.42157423 0.034159549 0.4997125 4278652676
0.42170441 0.034643881 0.49962813 4278717966
0.42183399 0.035127379 0.49954373 4278520589
0.42187586 0.035644412 0.49941605 4278521090
0.42191684 0.036160186 0.49928838 4278521090
0.42204428 0.036640756 0.49920398 4278521090
0.42208356 0.037154227 0.49907631 4278848261
0.42220959 0.03763292 0.49899188 4278651652
0.42224723 0.038144089 0.49886417 4278585861
0.42237186 0.038620897 0.49877977 4278717447
0.42240775 0.039129779 0.49865204 4278651654
0.42244279 0.039637409 0.49852434 4278716677
0.42256528 0.040111281 0.49843991 4278651654
0.4225986 0.040616609 0.49831218 4278651403
0.42263103 0.041120686 0.49818444 4278586380
0.42275143 0.041591629 0.49809998 4278586378
0.42278212 0.042093411 0.49797225 4278586378
0.42290112 0.042562477 0.49788776 4278455045
0.42301947 0.043030716 0.4978033 4278651652
0.42304778 0.043529134 0.49767554 4278782722
0.42316478 0.043995492 0.49759105 4278782722
0.42328116 0.044461008 0.49750656 4278716929
0.42339694 0.044925686 0.4974221 4278782722
0.4235121 0.045389522 0.49733758 4278651652
0.42362666 0.045852527 0.49725309 4278782720
0.42365021 0.046344485 0.4971253 4278913797
0.42376339 0.046805609 0.49704078 4278848515
0.42378524 0.047295254 0.49691299 4278782722
0.42389703 0.047754496 0.49682847 4278651906
0.42409927 0.048183966 0.49678725 4278521090
0.42411879 0.048670486 0.49665943 4278782217
0.42422879 0.049127214 0.49657488 4278783240
0.4243381 0.049583111 0.49649036 4278717725
0.42435521 0.050066281 0.49636251 4278651932
0.42455497 0.05049241 0.49632126 4278652186
0.42457056 0.050973479 0.49619341 4278652438
0.42467731 0.051425833 0.49610889 4278782991
0.42478344 0.051877338 0.49602431 4278782470
0.42488897 0.052328013 0.49593976 4278782722
0.42508644 0.052750997 0.49589849 4278848515
0.42519093 0.053200208 0.49581394 4278914054
0.42529476 0.053648584 0.49572936 4278848782
0.42521194 0.054148562 0.49555814 4278718245
0.42531425 0.054594845 0.49547356 4278652434
0.42541593 0.0550403 0.49538898 4278455055
0.425704 0.055433713 0.49539101 4278455558
0.42571115 0.055903297 0.4952631 4278849285
0.42581117 0.056346446 0.49517852 4278849285
0.42591059 0.056788754 0.49509391 4278520587
0.42591527 0.057254992 0.49496597 4278520587
0.42601329 0.057695419 0.49488136 4278454794
0.42601633 0.058159359 0.49475342 4278586893
0.42601842 0.05862204 0.49462548 4278849033
0.42611429 0.059059549 0.49454084 4278784008
0.42611474 0.059519928 0.4944129 4278652422
0.42620921 0.059955548 0.49432826 4278848780
0.42630309 0.060390331 0.49424362 4278782987
0.4263964 0.060824282 0.49415895 4278914056
0.42658454 0.061234523 0.49411762 4278717699
0.42667675 0.061667003 0.49403298 4278717194
0.42686415 0.062076196 0.49399167 4278848780
0.42705119 0.062484961 0.49395031 4278848780
0.42723793 0.062893316 0.493909 4279045383
0.42752063 0.06327942 0.493911 4279242762
0.42770696 0.063687146 0.49386966 4279111430
0.42798948 0.064073026 0.49387166 4279177476
0.42817533 0.064480126 0.49383032 4279045890
0.42836085 0.064886816 0.49378899 4279045894
0.42864311 0.065272287 0.49379098 4279046410
0.42882815 0.065678343 0.49374962 4279046664
0.42911023 0.066063598 0.49375165 4278784008
0.42929482 0.066469036 0.49371028 4278981389
0.42957675 0.066854089 0.49371228 4278718217
0.42985868 0.067239143 0.49371427 4279111952
0.43014061 0.067624196 0.49371627 4279242770
0.43042254 0.06800925 0.49371827 4279046664
0.43070444 0.068394303 0.49372026 4279046664
0.43108475 0.068760455 0.49376562 4279046410
0.43146536 0.069127023 0.49381095 4278981639
0.43194497 0.069475509 0.49389967 4278981639
0.43242514 0.06982483 0.49398839 4278981639
0.43290597 0.070175007 0.49407709 4278981639
0.4333874 0.070526004 0.49416581 4278981639
0.43406802 0.070842534 0.49434125 4278981639
0.41299325 -0.055641212 0.52209544 4278915606
0.41298234 -0.054737829 0.52183807 4278850067
0.41303521 -0.053900309 0.52162409 4278915860
0.41308659 -0.05306489 0.52141005 4278915858
0.41307044 -0.052168615 0.52115262 4278783759
0.4131186 -0.051337577 0.52093858 4278717966
0.41309899 -0.05044613 0.52068114 4278783757
0.4131439 -0.049619474 0.5204671 4278784010
0.41338706 -0.048981242 0.52038306 4278718217
0.41349617 -0.048220046 0.52021229 4279177228
0.41360402 -0.047460534 0.52004153 4279045389
0.41371065 -0.046702676 0.51987076 4279176979
0.41388327 -0.046007775 0.51974338 4279046163
0.40764606 -0.033099391 0.51369613 4283059260
0.40779221 -0.03244064 0.51356852 4283125053
0.40814406 -0.031960048 0.51357102 4283190076
0.4084959 -0.031479456 0.51357347 4283058490
0.40884781 -0.030998878 0.51357597 4282926391
0.40933836 -0.030634977 0.5136652 4282662447
0.4096905 -0.030153967 0.5136677 4282268713
0.410182 -0.0297888 0.51375693 4281940261
0.4106741 -0.029422812 0.51384616 4281742882
0.4112367 -0.029113479 0.51397884 4280690719
0.41166008 -0.028688304 0.51402467 4279309331
0.41208375 -0.028262727 0.51407057 4278651401
0.41250771 -0.027836718 0.51411647 4278651401
0.41293198 -0.027410291 0.5141623 4278520587
0.41328585 -0.026926987 0.51416481 4278652175
0.41349792 -0.026331179 0.51408058 4278652175
0.41370943 -0.025736205 0.5139963 4278717714
0.41392034 -0.025142081 0.51391208 4278717714
0.41398793 -0.024437524 0.51374102 4278652171
0.4141258 -0.023790069 0.51361334 4278586893
0.41419113 -0.023088671 0.51344228 4278586893
0.4142552 -0.022388928 0.51327121 4278848782
0.41431805 -0.021690868 0.51310015 4278915343
0.41437969 -0.02099447 0.51292908 4278783757
0.4144401 -0.020299755 0.51275802 4278782987
0.41449928 -0.019606709 0.51258689 4278717964
0.41455725 -0.018915333 0.51241583 4278914826
0.41468668 -0.018279366 0.51228809 4278782987
0.41466951 -0.017537601 0.51207358 4278652171
0.41472378 -0.016851246 0.51190245 4278717964
0.41477686 -0.01616656 0.51173127 4278717966
0.41482869 -0.015483543 0.51156014 4278718479
0.41495278 -0.014854901 0.51143235 4278521870
0.41500235 -0.014175028 0.51126122 4278652684
0.41505066 -0.013496824 0.51109004 4278652684
0.41509774 -0.012820289 0.51091886 4278586891
0.41514361 -0.01214543 0.51074767 4278782987
0.41518825 -0.01147224 0.51057649 4278717194
0.41530609 -0.010852173 0.51044863 4278782987
0.41542298 -0.01023335 0.51032084 4278652171
0.41553897 -0.0096157864 0.51019305 4278652173
0.41572887 -0.0090502948 0.51010859 4278652173
0.41584319 -0.0084350258 0.5099808 4278717964
0.41603172 -0.0078714117 0.50989634 4278784010
0.41606903 -0.0072082579 0.50972509 4278783238
0.41093177 0.0033761635 0.50475764 4283320379
0.41125208 0.0038136914 0.50475991 4283320379
0.41164973 0.0042037442 0.50480556 4283320379
0.41204768 0.0045942143 0.50485128 4283123516
0.41252354 0.0049380511 0.50494039 4282860850
0.41300002 0.0052827224 0.50502956 4282399266
0.41347712 0.0056282356 0.50511867 4281741336
0.41395479 0.0059745833 0.50520784 4280227333
0.41458955 0.0062293261 0.50538385 4279307526
0.41506878 0.0065777674 0.50547296 4278585861
0.41554862 0.0069270357 0.50556213 4278585861
0.41595042 0.0073227286 0.50560784 4278651654
0.41635248 0.0077188537 0.50565362 4278520838
0.41659689 0.0082057193 0.50561243 4278454792
0.416841 0.0086921901 0.50557131 4278454792
0.41700548 0.0092229769 0.50548673 4278520585
0.41716939 0.0097529367 0.50540209 4278586631
0.41725308 0.010326393 0.50527406 4278455045
0.41733587 0.010898598 0.50514603 4278520587
0.41749761 0.011425629 0.50506139 4278586631
0.4175787 0.011995532 0.50493336 4278586631
0.41765887 0.012564175 0.50480527 4278586631
0.41773811 0.013131581 0.50467718 4278520838
0.41781646 0.013697706 0.50454909 4278520838
0.41781318 0.014305472 0.50437754 4278586378
0.41788954 0.0148689 0.50424945 4278586629
0.41796494 0.015431054 0.50412136 4278586629
0.41803944 0.015991978 0.50399327 4278848261
0.41819429 0.016509607 0.50390857 4278652173
0.41826713 0.017068215 0.50378048 4278586380
0.41833901 0.017625578 0.50365233 4278586380
0.41841 0.018181682 0.50352418 4278520838
0.418562 0.018695332 0.50343955 4278586631
0.41863126 0.019249141 0.5033114 4278586631
0.41878188 0.019760907 0.5032267 4278520836
0.41884947 0.020312421 0.50309849 4278586629
0.41891617 0.020862669 0.50297034 4278848006
0.41906461 0.021371514 0.50288564 4278717964
0.41912961 0.021919474 0.50275743 4278652171
0.41911077 0.022505902 0.50258583 4278586378
0.4192569 0.02301161 0.50250107 4278586380
0.41923589 0.023595124 0.50232941 4278520838
0.41938049 0.024098739 0.50224471 4278783238
0.41944093 0.024640426 0.5021165 4278651652
0.41950041 0.025180854 0.50198829 4278651652
0.419559 0.025720023 0.50186002 4278585859
0.4196167 0.02625794 0.50173181 4278651405
0.4197576 0.026756547 0.50164706 4278717196
0.41981357 0.027292162 0.50151885 4278717194
0.41986865 0.027826533 0.50139058 4278717194
0.42000747 0.028322205 0.50130582 4278454542
0.42014563 0.028817043 0.501221 4278652171
0.42019826 0.02934806 0.50109273 4278718217
0.42033505 0.029841021 0.50100797 4278586378
0.42038599 0.030369744 0.50087965 4278520838
0.42043602 0.030897208 0.50075138 4278520838
0.42065626 0.03135106 0.50071007 4278520838
0.42070472 0.031876437 0.5005818 4278652424
0.42083818 0.032364801 0.50049698 4278586883
0.42088497 0.032887869 0.50036865 4278586883
0.42101705 0.033374347 0.50028384 4278717699
0.42114848 0.033859991 0.50019902 4278783492
0.42119282 0.034379721 0.50007069 4278586883
0.42140955 0.03482876 0.50002933 4278782987
0.42145234 0.035346396 0.499901 4278520587
0.42149425 0.035862796 0.49977267 4278520836
0.42162234 0.036343828 0.49968782 4278455043
0.42166257 0.036857918 0.49955946 4278521090
0.42170185 0.037370764 0.4994311 4278784262
0.42182779 0.037848867 0.49934623 4278586631
0.4218654 0.038359411 0.49921787 4278782217
0.42198998 0.038835637 0.49913299 4278782217
0.42202592 0.039343871 0.4990046 4278848010
0.42206097 0.039850853 0.49887621 4278651401
0.42218336 0.040324166 0.49879134 4278651654
0.42221668 0.040828846 0.49866292 4278782217
0.42224911 0.041332267 0.4985345 4278782989
0.42236936 0.041802645 0.49844962 4278717447
0.42240012 0.042303782 0.49832118 4278783240
0.422519 0.042772286 0.49823627 4278651654
0.42254806 0.043271106 0.49810785 4278651654
0.4226656 0.043737728 0.49802291 4278651652
0.42278248 0.044203512 0.49793798 4278782722
0.42289877 0.044668458 0.49785304 4278716929
0.42301446 0.045132559 0.4977681 4278782722
0.42312956 0.045595832 0.49768317 4278782722
0.423244 0.046058279 0.4975982 4278782464
0.42326754 0.046549577 0.49746972 4278848006
0.42338061 0.047010135 0.49738479 4278782468
0.42349309 0.047469854 0.49729982 4278782468
0.42360497 0.047928732 0.49721485 4278651652
0.42362526 0.04841565 0.49708635 4278586113
0.42373577 0.04887265 0.49700138 4278651654
0.42384565 0.049328815 0.49691641 4278849033
0.4239549 0.049784143 0.49683142 4278849817
0.4240635 0.050238643 0.49674642 4278652438
0.42417157 0.050692298 0.49666142 4278652434
0.42427897 0.051145121 0.49657643 4278586382
0.42438579 0.0515971 0.49649143 4278848012
0.42439985 0.052075446 0.49636289 4278717194
0.42459756 0.052498564 0.49632141 4278717699
0.42461008 0.052974813 0.49619287 4278717699
0.42480689 0.053396683 0.49615139 4278717194
0.42481789 0.053870846 0.49602282 4278717968
0.42501378 0.054291449 0.49598134 4278455829
0.42502326 0.054763522 0.49585277 4278651921
0.42503178 0.055234339 0.49572417 4278520335
0.42513275 0.055678386 0.49563915 4278455307
0.42532665 0.056096282 0.49559763 4278587142
0.4254266 0.05653885 0.4955126 4278849285
0.42543209 0.057005495 0.49538398 4278586893
0.42553061 0.057446189 0.49529892 4278456079
0.42553443 0.057910524 0.49517033 4278324493
0.42553729 0.058373604 0.4950417 4278390032
0.42563367 0.05881137 0.49495661 4278782989
0.42563486 0.059272159 0.49482799 4278849031
0.4257299 0.059708044 0.4947429 4278914054
0.42572939 0.060166538 0.49461427 4279440141
0.42582303 0.060600542 0.49452916 4279242762
0.42591608 0.061033703 0.49444407 4279044613
0.42610389 0.061443239 0.49440253 4278848515
0.42619583 0.061874952 0.49431741 4278717447
0.42638284 0.06228343 0.49427587 4278979596
0.42656958 0.062691495 0.49423429 4278979596
0.42685193 0.063077182 0.49423629 4278979339
0.42694205 0.06350638 0.49415118 4279111178
0.42722413 0.063891649 0.49415317 4279242764
0.42740977 0.06429825 0.4941116 4279177228
0.4276917 0.064683303 0.49411362 4278914824
0.42787689 0.065089285 0.49407205 4278849031
0.42815867 0.065474123 0.49407405 4279111952
0.42834336 0.065879479 0.49403247 4279046410
0.42852777 0.066284411 0.4939909 4278718217
0.42880929 0.066668846 0.49399289 4278915860
0.42899323 0.067073151 0.49395132 4278652688
0.42937219 0.067437693 0.49399686 4278783759
0.42965364 0.067822129 0.49399889 4278915345
0.42983717 0.068225801 0.49395728 4279112205
0.43011844 0.068610027 0.49395928 4278784010
0.43049803 0.068975404 0.49400485 4278915596
0.43097636 0.069322586 0.49409398 4278981641
0.43145525 0.069670603 0.49418312 4278981641
0.4319348 0.070019461 0.49427229 4278981641
0.43241495 0.070369154 0.49436146 4278981641
0.43299475 0.070701897 0.4944942 4278981641
0.41292667 -0.055643134 0.52278638 4278915608
0.41298226 -0.054803066 0.52257127 4278981140
0.41303629 -0.053965099 0.52235615 4278981140
0.4130888 -0.053129204 0.52214098 4278850065
0.4130739 -0.052232571 0.52188224 4278718477
0.41318923 -0.051463731 0.52171063 4278848780
0.41323715 -0.050634123 0.52149546 4278915596
0.41321719 -0.049744375 0.52123672 4278914826
0.41339487 -0.049043216 0.52110863 4278914826
0.4135716 -0.048343293 0.5209806 4279177228
0.41381425 -0.047706254 0.52089608 4279045391
0.40740418 -0.032924987 0.51421261 4282993465
0.4076879 -0.032384671 0.51417154 4283059515
0.40804005 -0.031903662 0.51417404 4283190074
0.40839225 -0.031422652 0.51417649 4283124281
0.40881351 -0.03100013 0.51422262 4282926389
0.40923506 -0.030577175 0.5142687 4282860080
0.40958756 -0.030095749 0.5142712 4282334506
0.41007912 -0.029730029 0.5143609 4281743650
0.41064098 -0.029421084 0.51449418 4281546271
0.41113394 -0.029053487 0.51458389 4280230684
0.4116275 -0.028685041 0.51467359 4279177749
0.4120515 -0.028258748 0.51471972 4278651403
0.41247582 -0.027832039 0.5147658 4278717196
0.41283 -0.027348317 0.5147683 4278520589
0.41318417 -0.026864596 0.51477081 4278652175
0.41339678 -0.026268519 0.51468611 4278652175
0.41353786 -0.025617309 0.51455778 4278717968
0.41374913 -0.025023125 0.51447308 4278717968
0.41381729 -0.024318673 0.51430118 4278717966
0.41395563 -0.023671232 0.51417279 4278586893
0.41402149 -0.022969924 0.51400089 4278586893
0.41408616 -0.02227027 0.51382887 4278848782
0.41414961 -0.021572299 0.51365697 4278783757
0.41421181 -0.020876005 0.51348495 4278783757
0.41420066 -0.020127095 0.51326936 4278848780
0.41426027 -0.019434348 0.51309735 4278783759
0.4143911 -0.018797159 0.51296896 4279046412
0.41444841 -0.018107541 0.512797 4278848780
0.41450447 -0.017419606 0.51262498 4278652173
0.41455936 -0.016733348 0.5124529 4278652173
0.41461301 -0.016048752 0.51228088 4278652173
0.4146654 -0.015365839 0.5121088 4278521872
0.41478997 -0.014737211 0.51198041 4278521870
0.41476655 -0.01400502 0.51176471 4278652686
0.41481531 -0.013327114 0.51159263 4278717964
0.41493666 -0.012702875 0.51146418 4278652171
0.41498309 -0.012028113 0.5112921 4278782987
0.41495419 -0.011303447 0.51107639 4278717966
0.41507232 -0.010683604 0.51094788 4278717964
0.4151895 -0.010065004 0.51081944 4278587144
0.41530582 -0.0094476715 0.51069093 4278586893
0.41549593 -0.0088823289 0.51060605 4278521100
0.41568547 -0.0083178207 0.51052117 4278652686
0.41587436 -0.0077541471 0.5104363 4278717964
0.41561139 -0.0068906397 0.51008964 4278717447
0.41046828 0.0030491874 0.50526863 4283189563
0.41086566 0.003439106 0.50531453 4283385918
0.41118628 0.0038770512 0.50531679 4283320125
0.41158414 0.0042675957 0.50536275 4283254332
0.41198227 0.0046585649 0.50540864 4283122748
0.41238073 0.0050499514 0.5054546 4282860596
0.41293478 0.005348213 0.50558782 4282005021
0.41341197 0.0056942925 0.5056774 4281544470
0.41396773 0.0059948638 0.50581068 4280227333
0.41444629 0.0063428208 0.50590026 4279242246
0.41492546 0.0066916198 0.50598985 4278585861
0.41540527 0.0070412457 0.50607944 4278585861
0.41580707 0.0074372292 0.50612539 4278585861
0.41613048 0.0078789368 0.50612772 4278651654
0.41645387 0.008320637 0.50612998 4278455045
0.41661921 0.0088521168 0.50604498 4278323459
0.41678393 0.009382762 0.50595993 4278520838
0.41686869 0.0099570379 0.50583118 4278717445
0.41703203 0.010485798 0.50574613 4278455043
0.41711509 0.011057772 0.50561744 4278520587
0.4172771 0.011584654 0.50553238 4278586378
0.41735849 0.012154326 0.50540364 4278586378
0.41743895 0.012722753 0.50527489 4278652171
0.41751853 0.013289921 0.50514615 4278454792
0.41751677 0.013898835 0.50497371 4278520585
0.41751376 0.014506079 0.50480127 4278520838
0.41759026 0.015069067 0.50467247 4278717445
0.41766584 0.015630797 0.50454372 4278783238
0.41782153 0.016149104 0.50445861 4278783238
0.41789544 0.016708545 0.5043298 4278652171
0.41796842 0.017266713 0.50420099 4278652173
0.41804048 0.017823644 0.50407219 4278586382
0.41811162 0.018379316 0.50394338 4278520838
0.41818184 0.018933721 0.50381458 4278586631
0.41833311 0.019445978 0.50372946 4278586631
0.41840166 0.019998088 0.5036006 4278520836
0.4185515 0.020508453 0.50351548 4278520836
0.41861838 0.021058269 0.50338662 4278848006
0.4186843 0.021606833 0.50325781 4278849033
0.41874933 0.022154137 0.50312895 4278717447
0.41881344 0.022700198 0.50300008 4278520585
0.41887665 0.023244999 0.50287122 4278586378
0.41902208 0.023749299 0.50278604 4278520838
0.41900027 0.024330832 0.50261348 4278783492
0.41914415 0.024833046 0.50252825 4278717445
0.41920382 0.025373034 0.50239938 4278717445
0.41926259 0.025911771 0.50227046 4278585859
0.4193204 0.026449256 0.50214159 4278651401
0.41937733 0.026985489 0.50201267 4278717194
0.41951755 0.027482681 0.50192744 4278717194
0.41965717 0.027979039 0.50184226 4278717194
0.41971162 0.028511927 0.50171328 4278520337
0.41984987 0.029006399 0.5016281 4278586378
0.41990262 0.029536985 0.50149912 4278783238
0.41995451 0.030066319 0.50137019 4278717447
0.42009062 0.030557871 0.50128496 4278586631
0.42014077 0.031084903 0.50115597 4278652424
0.42027551 0.03157457 0.50107074 4278520838
0.42040962 0.032063402 0.5009855 4278717964
0.42045733 0.032587089 0.50085652 4278718469
0.42059007 0.033074044 0.50077122 4278717699
0.42072219 0.033560149 0.50068593 4278651906
0.42076749 0.034080498 0.50055695 4278783492
0.4208982 0.034564726 0.50047171 4278651906
0.42102835 0.035048127 0.50038642 4278651654
0.42107117 0.03556513 0.50025737 4278520585
0.42119992 0.036046647 0.50017208 4278520836
0.42124104 0.03656134 0.50004309 4278455043
0.42136842 0.037040971 0.49995777 4278521090
0.42140788 0.037553377 0.49982873 4278718215
0.42153391 0.038031124 0.4997434 4278520585
0.42148408 0.038574412 0.49957064 4278782217
0.42160854 0.03905008 0.49948531 4278782217
0.42164451 0.039557658 0.49935627 4278848010
0.4216795 0.040064 0.4992272 4278586380
0.42180184 0.040536739 0.49914184 4278586631
0.42183518 0.041040778 0.49901277 4278782217
0.42186761 0.041543551 0.49888369 4278717198
0.42198777 0.04201337 0.49879834 4278848263
0.42201853 0.042513859 0.49866924 4278914056
0.42213732 0.042981781 0.49858388 4278716677
0.42225552 0.043448869 0.4984985 4278520838
0.42228377 0.043946013 0.4983694 4278520838
0.42240059 0.044411227 0.49828401 4278717445
0.42251682 0.044875596 0.49819863 4278651654
0.4226324 0.045339137 0.49811321 4278717447
0.42274737 0.045801848 0.49802783 4278651652
0.42286175 0.046263713 0.49794242 4278848256
0.42297551 0.046724744 0.49785703 4278848006
0.42299828 0.047214355 0.49772787 4278651652
0.42311066 0.047673505 0.49764246 4278717445
0.42322242 0.048131816 0.49755704 4278651652
0.42333359 0.048589289 0.49747163 4278586113
